ply
format ascii 1.0
element vertex 2992
property float32 x
property float32 y
property float32 z
end_header
9.16 -1.35 2.18
9.93 -1.26 2.35
9.95 -1.06 2.35
9.28 -0.80 2.19
9.29 -0.61 2.19
9.30 -0.42 2.19
9.30 -0.24 2.19
9.30 -0.05 2.19
9.30 0.14 2.19
9.30 0.32 2.19
9.29 0.51 2.19
9.28 0.70 2.19
9.27 0.88 2.19
9.25 1.07 2.19
9.91 1.35 2.36
9.89 1.55 2.36
9.86 1.75 2.36
9.83 1.95 2.36
9.80 2.14 2.37
9.77 2.34 2.37
9.73 2.54 2.37
9.69 2.74 2.38
9.64 2.94 2.38
9.60 3.14 2.38
9.55 3.33 2.39
9.49 3.53 2.39
9.44 3.73 2.40
9.38 3.92 2.40
9.32 4.12 2.41
9.24 4.31 2.41
9.15 4.49 2.41
9.05 4.67 2.41
8.96 4.85 2.41
8.86 5.03 2.41
8.75 5.21 2.41
8.64 5.38 2.41
8.53 5.55 2.41
8.42 5.72 2.41
8.05 5.71 2.33
7.76 5.75 2.28
7.40 5.71 2.21
7.13 5.73 2.16
6.86 5.75 2.12
5.68 4.96 1.78
5.54 5.04 1.77
5.44 5.14 1.77
5.44 5.35 1.81
7.10 7.28 2.41
6.95 7.42 2.41
6.80 7.56 2.41
6.65 7.69 2.41
6.49 7.82 2.41
6.33 7.95 2.41
6.13 8.02 2.39
5.97 8.14 2.39
5.80 8.26 2.39
5.64 8.38 2.39
5.47 8.49 2.39
5.30 8.59 2.39
5.12 8.70 2.39
4.95 8.80 2.39
4.77 8.90 2.39
4.59 8.99 2.39
4.41 9.08 2.39
4.22 9.17 2.39
4.04 9.25 2.39
3.85 9.33 2.39
3.66 9.40 2.39
3.47 9.47 2.39
3.28 9.54 2.39
3.09 9.61 2.39
2.90 9.67 2.39
2.53 9.11 2.24
2.51 9.77 2.39
2.31 9.82 2.39
2.20 10.29 2.49
2.00 10.33 2.49
1.79 10.37 2.49
1.58 10.41 2.49
1.37 10.44 2.49
1.16 10.46 2.49
0.95 10.48 2.49
0.74 10.50 2.49
0.53 10.51 2.49
0.32 10.52 2.49
0.10 10.53 2.49
-0.11 10.53 2.49
-0.32 10.52 2.49
-0.53 10.52 2.49
-0.74 10.50 2.49
-0.95 10.49 2.49
-1.16 10.47 2.49
-1.37 10.44 2.49
-1.58 10.41 2.49
-1.79 10.38 2.49
-2.00 10.34 2.49
-2.21 10.30 2.49
-2.41 10.25 2.49
-2.62 10.20 2.49
-2.82 10.15 2.49
-3.03 10.09 2.49
-3.23 10.03 2.49
-3.43 9.96 2.49
-3.63 9.89 2.49
-3.83 9.82 2.49
-4.02 9.74 2.49
-4.22 9.66 2.49
-4.41 9.58 2.49
-4.60 9.49 2.49
-4.79 9.39 2.49
-4.98 9.30 2.49
-5.17 9.19 2.49
-5.35 9.09 2.49
-5.54 8.98 2.49
-5.72 8.87 2.49
-5.81 8.63 2.46
-5.82 8.29 2.39
-5.98 8.16 2.39
-6.15 8.04 2.39
-6.17 7.75 2.34
-6.17 7.44 2.28
-6.29 7.27 2.27
-6.66 7.40 2.35
-6.76 7.21 2.33
-6.76 6.93 2.29
-6.85 6.74 2.27
-7.36 6.96 2.39
-7.50 6.81 2.39
-7.64 6.66 2.39
-7.77 6.51 2.39
-7.90 6.35 2.39
-8.03 6.19 2.39
-8.15 6.03 2.39
-8.27 5.87 2.39
-8.39 5.70 2.39
-8.50 5.53 2.39
-8.61 5.36 2.39
-8.72 5.19 2.39
-8.83 5.01 2.39
-8.93 4.83 2.39
-9.02 4.66 2.39
-9.12 4.47 2.39
-9.21 4.29 2.39
-9.29 4.11 2.39
-9.37 3.92 2.39
-9.45 3.73 2.39
-9.53 3.54 2.39
-9.60 3.35 2.39
-9.66 3.16 2.39
-9.73 2.96 2.39
-9.79 2.77 2.39
-9.84 2.57 2.39
-10.91 2.62 2.64
-9.86 2.16 2.37
-11.05 2.19 2.65
-11.21 1.98 2.67
-11.36 1.78 2.70
-11.51 1.56 2.73
-11.65 1.35 2.75
-11.78 1.12 2.78
-11.78 0.88 2.77
-11.76 0.64 2.76
-11.74 0.41 2.76
-11.68 0.17 2.74
-11.61 -0.06 2.72
-11.53 -0.29 2.71
-11.44 -0.52 2.69
-11.34 -0.75 2.67
-11.26 -0.97 2.65
-11.17 -1.19 2.63
-11.03 -1.40 2.60
-10.99 -1.61 2.60
-10.94 -1.83 2.60
-10.90 -2.05 2.60
-10.85 -2.27 2.60
-10.80 -2.49 2.59
-9.88 -2.48 2.38
-9.85 -2.69 2.39
-9.80 -2.89 2.39
-9.74 -3.08 2.39
-9.68 -3.28 2.39
-9.61 -3.47 2.39
-9.54 -3.66 2.39
-9.47 -3.86 2.39
-9.39 -4.05 2.39
-9.31 -4.23 2.39
-9.22 -4.42 2.39
-9.13 -4.61 2.39
-4.51 -2.39 1.19
-4.30 -2.39 1.15
-4.11 -2.39 1.11
-3.92 -2.39 1.07
-3.75 -2.39 1.04
-3.66 -2.44 1.03
-3.61 -2.51 1.03
-3.56 -2.59 1.03
-3.51 -2.66 1.03
-3.46 -2.73 1.03
-3.41 -2.80 1.03
-3.35 -2.87 1.03
-3.30 -2.94 1.03
-3.24 -3.01 1.03
-3.18 -3.07 1.03
-3.12 -3.14 1.03
-3.06 -3.20 1.03
-2.99 -3.26 1.03
-2.93 -3.32 1.03
-2.86 -3.38 1.03
-2.80 -3.44 1.03
-2.73 -3.50 1.04
-2.67 -3.57 1.04
-2.67 -3.73 1.07
-2.67 -3.89 1.10
-2.67 -4.06 1.13
-3.14 -4.99 1.38
-3.04 -5.06 1.38
-2.94 -5.12 1.38
-2.84 -5.18 1.38
-2.74 -5.24 1.38
-2.67 -5.38 1.40
-4.57 -9.67 2.49
-4.38 -9.76 2.49
-4.18 -9.85 2.49
-3.98 -9.93 2.49
-3.78 -10.01 2.49
-3.58 -10.08 2.49
-3.38 -10.15 2.49
-3.17 -10.22 2.49
-2.97 -10.28 2.49
-2.76 -10.34 2.49
-2.55 -10.39 2.49
-2.34 -10.44 2.49
-2.13 -10.49 2.49
-1.92 -10.53 2.49
-1.71 -10.56 2.49
-1.50 -10.60 2.49
-1.29 -10.62 2.49
-1.07 -10.65 2.49
-0.86 -10.67 2.49
-0.64 -10.68 2.49
-0.43 -10.69 2.49
-0.22 -10.70 2.49
-0.00 -9.71 2.49
0.19 -9.70 2.49
0.39 -9.70 2.49
0.58 -9.69 2.49
0.78 -9.67 2.49
0.97 -9.65 2.49
1.16 -9.63 2.49
1.36 -9.61 2.49
1.55 -9.58 2.49
1.74 -9.54 2.49
1.93 -9.51 2.49
2.12 -9.46 2.49
2.22 -9.03 2.39
2.40 -8.98 2.39
2.58 -8.93 2.39
2.75 -8.88 2.39
2.93 -8.82 2.39
3.11 -8.76 2.39
3.28 -8.69 2.39
3.46 -8.63 2.39
3.63 -8.55 2.39
3.80 -8.48 2.39
3.97 -8.40 2.39
4.14 -8.32 2.39
4.30 -8.23 2.39
4.47 -8.14 2.39
4.63 -8.05 2.39
4.79 -7.96 2.39
4.95 -7.86 2.39
5.10 -7.76 2.39
5.26 -7.65 2.39
5.41 -7.54 2.39
5.56 -7.43 2.39
5.70 -7.32 2.39
5.85 -7.20 2.39
5.99 -7.08 2.39
6.13 -6.96 2.39
6.32 -6.89 2.41
6.46 -6.77 2.41
6.60 -6.63 2.41
6.73 -6.50 2.41
6.86 -6.37 2.41
6.98 -6.23 2.41
7.11 -6.09 2.41
7.23 -5.94 2.41
6.25 -4.93 2.05
6.32 -4.78 2.04
6.47 -4.69 2.06
6.15 -4.28 1.93
6.23 -4.15 1.93
6.51 -4.15 2.00
6.81 -4.15 2.06
7.13 -4.15 2.13
7.48 -4.16 2.21
7.60 -4.03 2.22
7.66 -3.87 2.22
7.72 -3.70 2.21
7.78 -3.54 2.21
7.83 -3.38 2.20
7.88 -3.21 2.20
7.93 -3.05 2.20
7.97 -2.88 2.19
8.02 -2.72 2.19
8.06 -2.55 2.19
8.09 -2.38 2.18
8.13 -2.22 2.18
8.16 -2.05 2.18
8.19 -1.89 2.18
8.21 -1.72 2.17
8.24 -1.55 2.17
8.31 -1.39 2.18
9.19 -1.35 2.41
9.22 -1.17 2.41
9.24 -0.98 2.41
8.56 -0.74 2.23
8.57 -0.56 2.23
8.58 -0.39 2.23
8.58 -0.22 2.23
8.59 -0.05 2.23
8.58 0.13 2.23
8.58 0.30 2.23
8.57 0.47 2.23
8.56 0.64 2.23
8.55 0.81 2.23
8.53 0.99 2.23
8.52 1.16 2.23
9.16 1.43 2.41
9.13 1.62 2.41
9.09 1.80 2.41
9.05 1.98 2.41
9.01 2.16 2.41
8.96 2.34 2.41
8.91 2.52 2.41
8.86 2.70 2.41
8.80 2.88 2.41
8.74 3.05 2.41
8.68 3.23 2.41
8.61 3.40 2.41
8.54 3.57 2.41
8.47 3.74 2.41
8.39 3.91 2.41
8.31 4.08 2.41
8.22 4.24 2.41
8.13 4.41 2.41
8.04 4.57 2.41
7.95 4.73 2.41
7.85 4.89 2.41
7.75 5.04 2.41
7.65 5.20 2.41
7.54 5.35 2.41
7.43 5.50 2.41
7.32 5.65 2.41
7.13 5.73 2.38
6.86 5.75 2.33
5.70 4.98 1.97
5.55 5.04 1.95
5.45 5.15 1.95
5.45 5.36 1.99
6.45 6.61 2.41
6.32 6.74 2.41
6.14 6.82 2.39
6.00 6.94 2.39
5.86 7.06 2.39
5.71 7.17 2.39
5.57 7.29 2.39
5.42 7.40 2.39
5.27 7.50 2.39
5.12 7.61 2.39
4.97 7.71 2.39
4.81 7.81 2.39
4.65 7.90 2.39
4.49 7.99 2.39
4.33 8.08 2.39
4.17 8.17 2.39
4.00 8.25 2.39
3.84 8.33 2.39
3.67 8.40 2.39
3.50 8.47 2.39
3.33 8.54 2.39
3.15 8.61 2.39
2.98 8.67 2.39
2.81 8.73 2.39
2.63 8.78 2.39
2.45 8.83 2.39
2.28 8.88 2.39
2.19 9.31 2.49
2.00 9.35 2.49
1.81 9.39 2.49
1.62 9.42 2.49
1.43 9.45 2.49
1.24 9.48 2.49
1.05 9.50 2.49
0.86 9.52 2.49
0.67 9.54 2.49
0.48 9.55 2.49
0.29 9.56 2.49
0.10 9.56 2.49
-0.10 9.56 2.49
-0.29 9.56 2.49
-0.48 9.55 2.49
-0.67 9.54 2.49
-0.86 9.53 2.49
-1.06 9.51 2.49
-1.25 9.48 2.49
-1.44 9.46 2.49
-1.63 9.43 2.49
-1.82 9.39 2.49
-2.00 9.36 2.49
-2.19 9.31 2.49
-2.38 9.27 2.49
-2.56 9.22 2.49
-2.75 9.17 2.49
-2.93 9.11 2.49
-3.11 9.05 2.49
-3.30 8.99 2.49
-3.48 8.92 2.49
-3.66 8.85 2.49
-3.83 8.77 2.49
-4.01 8.70 2.49
-4.18 8.61 2.49
-4.35 8.53 2.49
-4.53 8.44 2.49
-4.69 8.35 2.49
-4.86 8.25 2.49
-5.03 8.16 2.49
-5.19 8.05 2.49
-5.35 7.95 2.49
-5.51 7.84 2.49
-5.67 7.73 2.49
-5.82 7.61 2.49
-5.82 7.30 2.43
-5.87 7.07 2.39
-6.01 6.95 2.39
-6.15 6.83 2.39
-6.18 6.59 2.35
-6.36 6.52 2.37
-6.56 6.45 2.39
-6.68 6.32 2.39
-6.81 6.19 2.39
-6.93 6.05 2.39
-7.06 5.91 2.39
-7.17 5.77 2.39
-7.29 5.62 2.39
-7.40 5.48 2.39
-7.51 5.33 2.39
-7.62 5.18 2.39
-7.72 5.02 2.39
-7.82 4.87 2.39
-7.92 4.71 2.39
-8.01 4.55 2.39
-8.10 4.39 2.39
-8.19 4.23 2.39
-8.28 4.06 2.39
-8.36 3.90 2.39
-8.43 3.73 2.39
-8.51 3.56 2.39
-8.58 3.39 2.39
-8.65 3.21 2.39
-8.71 3.04 2.39
-8.77 2.87 2.39
-8.83 2.69 2.39
-8.88 2.51 2.39
-8.93 2.33 2.39
-8.98 2.15 2.39
-9.02 1.97 2.39
-9.06 1.79 2.39
-9.10 1.61 2.39
-9.13 1.43 2.39
-9.16 1.24 2.39
-9.18 1.06 2.39
-9.20 0.88 2.39
-9.22 0.69 2.39
-9.23 0.51 2.39
-9.24 0.32 2.39
-9.25 0.13 2.39
-9.25 -0.05 2.39
-9.25 -0.24 2.39
-9.24 -0.42 2.39
-9.23 -0.61 2.39
-9.22 -0.79 2.39
-9.21 -0.98 2.39
-9.19 -1.16 2.39
-9.16 -1.35 2.39
-9.13 -1.53 2.39
-9.10 -1.71 2.39
-9.07 -1.90 2.39
-9.03 -2.08 2.39
-8.99 -2.26 2.39
-8.94 -2.44 2.39
-8.89 -2.62 2.39
-8.84 -2.80 2.39
-8.78 -2.97 2.39
-8.72 -3.15 2.39
-8.66 -3.33 2.39
-8.59 -3.50 2.39
-8.52 -3.67 2.39
-8.44 -3.84 2.39
-8.37 -4.01 2.39
-8.29 -4.18 2.39
-4.51 -2.39 1.31
-4.30 -2.39 1.27
-4.10 -2.39 1.22
-3.92 -2.39 1.18
-3.75 -2.39 1.15
-3.59 -2.39 1.11
-3.44 -2.39 1.08
-3.30 -2.39 1.05
-3.18 -2.41 1.03
-3.13 -2.47 1.03
-3.09 -2.54 1.03
-3.04 -2.60 1.03
-2.98 -2.66 1.03
-2.93 -2.72 1.03
-2.88 -2.78 1.03
-2.82 -2.84 1.03
-2.77 -2.90 1.03
-2.71 -2.95 1.03
-2.67 -3.03 1.04
-2.67 -3.15 1.06
-2.67 -3.29 1.09
-2.67 -3.43 1.12
-2.67 -3.57 1.15
-2.67 -3.73 1.18
-2.67 -3.89 1.21
-2.67 -4.06 1.25
-2.84 -4.52 1.37
-2.75 -4.58 1.37
-2.67 -4.65 1.38
-2.67 -4.87 1.43
-2.67 -5.12 1.48
-2.67 -5.38 1.54
-4.15 -8.77 2.49
-3.97 -8.86 2.49
-3.79 -8.93 2.49
-3.61 -9.01 2.49
-3.43 -9.08 2.49
-3.25 -9.15 2.49
-3.06 -9.21 2.49
-2.88 -9.27 2.49
-2.69 -9.33 2.49
-2.50 -9.38 2.49
-2.32 -9.43 2.49
-2.13 -9.47 2.49
-1.94 -9.51 2.49
-1.74 -9.55 2.49
-1.55 -9.58 2.49
-1.36 -9.61 2.49
-1.17 -9.64 2.49
-0.97 -9.66 2.49
-0.78 -9.67 2.49
-0.58 -9.69 2.49
-0.39 -9.70 2.49
-0.20 -9.70 2.49
-0.00 -8.87 2.49
0.18 -8.87 2.49
0.35 -8.86 2.49
0.53 -8.85 2.49
0.71 -8.84 2.49
0.89 -8.83 2.49
1.06 -8.81 2.49
1.24 -8.78 2.49
1.42 -8.75 2.49
1.59 -8.72 2.49
1.77 -8.69 2.49
1.94 -8.65 2.49
2.11 -8.61 2.49
2.19 -8.22 2.39
2.36 -8.17 2.39
2.52 -8.12 2.39
2.68 -8.06 2.39
2.84 -8.01 2.39
3.00 -7.95 2.39
3.16 -7.89 2.39
3.32 -7.82 2.39
3.47 -7.75 2.39
3.63 -7.68 2.39
3.78 -7.60 2.39
3.93 -7.53 2.39
4.08 -7.45 2.39
4.23 -7.36 2.39
4.38 -7.27 2.39
4.52 -7.18 2.39
4.66 -7.09 2.39
4.80 -7.00 2.39
4.94 -6.90 2.39
5.08 -6.80 2.39
5.22 -6.69 2.39
5.35 -6.58 2.39
5.48 -6.48 2.39
5.61 -6.36 2.39
5.73 -6.25 2.39
5.86 -6.13 2.39
5.98 -6.01 2.39
6.10 -5.89 2.39
6.26 -5.82 2.41
6.38 -5.69 2.41
6.49 -5.56 2.41
6.60 -5.43 2.41
6.26 -4.94 2.25
6.32 -4.79 2.24
6.48 -4.70 2.26
6.15 -4.28 2.12
6.23 -4.15 2.11
6.51 -4.15 2.18
6.81 -4.15 2.25
6.94 -4.05 2.27
7.01 -3.90 2.27
7.07 -3.75 2.26
7.13 -3.60 2.26
7.18 -3.44 2.25
7.24 -3.29 2.25
7.29 -3.14 2.24
7.33 -2.99 2.24
7.38 -2.84 2.24
7.42 -2.68 2.23
7.46 -2.53 2.23
7.50 -2.38 2.23
7.54 -2.22 2.22
7.57 -2.07 2.22
7.60 -1.91 2.22
7.63 -1.76 2.22
7.65 -1.60 2.21
7.67 -1.45 2.21
8.38 -1.41 2.41
8.41 -1.24 2.41
8.43 -1.07 2.41
8.45 -0.90 2.41
7.96 -0.69 2.26
7.97 -0.53 2.26
7.98 -0.36 2.26
7.98 -0.20 2.26
7.99 -0.04 2.26
7.98 0.12 2.26
7.98 0.28 2.26
7.98 0.44 2.27
7.97 0.60 2.27
7.96 0.76 2.27
7.94 0.92 2.27
7.93 1.08 2.27
7.91 1.24 2.27
8.35 1.48 2.41
8.32 1.64 2.41
8.28 1.81 2.41
8.24 1.98 2.41
8.20 2.14 2.41
8.15 2.31 2.41
8.11 2.47 2.41
8.05 2.63 2.41
8.00 2.79 2.41
7.94 2.95 2.41
7.88 3.11 2.41
7.81 3.27 2.41
7.74 3.42 2.41
7.67 3.58 2.41
7.60 3.73 2.41
7.52 3.88 2.41
7.44 4.03 2.41
7.36 4.18 2.41
7.27 4.33 2.41
7.18 4.47 2.41
7.09 4.61 2.41
7.00 4.75 2.41
6.90 4.89 2.41
6.80 5.03 2.41
6.70 5.17 2.41
6.59 5.30 2.41
6.48 5.43 2.41
5.75 5.01 2.17
5.56 5.05 2.14
5.46 5.16 2.14
5.98 5.89 2.39
5.86 6.01 2.39
5.74 6.13 2.39
5.62 6.24 2.39
5.49 6.35 2.39
5.36 6.46 2.39
5.23 6.56 2.39
5.10 6.67 2.39
4.96 6.77 2.39
4.82 6.87 2.39
4.68 6.96 2.39
4.54 7.05 2.39
4.40 7.14 2.39
4.26 7.23 2.39
4.11 7.31 2.39
3.96 7.39 2.39
3.81 7.47 2.39
3.66 7.55 2.39
3.51 7.62 2.39
3.36 7.69 2.39
3.20 7.75 2.39
3.04 7.82 2.39
2.89 7.88 2.39
2.73 7.93 2.39
2.57 7.98 2.39
2.41 8.03 2.39
2.25 8.08 2.39
2.17 8.48 2.49
2.00 8.52 2.49
1.83 8.56 2.49
1.66 8.59 2.49
1.49 8.62 2.49
1.31 8.65 2.49
1.14 8.68 2.49
0.96 8.70 2.49
0.79 8.71 2.49
0.61 8.73 2.49
0.44 8.74 2.49
0.26 8.75 2.49
0.09 8.75 2.49
-0.09 8.75 2.49
-0.26 8.75 2.49
-0.44 8.74 2.49
-0.62 8.73 2.49
-0.79 8.72 2.49
-0.97 8.70 2.49
-1.14 8.68 2.49
-1.31 8.65 2.49
-1.49 8.63 2.49
-1.66 8.60 2.49
-1.83 8.56 2.49
-2.01 8.52 2.49
-2.18 8.48 2.49
-2.35 8.44 2.49
-2.52 8.39 2.49
-2.68 8.34 2.49
-2.85 8.28 2.49
-3.02 8.22 2.49
-3.18 8.16 2.49
-3.34 8.10 2.49
-3.51 8.03 2.49
-3.67 7.96 2.49
-3.83 7.88 2.49
-3.98 7.80 2.49
-4.14 7.72 2.49
-4.30 7.64 2.49
-4.45 7.55 2.49
-4.60 7.46 2.49
-4.75 7.37 2.49
-4.90 7.27 2.49
-5.04 7.17 2.49
-5.19 7.07 2.49
-5.33 6.97 2.49
-5.47 6.86 2.49
-5.60 6.75 2.49
-5.74 6.64 2.49
-5.82 6.46 2.47
-5.82 6.21 2.42
-5.88 6.02 2.39
-6.01 5.92 2.40
-6.12 5.78 2.39
-6.23 5.66 2.39
-6.34 5.53 2.39
-6.46 5.41 2.39
-6.56 5.28 2.39
-6.67 5.14 2.39
-6.77 5.01 2.39
-6.87 4.87 2.39
-6.97 4.73 2.39
-7.06 4.59 2.39
-7.16 4.45 2.39
-7.24 4.31 2.39
-7.33 4.16 2.39
-7.41 4.01 2.39
-7.49 3.87 2.39
-7.57 3.71 2.39
-7.64 3.56 2.39
-7.72 3.41 2.39
-7.78 3.25 2.39
-7.85 3.10 2.39
-7.91 2.94 2.39
-7.97 2.78 2.39
-8.02 2.62 2.39
-8.08 2.46 2.39
-8.12 2.30 2.39
-8.17 2.13 2.39
-8.21 1.97 2.39
-8.25 1.80 2.39
-8.29 1.64 2.39
-8.32 1.47 2.39
-8.35 1.31 2.39
-8.37 1.14 2.39
-8.40 0.97 2.39
-8.42 0.80 2.39
-8.43 0.63 2.39
-8.44 0.46 2.39
-8.45 0.29 2.39
-8.46 0.12 2.39
-8.46 -0.05 2.39
-8.46 -0.22 2.39
-8.45 -0.39 2.39
-8.44 -0.56 2.39
-8.43 -0.73 2.39
-8.42 -0.89 2.39
-8.40 -1.06 2.39
-8.38 -1.23 2.39
-8.35 -1.40 2.39
-8.32 -1.57 2.39
-8.29 -1.73 2.39
-8.26 -1.90 2.39
-8.22 -2.07 2.39
-8.18 -2.23 2.39
-8.13 -2.40 2.39
-8.08 -2.56 2.39
-8.03 -2.72 2.39
-7.97 -2.88 2.39
-7.92 -3.04 2.39
-7.85 -3.20 2.39
-7.79 -3.36 2.39
-7.72 -3.51 2.39
-7.65 -3.67 2.39
-7.58 -3.82 2.39
-4.50 -2.39 1.44
-4.30 -2.39 1.38
-4.10 -2.39 1.34
-3.92 -2.39 1.29
-3.75 -2.39 1.25
-3.59 -2.39 1.22
-3.44 -2.39 1.18
-3.30 -2.39 1.15
-3.16 -2.39 1.12
-3.04 -2.39 1.09
-2.91 -2.39 1.06
-2.80 -2.40 1.04
-2.72 -2.43 1.03
-2.68 -2.48 1.03
-2.67 -2.58 1.04
-2.67 -2.68 1.06
-2.67 -2.79 1.09
-2.67 -2.91 1.11
-2.67 -3.03 1.14
-2.67 -3.15 1.16
-2.67 -3.29 1.19
-2.67 -3.43 1.22
-2.67 -3.57 1.25
-2.67 -3.73 1.29
-2.67 -3.89 1.33
-2.67 -4.06 1.37
-2.67 -4.24 1.41
-2.67 -4.44 1.46
-2.67 -4.65 1.51
-2.67 -4.87 1.56
-2.67 -5.12 1.62
-2.67 -5.38 1.69
-3.79 -8.02 2.49
-3.63 -8.10 2.49
-3.47 -8.17 2.49
-3.30 -8.23 2.49
-3.14 -8.30 2.49
-2.97 -8.36 2.49
-2.80 -8.42 2.49
-2.63 -8.47 2.49
-2.46 -8.52 2.49
-2.29 -8.57 2.49
-2.12 -8.62 2.49
-1.94 -8.66 2.49
-1.77 -8.69 2.49
-1.59 -8.73 2.49
-1.42 -8.76 2.49
-1.24 -8.79 2.49
-1.07 -8.81 2.49
-0.89 -8.83 2.49
-0.71 -8.84 2.49
-0.53 -8.86 2.49
-0.36 -8.86 2.49
-0.18 -8.87 2.49
-0.00 -8.16 2.49
0.16 -8.16 2.49
0.33 -8.15 2.49
0.49 -8.15 2.49
0.65 -8.13 2.49
0.82 -8.12 2.49
0.98 -8.10 2.49
1.14 -8.08 2.49
1.30 -8.05 2.49
1.46 -8.03 2.49
1.62 -7.99 2.49
1.78 -7.96 2.49
1.94 -7.92 2.49
2.10 -7.88 2.49
2.19 -7.59 2.42
2.32 -7.47 2.39
2.47 -7.42 2.39
2.61 -7.37 2.39
2.76 -7.31 2.39
2.91 -7.26 2.39
3.05 -7.19 2.39
3.20 -7.13 2.39
3.34 -7.07 2.39
3.48 -7.00 2.39
3.62 -6.92 2.39
3.76 -6.85 2.39
3.89 -6.77 2.39
4.03 -6.69 2.39
4.16 -6.61 2.39
4.29 -6.52 2.39
4.42 -6.44 2.39
4.55 -6.35 2.39
4.67 -6.25 2.39
4.80 -6.16 2.39
4.92 -6.06 2.39
5.04 -5.96 2.39
5.16 -5.86 2.39
5.27 -5.75 2.39
5.39 -5.64 2.39
5.50 -5.53 2.39
5.61 -5.42 2.39
5.72 -5.31 2.39
5.82 -5.19 2.39
5.92 -5.07 2.39
6.02 -4.95 2.39
6.12 -4.83 2.39
6.26 -4.74 2.41
6.36 -4.61 2.41
6.15 -4.28 2.30
6.23 -4.15 2.30
6.41 -4.09 2.33
6.42 -3.91 2.31
6.48 -3.78 2.30
6.54 -3.64 2.30
6.60 -3.50 2.29
6.66 -3.36 2.29
6.71 -3.22 2.29
6.76 -3.08 2.28
6.81 -2.93 2.28
6.85 -2.79 2.27
6.90 -2.65 2.27
6.94 -2.51 2.27
6.98 -2.36 2.26
7.01 -2.22 2.26
7.04 -2.08 2.26
7.08 -1.93 2.26
7.10 -1.79 2.25
7.13 -1.64 2.25
7.15 -1.50 2.25
7.69 -1.45 2.41
7.72 -1.29 2.41
7.74 -1.14 2.41
7.76 -0.98 2.41
7.44 -0.79 2.30
7.45 -0.64 2.30
7.46 -0.49 2.30
7.47 -0.34 2.30
7.47 -0.19 2.30
7.47 -0.04 2.30
7.47 0.11 2.30
7.47 0.26 2.30
7.46 0.41 2.30
7.45 0.56 2.30
7.44 0.71 2.30
7.43 0.86 2.31
7.41 1.01 2.31
7.40 1.16 2.31
7.69 1.36 2.41
7.66 1.51 2.41
7.62 1.67 2.41
7.59 1.82 2.41
7.55 1.97 2.41
7.51 2.12 2.41
7.46 2.27 2.41
7.41 2.42 2.41
7.36 2.57 2.41
7.31 2.72 2.41
7.25 2.86 2.41
7.19 3.01 2.41
7.13 3.15 2.41
7.06 3.29 2.41
7.00 3.43 2.41
6.93 3.57 2.41
6.85 3.71 2.41
6.78 3.85 2.41
6.70 3.98 2.41
6.61 4.12 2.41
6.53 4.25 2.41
6.44 4.38 2.41
6.35 4.51 2.41
6.22 4.60 2.39
6.12 4.72 2.39
6.03 4.85 2.39
5.93 4.97 2.39
5.79 5.05 2.37
5.57 5.06 2.32
5.47 5.17 2.33
5.51 5.42 2.39
5.40 5.53 2.39
5.29 5.64 2.39
5.17 5.74 2.39
5.05 5.85 2.39
4.94 5.95 2.39
4.82 6.04 2.39
4.69 6.14 2.39
4.57 6.23 2.39
4.44 6.32 2.39
4.31 6.41 2.39
4.18 6.49 2.39
4.05 6.58 2.39
3.92 6.66 2.39
3.79 6.73 2.39
3.65 6.81 2.39
3.51 6.88 2.39
3.37 6.95 2.39
3.23 7.02 2.39
3.09 7.08 2.39
2.95 7.14 2.39
2.80 7.20 2.39
2.66 7.25 2.39
2.51 7.30 2.39
2.36 7.35 2.39
2.24 7.47 2.41
2.16 7.76 2.49
2.00 7.80 2.49
1.84 7.84 2.49
1.69 7.88 2.49
1.53 7.91 2.49
1.37 7.94 2.49
1.21 7.97 2.49
1.05 7.99 2.49
0.89 8.01 2.49
0.73 8.02 2.49
0.56 8.04 2.49
0.40 8.05 2.49
0.24 8.05 2.49
0.08 8.06 2.49
-0.08 8.06 2.49
-0.24 8.05 2.49
-0.41 8.05 2.49
-0.57 8.04 2.49
-0.73 8.03 2.49
-0.89 8.01 2.49
-1.05 7.99 2.49
-1.21 7.97 2.49
-1.37 7.94 2.49
-1.53 7.91 2.49
-1.69 7.88 2.49
-1.85 7.85 2.49
-2.00 7.81 2.49
-2.16 7.77 2.49
-2.32 7.72 2.49
-2.47 7.68 2.49
-2.62 7.63 2.49
-2.78 7.57 2.49
-2.93 7.51 2.49
-3.08 7.45 2.49
-3.23 7.39 2.49
-3.38 7.33 2.49
-3.52 7.26 2.49
-3.67 7.19 2.49
-3.81 7.11 2.49
-3.96 7.03 2.49
-4.10 6.95 2.49
-4.24 6.87 2.49
-4.37 6.78 2.49
-4.51 6.70 2.49
-4.64 6.61 2.49
-4.78 6.51 2.49
-4.91 6.41 2.49
-5.03 6.32 2.49
-5.16 6.21 2.49
-5.28 6.11 2.49
-5.41 6.00 2.49
-5.53 5.89 2.49
-5.64 5.78 2.49
-5.76 5.67 2.49
-5.82 5.50 2.47
-5.83 5.29 2.43
-5.84 5.09 2.39
-5.94 4.98 2.39
-6.04 4.86 2.39
-6.14 4.73 2.39
-6.23 4.61 2.39
-6.33 4.49 2.39
-6.42 4.36 2.39
-6.50 4.23 2.39
-6.59 4.10 2.39
-6.67 3.97 2.39
-6.75 3.83 2.39
-6.82 3.70 2.39
-6.55 3.38 2.27
-6.62 3.25 2.27
-6.77 3.16 2.30
-6.77 2.99 2.28
-6.80 2.84 2.27
-6.86 2.71 2.27
-6.91 2.57 2.27
-7.33 2.56 2.39
-7.39 2.41 2.39
-7.43 2.26 2.39
-7.48 2.11 2.39
-7.52 1.96 2.39
-7.56 1.81 2.39
-7.59 1.66 2.39
-7.63 1.51 2.39
-7.66 1.35 2.39
-7.68 1.20 2.39
-7.71 1.05 2.39
-7.73 0.89 2.39
-7.75 0.74 2.39
-7.76 0.58 2.39
-7.77 0.43 2.39
-7.78 0.27 2.39
-7.78 0.11 2.39
-7.79 -0.04 2.39
-7.78 -0.20 2.39
-7.78 -0.36 2.39
-7.77 -0.51 2.39
-7.76 -0.67 2.39
-7.75 -0.82 2.39
-7.73 -0.98 2.39
-7.71 -1.13 2.39
-7.69 -1.29 2.39
-7.66 -1.44 2.39
-7.63 -1.60 2.39
-7.60 -1.75 2.39
-7.56 -1.90 2.39
-7.52 -2.05 2.39
-7.48 -2.20 2.39
-7.44 -2.35 2.39
-7.39 -2.50 2.39
-7.34 -2.65 2.39
-7.28 -2.80 2.39
-7.23 -2.94 2.39
-4.59 -1.98 1.53
-4.55 -2.07 1.53
-4.51 -2.16 1.53
-4.47 -2.25 1.53
-4.42 -2.34 1.53
-4.29 -2.39 1.50
-4.10 -2.39 1.45
-3.92 -2.39 1.41
-3.75 -2.39 1.36
-3.59 -2.39 1.32
-3.44 -2.39 1.28
-3.30 -2.39 1.25
-3.16 -2.39 1.21
-3.03 -2.39 1.18
-2.91 -2.39 1.15
-2.80 -2.39 1.13
-2.69 -2.40 1.10
-2.67 -2.48 1.11
-2.67 -2.58 1.13
-2.67 -2.68 1.16
-2.67 -2.79 1.18
-2.67 -2.91 1.21
-2.67 -3.03 1.23
-2.67 -3.15 1.26
-2.67 -3.29 1.29
-2.67 -3.43 1.33
-2.67 -3.57 1.36
-2.67 -3.73 1.40
-2.67 -3.89 1.44
-2.67 -4.06 1.49
-2.67 -4.24 1.53
-2.67 -4.44 1.58
-2.67 -4.65 1.64
-2.67 -4.87 1.70
-2.67 -5.12 1.76
-2.67 -5.38 1.84
-3.49 -7.38 2.49
-3.34 -7.45 2.49
-3.19 -7.51 2.49
-3.04 -7.58 2.49
-2.88 -7.64 2.49
-2.73 -7.69 2.49
-2.58 -7.75 2.49
-2.42 -7.80 2.49
-2.26 -7.84 2.49
-2.11 -7.89 2.49
-1.95 -7.93 2.49
-1.79 -7.96 2.49
-1.63 -8.00 2.49
-1.47 -8.03 2.49
-1.31 -8.06 2.49
-1.14 -8.08 2.49
-0.98 -8.10 2.49
-0.82 -8.12 2.49
-0.66 -8.14 2.49
-0.49 -8.15 2.49
-0.33 -8.16 2.49
-0.16 -8.16 2.49
-0.00 -7.55 2.49
0.15 -7.55 2.49
0.30 -7.54 2.49
0.45 -7.53 2.49
0.60 -7.52 2.49
0.75 -7.51 2.49
0.91 -7.49 2.49
1.06 -7.47 2.49
1.21 -7.45 2.49
1.35 -7.42 2.49
1.50 -7.39 2.49
1.65 -7.36 2.49
1.80 -7.33 2.49
1.94 -7.29 2.49
2.09 -7.25 2.49
2.19 -7.04 2.44
2.28 -6.86 2.39
2.42 -6.81 2.39
2.55 -6.76 2.39
2.69 -6.71 2.39
2.82 -6.66 2.39
2.96 -6.60 2.39
3.09 -6.54 2.39
3.22 -6.47 2.39
3.35 -6.41 2.39
3.47 -6.34 2.39
3.60 -6.27 2.39
3.72 -6.19 2.39
3.85 -6.11 2.39
3.97 -6.04 2.39
4.09 -5.95 2.39
4.21 -5.87 2.39
4.32 -5.78 2.39
4.44 -5.70 2.39
4.55 -5.61 2.39
4.66 -5.51 2.39
4.77 -5.42 2.39
4.88 -5.32 2.39
4.98 -5.22 2.39
5.09 -5.12 2.39
5.19 -5.01 2.39
5.29 -4.91 2.39
5.38 -4.80 2.39
5.48 -4.69 2.39
5.57 -4.58 2.39
5.66 -4.47 2.39
5.75 -4.35 2.39
5.84 -4.24 2.39
5.92 -4.12 2.39
6.00 -4.00 2.39
6.08 -3.88 2.39
6.15 -3.75 2.39
6.27 -3.65 2.41
6.34 -3.53 2.41
6.39 -3.39 2.40
6.38 -3.22 2.37
6.37 -3.06 2.35
6.36 -2.90 2.32
6.38 -2.75 2.31
6.43 -2.62 2.30
6.47 -2.49 2.30
6.51 -2.35 2.30
6.54 -2.22 2.29
6.58 -2.08 2.29
6.61 -1.95 2.29
6.64 -1.81 2.29
6.67 -1.68 2.28
6.69 -1.54 2.28
6.89 -1.44 2.34
7.11 -1.34 2.41
7.14 -1.20 2.41
7.16 -1.05 2.41
7.18 -0.91 2.41
6.98 -0.74 2.34
6.99 -0.60 2.33
7.00 -0.46 2.33
7.01 -0.32 2.33
7.01 -0.18 2.33
7.01 -0.04 2.33
7.01 0.10 2.33
7.01 0.24 2.33
7.00 0.38 2.34
7.00 0.52 2.34
6.99 0.66 2.34
6.97 0.80 2.34
6.96 0.94 2.34
6.94 1.08 2.34
6.92 1.22 2.34
7.09 1.40 2.41
7.06 1.54 2.41
7.02 1.68 2.41
6.99 1.82 2.41
6.95 1.96 2.41
6.91 2.10 2.41
6.86 2.24 2.41
6.81 2.38 2.41
6.77 2.51 2.41
6.71 2.65 2.41
6.66 2.78 2.41
6.60 2.92 2.41
6.54 3.05 2.41
6.48 3.18 2.41
6.41 3.31 2.41
6.34 3.43 2.41
6.23 3.54 2.39
6.16 3.66 2.39
6.08 3.78 2.39
6.00 3.90 2.39
5.92 4.02 2.39
5.84 4.14 2.39
5.76 4.26 2.39
5.67 4.37 2.39
5.58 4.49 2.39
5.49 4.60 2.39
5.39 4.70 2.39
5.30 4.81 2.39
5.20 4.92 2.39
5.10 5.02 2.39
5.00 5.12 2.39
4.89 5.22 2.39
4.79 5.32 2.39
4.68 5.41 2.39
4.57 5.50 2.39
4.46 5.59 2.39
4.34 5.68 2.39
4.23 5.77 2.39
4.11 5.85 2.39
3.99 5.93 2.39
3.87 6.01 2.39
3.75 6.09 2.39
3.63 6.16 2.39
3.50 6.23 2.39
3.38 6.30 2.39
3.25 6.37 2.39
3.12 6.43 2.39
2.99 6.49 2.39
2.86 6.55 2.39
2.73 6.61 2.39
2.60 6.66 2.39
2.46 6.71 2.39
2.33 6.76 2.39
2.23 6.93 2.44
2.14 7.14 2.49
2.00 7.19 2.49
1.85 7.22 2.49
1.71 7.26 2.49
1.56 7.29 2.49
1.41 7.32 2.49
1.27 7.35 2.49
1.12 7.37 2.49
0.97 7.39 2.49
0.82 7.41 2.49
0.67 7.43 2.49
0.52 7.44 2.49
0.37 7.45 2.49
0.22 7.46 2.49
0.07 7.46 2.49
-0.08 7.46 2.49
-0.23 7.46 2.49
-0.38 7.45 2.49
-0.52 7.44 2.49
-0.67 7.43 2.49
-0.82 7.41 2.49
-0.97 7.40 2.49
-1.12 7.38 2.49
-1.27 7.35 2.49
-1.42 7.33 2.49
-1.56 7.30 2.49
-1.71 7.26 2.49
-1.86 7.23 2.49
-2.00 7.19 2.49
-2.14 7.15 2.49
-2.29 7.10 2.49
-2.43 7.06 2.49
-2.57 7.01 2.49
-2.71 6.96 2.49
-2.85 6.90 2.49
-2.99 6.84 2.49
-3.13 6.78 2.49
-3.26 6.72 2.49
-3.40 6.65 2.49
-3.53 6.58 2.49
-3.66 6.51 2.49
-3.79 6.44 2.49
-3.92 6.36 2.49
-4.05 6.28 2.49
-4.17 6.20 2.49
-4.30 6.11 2.49
-4.42 6.03 2.49
-4.54 5.94 2.49
-4.66 5.85 2.49
-4.78 5.75 2.49
-4.89 5.65 2.49
-5.00 5.56 2.49
-5.12 5.45 2.49
-5.22 5.35 2.49
-5.33 5.25 2.49
-5.44 5.14 2.49
-5.54 5.03 2.49
-5.64 4.92 2.49
-5.74 4.80 2.49
-5.82 4.68 2.49
-5.83 4.49 2.45
-5.83 4.31 2.42
-5.85 4.15 2.39
-5.94 4.03 2.39
-6.02 3.91 2.39
-6.10 3.79 2.39
-6.17 3.67 2.39
-6.24 3.54 2.39
-6.19 3.35 2.34
-6.19 3.19 2.32
-6.19 3.04 2.29
-6.19 2.89 2.27
-6.24 2.76 2.27
-6.29 2.63 2.27
-6.58 2.59 2.35
-6.63 2.46 2.35
-6.68 2.33 2.35
-6.72 2.19 2.35
-6.76 2.06 2.35
-6.78 1.92 2.34
-6.78 1.77 2.33
-6.78 1.62 2.32
-6.78 1.48 2.31
-6.78 1.34 2.30
-6.78 1.20 2.29
-6.78 1.06 2.28
-6.79 0.92 2.28
-6.79 0.78 2.27
-6.80 0.65 2.27
-6.81 0.51 2.27
-6.82 0.37 2.27
-6.83 0.24 2.27
-6.84 0.10 2.27
-6.84 -0.04 2.27
-6.84 -0.18 2.27
-6.83 -0.31 2.27
-6.82 -0.45 2.27
-6.81 -0.59 2.27
-6.80 -0.72 2.27
-4.56 -0.58 1.52
-4.55 -0.67 1.53
-4.54 -0.76 1.53
-4.52 -0.85 1.53
-4.51 -0.94 1.53
-4.49 -1.03 1.53
-4.47 -1.12 1.53
-4.45 -1.21 1.53
-4.42 -1.30 1.53
-4.40 -1.39 1.53
-4.37 -1.48 1.53
-4.34 -1.57 1.53
-4.31 -1.66 1.53
-4.28 -1.74 1.53
-4.24 -1.83 1.53
-4.21 -1.91 1.53
-4.17 -2.00 1.53
-4.13 -2.08 1.53
-4.09 -2.17 1.53
-4.05 -2.25 1.53
-4.00 -2.33 1.53
-3.92 -2.39 1.52
-3.75 -2.39 1.47
-3.59 -2.39 1.43
-3.44 -2.39 1.39
-3.30 -2.39 1.35
-3.16 -2.39 1.31
-3.03 -2.39 1.28
-2.91 -2.39 1.25
-2.80 -2.39 1.22
-2.69 -2.39 1.19
-2.67 -2.48 1.20
-2.67 -2.58 1.23
-2.67 -2.68 1.25
-2.67 -2.79 1.28
-2.67 -2.91 1.31
-2.67 -3.03 1.33
-2.67 -3.15 1.37
-2.67 -3.29 1.40
-2.67 -3.43 1.44
-2.67 -3.57 1.47
-2.67 -3.73 1.52
-2.67 -3.89 1.56
-2.67 -4.06 1.61
-2.67 -4.24 1.66
-2.67 -4.44 1.71
-2.67 -4.65 1.77
-2.67 -4.87 1.84
-2.62 -5.01 1.87
-2.55 -5.13 1.89
-3.23 -6.83 2.49
-3.09 -6.89 2.49
-2.95 -6.95 2.49
-2.81 -7.01 2.49
-2.67 -7.06 2.49
-2.53 -7.11 2.49
-2.38 -7.16 2.49
-2.24 -7.21 2.49
-2.09 -7.25 2.49
-1.95 -7.29 2.49
-1.80 -7.33 2.49
-1.65 -7.37 2.49
-1.51 -7.40 2.49
-1.36 -7.43 2.49
-1.21 -7.45 2.49
-1.06 -7.48 2.49
-0.91 -7.50 2.49
-0.76 -7.51 2.49
-0.61 -7.53 2.49
-0.46 -7.54 2.49
-0.30 -7.54 2.49
-0.15 -7.55 2.49
-0.00 -7.01 2.49
0.14 -7.01 2.49
0.28 -7.01 2.49
0.42 -7.00 2.49
0.56 -6.99 2.49
0.70 -6.98 2.49
0.84 -6.96 2.49
0.98 -6.94 2.49
1.12 -6.92 2.49
1.26 -6.90 2.49
1.40 -6.87 2.49
1.53 -6.84 2.49
1.67 -6.81 2.49
1.81 -6.77 2.49
1.94 -6.74 2.49
2.08 -6.70 2.49
2.19 -6.58 2.47
2.25 -6.33 2.39
2.37 -6.29 2.39
2.50 -6.24 2.39
2.62 -6.18 2.39
2.75 -6.13 2.39
2.87 -6.07 2.39
2.99 -6.01 2.39
3.11 -5.95 2.39
3.23 -5.89 2.39
3.35 -5.82 2.39
3.46 -5.75 2.39
3.58 -5.68 2.39
3.69 -5.61 2.39
3.80 -5.53 2.39
3.91 -5.46 2.39
4.02 -5.38 2.39
4.12 -5.29 2.39
4.23 -5.21 2.39
4.33 -5.12 2.39
4.43 -5.03 2.39
4.53 -4.94 2.39
4.63 -4.85 2.39
4.73 -4.76 2.39
4.82 -4.66 2.39
4.91 -4.56 2.39
5.00 -4.46 2.39
5.09 -4.36 2.39
5.18 -4.26 2.39
5.26 -4.15 2.39
5.34 -4.05 2.39
5.42 -3.94 2.39
5.50 -3.83 2.39
5.58 -3.72 2.39
5.65 -3.60 2.39
5.72 -3.49 2.39
5.79 -3.37 2.39
5.85 -3.25 2.39
5.92 -3.14 2.39
5.98 -3.02 2.39
6.04 -2.90 2.39
6.09 -2.77 2.39
6.15 -2.65 2.39
6.20 -2.53 2.39
6.29 -2.42 2.41
6.33 -2.29 2.41
6.34 -2.15 2.39
6.34 -2.01 2.38
6.33 -1.87 2.36
6.32 -1.73 2.34
6.32 -1.59 2.33
6.35 -1.46 2.33
6.59 -1.38 2.41
6.61 -1.25 2.41
6.64 -1.11 2.41
6.66 -0.98 2.41
6.67 -0.85 2.41
6.57 -0.70 2.36
6.58 -0.57 2.36
6.59 -0.43 2.36
6.60 -0.30 2.36
6.60 -0.17 2.36
6.60 -0.04 2.36
6.60 0.10 2.36
6.60 0.23 2.36
6.59 0.36 2.36
6.59 0.49 2.37
6.58 0.62 2.37
6.56 0.76 2.37
6.55 0.89 2.37
6.53 1.02 2.37
6.52 1.15 2.37
6.59 1.30 2.41
6.56 1.43 2.41
6.53 1.57 2.41
6.50 1.70 2.41
6.46 1.83 2.41
6.42 1.95 2.41
6.38 2.08 2.41
6.34 2.21 2.41
6.29 2.34 2.41
6.20 2.45 2.39
6.15 2.57 2.39
6.09 2.69 2.39
6.04 2.81 2.39
5.98 2.93 2.39
5.92 3.05 2.39
5.86 3.17 2.39
5.79 3.29 2.39
5.72 3.40 2.39
5.65 3.52 2.39
5.58 3.63 2.39
5.51 3.74 2.39
5.43 3.85 2.39
5.35 3.96 2.39
5.27 4.07 2.39
5.19 4.17 2.39
5.10 4.27 2.39
5.02 4.37 2.39
4.93 4.47 2.39
4.83 4.57 2.39
4.74 4.67 2.39
4.65 4.76 2.39
4.55 4.85 2.39
4.45 4.94 2.39
4.35 5.03 2.39
4.25 5.12 2.39
4.14 5.20 2.39
4.04 5.28 2.39
3.93 5.36 2.39
3.82 5.44 2.39
3.71 5.52 2.39
3.60 5.59 2.39
3.49 5.66 2.39
3.37 5.73 2.39
3.26 5.80 2.39
3.14 5.86 2.39
3.02 5.92 2.39
2.90 5.98 2.39
2.78 6.04 2.39
2.66 6.09 2.39
2.54 6.14 2.39
2.41 6.19 2.39
2.29 6.24 2.39
2.23 6.47 2.46
2.12 6.60 2.49
1.99 6.64 2.49
1.86 6.68 2.49
1.72 6.72 2.49
1.59 6.75 2.49
1.45 6.78 2.49
1.31 6.81 2.49
1.18 6.83 2.49
1.04 6.86 2.49
0.90 6.88 2.49
0.76 6.89 2.49
0.63 6.91 2.49
0.49 6.92 2.49
0.35 6.93 2.49
0.21 6.93 2.49
0.07 6.94 2.49
-0.07 6.94 2.49
-0.21 6.93 2.49
-0.35 6.93 2.49
-0.49 6.92 2.49
-0.63 6.91 2.49
-0.77 6.89 2.49
-0.90 6.88 2.49
-1.04 6.86 2.49
-1.18 6.84 2.49
-1.32 6.81 2.49
-1.45 6.78 2.49
-1.59 6.75 2.49
-1.72 6.72 2.49
-1.86 6.69 2.49
-1.99 6.65 2.49
-2.13 6.61 2.49
-2.26 6.56 2.49
-2.39 6.52 2.49
-2.52 6.47 2.49
-2.65 6.42 2.49
-2.78 6.36 2.49
-2.91 6.30 2.49
-3.03 6.25 2.49
-3.16 6.18 2.49
-3.28 6.12 2.49
-3.40 6.05 2.49
-3.53 5.98 2.49
-3.65 5.91 2.49
-3.76 5.84 2.49
-3.88 5.76 2.49
-4.00 5.68 2.49
-4.11 5.60 2.49
-4.22 5.52 2.49
-4.33 5.43 2.49
-4.44 5.35 2.49
-4.55 5.26 2.49
-4.65 5.16 2.49
-4.76 5.07 2.49
-4.86 4.97 2.49
-4.96 4.88 2.49
-5.05 4.78 2.49
-5.15 4.67 2.49
-5.24 4.57 2.49
-5.33 4.47 2.49
-5.42 4.36 2.49
-5.51 4.25 2.49
-5.59 4.14 2.49
-5.68 4.02 2.49
-5.76 3.91 2.49
-5.83 3.79 2.49
-5.83 3.63 2.46
-5.83 3.47 2.43
-5.84 3.31 2.40
-5.87 3.18 2.39
-5.93 3.06 2.39
-6.00 2.94 2.39
-6.05 2.82 2.39
-6.11 2.70 2.39
-6.16 2.58 2.39
-6.19 2.44 2.38
-6.19 2.30 2.36
-6.19 2.16 2.35
-6.19 2.02 2.33
-6.19 1.88 2.32
-6.19 1.75 2.30
-6.19 1.62 2.29
-6.19 1.48 2.28
-6.20 1.36 2.27
-6.23 1.23 2.27
-6.25 1.11 2.27
-6.27 0.98 2.27
-6.29 0.85 2.27
-6.31 0.73 2.27
-6.32 0.60 2.27
-6.56 0.49 2.35
-6.57 0.36 2.35
-6.58 0.23 2.35
-6.58 0.09 2.35
-6.59 -0.04 2.35
-6.58 -0.17 2.35
-6.58 -0.30 2.35
-6.57 -0.43 2.35
-6.33 -0.55 2.27
-6.32 -0.67 2.27
-4.51 -0.57 1.62
-4.23 -0.62 1.52
-4.22 -0.71 1.53
-4.20 -0.79 1.53
-4.19 -0.88 1.53
-4.17 -0.96 1.53
-4.15 -1.04 1.53
-4.13 -1.13 1.53
-4.11 -1.21 1.53
-4.09 -1.29 1.53
-4.06 -1.38 1.53
-4.03 -1.46 1.53
-4.00 -1.54 1.53
-3.97 -1.62 1.53
-3.94 -1.70 1.53
-3.91 -1.78 1.53
-3.87 -1.86 1.53
-3.84 -1.94 1.53
-3.80 -2.01 1.53
-3.76 -2.09 1.53
-3.72 -2.16 1.53
-3.67 -2.24 1.53
-3.63 -2.31 1.53
-3.59 -2.39 1.53
-3.44 -2.39 1.49
-3.29 -2.39 1.45
-3.16 -2.39 1.41
-3.03 -2.39 1.37
-2.91 -2.39 1.34
-2.80 -2.39 1.31
-2.69 -2.39 1.28
-2.67 -2.48 1.30
-2.67 -2.58 1.32
-2.67 -2.68 1.35
-2.67 -2.79 1.37
-2.67 -2.91 1.40
-2.67 -3.03 1.44
-2.67 -3.15 1.47
-2.67 -3.29 1.51
-2.67 -3.43 1.55
-2.67 -3.57 1.59
-2.67 -3.73 1.63
-2.67 -3.89 1.68
-2.67 -4.06 1.73
-2.67 -4.24 1.78
-2.67 -4.44 1.84
-2.67 -4.65 1.91
-2.67 -4.87 1.98
-2.59 -4.95 1.98
-2.51 -5.05 2.01
-2.49 -5.27 2.07
-2.87 -6.40 2.49
-2.74 -6.46 2.49
-2.61 -6.51 2.49
-2.48 -6.56 2.49
-2.35 -6.61 2.49
-2.21 -6.66 2.49
-2.08 -6.70 2.49
-1.95 -6.74 2.49
-1.81 -6.78 2.49
-1.67 -6.81 2.49
-1.54 -6.85 2.49
-1.40 -6.87 2.49
-1.26 -6.90 2.49
-1.12 -6.93 2.49
-0.98 -6.95 2.49
-0.84 -6.96 2.49
-0.70 -6.98 2.49
-0.56 -6.99 2.49
-0.42 -7.00 2.49
-0.28 -7.01 2.49
-0.14 -7.01 2.49
-0.00 -6.54 2.49
0.13 -6.54 2.49
0.26 -6.54 2.49
0.39 -6.53 2.49
0.52 -6.52 2.49
0.65 -6.51 2.49
0.78 -6.50 2.49
0.91 -6.48 2.49
1.04 -6.46 2.49
1.17 -6.44 2.49
1.30 -6.41 2.49
1.43 -6.38 2.49
1.56 -6.35 2.49
1.69 -6.32 2.49
1.81 -6.28 2.49
1.94 -6.25 2.49
2.06 -6.21 2.49
2.19 -6.16 2.49
2.21 -5.86 2.39
2.33 -5.82 2.39
2.45 -5.77 2.39
2.56 -5.72 2.39
2.68 -5.67 2.39
2.79 -5.61 2.39
2.90 -5.55 2.39
3.01 -5.49 2.39
3.12 -5.43 2.39
3.23 -5.37 2.39
3.34 -5.30 2.39
3.44 -5.23 2.39
3.55 -5.16 2.39
3.65 -5.09 2.39
3.75 -5.02 2.39
3.85 -4.94 2.39
3.95 -4.86 2.39
4.04 -4.78 2.39
4.14 -4.70 2.39
4.23 -4.61 2.39
4.32 -4.53 2.39
4.41 -4.44 2.39
4.50 -4.35 2.39
4.58 -4.26 2.39
4.67 -4.16 2.39
4.75 -4.07 2.39
4.83 -3.97 2.39
4.91 -3.87 2.39
4.99 -3.77 2.39
5.06 -3.67 2.39
5.13 -3.57 2.39
5.20 -3.47 2.39
5.27 -3.36 2.39
5.34 -3.25 2.39
5.40 -3.15 2.39
5.46 -3.04 2.39
5.52 -2.93 2.39
5.58 -2.82 2.39
5.63 -2.70 2.39
5.68 -2.59 2.39
5.74 -2.47 2.39
5.78 -2.36 2.39
5.83 -2.24 2.39
5.87 -2.12 2.39
5.91 -2.00 2.39
5.95 -1.89 2.39
5.99 -1.77 2.39
6.02 -1.64 2.39
6.05 -1.52 2.39
6.08 -1.40 2.39
6.11 -1.28 2.39
6.13 -1.16 2.39
6.15 -1.03 2.39
6.17 -0.91 2.39
6.19 -0.78 2.39
6.20 -0.66 2.39
6.21 -0.54 2.39
6.22 -0.41 2.39
6.23 -0.29 2.39
6.23 -0.16 2.39
6.23 -0.04 2.39
6.23 0.09 2.39
6.23 0.21 2.39
6.22 0.34 2.39
6.21 0.46 2.39
6.20 0.59 2.39
6.19 0.71 2.39
6.17 0.84 2.39
6.15 0.96 2.39
6.13 1.08 2.39
6.11 1.21 2.39
6.08 1.33 2.39
6.05 1.45 2.39
6.02 1.57 2.39
5.99 1.69 2.39
5.95 1.81 2.39
5.91 1.93 2.39
5.87 2.05 2.39
5.83 2.17 2.39
5.79 2.28 2.39
5.74 2.40 2.39
5.69 2.51 2.39
5.64 2.63 2.39
5.58 2.74 2.39
5.53 2.85 2.39
5.47 2.96 2.39
5.41 3.07 2.39
5.34 3.18 2.39
5.28 3.28 2.39
5.21 3.39 2.39
5.14 3.49 2.39
5.07 3.59 2.39
5.00 3.70 2.39
4.92 3.79 2.39
4.84 3.89 2.39
4.76 3.99 2.39
4.68 4.08 2.39
4.60 4.18 2.39
4.51 4.27 2.39
4.43 4.36 2.39
4.34 4.44 2.39
4.25 4.53 2.39
4.15 4.61 2.39
4.06 4.70 2.39
3.97 4.78 2.39
3.87 4.86 2.39
3.77 4.93 2.39
3.67 5.01 2.39
3.57 5.08 2.39
3.47 5.15 2.39
3.36 5.22 2.39
3.26 5.28 2.39
3.15 5.35 2.39
3.04 5.41 2.39
2.93 5.47 2.39
2.82 5.53 2.39
2.71 5.58 2.39
2.60 5.64 2.39
2.48 5.69 2.39
2.37 5.74 2.39
2.25 5.78 2.39
2.23 6.07 2.49
2.11 6.12 2.49
1.98 6.16 2.49
1.86 6.20 2.49
1.73 6.24 2.49
1.61 6.27 2.49
1.48 6.30 2.49
1.35 6.33 2.49
1.23 6.36 2.49
1.10 6.38 2.49
0.97 6.40 2.49
0.84 6.42 2.49
0.71 6.43 2.49
0.58 6.45 2.49
0.45 6.46 2.49
0.32 6.47 2.49
0.19 6.47 2.49
0.06 6.47 2.49
-0.07 6.47 2.49
-0.20 6.47 2.49
-0.33 6.47 2.49
-0.46 6.46 2.49
-0.59 6.45 2.49
-0.71 6.44 2.49
-0.84 6.42 2.49
-0.97 6.40 2.49
-1.10 6.38 2.49
-1.23 6.36 2.49
-1.36 6.33 2.49
-1.48 6.30 2.49
-1.61 6.27 2.49
-1.74 6.24 2.49
-1.86 6.20 2.49
-1.99 6.17 2.49
-2.11 6.13 2.49
-2.23 6.08 2.49
-2.35 6.04 2.49
-2.47 5.99 2.49
-2.59 5.94 2.49
-2.71 5.88 2.49
-2.83 5.83 2.49
-2.95 5.77 2.49
-3.06 5.71 2.49
-3.18 5.65 2.49
-3.29 5.59 2.49
-3.40 5.52 2.49
-3.51 5.45 2.49
-3.62 5.38 2.49
-3.73 5.30 2.49
-3.84 5.23 2.49
-3.94 5.15 2.49
-4.04 5.07 2.49
-4.14 4.99 2.49
-4.24 4.91 2.49
-4.34 4.82 2.49
-4.44 4.73 2.49
-4.53 4.64 2.49
-4.63 4.55 2.49
-4.72 4.46 2.49
-4.81 4.36 2.49
-4.89 4.27 2.49
-4.98 4.17 2.49
-5.06 4.07 2.49
-5.14 3.96 2.49
-5.22 3.86 2.49
-5.30 3.76 2.49
-5.37 3.65 2.49
-5.45 3.54 2.49
-5.52 3.43 2.49
-5.59 3.32 2.49
-5.65 3.21 2.49
-5.72 3.09 2.49
-5.78 2.98 2.49
-5.83 2.86 2.49
-5.83 2.72 2.47
-5.83 2.58 2.45
-5.84 2.44 2.43
-5.84 2.30 2.41
-5.84 2.17 2.39
-5.89 2.05 2.39
-5.93 1.93 2.39
-5.97 1.82 2.39
-6.00 1.70 2.39
-6.04 1.58 2.39
-6.07 1.45 2.39
-6.10 1.33 2.39
-6.12 1.21 2.39
-6.15 1.09 2.39
-6.17 0.96 2.39
-6.19 0.84 2.39
-6.20 0.71 2.39
-6.19 0.59 2.38
-6.19 0.46 2.38
-6.20 0.34 2.38
-6.20 0.21 2.37
-6.20 0.09 2.37
-6.20 -0.04 2.37
-6.20 -0.16 2.37
-6.20 -0.28 2.37
-6.20 -0.41 2.38
-6.20 -0.53 2.38
-6.20 -0.66 2.38
-4.50 -0.57 1.74
-3.94 -0.58 1.52
-3.93 -0.66 1.53
-3.92 -0.74 1.53
-3.91 -0.82 1.53
-3.89 -0.90 1.53
-3.87 -0.97 1.53
-3.85 -1.05 1.53
-3.83 -1.13 1.53
-3.81 -1.21 1.53
-3.79 -1.28 1.53
-3.76 -1.36 1.53
-3.73 -1.44 1.53
-3.71 -1.51 1.53
-3.68 -1.59 1.53
-3.65 -1.66 1.53
-3.61 -1.73 1.53
-3.58 -1.81 1.53
-3.54 -1.88 1.53
-3.50 -1.95 1.53
-3.47 -2.02 1.53
-3.43 -2.09 1.53
-3.38 -2.16 1.53
-3.34 -2.23 1.53
-3.30 -2.29 1.53
-3.29 -2.39 1.55
-3.16 -2.39 1.51
-3.03 -2.39 1.47
-2.91 -2.39 1.44
-2.79 -2.39 1.40
-2.68 -2.39 1.37
-2.67 -2.48 1.39
-2.67 -2.58 1.42
-2.67 -2.68 1.44
-2.67 -2.79 1.47
-2.67 -2.91 1.51
-2.67 -3.03 1.54
-2.67 -3.16 1.58
-2.67 -3.29 1.61
-2.67 -3.43 1.66
-2.67 -3.57 1.70
-2.67 -3.73 1.75
-2.67 -3.89 1.80
-2.67 -4.06 1.85
-2.67 -4.24 1.91
-2.67 -4.44 1.98
-2.67 -4.65 2.04
-2.66 -4.85 2.11
-2.57 -4.92 2.12
-2.50 -5.04 2.14
-2.80 -5.92 2.49
-2.68 -5.97 2.49
-2.56 -6.02 2.49
-2.44 -6.07 2.49
-2.31 -6.12 2.49
-2.19 -6.17 2.49
-2.07 -6.21 2.49
-1.94 -6.25 2.49
-1.81 -6.29 2.49
-1.69 -6.32 2.49
-1.56 -6.36 2.49
-1.43 -6.39 2.49
-1.31 -6.41 2.49
-1.18 -6.44 2.49
-1.05 -6.46 2.49
-0.92 -6.48 2.49
-0.79 -6.50 2.49
-0.66 -6.51 2.49
-0.53 -6.52 2.49
-0.39 -6.53 2.49
-0.26 -6.54 2.49
-0.13 -6.54 2.49
-0.00 -6.13 2.49
0.12 -6.12 2.49
0.24 -6.12 2.49
0.37 -6.11 2.49
0.49 -6.11 2.49
0.61 -6.09 2.49
0.73 -6.08 2.49
0.86 -6.06 2.49
0.98 -6.05 2.49
1.10 -6.02 2.49
1.22 -6.00 2.49
1.34 -5.98 2.49
1.46 -5.95 2.49
1.58 -5.92 2.49
1.70 -5.88 2.49
1.81 -5.85 2.49
1.93 -5.81 2.49
2.05 -5.77 2.49
2.16 -5.73 2.49
2.20 -5.49 2.41
2.29 -5.40 2.39
2.40 -5.36 2.40
2.50 -5.30 2.39
2.61 -5.25 2.39
2.72 -5.20 2.39
2.82 -5.14 2.39
2.92 -5.09 2.39
3.02 -5.03 2.39
3.12 -4.96 2.39
3.22 -4.90 2.39
3.32 -4.83 2.39
3.41 -4.77 2.39
3.51 -4.70 2.39
3.60 -4.62 2.39
3.69 -4.55 2.39
3.78 -4.47 2.39
3.87 -4.40 2.39
3.96 -4.32 2.39
4.05 -4.24 2.39
4.13 -4.16 2.39
4.21 -4.07 2.39
4.29 -3.99 2.39
4.37 -3.90 2.39
4.45 -3.81 2.39
4.52 -3.72 2.39
4.60 -3.63 2.39
4.67 -3.53 2.39
4.74 -3.44 2.39
4.80 -3.34 2.39
4.87 -3.25 2.39
4.93 -3.15 2.39
5.00 -3.05 2.39
5.06 -2.95 2.39
5.11 -2.84 2.39
5.17 -2.74 2.39
5.22 -2.64 2.39
5.27 -2.53 2.39
5.32 -2.42 2.39
5.37 -2.32 2.39
5.41 -2.21 2.39
5.46 -2.10 2.39
5.50 -1.99 2.39
5.54 -1.88 2.39
5.57 -1.77 2.39
5.61 -1.65 2.39
5.64 -1.54 2.39
5.67 -1.43 2.39
5.69 -1.31 2.39
5.72 -1.20 2.39
5.74 -1.08 2.39
5.76 -0.97 2.39
5.78 -0.85 2.39
5.79 -0.74 2.39
5.81 -0.62 2.39
5.82 -0.50 2.39
5.82 -0.38 2.39
5.83 -0.27 2.39
5.83 -0.15 2.39
5.84 -0.03 2.39
5.83 0.08 2.39
5.83 0.20 2.39
5.83 0.32 2.39
5.82 0.43 2.39
5.81 0.55 2.39
5.79 0.67 2.39
5.78 0.78 2.39
5.76 0.90 2.39
5.74 1.01 2.39
5.72 1.13 2.39
5.69 1.24 2.39
5.67 1.36 2.39
5.64 1.47 2.39
5.61 1.58 2.39
5.57 1.70 2.39
5.54 1.81 2.39
5.50 1.92 2.39
5.46 2.03 2.39
5.42 2.14 2.39
5.37 2.25 2.39
5.33 2.35 2.39
5.28 2.46 2.39
5.23 2.56 2.39
5.17 2.67 2.39
5.12 2.77 2.39
5.06 2.87 2.39
5.00 2.97 2.39
4.94 3.07 2.39
4.88 3.17 2.39
4.81 3.27 2.39
4.75 3.37 2.39
4.68 3.46 2.39
4.61 3.55 2.39
4.53 3.64 2.39
4.46 3.74 2.39
4.38 3.82 2.39
4.31 3.91 2.39
4.23 4.00 2.39
4.15 4.08 2.39
4.06 4.16 2.39
3.98 4.24 2.39
3.89 4.32 2.39
3.80 4.40 2.39
3.71 4.47 2.39
3.62 4.55 2.39
3.53 4.62 2.39
3.44 4.69 2.39
3.34 4.76 2.39
3.25 4.82 2.39
3.15 4.89 2.39
3.05 4.95 2.39
2.95 5.01 2.39
2.85 5.07 2.39
2.75 5.12 2.39
2.64 5.18 2.39
2.54 5.23 2.39
2.44 5.29 2.39
2.33 5.33 2.39
2.23 5.41 2.41
2.20 5.65 2.49
2.09 5.69 2.49
1.97 5.73 2.49
1.86 5.77 2.49
1.74 5.81 2.49
1.62 5.84 2.49
1.51 5.87 2.49
1.39 5.90 2.49
1.27 5.93 2.49
1.15 5.95 2.49
1.03 5.97 2.49
0.91 5.99 2.49
0.79 6.01 2.49
0.67 6.03 2.49
0.55 6.04 2.49
0.42 6.05 2.49
0.30 6.06 2.49
0.18 6.06 2.49
0.06 6.06 2.49
-0.06 6.06 2.49
-0.18 6.06 2.49
-0.31 6.06 2.49
-0.43 6.05 2.49
-0.55 6.04 2.49
-0.67 6.03 2.49
-0.79 6.01 2.49
-0.91 6.00 2.49
-1.03 5.98 2.49
-1.15 5.95 2.49
-1.27 5.93 2.49
-1.39 5.90 2.49
-1.51 5.88 2.49
-1.63 5.84 2.49
-1.74 5.81 2.49
-1.86 5.77 2.49
-1.98 5.74 2.49
-2.09 5.70 2.49
-2.20 5.65 2.49
-2.32 5.61 2.49
-2.43 5.56 2.49
-2.54 5.51 2.49
-2.65 5.46 2.49
-2.76 5.41 2.49
-2.87 5.35 2.49
-2.98 5.29 2.49
-3.08 5.23 2.49
-3.19 5.17 2.49
-3.29 5.10 2.49
-3.39 5.04 2.49
-3.49 4.97 2.49
-3.59 4.90 2.49
-3.69 4.82 2.49
-3.79 4.75 2.49
-3.88 4.67 2.49
-3.97 4.59 2.49
-4.07 4.51 2.49
-4.16 4.43 2.49
-4.25 4.35 2.49
-4.33 4.26 2.49
-4.42 4.17 2.49
-4.50 4.09 2.49
-4.58 3.99 2.49
-4.66 3.90 2.49
-4.74 3.81 2.49
-4.82 3.71 2.49
-4.89 3.62 2.49
-4.96 3.52 2.49
-5.03 3.42 2.49
-5.10 3.32 2.49
-5.17 3.21 2.49
-5.23 3.11 2.49
-5.29 3.00 2.49
-5.35 2.90 2.49
-5.41 2.79 2.49
-5.46 2.68 2.49
-5.52 2.57 2.49
-5.57 2.46 2.49
-5.62 2.35 2.49
-5.66 2.23 2.49
-5.71 2.12 2.49
-5.75 2.01 2.49
-5.79 1.89 2.49
-5.83 1.77 2.49
-5.83 1.65 2.48
-5.83 1.52 2.47
-5.84 1.40 2.46
-5.84 1.27 2.44
-5.84 1.15 2.43
-5.84 1.03 2.43
-5.84 0.91 2.42
-5.84 0.79 2.41
-5.85 0.67 2.41
-5.85 0.55 2.40
-5.85 0.44 2.40
-5.85 0.32 2.40
-5.85 0.20 2.39
-5.85 0.08 2.39
-5.85 -0.03 2.39
-5.85 -0.15 2.39
-5.85 -0.27 2.39
-5.85 -0.39 2.40
-5.85 -0.50 2.40
-5.85 -0.62 2.40
-4.50 -0.57 1.85
-3.90 -0.58 1.61
-3.68 -0.62 1.52
-3.67 -0.69 1.53
-3.66 -0.77 1.53
-3.64 -0.84 1.53
-3.62 -0.91 1.53
-3.61 -0.99 1.53
-3.59 -1.06 1.53
-3.57 -1.13 1.53
-3.54 -1.20 1.53
-3.52 -1.27 1.53
-3.50 -1.34 1.53
-3.47 -1.41 1.53
-3.44 -1.48 1.53
-3.41 -1.55 1.53
-3.38 -1.62 1.53
-3.35 -1.69 1.53
-3.31 -1.76 1.53
-3.28 -1.82 1.53
-3.24 -1.89 1.53
-3.21 -1.95 1.53
-3.17 -2.02 1.53
-3.13 -2.08 1.53
-3.08 -2.15 1.53
-3.04 -2.21 1.53
-3.00 -2.27 1.53
-2.95 -2.33 1.53
-2.91 -2.39 1.53
-2.79 -2.39 1.50
-2.68 -2.39 1.47
-2.67 -2.48 1.48
-2.67 -2.58 1.51
-2.67 -2.68 1.54
-2.67 -2.79 1.57
-2.67 -2.91 1.61
-2.67 -3.03 1.64
-2.67 -3.16 1.68
-2.67 -3.29 1.73
-2.67 -3.43 1.77
-2.67 -3.57 1.82
-2.67 -3.73 1.87
-2.67 -3.89 1.92
-2.67 -4.06 1.98
-2.67 -4.24 2.04
-2.67 -4.44 2.11
-2.67 -4.65 2.18
-2.67 -4.88 2.26
-2.59 -4.96 2.28
-2.54 -5.11 2.33
-2.62 -5.54 2.49
-2.51 -5.59 2.49
-2.39 -5.64 2.49
-2.28 -5.69 2.49
-2.17 -5.73 2.49
-2.05 -5.77 2.49
-1.93 -5.81 2.49
-1.82 -5.85 2.49
-1.70 -5.89 2.49
-1.58 -5.92 2.49
-1.46 -5.95 2.49
-1.34 -5.98 2.49
-1.22 -6.00 2.49
-1.10 -6.03 2.49
-0.98 -6.05 2.49
-0.86 -6.07 2.49
-0.74 -6.08 2.49
-0.61 -6.10 2.49
-0.49 -6.11 2.49
-0.37 -6.11 2.49
-0.25 -6.12 2.49
-0.12 -6.12 2.49
-0.00 -5.75 2.49
0.11 -5.75 2.49
0.23 -5.75 2.49
0.34 -5.74 2.49
0.46 -5.73 2.49
0.57 -5.72 2.49
0.69 -5.71 2.49
0.80 -5.69 2.49
0.92 -5.68 2.49
1.03 -5.66 2.49
1.14 -5.63 2.49
1.26 -5.61 2.49
1.37 -5.58 2.49
1.48 -5.55 2.49
1.59 -5.52 2.49
1.70 -5.49 2.49
1.81 -5.45 2.49
1.92 -5.42 2.49
2.03 -5.38 2.49
2.14 -5.33 2.49
2.19 -5.17 2.44
2.25 -5.03 2.39
2.35 -4.98 2.39
2.45 -4.93 2.39
2.55 -4.88 2.39
2.65 -4.83 2.39
2.74 -4.78 2.39
2.84 -4.72 2.39
2.93 -4.66 2.39
3.02 -4.60 2.39
3.12 -4.54 2.39
3.21 -4.47 2.39
3.29 -4.41 2.39
3.38 -4.34 2.39
3.47 -4.27 2.39
3.55 -4.20 2.39
3.64 -4.13 2.39
3.72 -4.06 2.39
3.80 -3.98 2.39
3.88 -3.90 2.39
3.95 -3.82 2.39
4.03 -3.74 2.39
4.10 -3.66 2.39
4.18 -3.58 2.39
4.25 -3.49 2.39
4.32 -3.41 2.39
4.38 -3.32 2.39
4.45 -3.23 2.39
4.51 -3.14 2.39
4.57 -3.05 2.39
4.63 -2.96 2.39
4.69 -2.86 2.39
4.75 -2.77 2.39
4.80 -2.67 2.39
4.85 -2.57 2.39
4.90 -2.48 2.39
4.95 -2.38 2.39
5.00 -2.28 2.39
5.04 -2.18 2.39
5.08 -2.07 2.39
5.12 -1.97 2.39
5.16 -1.87 2.39
5.20 -1.76 2.39
5.23 -1.66 2.39
5.26 -1.55 2.39
5.29 -1.45 2.39
5.32 -1.34 2.39
5.35 -1.23 2.39
5.37 -1.13 2.39
5.39 -1.02 2.39
5.41 -0.91 2.39
5.43 -0.80 2.39
5.44 -0.69 2.39
5.45 -0.58 2.39
5.46 -0.47 2.39
5.47 -0.36 2.39
5.48 -0.25 2.39
5.48 -0.14 2.39
5.48 -0.03 2.39
5.48 0.08 2.39
5.48 0.19 2.39
5.47 0.30 2.39
5.46 0.41 2.39
5.45 0.52 2.39
5.44 0.63 2.39
5.43 0.74 2.39
5.41 0.84 2.39
5.39 0.95 2.39
5.37 1.06 2.39
5.35 1.17 2.39
5.32 1.28 2.39
5.30 1.38 2.39
5.27 1.49 2.39
5.24 1.59 2.39
5.20 1.70 2.39
5.17 1.80 2.39
5.13 1.91 2.39
5.09 2.01 2.39
5.05 2.11 2.39
5.00 2.21 2.39
4.96 2.31 2.39
4.91 2.41 2.39
4.86 2.51 2.39
4.81 2.60 2.39
4.76 2.70 2.39
4.70 2.79 2.39
4.64 2.89 2.39
4.58 2.98 2.39
4.52 3.07 2.39
4.46 3.16 2.39
4.39 3.25 2.39
4.33 3.34 2.39
4.26 3.42 2.39
4.19 3.51 2.39
4.12 3.59 2.39
4.04 3.67 2.39
3.97 3.75 2.39
3.89 3.83 2.39
3.82 3.91 2.39
3.74 3.99 2.39
3.66 4.06 2.39
3.57 4.13 2.39
3.49 4.20 2.39
3.40 4.27 2.39
3.32 4.34 2.39
3.23 4.40 2.39
3.14 4.47 2.39
3.05 4.53 2.39
2.96 4.59 2.39
2.86 4.65 2.39
2.77 4.70 2.39
2.68 4.76 2.39
2.58 4.81 2.39
2.48 4.86 2.39
2.38 4.91 2.39
2.28 4.96 2.39
2.22 5.09 2.43
2.17 5.26 2.49
2.07 5.31 2.49
1.96 5.35 2.49
1.85 5.38 2.49
1.74 5.42 2.49
1.63 5.45 2.49
1.52 5.49 2.49
1.41 5.52 2.49
1.30 5.54 2.49
1.19 5.57 2.49
1.08 5.59 2.49
0.97 5.61 2.49
0.85 5.63 2.49
0.74 5.65 2.49
0.63 5.66 2.49
0.51 5.67 2.49
0.40 5.68 2.49
0.28 5.69 2.49
0.17 5.69 2.49
0.06 5.69 2.49
-0.06 5.69 2.49
-0.17 5.69 2.49
-0.29 5.69 2.49
-0.40 5.68 2.49
-0.52 5.67 2.49
-0.63 5.66 2.49
-0.74 5.65 2.49
-0.86 5.63 2.49
-0.97 5.61 2.49
-1.08 5.59 2.49
-1.19 5.57 2.49
-1.31 5.55 2.49
-1.42 5.52 2.49
-1.53 5.49 2.49
-1.64 5.46 2.49
-1.75 5.42 2.49
-1.86 5.39 2.49
-1.96 5.35 2.49
-2.07 5.31 2.49
-2.18 5.27 2.49
-2.28 5.22 2.49
-2.39 5.18 2.49
-2.49 5.13 2.49
-2.59 5.08 2.49
-2.69 5.02 2.49
-2.80 4.97 2.49
-2.89 4.91 2.49
-2.99 4.85 2.49
-3.09 4.79 2.49
-3.19 4.73 2.49
-3.28 4.67 2.49
-3.37 4.60 2.49
-3.47 4.53 2.49
-3.56 4.46 2.49
-3.65 4.39 2.49
-3.73 4.32 2.49
-3.82 4.24 2.49
-3.90 4.16 2.49
-3.99 4.08 2.49
-4.07 4.00 2.49
-4.15 3.92 2.49
-4.23 3.84 2.49
-4.30 3.75 2.49
-4.38 3.66 2.49
-4.45 3.58 2.49
-4.52 3.49 2.49
-4.59 3.40 2.49
-4.66 3.30 2.49
-4.73 3.21 2.49
-4.79 3.11 2.49
-4.85 3.02 2.49
-4.91 2.92 2.49
-4.97 2.82 2.49
-5.03 2.72 2.49
-5.08 2.62 2.49
-5.13 2.52 2.49
-5.18 2.41 2.49
-5.23 2.31 2.49
-5.28 2.20 2.49
-5.32 2.10 2.49
-5.36 1.99 2.49
-5.40 1.88 2.49
-5.44 1.77 2.49
-5.47 1.66 2.49
-5.51 1.55 2.49
-5.54 1.44 2.49
-5.57 1.33 2.49
-5.59 1.22 2.49
-5.62 1.11 2.49
-5.64 1.00 2.49
-5.66 0.88 2.49
-5.67 0.77 2.49
-5.69 0.65 2.49
-5.70 0.54 2.49
-5.71 0.43 2.49
-5.72 0.31 2.49
-5.73 0.20 2.49
-5.73 0.08 2.49
-5.73 -0.03 2.49
-5.73 -0.15 2.49
-5.72 -0.26 2.49
-5.72 -0.38 2.49
-5.71 -0.49 2.49
-5.70 -0.61 2.49
-4.49 -0.57 1.97
-3.90 -0.57 1.72
-3.46 -0.58 1.52
-3.45 -0.65 1.52
-3.43 -0.72 1.53
-3.42 -0.79 1.53
-3.40 -0.86 1.53
-3.39 -0.93 1.53
-3.37 -0.99 1.53
-3.35 -1.06 1.53
-3.33 -1.13 1.53
-3.31 -1.20 1.53
-3.28 -1.26 1.53
-3.26 -1.33 1.53
-3.23 -1.39 1.53
-3.20 -1.46 1.53
-3.17 -1.52 1.53
-3.14 -1.59 1.53
-3.11 -1.65 1.53
-3.08 -1.71 1.53
-3.04 -1.77 1.53
-3.01 -1.83 1.53
-2.97 -1.90 1.53
-2.93 -1.96 1.53
-2.90 -2.01 1.53
-2.85 -2.07 1.53
-2.81 -2.13 1.53
-2.77 -2.19 1.53
-2.73 -2.24 1.53
-2.69 -2.30 1.54
-2.68 -2.39 1.56
-2.67 -2.48 1.58
-2.67 -2.58 1.61
-2.67 -2.68 1.64
-2.67 -2.79 1.68
-2.67 -2.91 1.71
-2.67 -3.03 1.75
-2.67 -3.16 1.79
-2.67 -3.29 1.84
-2.67 -3.43 1.88
-2.67 -3.57 1.94
-2.67 -3.73 1.99
-2.67 -3.89 2.05
-2.67 -4.06 2.11
-2.67 -4.24 2.17
-2.97 -4.93 2.49
-2.87 -4.99 2.49
-2.77 -5.04 2.49
-2.66 -5.10 2.49
-2.56 -5.15 2.49
-2.46 -5.20 2.49
-2.35 -5.25 2.49
-2.25 -5.29 2.49
-2.14 -5.34 2.49
-2.03 -5.38 2.49
-1.92 -5.42 2.49
-1.82 -5.46 2.49
-1.71 -5.49 2.49
-1.60 -5.53 2.49
-1.48 -5.56 2.49
-1.37 -5.59 2.49
-1.26 -5.61 2.49
-1.15 -5.64 2.49
-1.03 -5.66 2.49
-0.92 -5.68 2.49
-0.81 -5.70 2.49
-0.69 -5.71 2.49
-0.58 -5.72 2.49
-0.46 -5.73 2.49
-0.35 -5.74 2.49
-0.23 -5.75 2.49
-0.12 -5.75 2.49
-0.00 -5.41 2.49
0.11 -5.41 2.49
0.22 -5.41 2.49
0.32 -5.40 2.49
0.43 -5.40 2.49
0.54 -5.39 2.49
0.65 -5.37 2.49
0.76 -5.36 2.49
0.86 -5.34 2.49
0.97 -5.32 2.49
1.08 -5.30 2.49
1.18 -5.28 2.49
1.29 -5.26 2.49
1.39 -5.23 2.49
1.50 -5.20 2.49
1.60 -5.17 2.49
1.71 -5.13 2.49
1.81 -5.10 2.49
1.91 -5.06 2.49
2.01 -5.02 2.49
2.11 -4.98 2.49
2.19 -4.89 2.47
2.21 -4.69 2.39
2.31 -4.64 2.39
2.40 -4.60 2.40
2.49 -4.55 2.39
2.58 -4.50 2.39
2.67 -4.44 2.39
2.76 -4.39 2.39
2.85 -4.33 2.39
2.93 -4.27 2.39
3.02 -4.21 2.39
3.10 -4.15 2.39
3.18 -4.09 2.39
3.27 -4.02 2.39
3.34 -3.96 2.39
3.42 -3.89 2.39
3.50 -3.82 2.39
3.58 -3.75 2.39
3.65 -3.67 2.39
3.72 -3.60 2.39
3.79 -3.52 2.39
3.86 -3.45 2.39
3.93 -3.37 2.39
4.00 -3.29 2.39
4.06 -3.21 2.39
4.13 -3.12 2.39
4.19 -3.04 2.39
4.25 -2.96 2.39
4.31 -2.87 2.39
4.36 -2.78 2.39
4.42 -2.69 2.39
4.47 -2.61 2.39
4.52 -2.51 2.39
4.57 -2.42 2.39
4.62 -2.33 2.39
4.66 -2.24 2.39
4.71 -2.14 2.39
4.75 -2.05 2.39
4.79 -1.95 2.39
4.82 -1.86 2.39
4.86 -1.76 2.39
4.89 -1.66 2.39
4.93 -1.56 2.39
4.96 -1.46 2.39
4.98 -1.36 2.39
5.01 -1.26 2.39
5.03 -1.16 2.39
5.06 -1.06 2.39
5.08 -0.96 2.39
5.09 -0.86 2.39
5.11 -0.75 2.39
5.12 -0.65 2.39
5.13 -0.55 2.39
5.14 -0.44 2.39
5.15 -0.34 2.39
5.16 -0.24 2.39
5.16 -0.13 2.39
5.16 -0.03 2.39
5.16 0.07 2.39
5.16 0.18 2.39
5.15 0.28 2.39
5.14 0.38 2.39
5.13 0.49 2.39
5.12 0.59 2.39
5.11 0.69 2.39
5.09 0.79 2.39
5.08 0.90 2.39
5.06 1.00 2.39
5.04 1.10 2.39
5.01 1.20 2.39
4.99 1.30 2.39
4.96 1.40 2.39
4.93 1.50 2.39
4.90 1.60 2.39
4.87 1.70 2.39
4.83 1.79 2.39
4.79 1.89 2.39
4.75 1.99 2.39
4.71 2.08 2.39
4.67 2.17 2.39
4.62 2.27 2.39
4.58 2.36 2.39
4.53 2.45 2.39
4.48 2.54 2.39
4.43 2.63 2.39
4.37 2.72 2.39
4.32 2.81 2.39
4.26 2.89 2.39
4.20 2.98 2.39
4.14 3.06 2.39
4.08 3.14 2.39
4.01 3.22 2.39
3.95 3.30 2.39
3.88 3.38 2.39
3.81 3.46 2.39
3.74 3.53 2.39
3.67 3.61 2.39
3.59 3.68 2.39
3.52 3.75 2.39
3.44 3.82 2.39
3.36 3.89 2.39
3.29 3.96 2.39
3.21 4.02 2.39
3.12 4.09 2.39
3.04 4.15 2.39
2.96 4.21 2.39
2.87 4.27 2.39
2.79 4.32 2.39
2.70 4.38 2.39
2.61 4.43 2.39
2.52 4.48 2.39
2.43 4.54 2.40
2.34 4.58 2.39
2.24 4.63 2.39
2.22 4.82 2.47
2.15 4.91 2.49
2.05 4.96 2.49
1.95 5.00 2.49
1.85 5.04 2.49
1.74 5.07 2.49
1.64 5.11 2.49
1.54 5.14 2.49
1.44 5.17 2.49
1.33 5.19 2.49
1.23 5.22 2.49
1.12 5.24 2.49
1.02 5.27 2.49
0.91 5.28 2.49
0.80 5.30 2.49
0.70 5.32 2.49
0.59 5.33 2.49
0.48 5.34 2.49
0.38 5.35 2.49
0.27 5.36 2.49
0.16 5.36 2.49
0.05 5.36 2.49
-0.05 5.36 2.49
-0.16 5.36 2.49
-0.27 5.36 2.49
-0.38 5.35 2.49
-0.49 5.34 2.49
-0.59 5.33 2.49
-0.70 5.32 2.49
-0.81 5.30 2.49
-0.91 5.29 2.49
-1.02 5.27 2.49
-1.12 5.25 2.49
-1.23 5.22 2.49
-1.33 5.20 2.49
-1.44 5.17 2.49
-1.54 5.14 2.49
-1.65 5.11 2.49
-1.75 5.07 2.49
-1.85 5.04 2.49
-1.95 5.00 2.49
-2.05 4.96 2.49
-2.15 4.92 2.49
-2.25 4.87 2.49
-2.35 4.83 2.49
-2.44 4.78 2.49
-2.54 4.73 2.49
-2.63 4.68 2.49
-2.73 4.63 2.49
-2.82 4.57 2.49
-2.91 4.51 2.49
-3.00 4.45 2.49
-3.09 4.39 2.49
-3.18 4.33 2.49
-3.26 4.27 2.49
-3.35 4.20 2.49
-3.43 4.13 2.49
-3.52 4.06 2.49
-3.60 3.99 2.49
-3.68 3.92 2.49
-3.75 3.84 2.49
-3.83 3.77 2.49
-3.91 3.69 2.49
-3.98 3.61 2.49
-4.05 3.53 2.49
-4.12 3.45 2.49
-4.19 3.37 2.49
-4.26 3.28 2.49
-4.32 3.20 2.49
-4.39 3.11 2.49
-4.45 3.02 2.49
-4.51 2.93 2.49
-4.57 2.84 2.49
-4.63 2.75 2.49
-4.68 2.66 2.49
-4.73 2.56 2.49
-4.78 2.47 2.49
-4.83 2.37 2.49
-4.88 2.27 2.49
-4.92 2.17 2.49
-4.97 2.07 2.49
-5.01 1.97 2.49
-5.05 1.87 2.49
-5.09 1.77 2.49
-5.12 1.67 2.49
-5.15 1.57 2.49
-5.18 1.46 2.49
-5.21 1.36 2.49
-5.24 1.25 2.49
-5.26 1.15 2.49
-5.29 1.04 2.49
-5.31 0.94 2.49
-5.33 0.83 2.49
-5.34 0.72 2.49
-5.36 0.62 2.49
-5.37 0.51 2.49
-5.38 0.40 2.49
-5.38 0.29 2.49
-5.39 0.18 2.49
-5.39 0.08 2.49
-5.39 -0.03 2.49
-5.39 -0.14 2.49
-5.39 -0.25 2.49
-5.38 -0.36 2.49
-5.38 -0.46 2.49
-5.37 -0.57 2.49
-4.49 -0.57 2.09
-3.90 -0.57 1.82
-3.44 -0.58 1.61
-3.24 -0.61 1.52
-3.23 -0.68 1.53
