ply
format ascii 1.0
element vertex 2821
property float32 x
property float32 y
property float32 z
end_header
15.67 40.22 1.07
15.82 43.15 1.14
15.63 45.45 1.20
7.63 23.72 0.62
2.26 7.56 0.20
-11.55 45.10 1.24
-11.53 41.51 1.15
-11.43 38.16 1.07
-11.53 35.85 1.01
-9.96 28.97 0.82
-10.55 28.80 0.83
-10.37 26.64 0.77
-10.52 25.49 0.75
-10.74 24.61 0.73
-10.93 23.75 0.71
-11.25 23.20 0.71
-11.55 22.65 0.70
-11.77 21.98 0.69
-11.99 21.34 0.68
-12.20 20.74 0.67
-12.36 20.07 0.65
-12.51 19.43 0.64
-12.65 18.81 0.63
-12.69 18.07 0.62
-12.80 17.47 0.61
-12.97 16.98 0.60
-13.06 16.40 0.59
-13.14 15.84 0.58
-13.28 15.37 0.58
-13.42 14.91 0.57
-13.51 14.42 0.56
-13.40 13.74 0.55
-13.29 13.10 0.54
-13.24 12.53 0.52
-13.27 12.06 0.52
-13.17 11.50 0.51
-13.09 10.97 0.49
-13.03 10.48 0.49
-13.01 10.04 0.48
-12.99 9.62 0.47
-13.01 9.24 0.47
-13.04 8.87 0.46
-13.04 8.49 0.46
-13.03 8.11 0.45
-13.01 7.75 0.45
-12.99 7.39 0.44
-12.97 7.03 0.44
-12.95 6.69 0.43
-12.96 6.37 0.43
-12.99 6.06 0.43
-13.01 5.76 0.43
-13.03 5.46 0.42
-13.02 5.15 0.42
-13.02 4.85 0.42
-13.01 4.55 0.42
-11.49 3.76 0.37
-11.26 3.44 0.36
-11.32 3.21 0.36
-12.88 3.37 0.41
-12.85 3.09 0.40
-12.82 2.81 0.40
-12.79 2.54 0.40
-12.75 2.26 0.40
-12.71 1.99 0.40
-12.66 1.73 0.39
-12.62 1.46 0.39
-12.58 1.20 0.39
-12.54 0.95 0.39
-12.50 0.69 0.39
-12.49 0.44 0.39
-12.47 0.19 0.39
-12.45 -0.06 0.39
-12.43 -0.31 0.39
-12.41 -0.56 0.39
-12.40 -0.81 0.39
-12.38 -1.06 0.39
-12.36 -1.31 0.39
-12.34 -1.56 0.39
-12.35 -1.81 0.39
-12.37 -2.07 0.40
-12.39 -2.33 0.40
-12.40 -2.59 0.40
-12.42 -2.85 0.40
-12.43 -3.12 0.41
-12.45 -3.39 0.41
-12.45 -3.66 0.41
-12.43 -3.93 0.41
-12.40 -4.20 0.42
-12.38 -4.47 0.42
-12.35 -4.74 0.42
-12.33 -5.02 0.42
-12.30 -5.30 0.43
-12.28 -5.58 0.43
-12.28 -5.88 0.43
-12.28 -6.19 0.44
-12.28 -6.50 0.44
-12.27 -6.81 0.45
-12.27 -7.14 0.45
-12.27 -7.47 0.46
-12.28 -7.82 0.47
-12.42 -8.27 0.48
-12.62 -8.77 0.49
-12.77 -9.26 0.51
-12.83 -9.70 0.51
-12.77 -10.06 0.52
-12.70 -10.43 0.53
-12.62 -10.80 0.53
-12.53 -11.17 0.54
-12.44 -11.54 0.54
-12.41 -11.98 0.55
-12.36 -12.42 0.56
-12.31 -12.88 0.57
-12.25 -13.34 0.58
-12.21 -13.84 0.59
-12.24 -14.46 0.60
-12.37 -15.22 0.63
-12.47 -15.98 0.65
-12.72 -17.00 0.68
-13.05 -18.20 0.71
-13.39 -19.48 0.75
-7.14 -10.84 0.41
-13.19 -20.95 0.79
-13.08 -21.72 0.80
-7.45 -12.95 0.47
-7.11 -12.96 0.47
-12.70 -24.30 0.87
-13.35 -26.83 0.95
-13.32 -28.19 0.98
-12.97 -28.92 1.00
-12.59 -29.67 1.02
-12.52 -31.21 1.06
-12.88 -34.09 1.15
-12.21 -34.38 1.15
-11.42 -39.57 1.29
-2.29 -37.99 1.17
-1.52 -38.03 1.17
0.01 -45.04 2.39
0.74 -36.45 1.93
1.82 -45.11 2.39
2.73 -45.12 2.39
3.64 -45.11 2.39
4.85 -40.04 2.13
5.30 -37.43 1.99
5.56 -34.29 1.83
5.85 -32.02 1.71
6.18 -30.35 1.62
6.51 -28.98 1.55
6.88 -27.99 1.51
7.32 -27.41 1.48
7.65 -26.48 1.44
5.60 -18.01 0.98
5.98 -17.96 0.98
8.62 -24.25 1.34
8.97 -23.71 1.31
1.73 -4.31 0.24
1.83 -4.32 0.24
1.94 -4.32 0.24
2.04 -4.32 0.25
10.81 -21.72 1.25
11.20 -21.42 1.24
11.58 -21.09 1.23
11.84 -20.57 1.22
12.09 -20.06 1.20
12.33 -19.56 1.18
12.53 -19.03 1.16
12.64 -18.39 1.14
12.53 -17.46 1.09
12.53 -16.73 1.06
12.39 -15.87 1.02
12.24 -15.05 0.98
12.19 -14.39 0.95
12.23 -13.86 0.93
12.26 -13.35 0.91
12.34 -12.90 0.90
12.44 -12.50 0.89
12.52 -12.09 0.87
12.61 -11.69 0.86
12.70 -11.31 0.85
12.80 -10.95 0.84
12.91 -10.60 0.83
13.08 -10.30 0.83
13.27 -10.03 0.83
13.20 -9.57 0.81
13.13 -9.12 0.79
13.05 -8.68 0.78
13.00 -8.27 0.76
12.95 -7.89 0.75
12.91 -7.51 0.74
13.06 -7.25 0.73
13.21 -6.99 0.73
13.36 -6.73 0.73
13.52 -6.47 0.73
13.46 -6.12 0.72
13.38 -5.76 0.71
13.27 -5.40 0.70
13.17 -5.05 0.69
13.06 -4.71 0.68
12.96 -4.38 0.66
12.86 -4.06 0.65
12.75 -3.75 0.64
12.65 -3.44 0.63
12.55 -3.15 0.63
6.16 -1.41 0.30
6.15 -1.28 0.30
12.41 -2.33 0.61
12.40 -2.07 0.60
12.39 -1.81 0.60
12.37 -1.56 0.60
12.36 -1.31 0.60
12.35 -1.05 0.59
12.33 -0.80 0.59
12.33 -0.56 0.59
12.49 -0.31 0.60
12.50 -0.06 0.60
12.51 0.19 0.60
12.52 0.44 0.60
12.53 0.69 0.60
12.53 0.95 0.60
12.54 1.20 0.60
12.60 1.46 0.60
12.69 1.73 0.61
12.68 1.99 0.61
12.68 2.25 0.61
12.68 2.51 0.61
12.67 2.78 0.61
12.66 3.04 0.61
12.96 3.39 0.63
14.20 4.02 0.70
14.20 4.33 0.70
14.20 4.65 0.70
14.20 4.97 0.71
14.20 5.29 0.71
14.20 5.61 0.72
14.68 6.14 0.75
15.32 6.78 0.79
15.27 7.12 0.79
15.21 7.47 0.80
15.14 7.82 0.80
15.06 8.17 0.80
14.98 8.51 0.81
14.89 8.87 0.81
14.81 9.22 0.82
16.59 10.80 0.93
16.60 11.29 0.94
16.60 11.78 0.95
16.43 12.16 0.96
16.16 12.48 0.96
15.89 12.78 0.96
15.62 13.09 0.96
15.35 13.40 0.95
15.08 13.71 0.96
15.69 14.84 1.01
15.55 15.32 1.02
15.42 15.81 1.04
15.46 16.51 1.06
15.52 17.25 1.09
15.54 17.99 1.12
15.46 18.64 1.14
15.37 19.31 1.16
15.13 19.80 1.17
14.99 20.46 1.19
14.89 21.20 1.22
14.71 21.87 1.24
14.50 22.51 1.26
14.24 23.12 1.28
13.98 23.74 1.30
13.72 24.42 1.32
13.47 25.15 1.35
6.31 12.37 0.66
6.18 12.73 0.67
12.67 27.50 1.43
12.41 28.42 1.47
12.20 29.56 1.51
12.01 30.83 1.57
12.10 33.01 1.67
13.92 40.47 2.03
7.62 23.70 1.18
2.27 7.56 0.38
6.49 49.40 2.39
5.49 49.46 2.39
4.49 49.50 2.39
3.49 49.52 2.39
-5.40 48.78 2.39
-6.37 48.60 2.39
-7.33 48.39 2.39
-8.29 48.17 2.39
-10.71 45.59 2.30
-10.94 42.70 2.17
-10.67 38.42 1.96
-10.94 36.53 1.88
-11.27 35.07 1.82
-9.94 28.93 1.51
-10.22 27.90 1.47
-10.13 26.01 1.39
-10.33 25.03 1.35
-10.41 23.87 1.30
-10.70 23.25 1.28
-10.98 22.64 1.26
-11.23 22.02 1.24
-11.57 21.60 1.23
-11.79 20.99 1.21
-11.97 20.35 1.19
-12.13 19.70 1.16
-12.28 19.07 1.14
-12.37 18.39 1.12
-12.41 17.68 1.09
-12.55 17.13 1.07
-12.68 16.61 1.06
-12.72 15.98 1.04
-12.82 15.46 1.02
-12.96 15.00 1.01
-13.07 14.53 1.00
-13.15 14.04 0.98
-13.05 13.39 0.96
-12.96 12.77 0.93
-12.98 12.28 0.92
-13.00 11.82 0.90
-12.93 11.29 0.88
-12.85 10.77 0.86
-12.82 10.32 0.85
-12.80 9.89 0.84
-12.79 9.47 0.82
-12.81 9.09 0.81
-12.83 8.73 0.81
-12.83 8.35 0.80
-12.81 7.98 0.79
-12.80 7.62 0.78
-12.79 7.27 0.77
-12.77 6.93 0.76
-12.75 6.59 0.75
-12.78 6.28 0.75
-12.80 5.98 0.74
-12.83 5.68 0.74
-12.85 5.38 0.73
-12.85 5.08 0.73
-12.85 4.78 0.72
-12.83 4.49 0.72
-11.49 3.76 0.64
-11.26 3.44 0.62
-11.30 3.20 0.62
-12.71 3.33 0.70
-12.68 3.05 0.69
-12.66 2.78 0.69
-12.63 2.51 0.69
-12.59 2.24 0.68
-12.55 1.97 0.68
-12.51 1.71 0.67
-12.46 1.45 0.67
-12.43 1.19 0.67
-12.39 0.94 0.67
-12.35 0.68 0.66
-12.32 0.43 0.66
-12.30 0.19 0.66
-12.27 -0.06 0.66
-12.25 -0.31 0.66
-12.22 -0.55 0.66
-12.19 -0.80 0.66
-12.17 -1.04 0.66
-12.14 -1.28 0.66
-12.12 -1.53 0.66
-12.14 -1.78 0.66
-12.15 -2.03 0.67
-12.17 -2.28 0.67
-12.18 -2.54 0.67
-12.20 -2.80 0.68
-12.21 -3.06 0.68
-12.23 -3.33 0.69
-12.24 -3.60 0.69
-12.23 -3.86 0.70
-12.20 -4.13 0.70
-12.18 -4.39 0.70
-12.15 -4.66 0.71
-12.13 -4.93 0.71
-12.10 -5.21 0.72
-12.07 -5.49 0.72
-12.06 -5.78 0.73
-12.07 -6.08 0.74
-12.06 -6.38 0.74
-12.06 -6.69 0.75
-12.05 -7.01 0.76
-12.05 -7.34 0.77
-12.04 -7.67 0.78
-12.06 -8.03 0.79
-12.19 -8.47 0.81
-12.39 -8.98 0.84
-12.60 -9.53 0.86
-12.59 -9.92 0.87
-12.50 -10.26 0.88
-12.41 -10.62 0.89
-12.32 -10.98 0.90
-12.23 -11.35 0.91
-12.14 -11.72 0.92
-12.14 -12.21 0.94
-12.10 -12.66 0.95
-12.04 -13.11 0.97
-11.98 -13.59 0.99
-11.96 -14.13 1.01
-11.99 -14.76 1.04
-12.12 -15.53 1.07
-12.16 -16.25 1.10
-12.36 -17.24 1.15
-12.97 -18.86 1.24
-7.14 -10.84 0.71
-13.02 -20.68 1.33
-12.81 -21.27 1.35
-7.42 -12.90 0.81
-7.11 -12.96 0.80
-12.32 -23.56 1.44
-12.25 -24.62 1.49
-12.75 -26.97 1.62
-12.78 -28.51 1.69
-12.41 -29.24 1.72
-12.02 -29.99 1.75
-12.17 -32.21 1.86
-12.20 -34.37 1.97
-12.56 -37.76 2.15
-11.43 -39.63 2.22
-11.46 -42.95 2.39
-10.61 -43.21 2.39
-9.75 -43.45 2.39
-8.88 -43.68 2.39
-8.36 -45.80 2.49
-7.45 -46.01 2.50
-6.53 -46.21 2.50
-5.61 -46.39 2.50
-4.68 -46.54 2.50
-3.00 -37.32 2.00
-2.27 -37.80 2.02
-1.49 -37.33 1.99
-0.93 -46.92 2.49
0.01 -32.95 2.49
0.64 -31.60 2.39
1.28 -31.61 2.39
1.91 -31.61 2.39
2.55 -31.59 2.39
3.19 -31.56 2.39
3.78 -31.18 2.36
4.35 -30.71 2.33
4.91 -30.26 2.30
5.29 -28.92 2.21
5.63 -27.65 2.12
6.04 -26.87 2.06
6.43 -26.16 2.02
6.85 -25.63 1.98
7.27 -25.14 1.96
5.60 -18.02 1.41
5.98 -17.97 1.41
8.25 -23.21 1.84
1.63 -4.31 0.34
1.73 -4.31 0.35
1.83 -4.32 0.35
1.94 -4.32 0.35
2.04 -4.32 0.35
2.15 -4.32 0.36
10.75 -20.55 1.72
11.05 -20.12 1.70
11.42 -19.85 1.69
11.67 -19.37 1.67
11.90 -18.89 1.65
11.95 -18.15 1.60
11.84 -17.21 1.54
11.77 -16.40 1.48
11.63 -15.54 1.42
11.45 -14.67 1.36
11.45 -14.08 1.33
11.51 -13.59 1.30
11.57 -13.12 1.28
11.63 -12.66 1.25
11.71 -12.25 1.24
11.81 -11.86 1.22
11.89 -11.48 1.20
11.98 -11.10 1.19
12.07 -10.74 1.17
12.19 -10.42 1.16
12.38 -10.16 1.16
12.56 -9.89 1.16
12.74 -9.63 1.16
12.78 -9.26 1.14
12.71 -8.83 1.12
12.65 -8.42 1.10
12.62 -8.03 1.08
12.58 -7.66 1.06
12.55 -7.30 1.04
12.60 -6.99 1.03
12.74 -6.74 1.03
12.88 -6.49 1.03
12.87 -6.16 1.02
12.83 -5.83 1.01
12.78 -5.50 0.99
12.73 -5.18 0.98
12.64 -4.85 0.97
12.55 -4.53 0.95
12.46 -4.21 0.94
12.36 -3.90 0.92
12.26 -3.60 0.91
12.17 -3.31 0.90
12.08 -3.03 0.88
6.16 -1.41 0.45
6.15 -1.28 0.44
11.77 -2.21 0.85
11.73 -1.96 0.84
11.72 -1.72 0.84
11.71 -1.47 0.83
11.70 -1.24 0.83
11.69 -1.00 0.83
11.67 -0.76 0.82
11.66 -0.52 0.82
11.64 -0.29 0.82
11.64 -0.06 0.82
11.63 0.18 0.82
11.64 0.41 0.82
11.65 0.65 0.82
11.65 0.88 0.82
11.66 1.12 0.82
11.66 1.35 0.82
11.66 1.59 0.82
11.70 1.84 0.83
11.80 2.10 0.84
11.80 2.34 0.84
11.80 2.59 0.84
11.80 2.84 0.85
11.80 3.09 0.85
11.80 3.34 0.86
11.80 3.60 0.86
11.80 3.86 0.87
11.81 4.13 0.87
13.47 5.01 1.00
13.46 5.32 1.01
13.45 5.63 1.01
13.46 5.96 1.02
13.49 6.29 1.04
14.87 7.31 1.15
14.81 7.65 1.16
14.73 7.99 1.16
14.65 8.33 1.17
14.57 8.67 1.18
14.48 9.02 1.19
14.33 9.33 1.19
14.10 9.59 1.18
13.89 9.86 1.18
13.74 10.17 1.19
13.58 10.48 1.19
13.42 10.80 1.20
13.29 11.14 1.20
13.21 11.53 1.22
13.22 12.02 1.24
13.60 12.87 1.30
13.55 13.35 1.32
13.50 13.84 1.34
13.61 14.53 1.38
14.83 16.48 1.54
14.87 17.21 1.58
14.90 17.96 1.62
14.81 18.59 1.65
14.66 19.19 1.68
14.46 19.73 1.70
14.34 20.41 1.74
14.10 20.96 1.76
13.86 21.53 1.78
13.63 22.12 1.81
13.45 22.84 1.85
13.26 23.59 1.89
13.00 24.26 1.92
6.31 12.37 0.97
6.18 12.73 0.99
12.02 26.10 2.01
11.93 27.32 2.08
11.63 28.17 2.13
11.42 29.30 2.20
11.19 30.52 2.28
10.92 31.73 2.35
7.62 23.68 1.74
2.27 7.56 0.55
9.97 35.86 2.61
9.63 37.52 2.72
9.06 38.51 2.78
7.84 36.62 2.64
6.44 33.33 2.39
5.77 33.43 2.39
5.09 33.51 2.39
4.41 33.58 2.39
3.74 33.64 2.39
3.06 33.68 2.39
2.48 35.16 2.49
1.77 35.17 2.49
1.07 35.17 2.49
0.36 35.16 2.49
-0.34 35.13 2.49
-1.05 35.08 2.49
-1.75 35.02 2.49
-2.45 34.95 2.49
-3.15 34.86 2.49
-3.84 34.76 2.49
-4.54 34.64 2.49
-5.23 34.51 2.49
-5.67 32.95 2.39
-6.32 32.79 2.39
-6.97 32.63 2.39
-7.62 32.45 2.39
-3.82 14.90 1.10
-3.94 14.19 1.06
-4.23 14.12 1.06
-4.51 14.04 1.06
-4.79 13.95 1.06
-9.80 26.77 2.06
-9.89 25.41 1.97
-10.07 24.42 1.91
-10.16 23.30 1.84
-10.47 22.75 1.81
-10.59 21.85 1.76
-10.92 21.42 1.75
-11.26 21.02 1.73
-11.54 20.56 1.72
-11.75 19.97 1.69
-11.90 19.34 1.66
-12.05 18.72 1.62
-12.10 18.00 1.58
-12.15 17.31 1.55
-12.30 16.80 1.52
-12.36 16.18 1.49
-12.40 15.59 1.46
-12.51 15.09 1.44
-12.64 14.63 1.42
-12.72 14.15 1.40
-12.80 13.67 1.38
-12.72 13.05 1.34
-12.69 12.50 1.32
-12.72 12.04 1.29
-12.75 11.60 1.28
-12.69 11.09 1.25
-12.63 10.59 1.22
-12.62 10.16 1.20
-12.60 9.74 1.18
-12.59 9.33 1.17
-12.61 8.95 1.15
-12.63 8.59 1.14
-12.62 8.22 1.12
-12.61 7.86 1.11
-12.60 7.50 1.10
-12.59 7.16 1.08
-12.57 6.82 1.07
-12.57 6.50 1.06
-12.60 6.19 1.05
-12.62 5.89 1.05
-12.65 5.60 1.04
-12.67 5.31 1.03
-12.69 5.02 1.03
-12.68 4.72 1.02
-12.67 4.43 1.01
-11.49 3.76 0.91
-11.27 3.44 0.89
-11.29 3.20 0.89
-12.55 3.29 0.98
-12.52 3.01 0.98
-12.50 2.74 0.97
-12.47 2.47 0.96
-12.43 2.21 0.96
-12.39 1.95 0.95
-12.35 1.69 0.95
-12.31 1.43 0.94
-12.27 1.18 0.94
-12.20 0.92 0.93
-12.13 0.67 0.93
-12.08 0.43 0.92
-12.08 0.18 0.92
-12.06 -0.06 0.92
-12.03 -0.30 0.92
-12.01 -0.54 0.92
-11.98 -0.78 0.92
-11.96 -1.02 0.92
-11.93 -1.26 0.92
-11.90 -1.50 0.92
-11.92 -1.74 0.92
-11.94 -1.99 0.93
-11.95 -2.24 0.93
-11.97 -2.50 0.94
-11.98 -2.75 0.94
-11.99 -3.01 0.95
-12.01 -3.27 0.96
-12.02 -3.53 0.96
-12.02 -3.80 0.97
-12.01 -4.06 0.98
-11.98 -4.32 0.98
-11.96 -4.59 0.99
-11.93 -4.85 0.99
-11.90 -5.12 1.00
-11.88 -5.40 1.01
-11.85 -5.68 1.01
-11.86 -5.97 1.02
-11.86 -6.27 1.03
-11.85 -6.58 1.05
-11.84 -6.89 1.06
-11.84 -7.21 1.07
-11.83 -7.53 1.08
-11.83 -7.87 1.10
-11.85 -8.23 1.11
-11.96 -8.67 1.14
-12.15 -9.19 1.18
-12.33 -9.72 1.21
-12.30 -10.10 1.23
-12.21 -10.44 1.24
-12.12 -10.80 1.25
-12.03 -11.16 1.27
-11.93 -11.52 1.28
-11.88 -11.94 1.30
-11.88 -12.43 1.33
-11.84 -12.89 1.35
-11.77 -13.35 1.37
-11.72 -13.84 1.40
-11.72 -14.42 1.43
-11.75 -15.06 1.47
-11.85 -15.84 1.52
-11.84 -16.51 1.57
-12.00 -17.47 1.63
-7.14 -10.85 1.00
-12.75 -20.24 1.84
-12.51 -20.79 1.87
-12.27 -21.35 1.89
-12.04 -21.95 1.92
-12.01 -22.97 1.99
-11.83 -23.79 2.04
-11.78 -24.93 2.12
-11.98 -26.73 2.25
-12.04 -28.36 2.36
-11.85 -29.55 2.44
-11.03 -29.19 2.39
-10.44 -29.42 2.39
-9.86 -29.64 2.39
-9.26 -29.85 2.39
-8.67 -30.05 2.39
-8.07 -30.23 2.39
-7.55 -30.74 2.42
-7.15 -31.89 2.49
-6.51 -32.05 2.49
-5.87 -32.19 2.49
-5.23 -32.33 2.49
-4.58 -32.45 2.49
-3.93 -32.56 2.49
-3.28 -32.65 2.49
-2.63 -32.74 2.49
-1.97 -32.81 2.49
-1.31 -32.87 2.49
-0.65 -32.91 2.49
0.01 -25.35 2.49
0.52 -25.36 2.49
0.98 -24.31 2.39
1.47 -24.30 2.39
1.96 -24.28 2.39
2.45 -24.25 2.39
2.94 -24.22 2.39
3.43 -24.17 2.39
3.91 -24.11 2.39
4.40 -24.05 2.39
5.13 -25.19 2.51
5.52 -24.53 2.46
5.88 -23.91 2.40
6.26 -23.42 2.36
6.75 -23.37 2.37
5.60 -18.02 1.84
5.99 -17.97 1.84
1.55 -4.36 0.45
1.63 -4.31 0.45
1.73 -4.31 0.45
1.83 -4.32 0.45
1.94 -4.32 0.46
2.05 -4.32 0.46
2.15 -4.33 0.47
10.12 -19.33 2.11
10.47 -19.06 2.10
10.82 -18.81 2.09
11.15 -18.50 2.08
11.00 -17.46 1.99
10.80 -16.39 1.89
10.72 -15.59 1.82
10.55 -14.70 1.74
10.54 -14.08 1.69
10.58 -13.56 1.65
10.65 -13.09 1.62
10.72 -12.65 1.59
10.82 -12.26 1.57
10.93 -11.90 1.55
11.04 -11.55 1.53
11.15 -11.20 1.51
11.25 -10.86 1.49
11.36 -10.52 1.48
11.44 -10.18 1.46
11.71 -10.01 1.47
11.91 -9.77 1.47
12.08 -9.52 1.46
12.26 -9.26 1.46
12.38 -8.97 1.45
12.33 -8.56 1.42
12.29 -8.17 1.40
12.26 -7.80 1.38
12.23 -7.44 1.35
12.20 -7.09 1.33
12.17 -6.75 1.32
12.30 -6.50 1.31
12.32 -6.20 1.30
12.28 -5.88 1.28
12.25 -5.56 1.27
12.21 -5.25 1.25
12.18 -4.95 1.24
12.14 -4.65 1.22
12.07 -4.35 1.21
11.99 -4.05 1.19
11.87 -3.75 1.17
11.76 -3.45 1.15
11.64 -3.17 1.13
11.53 -2.89 1.11
6.16 -1.41 0.59
6.14 -1.28 0.59
11.25 -2.11 1.07
11.20 -1.87 1.06
11.14 -1.63 1.05
11.09 -1.40 1.04
11.07 -1.17 1.04
11.06 -0.94 1.03
11.05 -0.72 1.03
11.04 -0.50 1.03
11.03 -0.27 1.03
11.02 -0.05 1.02
11.02 0.17 1.02
11.01 0.39 1.02
11.00 0.61 1.02
11.00 0.83 1.02
11.00 1.05 1.02
11.00 1.28 1.03
11.00 1.50 1.03
11.00 1.73 1.03
11.07 1.97 1.04
11.15 2.21 1.05
11.24 2.47 1.06
11.29 2.72 1.07
11.29 2.96 1.08
11.29 3.20 1.08
11.28 3.44 1.09
11.28 3.69 1.10
11.28 3.94 1.10
11.29 4.20 1.11
11.29 4.46 1.12
11.55 4.84 1.16
12.76 5.65 1.29
12.77 5.96 1.30
12.78 6.28 1.31
12.79 6.61 1.33
12.80 6.94 1.34
12.81 7.29 1.36
14.03 8.36 1.51
13.82 8.61 1.50
13.61 8.86 1.50
13.39 9.11 1.49
13.18 9.35 1.49
12.96 9.60 1.49
12.75 9.84 1.48
12.60 10.14 1.49
12.44 10.43 1.50
12.32 10.76 1.51
12.20 11.09 1.52
12.07 11.42 1.53
11.94 11.76 1.54
11.89 12.19 1.57
11.94 12.75 1.61
12.08 13.43 1.67
12.17 14.08 1.72
12.17 14.67 1.76
12.25 15.38 1.81
12.35 16.16 1.88
12.36 16.87 1.93
12.36 17.60 1.98
12.32 18.31 2.04
12.90 20.02 2.20
12.78 20.75 2.25
12.59 21.39 2.29
12.39 22.05 2.34
12.13 22.64 2.38
6.32 12.37 1.29
6.18 12.74 1.31
11.22 24.34 2.48
10.99 25.17 2.54
10.74 26.00 2.61
10.50 26.95 2.68
10.29 28.07 2.77
9.97 28.98 2.84
7.61 23.66 2.31
2.27 7.56 0.73
8.20 29.48 2.84
6.90 26.89 2.58
5.89 25.02 2.39
5.38 25.12 2.39
4.87 25.21 2.39
4.36 25.29 2.39
3.85 25.36 2.39
3.34 25.42 2.39
2.83 25.46 2.39
2.42 26.60 2.49
1.88 26.63 2.49
1.35 26.64 2.49
0.81 26.65 2.49
0.28 26.64 2.49
-0.26 26.62 2.49
-0.79 26.59 2.49
-1.33 26.56 2.49
-1.86 26.50 2.49
-2.39 26.44 2.49
-2.92 26.37 2.49
-3.44 26.29 2.49
-3.97 26.20 2.49
-4.49 26.09 2.49
-5.01 25.98 2.49
-5.52 25.85 2.49
-3.59 15.31 1.48
-3.82 14.91 1.45
-3.85 13.87 1.36
-3.88 12.96 1.28
-4.14 12.88 1.28
-4.43 12.89 1.29
-4.72 12.90 1.30
-5.02 12.91 1.31
-9.59 23.27 2.39
-9.95 22.82 2.37
-10.10 21.95 2.30
-10.30 21.25 2.25
-10.63 20.86 2.23
-10.80 20.18 2.18
-11.07 19.72 2.16
-11.39 19.37 2.15
-11.69 18.99 2.13
-11.78 18.32 2.08
-11.84 17.62 2.03
-11.90 16.95 1.98
-11.99 16.38 1.95
-12.05 15.78 1.91
-12.10 15.21 1.87
-12.21 14.73 1.84
-12.30 14.25 1.81
-12.39 13.78 1.78
-12.47 13.33 1.76
-12.40 12.73 1.71
-12.44 12.26 1.69
-12.47 11.81 1.66
-12.51 11.38 1.63
-12.47 10.89 1.60
-12.43 10.43 1.57
-12.42 10.00 1.55
-12.41 9.59 1.52
-12.40 9.19 1.50
-12.41 8.82 1.48
-12.42 8.45 1.46
-12.42 8.09 1.44
-12.41 7.73 1.42
-12.40 7.39 1.41
-12.39 7.05 1.39
-12.38 6.72 1.37
-12.40 6.41 1.36
-12.42 6.11 1.35
-12.45 5.81 1.34
-12.47 5.52 1.34
-12.50 5.24 1.33
-12.52 4.95 1.32
-12.52 4.67 1.31
-12.50 4.37 1.30
-11.49 3.76 1.19
-11.27 3.44 1.16
-11.27 3.20 1.15
-11.97 3.14 1.22
-12.37 2.98 1.25
-12.34 2.71 1.24
-12.31 2.44 1.24
-12.27 2.18 1.23
-12.23 1.92 1.22
-12.16 1.66 1.21
-12.09 1.40 1.20
-12.02 1.15 1.19
-11.95 0.90 1.19
-11.88 0.66 1.18
-11.83 0.42 1.17
-11.85 0.18 1.17
-11.85 -0.06 1.17
-11.82 -0.29 1.17
-11.80 -0.53 1.17
-11.78 -0.77 1.17
-11.75 -1.00 1.17
-11.73 -1.24 1.17
-11.70 -1.47 1.17
-11.70 -1.71 1.18
-11.72 -1.96 1.18
-11.74 -2.20 1.19
-11.76 -2.45 1.20
-11.77 -2.70 1.20
-11.78 -2.95 1.21
-11.79 -3.21 1.22
-11.80 -3.47 1.23
-11.81 -3.73 1.23
-11.80 -3.99 1.24
-11.80 -4.25 1.25
-11.77 -4.51 1.26
-11.74 -4.78 1.26
-11.71 -5.04 1.27
-11.69 -5.31 1.28
-11.66 -5.58 1.29
-11.65 -5.87 1.30
-11.65 -6.16 1.32
-11.65 -6.47 1.33
-11.64 -6.77 1.34
-11.63 -7.08 1.36
-11.62 -7.40 1.38
-11.61 -7.73 1.39
-11.62 -8.08 1.41
-11.63 -8.43 1.44
-11.72 -8.86 1.47
-11.91 -9.39 1.51
-12.01 -9.86 1.55
-12.00 -10.26 1.58
-11.92 -10.62 1.59
-11.83 -10.97 1.61
-11.73 -11.33 1.63
-11.64 -11.70 1.65
-11.62 -12.16 1.68
-11.61 -12.65 1.71
-11.57 -13.12 1.75
-11.50 -13.59 1.78
-11.47 -14.12 1.82
-11.47 -14.70 1.86
-11.49 -15.36 1.91
-11.54 -16.09 1.97
-11.53 -16.77 2.03
-7.14 -10.85 1.29
-11.65 -18.50 2.18
-12.07 -20.05 2.33
-11.99 -20.86 2.40
-11.75 -21.41 2.43
-11.13 -21.29 2.39
-10.70 -21.51 2.39
-10.27 -21.73 2.39
-9.83 -21.94 2.39
-9.39 -22.14 2.39
-8.95 -22.33 2.39
-8.51 -22.52 2.39
-8.05 -22.69 2.39
-7.60 -22.86 2.39
-7.30 -23.53 2.44
-6.97 -24.17 2.49
-6.49 -24.31 2.49
-6.00 -24.45 2.49
-5.51 -24.58 2.49
-5.02 -24.70 2.49
-4.52 -24.81 2.49
-4.03 -24.91 2.49
-3.53 -24.99 2.49
-3.03 -25.07 2.49
-2.53 -25.14 2.49
-2.02 -25.20 2.49
-1.52 -25.26 2.49
-1.01 -25.30 2.49
-0.50 -25.33 2.49
0.01 -20.58 2.49
0.42 -20.59 2.49
0.83 -20.58 2.49
1.20 -19.72 2.39
1.59 -19.70 2.39
1.99 -19.68 2.39
2.39 -19.65 2.39
2.78 -19.61 2.39
3.18 -19.56 2.39
3.57 -19.50 2.39
3.96 -19.44 2.39
4.36 -19.36 2.39
4.75 -19.28 2.39
5.56 -20.78 2.59
6.03 -20.87 2.61
5.61 -18.03 2.27
5.99 -17.98 2.28
1.54 -4.34 0.55
1.63 -4.31 0.55
1.73 -4.31 0.56
1.83 -4.32 0.56
1.94 -4.32 0.57
2.05 -4.32 0.57
2.15 -4.33 0.58
9.44 -18.04 2.43
9.58 -17.45 2.38
9.72 -16.88 2.32
9.70 -16.09 2.24
9.69 -15.36 2.16
9.67 -14.68 2.09
9.70 -14.10 2.04
9.76 -13.59 1.99
9.81 -13.10 1.95
9.87 -12.64 1.90
9.97 -12.26 1.88
10.10 -11.91 1.85
10.22 -11.57 1.83
10.33 -11.24 1.81
10.44 -10.91 1.79
10.55 -10.59 1.77
10.65 -10.27 1.75
10.73 -9.94 1.73
10.81 -9.62 1.71
11.01 -9.41 1.71
11.28 -9.25 1.72
11.55 -9.09 1.73
11.81 -8.92 1.74
11.98 -8.68 1.74
11.97 -8.31 1.71
11.95 -7.94 1.69
11.92 -7.59 1.66
11.90 -7.24 1.64
11.88 -6.90 1.61
11.81 -6.55 1.58
11.75 -6.21 1.56
11.71 -5.90 1.54
11.67 -5.58 1.51
11.63 -5.28 1.49
11.58 -4.98 1.47
11.54 -4.69 1.46
11.49 -4.41 1.44
11.44 -4.12 1.42
11.39 -3.85 1.40
11.30 -3.57 1.38
11.20 -3.29 1.36
11.09 -3.02 1.34
10.99 -2.76 1.32
6.16 -1.41 0.73
6.14 -1.28 0.73
10.77 -2.02 1.27
10.72 -1.79 1.26
10.67 -1.56 1.25
10.63 -1.34 1.24
10.58 -1.12 1.23
10.53 -0.90 1.23
10.49 -0.68 1.22
10.48 -0.47 1.22
10.47 -0.26 1.21
10.47 -0.05 1.21
10.46 0.16 1.21
10.46 0.37 1.21
10.45 0.58 1.21
10.44 0.79 1.21
10.43 1.00 1.21
10.42 1.21 1.21
10.41 1.42 1.21
10.40 1.63 1.22
10.43 1.85 1.22
10.50 2.08 1.23
10.57 2.32 1.25
10.64 2.56 1.26
10.71 2.81 1.28
10.79 3.06 1.29
10.81 3.30 1.30
10.80 3.53 1.31
10.79 3.77 1.32
10.79 4.02 1.33
10.79 4.27 1.34
10.80 4.52 1.35
10.80 4.78 1.36
10.80 5.04 1.37
11.84 5.82 1.52
11.87 6.13 1.54
11.87 6.44 1.55
11.86 6.74 1.57
11.85 7.06 1.58
11.83 7.37 1.60
11.82 7.69 1.62
11.91 8.10 1.65
11.92 8.46 1.68
11.86 8.78 1.69
11.80 9.11 1.71
11.73 9.44 1.73
11.66 9.77 1.75
11.62 10.14 1.77
11.58 10.52 1.80
11.50 10.88 1.82
11.37 11.20 1.83
11.24 11.53 1.85
11.11 11.86 1.87
11.07 12.30 1.90
11.05 12.78 1.94
11.02 13.29 1.99
11.09 13.92 2.05
11.02 14.42 2.09
10.94 14.93 2.13
10.86 15.45 2.17
10.82 16.08 2.23
10.91 16.93 2.32
10.97 17.81 2.41
10.88 18.48 2.47
10.77 19.15 2.53
6.90 12.87 1.68
6.32 12.38 1.60
6.18 12.74 1.63
9.94 21.58 2.74
9.69 22.20 2.79
9.45 22.88 2.86
9.19 23.58 2.92
8.91 24.28 2.99
7.82 22.71 2.77
6.95 21.60 2.62
2.27 7.56 0.91
5.54 19.91 2.39
5.14 20.01 2.39
4.73 20.10 2.39
4.32 20.18 2.39
3.92 20.26 2.39
3.51 20.32 2.39
3.10 20.38 2.39
2.69 20.43 2.39
2.28 20.47 2.39
1.94 21.38 2.49
1.51 21.41 2.49
1.08 21.42 2.49
0.65 21.43 2.49
0.22 21.43 2.49
-0.21 21.42 2.49
-0.64 21.40 2.49
-1.07 21.37 2.49
-1.49 21.33 2.49
-1.92 21.28 2.49
-2.34 21.23 2.49
-2.77 21.17 2.49
-3.19 21.09 2.49
-3.61 21.01 2.49
-4.03 20.92 2.49
-4.45 20.83 2.49
-3.51 14.94 1.80
-3.54 13.84 1.68
-3.57 12.88 1.57
-3.78 12.64 1.55
-4.06 12.65 1.56
-4.35 12.66 1.57
-4.64 12.67 1.59
-4.93 12.68 1.60
-5.23 12.69 1.62
-8.11 18.60 2.39
-8.47 18.42 2.39
-8.84 18.23 2.39
-9.19 18.04 2.39
-9.55 17.84 2.39
-9.90 17.63 2.39
-10.87 18.50 2.54
-11.01 17.89 2.49
-11.16 17.35 2.44
-11.30 16.82 2.40
-11.44 16.30 2.36
-11.57 15.80 2.32
-11.69 15.31 2.29
-11.80 14.84 2.25
-11.89 14.35 2.22
-11.99 13.88 2.18
-12.08 13.43 2.15
-12.16 12.99 2.12
-12.15 12.47 2.08
-12.19 12.02 2.04
-12.23 11.59 2.01
-12.27 11.16 1.98
-12.25 10.70 1.94
-12.23 10.26 1.91
-12.23 9.85 1.88
-12.22 9.44 1.85
-12.21 9.05 1.82
-12.22 8.68 1.80
-12.22 8.32 1.77
-12.22 7.96 1.75
-12.21 7.62 1.73
-12.21 7.28 1.71
-12.20 6.94 1.69
-12.20 6.62 1.67
-12.22 6.32 1.66
-12.25 6.03 1.65
-12.28 5.74 1.63
-12.30 5.45 1.62
-12.33 5.17 1.61
-12.36 4.89 1.60
-12.36 4.61 1.59
-12.34 4.32 1.58
-11.50 3.77 1.46
-11.27 3.44 1.43
-11.26 3.19 1.42
-11.96 3.13 1.50
-12.21 2.94 1.52
-12.15 2.67 1.51
-12.11 2.41 1.50
-12.04 2.14 1.48
-11.97 1.88 1.47
-11.90 1.63 1.46
-11.84 1.38 1.45
-11.77 1.13 1.44
-11.70 0.89 1.43
-11.64 0.65 1.42
-11.59 0.41 1.41
-11.61 0.18 1.41
-11.62 -0.06 1.42
-11.62 -0.29 1.42
-11.60 -0.52 1.42
-11.58 -0.75 1.42
-11.55 -0.98 1.42
-11.53 -1.22 1.42
-11.50 -1.45 1.42
-11.50 -1.68 1.42
-11.52 -1.92 1.43
-11.54 -2.16 1.44
-11.55 -2.41 1.44
-11.57 -2.65 1.45
-11.58 -2.90 1.46
-11.59 -3.15 1.47
-11.60 -3.41 1.48
-11.60 -3.66 1.49
-11.60 -3.92 1.50
-11.59 -4.18 1.51
-11.58 -4.44 1.52
-11.56 -4.70 1.53
-11.53 -4.96 1.54
-11.50 -5.22 1.55
-11.47 -5.49 1.56
-11.45 -5.77 1.57
-11.45 -6.06 1.59
-11.44 -6.35 1.61
-11.44 -6.66 1.62
-11.43 -6.96 1.64
-11.42 -7.27 1.66
-11.41 -7.59 1.68
-11.41 -7.92 1.70
-11.41 -8.27 1.73
-11.42 -8.63 1.76
-11.49 -9.06 1.80
-11.67 -9.58 1.85
-11.69 -10.00 1.89
-11.68 -10.40 1.92
-11.64 -10.79 1.95
-11.54 -11.14 1.97
-11.44 -11.50 1.99
-11.38 -11.90 2.02
-11.36 -12.38 2.06
-11.35 -12.87 2.10
-11.31 -13.36 2.15
-11.24 -13.83 2.18
-11.23 -14.40 2.24
-11.21 -14.99 2.29
-11.23 -15.66 2.36
-11.05 -16.08 2.39
-7.12 -10.82 1.59
-10.40 -16.52 2.39
-10.07 -16.73 2.39
-9.73 -16.93 2.39
-9.39 -17.13 2.39
-9.05 -17.32 2.39
-8.70 -17.50 2.39
-8.35 -17.68 2.39
-8.00 -17.85 2.39
-7.64 -18.01 2.39
-7.28 -18.17 2.39
-7.15 -18.93 2.47
-6.83 -19.25 2.49
-6.45 -19.39 2.49
-6.06 -19.52 2.49
-5.67 -19.65 2.49
-5.27 -19.77 2.49
-4.88 -19.88 2.49
-4.48 -19.98 2.49
-4.08 -20.07 2.49
-3.68 -20.16 2.49
-3.27 -20.24 2.49
-2.87 -20.31 2.49
-2.46 -20.37 2.49
-2.05 -20.43 2.49
-1.64 -20.47 2.49
-1.23 -20.51 2.49
-0.82 -20.54 2.49
-0.41 -20.56 2.49
0.01 -17.31 2.49
0.36 -17.31 2.49
0.70 -17.31 2.49
1.01 -16.58 2.39
1.34 -16.57 2.39
1.67 -16.54 2.39
2.01 -16.51 2.39
2.34 -16.48 2.39
2.67 -16.44 2.39
3.00 -16.39 2.39
3.33 -16.33 2.39
3.66 -16.27 2.39
3.99 -16.20 2.39
4.31 -16.12 2.39
4.64 -16.04 2.39
4.96 -15.95 2.39
5.89 -17.66 2.66
6.38 -17.94 2.72
1.63 -4.31 0.66
1.73 -4.31 0.66
1.83 -4.32 0.67
1.94 -4.32 0.68
2.05 -4.32 0.68
2.15 -4.32 0.69
8.51 -16.26 2.61
8.72 -15.88 2.58
8.81 -15.30 2.51
8.83 -14.65 2.43
8.92 -14.15 2.38
9.03 -13.70 2.33
9.10 -13.22 2.28
9.16 -12.76 2.23
9.22 -12.31 2.18
9.30 -11.91 2.14
9.43 -11.59 2.12
9.55 -11.27 2.09
9.67 -10.96 2.07
9.79 -10.65 2.04
9.90 -10.34 2.02
9.99 -10.03 2.00
10.08 -9.72 1.98
10.17 -9.42 1.95
10.25 -9.12 1.93
10.39 -8.88 1.93
10.64 -8.73 1.94
10.89 -8.57 1.95
11.13 -8.41 1.96
11.23 -8.13 1.95
11.29 -7.84 1.93
11.23 -7.46 1.89
11.16 -7.10 1.86
11.09 -6.75 1.82
11.02 -6.41 1.79
11.01 -6.11 1.76
11.00 -5.82 1.74
10.99 -5.53 1.72
10.96 -5.24 1.70
10.93 -4.96 1.68
10.90 -4.69 1.66
10.87 -4.42 1.64
10.83 -4.15 1.62
10.78 -3.89 1.60
10.74 -3.63 1.58
10.70 -3.38 1.56
10.65 -3.13 1.55
10.60 -2.88 1.53
10.51 -2.63 1.51
6.16 -1.41 0.88
6.14 -1.28 0.87
10.32 -1.93 1.46
10.28 -1.71 1.45
10.24 -1.50 1.44
10.20 -1.28 1.43
10.15 -1.07 1.42
10.11 -0.86 1.41
10.07 -0.65 1.40
10.03 -0.45 1.39
10.01 -0.25 1.39
10.01 -0.05 1.39
10.01 0.15 1.39
10.01 0.35 1.39
10.01 0.56 1.39
10.01 0.76 1.39
10.00 0.96 1.39
10.00 1.16 1.39
10.00 1.37 1.40
9.99 1.57 1.40
9.99 1.78 1.40
9.99 1.98 1.41
10.03 2.20 1.42
10.07 2.42 1.43
10.12 2.65 1.44
10.16 2.88 1.46
10.22 3.12 1.47
10.28 3.36 1.49
10.34 3.62 1.51
10.34 3.85 1.52
10.34 4.09 1.53
10.33 4.33 1.54
10.33 4.57 1.56
10.33 4.82 1.57
10.32 5.07 1.59
10.31 5.33 1.60
10.30 5.59 1.62
10.37 5.89 1.64
10.36 6.17 1.66
10.36 6.45 1.68
10.35 6.74 1.70
10.34 7.03 1.72
10.32 7.33 1.74
10.31 7.64 1.77
10.32 7.97 1.80
10.41 8.37 1.84
10.50 8.80 1.89
10.60 9.25 1.94
10.65 9.68 1.98
10.58 10.01 2.01
10.52 10.37 2.04
10.46 10.73 2.07
10.41 11.11 2.10
10.36 11.51 2.13
10.30 11.92 2.17
10.26 12.37 2.22
10.22 12.83 2.26
10.17 13.31 2.31
10.12 13.81 2.36
10.04 14.29 2.41
9.94 14.77 2.46
9.84 15.28 2.51
9.74 15.81 2.56
9.62 16.34 2.62
9.49 16.88 2.67
6.87 12.81 2.01
6.32 12.38 1.92
6.19 12.74 1.96
8.86 19.23 2.93
8.49 19.44 2.93
7.76 18.78 2.81
6.96 17.86 2.65
5.95 16.22 2.39
5.62 16.33 2.39
5.29 16.43 2.39
2.27 7.56 1.09
4.62 16.62 2.39
4.29 16.71 2.39
3.95 16.78 2.39
3.61 16.85 2.39
3.27 16.92 2.39
2.93 16.97 2.39
2.59 17.02 2.39
2.25 17.06 2.39
1.98 17.83 2.49
1.63 17.86 2.49
1.27 17.89 2.49
0.91 17.90 2.49
0.55 17.91 2.49
0.19 17.91 2.49
-0.17 17.90 2.49
-0.53 17.88 2.49
-0.89 17.86 2.49
-1.25 17.83 2.49
-1.60 17.79 2.49
-1.96 17.75 2.49
-2.31 17.70 2.49
-2.67 17.64 2.49
-3.02 17.57 2.49
-3.37 17.50 2.49
-3.72 17.42 2.49
-3.28 14.01 2.02
-3.54 13.85 2.00
-3.57 12.88 1.87
-3.78 12.65 1.85
-4.06 12.66 1.87
-4.35 12.67 1.88
-4.64 12.68 1.90
-4.93 12.69 1.91
-5.23 12.70 1.93
-5.15 11.82 1.81
-5.35 11.63 1.80
-7.40 15.27 2.39
-7.70 15.11 2.39
-8.00 14.94 2.39
-8.29 14.77 2.39
-8.58 14.60 2.39
-8.87 14.41 2.39
-9.15 14.22 2.39
-9.43 14.03 2.39
-9.70 13.83 2.39
-9.97 13.62 2.39
-10.98 14.39 2.56
-11.11 13.96 2.53
-11.30 13.63 2.51
-11.48 13.30 2.49
-11.66 12.97 2.48
-11.83 12.64 2.46
-11.91 12.23 2.43
-11.96 11.79 2.39
-12.00 11.37 2.35
-12.04 10.96 2.32
-12.05 10.53 2.28
-12.04 10.11 2.24
-12.04 9.70 2.20
-12.04 9.30 2.17
-12.03 8.92 2.14
-12.03 8.55 2.11
-12.02 8.18 2.08
-11.99 7.81 2.05
-11.95 7.45 2.01
-11.91 7.10 1.99
-11.88 6.76 1.96
-11.91 6.46 1.94
-11.98 6.20 1.93
-12.04 5.92 1.92
-12.10 5.65 1.92
-12.14 5.38 1.91
-12.17 5.10 1.89
-12.19 4.82 1.88
-12.21 4.55 1.87
-12.19 4.27 1.86
-11.50 3.77 1.74
-11.27 3.44 1.70
-11.24 3.19 1.68
-11.94 3.13 1.78
-11.88 2.86 1.76
-11.81 2.59 1.74
-11.78 2.34 1.73
-11.78 2.09 1.73
-11.72 1.84 1.71
-11.66 1.59 1.70
-11.59 1.35 1.69
-11.53 1.11 1.67
-11.47 0.87 1.66
-11.40 0.63 1.65
-11.36 0.40 1.65
-11.38 0.18 1.65
-11.39 -0.05 1.65
-11.40 -0.28 1.65
-11.40 -0.51 1.65
-11.38 -0.74 1.65
-11.36 -0.97 1.65
-11.33 -1.20 1.65
-11.31 -1.42 1.65
-11.30 -1.65 1.66
-11.32 -1.89 1.67
-11.33 -2.13 1.67
-11.35 -2.37 1.68
-11.37 -2.61 1.69
-11.38 -2.85 1.70
-11.39 -3.10 1.71
-11.39 -3.35 1.73
-11.40 -3.60 1.74
-11.40 -3.85 1.75
-11.39 -4.11 1.76
-11.38 -4.36 1.77
-11.37 -4.62 1.79
-11.35 -4.88 1.80
-11.32 -5.14 1.81
-11.29 -5.40 1.82
-11.26 -5.67 1.83
-11.25 -5.95 1.85
-11.25 -6.24 1.87
-11.24 -6.54 1.89
-11.23 -6.84 1.92
-11.22 -7.15 1.94
-11.21 -7.46 1.96
-11.20 -7.78 1.99
-11.20 -8.12 2.01
-11.20 -8.47 2.05
-11.20 -8.83 2.08
-11.26 -9.25 2.12
-11.40 -9.75 2.18
-11.38 -10.14 2.22
-11.36 -10.53 2.26
-11.33 -10.94 2.29
-11.25 -11.31 2.32
-11.15 -11.67 2.35
-11.12 -12.11 2.39
-10.86 -12.32 2.39
-10.61 -12.54 2.39
-10.36 -12.75 2.39
-10.10 -12.96 2.39
-9.84 -13.16 2.39
-9.58 -13.36 2.39
-9.31 -13.55 2.39
-7.12 -10.82 1.88
-8.76 -13.92 2.39
-8.48 -14.09 2.39
-8.20 -14.26 2.39
-7.91 -14.43 2.39
-7.62 -14.59 2.39
-7.33 -14.74 2.39
-7.03 -14.89 2.39
-7.03 -15.68 2.49
-6.71 -15.82 2.49
-6.39 -15.96 2.49
-6.07 -16.09 2.49
-5.75 -16.21 2.49
-5.43 -16.33 2.49
-5.10 -16.44 2.49
-4.77 -16.54 2.49
-4.44 -16.64 2.49
-4.10 -16.73 2.49
-3.77 -16.81 2.49
-3.43 -16.89 2.49
-3.09 -16.96 2.49
-2.75 -17.03 2.49
-2.41 -17.09 2.49
-2.07 -17.14 2.49
-1.72 -17.18 2.49
-1.38 -17.22 2.49
-1.03 -17.25 2.49
-0.69 -17.28 2.49
-0.34 -17.30 2.49
0.01 -14.92 2.49
0.31 -14.92 2.49
0.61 -14.92 2.49
0.91 -14.91 2.49
1.16 -14.28 2.39
1.44 -14.26 2.39
1.73 -14.23 2.39
2.02 -14.20 2.39
2.30 -14.16 2.39
2.59 -14.12 2.39
2.87 -14.07 2.39
3.15 -14.01 2.39
3.44 -13.95 2.39
3.72 -13.89 2.39
4.00 -13.82 2.39
4.28 -13.74 2.39
4.55 -13.66 2.39
4.83 -13.57 2.39
1.65 -4.37 0.77
1.73 -4.31 0.77
1.84 -4.32 0.78
1.94 -4.32 0.78
2.05 -4.32 0.79
7.70 -15.44 2.86
7.90 -15.09 2.82
8.04 -14.63 2.76
8.14 -14.14 2.70
8.28 -13.73 2.65
8.41 -13.33 2.60
8.50 -12.89 2.55
8.57 -12.46 2.49
8.64 -12.03 2.44
8.71 -11.62 2.39
8.81 -11.28 2.36
8.94 -10.98 2.33
9.06 -10.68 2.31
9.18 -10.39 2.28
9.25 -10.06 2.25
9.35 -9.76 2.22
9.45 -9.48 2.20
9.55 -9.21 2.18
9.64 -8.93 2.16
9.74 -8.66 2.14
9.83 -8.40 2.12
9.96 -8.17 2.11
10.06 -7.92 2.10
10.16 -7.67 2.08
10.25 -7.42 2.07
10.34 -7.17 2.06
10.41 -6.92 2.04
10.36 -6.59 2.01
10.33 -6.28 1.97
10.33 -6.00 1.95
10.33 -5.73 1.93
10.33 -5.46 1.91
10.33 -5.20 1.89
10.32 -4.94 1.86
10.31 -4.68 1.84
10.29 -4.42 1.82
10.26 -4.17 1.80
10.23 -3.92 1.78
10.19 -3.67 1.76
10.16 -3.43 1.74
10.13 -3.19 1.73
10.09 -2.96 1.71
10.05 -2.73 1.69
10.01 -2.51 1.68
6.16 -1.41 1.02
6.13 -1.28 1.02
9.94 -1.86 1.64
9.92 -1.65 1.63
9.90 -1.45 1.62
9.88 -1.24 1.61
9.86 -1.04 1.60
9.84 -0.84 1.60
9.81 -0.64 1.59
9.79 -0.44 1.58
9.77 -0.24 1.58
9.76 -0.05 1.58
9.75 0.15 1.58
9.75 0.35 1.58
9.75 0.54 1.58
9.75 0.74 1.58
9.75 0.94 1.58
9.75 1.13 1.58
9.74 1.33 1.59
9.74 1.53 1.59
9.73 1.73 1.59
9.72 1.93 1.60
9.71 2.13 1.60
9.72 2.34 1.61
9.75 2.56 1.62
9.79 2.78 1.64
9.83 3.00 1.65
9.86 3.23 1.67
9.90 3.46 1.69
9.93 3.70 1.71
9.95 3.93 1.72
9.94 4.16 1.73
9.94 4.40 1.75
9.93 4.64 1.76
9.93 4.88 1.78
9.92 5.12 1.80
9.91 5.37 1.81
9.90 5.63 1.83
9.89 5.89 1.85
9.87 6.15 1.87
9.87 6.42 1.89
9.86 6.71 1.92
9.86 7.00 1.94
9.85 7.30 1.97
9.85 7.60 2.00
9.84 7.91 2.03
9.79 8.21 2.05
9.76 8.52 2.08
9.78 8.89 2.13
9.81 9.28 2.17
9.84 9.69 2.22
9.83 10.07 2.26
9.76 10.42 2.30
9.70 10.78 2.33
9.64 11.16 2.37
9.58 11.54 2.41
9.51 11.94 2.46
9.45 12.37 2.50
9.39 12.81 2.56
9.32 13.27 2.61
9.25 13.74 2.67
9.16 14.21 2.72
9.04 14.67 2.77
8.91 15.14 2.83
8.78 15.63 2.89
6.84 12.76 2.33
6.32 12.38 2.24
6.19 12.74 2.28
6.88 14.92 2.65
5.93 13.58 2.39
5.66 13.70 2.39
5.38 13.80 2.39
5.10 13.90 2.39
4.82 14.00 2.39
4.54 14.09 2.39
2.27 7.55 1.27
3.97 14.25 2.39
3.68 14.33 2.39
3.39 14.39 2.39
3.10 14.45 2.39
2.81 14.51 2.39
2.51 14.56 2.39
2.23 14.67 2.40
2.01 15.27 2.49
1.70 15.30 2.49
1.40 15.32 2.49
1.09 15.34 2.49
0.78 15.36 2.49
0.47 15.36 2.49
0.16 15.36 2.49
-0.15 15.36 2.49
-0.45 15.35 2.49
-0.76 15.33 2.49
-1.07 15.30 2.49
-1.38 15.27 2.49
-1.68 15.24 2.49
-1.99 15.19 2.49
-2.29 15.14 2.49
-2.59 15.09 2.49
-2.89 15.03 2.49
-3.19 14.96 2.49
-3.30 14.10 2.36
-3.57 13.97 2.35
-3.57 12.89 2.18
-3.43 11.49 1.96
-3.67 11.43 1.96
-4.35 12.67 2.19
-4.64 12.68 2.21
-4.93 12.69 2.23
-5.23 12.70 2.25
-5.05 11.60 2.07
-5.27 11.46 2.07
-5.59 11.54 2.10
-6.62 12.99 2.39
-6.87 12.85 2.39
-7.12 12.70 2.39
-7.37 12.55 2.39
-7.62 12.39 2.39
-7.86 12.23 2.39
-8.10 12.06 2.39
-8.34 11.89 2.39
-8.57 11.72 2.39
-8.80 11.54 2.39
-9.03 11.35 2.39
-9.25 11.16 2.39
-9.47 10.97 2.39
-9.68 10.77 2.39
-9.89 10.57 2.39
-10.10 10.37 2.39
-11.30 11.15 2.62
-11.42 10.82 2.60
-11.49 10.46 2.57
-11.49 10.04 2.53
-11.44 9.60 2.47
-11.39 9.18 2.42
-11.34 8.77 2.38
-11.34 8.41 2.34
-11.37 8.08 2.31
-11.37 7.75 2.28
-11.35 7.40 2.25
-11.33 7.07 2.22
-11.30 6.74 2.19
-11.34 6.45 2.17
-11.44 6.21 2.17
-11.54 5.97 2.16
-11.60 5.71 2.15
-11.66 5.45 2.14
-11.72 5.19 2.14
-11.78 4.94 2.13
-11.83 4.68 2.12
-11.87 4.43 2.11
-11.86 4.15 2.10
-11.50 3.77 2.02
-11.27 3.45 1.97
-11.23 3.19 1.95
-11.61 3.04 2.01
-11.55 2.78 1.99
-11.49 2.52 1.97
-11.48 2.28 1.96
-11.47 2.04 1.95
-11.46 1.80 1.94
-11.42 1.56 1.93
-11.36 1.32 1.92
-11.30 1.09 1.90
-11.24 0.85 1.89
-11.18 0.62 1.88
-11.14 0.40 1.87
-11.15 0.17 1.87
-11.16 -0.05 1.87
-11.18 -0.28 1.88
-11.19 -0.50 1.88
-11.19 -0.73 1.88
-11.17 -0.95 1.88
-11.14 -1.17 1.88
-11.12 -1.40 1.88
-11.10 -1.62 1.89
-11.12 -1.86 1.90
-11.14 -2.09 1.91
-11.15 -2.32 1.92
-11.17 -2.56 1.93
-11.18 -2.80 1.94
-11.19 -3.05 1.95
-11.20 -3.29 1.97
-11.20 -3.54 1.98
-11.20 -3.79 1.99
-11.19 -4.04 2.00
-11.18 -4.29 2.02
-11.17 -4.54 2.03
-11.16 -4.80 2.05
-11.14 -5.06 2.06
-11.11 -5.32 2.08
-11.08 -5.58 2.09
-11.06 -5.85 2.11
-11.05 -6.14 2.13
-11.05 -6.43 2.16
-11.04 -6.72 2.18
-11.03 -7.02 2.21
-11.01 -7.33 2.23
-11.00 -7.64 2.26
-10.99 -7.97 2.29
-10.99 -8.31 2.32
-10.99 -8.66 2.36
-10.99 -9.03 2.40
-10.77 -9.21 2.39
-10.58 -9.43 2.39
-10.39 -9.64 2.39
-10.20 -9.84 2.39
-10.00 -10.05 2.39
-9.79 -10.25 2.39
-9.59 -10.44 2.39
-9.38 -10.63 2.39
-9.16 -10.82 2.39
-8.94 -11.00 2.39
-8.72 -11.18 2.39
-8.50 -11.36 2.39
-8.27 -11.53 2.39
-8.03 -11.69 2.39
-7.12 -10.82 2.18
-7.56 -12.01 2.39
-7.32 -12.16 2.39
-7.07 -12.31 2.39
-6.94 -12.66 2.43
-6.86 -13.13 2.49
-6.60 -13.27 2.49
-6.33 -13.40 2.49
-6.06 -13.53 2.49
-5.79 -13.65 2.49
-5.52 -13.77 2.49
-5.24 -13.88 2.49
-4.96 -13.98 2.49
-4.68 -14.08 2.49
-4.40 -14.18 2.49
-4.11 -14.27 2.49
-3.83 -14.35 2.49
-3.54 -14.43 2.49
-3.25 -14.50 2.49
-2.96 -14.57 2.49
-2.67 -14.63 2.49
-2.37 -14.69 2.49
-2.08 -14.74 2.49
-1.78 -14.78 2.49
-1.49 -14.82 2.49
-1.19 -14.85 2.49
-0.89 -14.88 2.49
-0.59 -14.90 2.49
-0.29 -14.91 2.49
0.01 -13.10 2.49
0.27 -13.10 2.49
0.53 -13.10 2.49
0.80 -13.09 2.49
1.06 -13.07 2.49
1.27 -12.51 2.39
1.52 -12.49 2.39
1.77 -12.46 2.39
2.02 -12.43 2.39
2.27 -12.39 2.39
2.52 -12.35 2.39
2.77 -12.30 2.39
3.02 -12.24 2.39
3.26 -12.19 2.39
3.51 -12.12 2.39
3.75 -12.05 2.39
4.00 -11.98 2.39
4.24 -11.90 2.39
4.48 -11.82 2.39
4.71 -11.73 2.39
1.86 -4.37 0.90
5.66 -12.60 2.61
6.07 -12.83 2.68
6.51 -13.07 2.76
6.98 -13.32 2.84
7.46 -13.57 2.92
7.68 -13.34 2.90
7.82 -12.96 2.85
7.94 -12.58 2.80
8.02 -12.17 2.74
8.10 -11.77 2.69
8.17 -11.38 2.64
8.24 -11.00 2.58
8.36 -10.71 2.55
8.49 -10.43 2.53
8.58 -10.12 2.49
8.66 -9.81 2.46
8.74 -9.51 2.42
8.83 -9.23 2.40
8.94 -8.97 2.37
9.03 -8.71 2.35
9.13 -8.45 2.33
9.21 -8.19 2.31
9.28 -7.93 2.28
9.35 -7.67 2.26
9.42 -7.42 2.24
9.49 -7.17 2.22
9.56 -6.92 2.20
9.62 -6.67 2.19
9.68 -6.43 2.17
9.73 -6.19 2.15
9.74 -5.92 2.13
9.75 -5.66 2.10
9.76 -5.41 2.08
9.76 -5.16 2.06
9.77 -4.91 2.04
9.77 -4.67 2.02
9.77 -4.43 2.00
9.79 -4.21 1.98
9.78 -3.97 1.96
9.77 -3.74 1.94
9.75 -3.51 1.93
9.74 -3.29 1.91
9.72 -3.07 1.89
9.70 -2.85 1.88
9.69 -2.63 1.86
9.67 -2.42 1.85
6.16 -1.41 1.17
6.13 -1.28 1.16
9.70 -1.82 1.83
9.68 -1.61 1.82
9.66 -1.41 1.81
9.64 -1.21 1.80
9.62 -1.01 1.79
9.60 -0.82 1.78
9.58 -0.62 1.78
9.56 -0.43 1.77
9.53 -0.23 1.76
9.53 -0.04 1.76
9.52 0.15 1.76
9.51 0.34 1.76
9.51 0.53 1.76
9.51 0.72 1.76
9.51 0.91 1.76
9.50 1.11 1.77
9.50 1.30 1.77
9.49 1.49 1.77
9.49 1.69 1.78
9.48 1.88 1.78
9.46 2.08 1.79
9.45 2.27 1.79
9.43 2.47 1.80
9.45 2.68 1.81
9.48 2.89 1.83
9.51 3.11 1.84
9.54 3.34 1.86
9.57 3.57 1.88
9.60 3.80 1.90
9.60 4.02 1.92
9.59 4.24 1.93
9.58 4.47 1.95
9.57 4.70 1.96
9.56 4.94 1.98
9.54 5.18 2.00
9.53 5.42 2.02
9.52 5.67 2.04
9.50 5.92 2.06
9.48 6.17 2.08
9.46 6.44 2.11
9.44 6.70 2.13
9.43 6.98 2.16
9.42 7.27 2.19
9.40 7.57 2.22
9.39 7.87 2.25
9.34 8.16 2.28
9.30 8.45 2.31
9.24 8.75 2.34
9.19 9.05 2.37
9.19 9.42 2.42
9.19 9.81 2.47
9.15 10.17 2.52
9.08 10.50 2.55
9.00 10.85 2.59
8.92 11.20 2.64
8.83 11.56 2.68
8.75 11.94 2.73
8.67 12.35 2.78
8.59 12.77 2.84
8.51 13.21 2.89
8.02 13.01 2.82
7.48 12.71 2.72
7.09 12.61 2.67
6.71 12.51 2.62
5.90 11.55 2.39
5.66 11.66 2.39
5.43 11.77 2.39
5.19 11.87 2.39
4.95 11.97 2.39
4.70 12.07 2.39
4.46 12.16 2.39
4.22 12.24 2.39
3.97 12.32 2.39
2.26 7.53 1.45
3.47 12.46 2.39
3.22 12.53 2.39
2.96 12.59 2.39
2.71 12.64 2.39
2.46 12.69 2.39
2.20 12.73 2.39
1.97 12.93 2.42
1.76 13.35 2.49
1.49 13.38 2.49
1.22 13.41 2.49
0.95 13.42 2.49
0.68 13.43 2.49
0.41 13.44 2.49
0.14 13.44 2.49
-0.13 13.44 2.49
-0.40 13.43 2.49
-0.67 13.41 2.49
-0.93 13.39 2.49
-1.20 13.37 2.49
-1.47 13.33 2.49
-1.74 13.30 2.49
-2.00 13.25 2.49
-2.27 13.21 2.49
-2.53 13.15 2.49
-2.79 13.10 2.49
-3.05 13.03 2.49
-3.31 12.96 2.49
-3.57 12.89 2.49
-3.43 11.47 2.23
-3.66 11.41 2.24
-4.34 12.63 2.49
-4.59 12.54 2.49
-4.83 12.44 2.49
-5.08 12.34 2.49
-5.12 11.75 2.40
-5.31 11.56 2.38
-5.81 11.99 2.49
-6.04 11.87 2.49
-6.14 11.47 2.44
-6.24 11.13 2.39
-6.46 10.99 2.39
-6.68 10.86 2.39
-6.89 10.72 2.39
-7.10 10.57 2.39
-7.31 10.42 2.39
-7.51 10.27 2.39
-7.71 10.11 2.39
-7.91 9.95 2.39
-8.11 9.79 2.39
-8.30 9.62 2.39
-8.49 9.45 2.39
-8.67 9.27 2.39
-8.85 9.09 2.39
-9.03 8.91 2.39
-9.20 8.72 2.39
-9.37 8.53 2.39
-9.54 8.34 2.39
-9.70 8.14 2.39
-9.86 7.94 2.39
-10.01 7.74 2.39
-10.16 7.53 2.39
-10.75 7.64 2.49
-10.79 7.35 2.47
-10.78 7.03 2.44
-10.76 6.71 2.40
-10.80 6.44 2.38
-10.91 6.21 2.38
-11.01 5.98 2.37
-11.11 5.75 2.37
-11.19 5.51 2.37
-11.25 5.26 2.36
-11.31 5.01 2.35
-11.36 4.77 2.34
-11.42 4.52 2.33
-11.44 4.27 2.32
-11.46 4.01 2.31
-11.46 3.76 2.29
-11.40 3.49 2.27
-11.35 3.22 2.24
-11.29 2.96 2.22
-11.23 2.71 2.20
-11.18 2.46 2.18
-11.18 2.22 2.17
-11.17 1.99 2.16
-11.17 1.76 2.16
-11.16 1.53 2.15
-11.13 1.30 2.14
-11.07 1.06 2.12
-11.02 0.84 2.11
-10.96 0.61 2.10
-10.92 0.39 2.09
-10.93 0.17 2.09
-10.95 -0.05 2.09
-10.96 -0.27 2.10
-10.97 -0.49 2.10
-10.98 -0.71 2.10
-10.98 -0.93 2.11
-10.96 -1.16 2.11
-10.94 -1.38 2.11
-10.91 -1.60 2.11
-10.93 -1.82 2.12
-10.94 -2.05 2.13
-10.96 -2.28 2.14
-10.97 -2.52 2.16
-10.99 -2.75 2.17
-11.00 -2.99 2.19
-11.01 -3.23 2.20
-11.01 -3.48 2.21
-11.01 -3.72 2.23
-11.00 -3.97 2.24
-10.99 -4.21 2.26
-10.98 -4.46 2.27
-10.97 -4.72 2.29
-10.95 -4.98 2.31
-10.93 -5.23 2.33
-10.90 -5.49 2.34
-10.88 -5.76 2.36
-10.87 -6.03 2.39
-10.86 -6.32 2.41
-10.64 -6.48 2.39
-10.51 -6.69 2.39
-10.37 -6.90 2.39
-10.23 -7.11 2.39
-10.08 -7.31 2.39
-9.93 -7.51 2.39
-9.78 -7.71 2.39
-9.62 -7.90 2.39
-9.46 -8.10 2.39
-9.30 -8.28 2.39
-9.13 -8.47 2.39
-8.96 -8.65 2.39
-8.79 -8.83 2.39
-8.61 -9.01 2.39
-8.42 -9.18 2.39
-8.24 -9.35 2.39
-8.05 -9.51 2.39
-7.86 -9.67 2.39
-7.66 -9.83 2.39
-7.46 -9.98 2.39
-7.26 -10.13 2.39
-7.06 -10.28 2.39
-6.88 -10.45 2.40
-6.88 -10.93 2.48
-6.71 -11.15 2.49
-6.48 -11.28 2.49
-6.26 -11.41 2.49
-6.03 -11.54 2.49
-5.80 -11.66 2.49
-5.56 -11.77 2.49
-5.32 -11.88 2.49
-5.09 -11.99 2.49
-4.85 -12.09 2.49
-4.60 -12.19 2.49
-4.36 -12.28 2.49
-4.11 -12.37 2.49
-3.86 -12.46 2.49
-3.61 -12.53 2.49
-3.36 -12.61 2.49
-3.11 -12.67 2.49
-2.85 -12.74 2.49
-2.60 -12.80 2.49
-2.34 -12.85 2.49
-2.08 -12.90 2.49
-1.82 -12.94 2.49
-1.56 -12.98 2.49
-1.30 -13.01 2.49
-1.04 -13.04 2.49
-0.78 -13.06 2.49
-0.52 -13.08 2.49
-0.26 -13.09 2.49
0.01 -11.66 2.49
0.24 -11.66 2.49
0.48 -11.66 2.49
0.71 -11.65 2.49
0.94 -11.64 2.49
1.15 -11.38 2.44
1.37 -11.22 2.41
1.58 -11.09 2.39
1.80 -11.06 2.39
2.02 -11.03 2.39
2.24 -10.99 2.39
2.47 -10.94 2.39
2.69 -10.90 2.39
2.90 -10.84 2.39
3.12 -10.79 2.39
3.34 -10.73 2.39
3.56 -10.66 2.39
3.77 -10.59 2.39
3.98 -10.52 2.39
4.20 -10.44 2.39
1.86 -4.37 1.01
4.61 -10.27 2.39
4.82 -10.18 2.39
5.03 -10.08 2.39
5.70 -10.88 2.61
6.07 -11.04 2.67
6.45 -11.19 2.74
6.78 -11.24 2.78
7.09 -11.24 2.81
7.41 -11.24 2.85
7.67 -11.14 2.86
7.75 -10.79 2.81
7.83 -10.45 2.76
7.94 -10.16 2.73
8.03 -9.86 2.69
8.12 -9.57 2.65
8.20 -9.28 2.61
8.28 -9.00 2.58
8.37 -8.74 2.55
8.47 -8.50 2.53
8.56 -8.26 2.51
8.64 -8.00 2.48
8.72 -7.75 2.46
8.79 -7.51 2.43
8.86 -7.27 2.41
8.93 -7.03 2.39
9.00 -6.79 2.37
9.06 -6.56 2.35
9.13 -6.33 2.33
9.18 -6.10 2.32
9.24 -5.88 2.30
9.28 -5.64 2.28
9.29 -5.40 2.26
9.31 -5.16 2.23
9.32 -4.92 2.21
9.32 -4.69 2.19
9.33 -4.46 2.17
9.35 -4.24 2.15
9.39 -4.04 2.14
9.44 -3.83 2.13
9.43 -3.61 2.11
9.42 -3.39 2.10
9.41 -3.18 2.08
9.40 -2.96 2.06
9.38 -2.75 2.04
9.37 -2.55 2.03
9.35 -2.34 2.01
6.16 -1.41 1.32
6.13 -1.28 1.31
9.45 -1.77 2.01
9.45 -1.57 2.00
9.43 -1.38 1.99
9.41 -1.18 1.98
9.39 -0.99 1.97
9.37 -0.80 1.96
9.35 -0.61 1.95
9.33 -0.42 1.95
9.31 -0.23 1.94
9.30 -0.04 1.94
9.30 0.14 1.94
9.29 0.33 1.93
9.28 0.52 1.93
9.27 0.70 1.93
9.27 0.89 1.94
9.27 1.08 1.94
9.26 1.27 1.94
9.26 1.46 1.95
9.25 1.65 1.95
9.24 1.84 1.96
9.23 2.03 1.96
9.21 2.22 1.97
9.20 2.41 1.97
9.18 2.60 1.98
9.16 2.80 1.99
9.18 3.01 2.01
9.21 3.22 2.02
9.23 3.44 2.04
9.26 3.66 2.07
9.28 3.89 2.09
9.26 4.10 2.10
9.25 4.32 2.12
9.24 4.54 2.14
9.22 4.76 2.15
9.20 4.99 2.17
9.19 5.22 2.19
9.17 5.46 2.21
9.15 5.70 2.24
9.13 5.94 2.26
9.11 6.19 2.28
9.08 6.45 2.31
9.06 6.71 2.34
9.03 6.97 2.37
9.00 7.24 2.40
8.98 7.53 2.43
8.96 7.82 2.47
8.92 8.10 2.50
8.86 8.38 2.53
8.80 8.67 2.56
8.74 8.96 2.60
8.68 9.26 2.63
8.61 9.57 2.67
8.57 9.92 2.72
8.50 10.24 2.76
8.42 10.57 2.80
8.16 10.68 2.79
7.82 10.66 2.74
7.50 10.67 2.71
7.19 10.68 2.67
6.88 10.68 2.64
6.58 10.68 2.60
5.84 9.92 2.39
5.64 10.03 2.39
5.44 10.14 2.39
5.23 10.25 2.39
5.03 10.35 2.39
4.82 10.45 2.39
4.60 10.54 2.39
4.39 10.63 2.39
4.18 10.71 2.39
3.96 10.79 2.39
3.74 10.86 2.39
3.52 10.94 2.39
2.26 7.53 1.64
3.08 11.06 2.39
2.86 11.12 2.39
2.63 11.17 2.39
2.41 11.22 2.39
2.18 11.26 2.39
1.95 11.30 2.39
1.80 11.83 2.49
1.56 11.86 2.49
1.32 11.88 2.49
1.09 11.90 2.49
0.85 11.92 2.49
0.61 11.93 2.49
0.37 11.94 2.49
0.13 11.94 2.49
-0.11 11.93 2.49
-0.35 11.93 2.49
-0.59 11.91 2.49
-0.83 11.89 2.49
-1.07 11.87 2.49
-1.30 11.84 2.49
-1.54 11.81 2.49
-1.78 11.77 2.49
-2.01 11.73 2.49
-2.25 11.68 2.49
-2.48 11.63 2.49
-2.71 11.58 2.49
-2.94 11.52 2.49
-3.17 11.45 2.49
-3.40 11.38 2.49
-3.63 11.31 2.49
-3.85 11.23 2.49
-4.07 11.14 2.49
-4.30 11.06 2.49
-4.51 10.96 2.49
-4.73 10.87 2.49
-4.95 10.77 2.49
-5.16 10.66 2.49
-5.37 10.55 2.49
-5.58 10.44 2.49
-5.79 10.32 2.49
-5.99 10.20 2.49
-6.18 10.06 2.49
-6.20 9.65 2.42
-6.31 9.40 2.39
-6.50 9.27 2.39
-6.68 9.13 2.39
-6.86 8.99 2.39
-7.04 8.85 2.39
-7.21 8.70 2.39
-7.38 8.55 2.39
-7.55 8.40 2.39
-7.71 8.24 2.39
-7.87 8.09 2.39
-8.03 7.92 2.39
-8.18 7.76 2.39
-8.34 7.59 2.39
-8.48 7.42 2.39
-8.63 7.24 2.39
-8.77 7.06 2.39
-8.90 6.88 2.39
-9.04 6.70 2.39
-9.17 6.52 2.39
-9.29 6.33 2.39
-9.41 6.14 2.39
-9.53 5.95 2.39
-9.65 5.75 2.39
-9.76 5.56 2.39
-9.86 5.36 2.39
-9.96 5.16 2.39
-10.06 4.95 2.39
-10.16 4.75 2.39
-10.25 4.54 2.39
-10.33 4.33 2.39
-11.01 4.36 2.53
-11.04 4.12 2.52
-11.06 3.87 2.50
-11.08 3.63 2.49
-11.09 3.39 2.48
-11.04 3.13 2.45
-10.99 2.88 2.43
-10.93 2.64 2.41
-10.90 2.40 2.39
-10.90 2.17 2.38
-10.89 1.94 2.37
-10.89 1.71 2.36
-10.88 1.49 2.35
-10.87 1.27 2.35
-10.86 1.04 2.34
-10.80 0.82 2.32
-10.75 0.60 2.31
-10.71 0.38 2.30
-10.72 0.17 2.30
-10.74 -0.05 2.30
-10.75 -0.26 2.31
-10.76 -0.48 2.31
-10.77 -0.70 2.32
-10.78 -0.92 2.32
-10.78 -1.14 2.33
-10.76 -1.35 2.33
-10.73 -1.57 2.33
-10.74 -1.79 2.34
-10.76 -2.02 2.35
-10.77 -2.24 2.37
-10.78 -2.47 2.38
-10.80 -2.71 2.39
-10.81 -2.94 2.41
-10.82 -3.18 2.43
-10.60 -3.35 2.39
-10.52 -3.56 2.39
-10.45 -3.77 2.39
-10.37 -3.98 2.39
-10.29 -4.18 2.39
-10.20 -4.39 2.39
-10.11 -4.59 2.39
-10.01 -4.79 2.39
-9.92 -4.99 2.39
-9.81 -5.19 2.39
-9.71 -5.39 2.39
-9.59 -5.58 2.39
-9.48 -5.77 2.39
-9.36 -5.96 2.39
-9.24 -6.15 2.39
-9.11 -6.33 2.39
-8.99 -6.51 2.39
-8.85 -6.69 2.39
-8.72 -6.87 2.39
-8.58 -7.04 2.39
-8.43 -7.21 2.39
-8.29 -7.38 2.39
-8.14 -7.55 2.39
-7.98 -7.71 2.39
-7.83 -7.87 2.39
-7.67 -8.03 2.39
-7.51 -8.18 2.39
-7.34 -8.33 2.39
-7.17 -8.47 2.39
-7.00 -8.62 2.39
-6.83 -8.76 2.39
-6.82 -9.12 2.45
-6.75 -9.42 2.49
-6.56 -9.55 2.49
-6.37 -9.68 2.49
-6.17 -9.81 2.49
-5.98 -9.93 2.49
-5.78 -10.05 2.49
-5.57 -10.17 2.49
-5.37 -10.28 2.49
-5.16 -10.39 2.49
-4.95 -10.49 2.49
-4.74 -10.59 2.49
-4.53 -10.68 2.49
-4.32 -10.77 2.49
-4.10 -10.86 2.49
-3.88 -10.94 2.49
-3.66 -11.02 2.49
-3.44 -11.10 2.49
-3.22 -11.16 2.49
-2.99 -11.23 2.49
-2.77 -11.29 2.49
-2.54 -11.35 2.49
-2.31 -11.40 2.49
-2.08 -11.44 2.49
-1.85 -11.49 2.49
-1.62 -11.52 2.49
-1.39 -11.56 2.49
-1.16 -11.59 2.49
-0.93 -11.61 2.49
-0.69 -11.63 2.49
-0.46 -11.65 2.49
-0.23 -11.66 2.49
0.01 -10.50 2.49
0.22 -10.50 2.49
0.43 -10.50 2.49
0.64 -10.49 2.49
0.85 -10.48 2.49
1.06 -10.46 2.49
1.22 -10.01 2.39
1.42 -9.98 2.39
1.62 -9.96 2.39
1.82 -9.93 2.39
2.02 -9.89 2.39
2.22 -9.85 2.39
2.42 -9.81 2.39
2.61 -9.76 2.39
2.81 -9.71 2.39
3.01 -9.65 2.39
3.20 -9.59 2.39
3.39 -9.53 2.39
3.59 -9.46 2.39
3.78 -9.39 2.39
1.86 -4.37 1.12
4.15 -9.24 2.39
4.34 -9.16 2.39
4.52 -9.07 2.39
4.71 -8.98 2.39
4.89 -8.89 2.39
5.07 -8.79 2.39
5.24 -8.69 2.39
5.95 -9.43 2.62
6.21 -9.41 2.65
6.46 -9.39 2.68
6.73 -9.36 2.71
6.96 -9.28 2.73
7.19 -9.20 2.74
7.41 -9.10 2.76
7.64 -9.00 2.77
7.78 -8.80 2.76
7.86 -8.54 2.72
7.95 -8.30 2.70
8.04 -8.06 2.67
8.12 -7.82 2.64
8.20 -7.59 2.62
8.27 -7.35 2.59
8.34 -7.12 2.57
8.41 -6.90 2.55
8.48 -6.67 2.53
8.55 -6.45 2.51
8.62 -6.24 2.49
8.68 -6.02 2.47
8.74 -5.80 2.45
8.79 -5.59 2.43
8.84 -5.38 2.42
8.88 -5.15 2.40
8.89 -4.93 2.37
8.90 -4.70 2.35
8.92 -4.48 2.33
8.93 -4.27 2.31
8.98 -4.07 2.30
9.02 -3.88 2.29
9.07 -3.68 2.28
9.11 -3.49 2.27
9.11 -3.28 2.25
9.10 -3.07 2.24
9.09 -2.87 2.22
9.08 -2.66 2.20
9.06 -2.46 2.18
9.05 -2.26 2.17
6.16 -1.41 1.47
6.12 -1.27 1.45
9.17 -1.72 2.17
9.20 -1.53 2.17
9.21 -1.34 2.16
9.19 -1.15 2.15
9.17 -0.96 2.14
9.16 -0.78 2.13
9.14 -0.59 2.12
9.12 -0.41 2.12
9.10 -0.22 2.11
9.09 -0.04 2.11
9.08 0.14 2.11
9.07 0.32 2.10
9.07 0.51 2.10
9.06 0.69 2.10
9.05 0.87 2.10
9.04 1.05 2.11
9.04 1.24 2.11
9.03 1.42 2.12
9.03 1.61 2.12
9.02 1.79 2.13
9.00 1.98 2.13
8.99 2.16 2.14
8.97 2.35 2.14
8.95 2.54 2.15
8.93 2.73 2.16
8.91 2.92 2.17
8.89 3.11 2.18
8.91 3.32 2.20
8.94 3.53 2.22
8.96 3.75 2.24
8.96 3.97 2.26
8.94 4.17 2.28
8.93 4.39 2.30
8.91 4.60 2.32
8.89 4.82 2.34
8.87 5.04 2.36
8.85 5.27 2.38
8.82 5.50 2.40
8.80 5.73 2.43
8.77 5.97 2.45
8.75 6.21 2.48
8.72 6.46 2.51
8.69 6.71 2.54
8.66 6.96 2.57
8.62 7.23 2.60
8.59 7.49 2.63
8.55 7.77 2.67
8.51 8.05 2.71
8.45 8.32 2.74
8.39 8.60 2.77
8.31 8.87 2.81
8.04 8.93 2.78
7.78 9.00 2.75
7.51 9.05 2.72
7.25 9.10 2.69
6.99 9.14 2.66
6.73 9.18 2.63
6.48 9.21 2.60
5.77 8.58 2.39
5.60 8.69 2.39
5.42 8.80 2.39
5.25 8.91 2.39
5.07 9.01 2.39
4.88 9.11 2.39
4.70 9.20 2.39
4.51 9.29 2.39
4.32 9.38 2.39
4.14 9.46 2.39
3.94 9.54 2.39
3.75 9.62 2.39
3.56 9.69 2.39
3.36 9.76 2.39
3.16 9.82 2.39
2.26 7.53 1.82
2.77 9.94 2.39
2.57 9.99 2.39
2.36 10.03 2.39
2.16 10.08 2.39
1.96 10.12 2.39
1.83 10.59 2.49
1.62 10.62 2.49
1.40 10.65 2.49
1.19 10.67 2.49
0.98 10.69 2.49
0.76 10.71 2.49
0.55 10.72 2.49
0.33 10.72 2.49
0.12 10.72 2.49
-0.10 10.72 2.49
-0.31 10.71 2.49
-0.53 10.70 2.49
-0.74 10.69 2.49
-0.96 10.67 2.49
-1.17 10.64 2.49
-1.38 10.61 2.49
-1.60 10.58 2.49
-1.81 10.54 2.49
-2.02 10.50 2.49
-2.23 10.46 2.49
-2.44 10.41 2.49
-2.64 10.35 2.49
-2.85 10.29 2.49
-3.06 10.23 2.49
-3.26 10.16 2.49
-3.46 10.09 2.49
-3.66 10.02 2.49
-3.86 9.94 2.49
-4.06 9.86 2.49
-4.25 9.77 2.49
-4.45 9.68 2.49
-4.64 9.58 2.49
-4.83 9.49 2.49
-5.02 9.38 2.49
-5.20 9.28 2.49
-5.39 9.17 2.49
-5.57 9.06 2.49
-5.74 8.94 2.49
-5.92 8.82 2.49
-6.09 8.70 2.49
-6.23 8.52 2.48
-6.25 8.19 2.42
-6.33 7.96 2.39
-6.48 7.83 2.39
-6.64 7.70 2.39
-6.79 7.56 2.39
-6.94 7.42 2.39
-7.08 7.27 2.39
-7.22 7.13 2.39
-7.36 6.98 2.39
-7.50 6.83 2.39
-7.63 6.67 2.39
