ply
format ascii 1.0
element vertex 2988
property float32 x
property float32 y
property float32 z
end_header
-6.45 4.19 2.39
-6.54 4.06 2.39
-6.62 3.93 2.39
-6.70 3.80 2.39
-6.78 3.66 2.39
-6.85 3.53 2.39
-6.92 3.39 2.39
-6.99 3.25 2.39
-7.05 3.11 2.39
-7.12 2.97 2.39
-7.18 2.83 2.39
-7.23 2.68 2.39
-7.29 2.54 2.39
-7.34 2.39 2.39
-7.39 2.24 2.39
-7.43 2.10 2.39
-7.48 1.95 2.39
-7.52 1.80 2.39
-7.55 1.65 2.39
-7.59 1.49 2.39
-7.62 1.34 2.39
-7.65 1.19 2.39
-7.67 1.04 2.39
-7.69 0.88 2.39
-7.71 0.73 2.39
-7.72 0.57 2.39
-7.74 0.42 2.39
-7.75 0.26 2.39
-7.75 0.11 2.39
-7.76 -0.05 2.39
-7.75 -0.20 2.39
-7.75 -0.36 2.39
-7.75 -0.52 2.39
-7.74 -0.67 2.39
-7.72 -0.83 2.39
-7.71 -0.98 2.39
-7.69 -1.14 2.39
-7.67 -1.29 2.39
-7.64 -1.45 2.39
-7.61 -1.60 2.39
-7.58 -1.75 2.39
-7.55 -1.90 2.39
-7.51 -2.06 2.39
-7.47 -2.21 2.39
-7.43 -2.36 2.39
-7.38 -2.51 2.39
-7.33 -2.66 2.39
-7.28 -2.80 2.39
-7.22 -2.95 2.39
-7.16 -3.09 2.39
-7.10 -3.24 2.39
-7.04 -3.38 2.39
-6.97 -3.52 2.39
-6.90 -3.66 2.39
-6.83 -3.80 2.39
-6.75 -3.94 2.39
-6.39 -3.90 2.29
-6.59 -4.21 2.39
-6.51 -4.34 2.39
-6.42 -4.47 2.39
-6.33 -4.60 2.39
-6.24 -4.73 2.39
-6.15 -4.85 2.39
-6.05 -4.98 2.39
-5.95 -5.10 2.39
-5.85 -5.22 2.39
-5.78 -5.37 2.41
-5.76 -5.58 2.45
-5.76 -5.80 2.49
-5.65 -5.92 2.49
-5.53 -6.04 2.49
-5.41 -6.15 2.49
-5.29 -6.26 2.49
-5.16 -6.36 2.49
-5.03 -6.47 2.49
-4.90 -6.57 2.49
-4.77 -6.67 2.49
-4.64 -6.76 2.49
-4.50 -6.85 2.49
-4.37 -6.94 2.49
-4.23 -7.03 2.49
-4.09 -7.12 2.49
-3.94 -7.20 2.49
-3.80 -7.28 2.49
-3.65 -7.35 2.49
-3.50 -7.43 2.49
-3.36 -7.50 2.49
-3.20 -7.56 2.49
-3.05 -7.63 2.49
-2.90 -7.69 2.49
-2.75 -7.75 2.49
-2.59 -7.80 2.49
-2.43 -7.85 2.49
-2.28 -7.90 2.49
-2.12 -7.95 2.49
-1.96 -7.99 2.49
-1.80 -8.03 2.49
-1.64 -8.06 2.49
-1.47 -8.09 2.49
-1.31 -8.12 2.49
-1.15 -8.15 2.49
-0.99 -8.17 2.49
-0.82 -8.19 2.49
-0.66 -8.21 2.49
-0.49 -8.22 2.49
-0.33 -8.23 2.49
-0.16 -8.23 2.49
0.00 -7.61 2.49
0.15 -7.61 2.49
0.31 -7.61 2.49
0.46 -7.60 2.49
0.61 -7.59 2.49
0.76 -7.57 2.49
0.92 -7.56 2.49
1.07 -7.54 2.49
1.22 -7.52 2.49
1.37 -7.49 2.49
1.52 -7.46 2.49
1.67 -7.43 2.49
1.82 -7.39 2.49
1.96 -7.36 2.49
2.11 -7.31 2.49
2.26 -7.27 2.49
2.30 -6.93 2.39
2.44 -6.88 2.39
2.58 -6.83 2.39
2.71 -6.77 2.39
2.85 -6.72 2.39
2.98 -6.66 2.39
3.12 -6.60 2.39
3.25 -6.53 2.39
3.38 -6.46 2.39
3.51 -6.40 2.39
3.63 -6.32 2.39
3.76 -6.25 2.39
3.88 -6.17 2.39
4.00 -6.09 2.39
4.13 -6.01 2.39
4.24 -5.92 2.39
4.36 -5.84 2.39
4.48 -5.75 2.39
4.59 -5.66 2.39
4.70 -5.56 2.39
4.81 -5.47 2.39
4.92 -5.37 2.39
5.03 -5.27 2.39
5.13 -5.16 2.39
5.23 -5.06 2.39
5.33 -4.95 2.39
5.43 -4.84 2.39
5.52 -4.73 2.39
5.62 -4.62 2.39
5.71 -4.51 2.39
5.79 -4.39 2.39
5.88 -4.27 2.39
5.96 -4.15 2.39
6.04 -4.03 2.39
6.12 -3.91 2.39
6.20 -3.78 2.39
6.27 -3.66 2.39
6.33 -3.53 2.39
5.76 -3.06 2.15
5.78 -2.92 2.13
5.78 -2.77 2.11
5.77 -2.63 2.09
5.75 -2.48 2.07
5.87 -2.40 2.09
6.25 -2.41 2.21
6.86 -2.48 2.41
6.90 -2.35 2.41
6.95 -2.21 2.41
6.85 -2.03 2.36
6.89 -1.89 2.36
6.92 -1.75 2.36
6.95 -1.61 2.36
6.97 -1.46 2.36
6.99 -1.32 2.35
7.02 -1.18 2.35
7.03 -1.04 2.35
7.05 -0.90 2.35
4.36 -0.47 1.45
4.25 -0.37 1.41
4.20 -0.28 1.40
4.18 -0.19 1.39
4.19 -0.11 1.39
4.21 -0.03 1.40
4.27 0.06 1.42
4.40 0.15 1.46
7.07 0.38 2.35
7.07 0.52 2.35
7.05 0.66 2.35
7.04 0.81 2.35
7.02 0.95 2.35
7.00 1.09 2.35
6.98 1.23 2.36
6.96 1.37 2.36
6.93 1.51 2.36
6.90 1.65 2.36
6.87 1.79 2.36
6.83 1.92 2.36
6.79 2.06 2.36
6.76 2.20 2.37
6.71 2.34 2.37
6.67 2.47 2.37
6.72 2.64 2.41
6.66 2.78 2.41
6.60 2.91 2.41
5.84 2.71 2.15
5.70 2.79 2.12
5.62 2.89 2.11
5.62 3.04 2.13
6.27 3.55 2.41
6.15 3.65 2.39
6.07 3.77 2.39
6.00 3.90 2.39
5.92 4.01 2.39
5.84 4.13 2.39
5.75 4.25 2.39
5.66 4.36 2.39
5.57 4.47 2.39
5.48 4.58 2.39
5.39 4.69 2.39
5.29 4.80 2.39
5.19 4.90 2.39
5.09 5.00 2.39
4.99 5.10 2.39
4.88 5.20 2.39
4.78 5.30 2.39
4.67 5.39 2.39
4.56 5.48 2.39
4.45 5.57 2.39
4.33 5.66 2.39
4.22 5.74 2.39
4.10 5.82 2.39
3.98 5.90 2.39
3.86 5.98 2.39
3.74 6.06 2.39
3.62 6.13 2.39
3.49 6.20 2.39
3.36 6.27 2.39
3.24 6.33 2.39
3.11 6.40 2.39
2.98 6.46 2.39
2.85 6.51 2.39
2.72 6.57 2.39
2.58 6.62 2.39
2.45 6.67 2.39
2.32 6.72 2.39
2.18 6.76 2.39
2.13 7.10 2.49
1.99 7.14 2.49
1.84 7.18 2.49
1.70 7.21 2.49
1.55 7.24 2.49
1.41 7.27 2.49
1.26 7.30 2.49
1.11 7.32 2.49
0.97 7.34 2.49
0.82 7.36 2.49
0.67 7.37 2.49
0.52 7.38 2.49
0.37 7.39 2.49
0.22 7.40 2.49
0.08 7.40 2.49
-0.07 7.40 2.49
-0.22 7.40 2.49
-0.37 7.39 2.49
-0.52 7.38 2.49
-0.67 7.37 2.49
-0.81 7.35 2.49
-0.96 7.34 2.49
-1.11 7.32 2.49
-1.26 7.29 2.49
-1.40 7.26 2.49
-1.55 7.24 2.49
-1.69 7.20 2.49
-1.84 7.17 2.49
-1.98 7.13 2.49
-2.12 7.09 2.49
-2.27 7.04 2.49
-2.41 7.00 2.49
-2.55 6.95 2.49
-2.69 6.90 2.49
-2.83 6.84 2.49
-2.96 6.78 2.49
-3.10 6.72 2.49
-3.23 6.66 2.49
-3.37 6.59 2.49
-3.50 6.53 2.49
-3.63 6.45 2.49
-3.76 6.38 2.49
-3.89 6.30 2.49
-4.01 6.23 2.49
-4.14 6.14 2.49
-4.26 6.06 2.49
-4.38 5.97 2.49
-4.50 5.89 2.49
-4.62 5.79 2.49
-4.74 5.70 2.49
-4.85 5.61 2.49
-4.96 5.51 2.49
-5.07 5.41 2.49
-5.18 5.31 2.49
-5.29 5.20 2.49
-5.39 5.10 2.49
-5.50 4.99 2.49
-5.60 4.88 2.49
-5.69 4.76 2.49
-5.79 4.65 2.49
-5.83 4.49 2.47
-5.83 4.31 2.43
-5.84 4.13 2.40
-5.89 4.00 2.39
-5.98 3.88 2.39
-6.05 3.76 2.39
-6.13 3.64 2.39
-6.20 3.52 2.39
-6.27 3.39 2.39
-6.34 3.27 2.39
-6.41 3.14 2.39
-6.47 3.01 2.39
-6.53 2.88 2.39
-6.59 2.75 2.39
-6.64 2.62 2.39
-6.70 2.48 2.39
-6.75 2.35 2.39
-6.79 2.21 2.39
-6.84 2.08 2.39
-6.88 1.94 2.39
-6.92 1.80 2.39
-6.96 1.66 2.39
-6.99 1.52 2.39
-7.02 1.38 2.39
-7.05 1.24 2.39
-7.08 1.10 2.39
-7.10 0.96 2.39
-7.12 0.82 2.39
-7.14 0.67 2.39
-7.15 0.53 2.39
-7.16 0.39 2.39
-7.17 0.24 2.39
-7.17 0.10 2.39
-7.18 -0.05 2.39
-7.18 -0.19 2.39
-7.17 -0.33 2.39
-7.17 -0.48 2.39
-7.16 -0.62 2.39
-7.15 -0.77 2.39
-7.13 -0.91 2.39
-7.11 -1.05 2.39
-7.09 -1.20 2.39
-7.07 -1.34 2.39
-7.04 -1.48 2.39
-7.01 -1.62 2.39
-6.98 -1.76 2.39
-6.95 -1.90 2.39
-6.91 -2.04 2.39
-6.87 -2.18 2.39
-6.83 -2.32 2.39
-6.78 -2.46 2.39
-6.73 -2.59 2.39
-6.68 -2.73 2.39
-6.63 -2.86 2.39
-6.57 -3.00 2.39
-6.51 -3.13 2.39
-6.45 -3.26 2.39
-6.38 -3.39 2.39
-6.31 -3.52 2.39
-6.24 -3.64 2.39
-6.17 -3.77 2.39
-6.10 -3.89 2.39
-6.02 -4.02 2.39
-5.94 -4.14 2.39
-5.86 -4.26 2.39
-5.79 -4.39 2.40
-5.78 -4.56 2.43
-5.77 -4.75 2.47
-5.74 -4.92 2.49
-5.64 -5.04 2.49
-5.54 -5.15 2.49
-5.44 -5.26 2.49
-5.33 -5.37 2.49
-5.22 -5.48 2.49
-5.11 -5.58 2.49
-5.00 -5.69 2.49
-4.89 -5.79 2.49
-4.77 -5.88 2.49
-4.65 -5.98 2.49
-4.53 -6.07 2.49
-4.41 -6.16 2.49
-4.29 -6.25 2.49
-4.16 -6.34 2.49
-4.04 -6.42 2.49
-3.91 -6.50 2.49
-3.78 -6.58 2.49
-3.64 -6.66 2.49
-3.51 -6.73 2.49
-3.38 -6.80 2.49
-3.24 -6.87 2.49
-3.10 -6.93 2.49
-2.96 -6.99 2.49
-2.82 -7.05 2.49
-2.68 -7.11 2.49
-2.54 -7.16 2.49
-2.39 -7.21 2.49
-2.25 -7.26 2.49
-2.10 -7.31 2.49
-1.96 -7.35 2.49
-1.81 -7.39 2.49
-1.66 -7.42 2.49
-1.51 -7.45 2.49
-1.36 -7.48 2.49
-1.21 -7.51 2.49
-1.06 -7.53 2.49
-0.91 -7.55 2.49
-0.76 -7.57 2.49
-0.61 -7.59 2.49
-0.46 -7.60 2.49
-0.30 -7.60 2.49
-0.15 -7.61 2.49
0.00 -7.07 2.49
0.14 -7.07 2.49
0.29 -7.06 2.49
0.43 -7.06 2.49
0.57 -7.05 2.49
0.71 -7.03 2.49
0.85 -7.02 2.49
0.99 -7.00 2.49
1.13 -6.98 2.49
1.27 -6.96 2.49
1.41 -6.93 2.49
1.55 -6.90 2.49
1.69 -6.87 2.49
1.82 -6.83 2.49
1.96 -6.79 2.49
2.10 -6.75 2.49
2.23 -6.71 2.49
2.29 -6.46 2.42
2.39 -6.34 2.39
2.52 -6.29 2.39
2.65 -6.24 2.39
2.77 -6.18 2.39
2.89 -6.13 2.39
3.02 -6.07 2.39
3.14 -6.00 2.39
3.26 -5.94 2.39
3.37 -5.87 2.39
3.49 -5.80 2.39
3.61 -5.73 2.39
3.72 -5.66 2.39
3.83 -5.58 2.39
3.94 -5.50 2.39
4.05 -5.42 2.39
4.16 -5.34 2.39
4.26 -5.25 2.39
4.37 -5.17 2.39
4.47 -5.08 2.39
4.57 -4.99 2.39
4.67 -4.89 2.39
4.77 -4.80 2.39
4.86 -4.70 2.39
4.95 -4.60 2.39
5.04 -4.50 2.39
5.13 -4.40 2.39
5.22 -4.29 2.39
5.30 -4.19 2.39
5.38 -4.08 2.39
5.46 -3.97 2.39
5.54 -3.86 2.39
5.62 -3.75 2.39
5.69 -3.63 2.39
5.76 -3.52 2.39
5.83 -3.40 2.39
5.89 -3.28 2.39
5.76 -3.06 2.31
5.78 -2.92 2.30
5.78 -2.78 2.27
5.77 -2.63 2.25
5.75 -2.49 2.22
5.87 -2.40 2.25
6.33 -2.44 2.41
6.37 -2.31 2.41
6.42 -2.18 2.41
6.39 -2.03 2.38
6.42 -1.90 2.38
6.45 -1.77 2.38
6.48 -1.64 2.38
6.51 -1.51 2.38
6.53 -1.37 2.38
6.56 -1.24 2.37
6.58 -1.11 2.37
6.59 -0.98 2.37
6.61 -0.84 2.37
4.36 -0.47 1.56
4.25 -0.37 1.52
4.20 -0.28 1.50
4.18 -0.20 1.49
4.19 -0.11 1.49
4.21 -0.03 1.50
4.27 0.06 1.52
4.40 0.15 1.57
6.63 0.36 2.37
6.62 0.49 2.37
6.61 0.62 2.37
6.60 0.75 2.37
6.58 0.89 2.37
6.56 1.02 2.38
6.54 1.15 2.38
6.52 1.28 2.38
6.49 1.41 2.38
6.47 1.54 2.38
6.44 1.67 2.38
6.40 1.80 2.38
6.37 1.93 2.38
6.33 2.06 2.39
6.29 2.19 2.39
6.25 2.32 2.39
6.21 2.44 2.39
6.15 2.57 2.39
6.10 2.69 2.39
5.85 2.72 2.31
5.71 2.79 2.28
5.62 2.89 2.27
5.62 3.04 2.30
5.79 3.28 2.39
5.72 3.40 2.39
5.65 3.51 2.39
5.58 3.62 2.39
5.50 3.73 2.39
5.43 3.84 2.39
5.35 3.95 2.39
5.27 4.05 2.39
5.18 4.16 2.39
5.10 4.26 2.39
5.01 4.36 2.39
4.92 4.46 2.39
4.83 4.56 2.39
4.73 4.65 2.39
4.64 4.74 2.39
4.54 4.84 2.39
4.44 4.92 2.39
4.34 5.01 2.39
4.24 5.10 2.39
4.13 5.18 2.39
4.03 5.26 2.39
3.92 5.34 2.39
3.81 5.42 2.39
3.70 5.49 2.39
3.59 5.56 2.39
3.48 5.63 2.39
3.36 5.70 2.39
3.25 5.77 2.39
3.13 5.83 2.39
3.01 5.89 2.39
2.89 5.95 2.39
2.77 6.00 2.39
2.65 6.06 2.39
2.53 6.11 2.39
2.40 6.16 2.39
2.28 6.20 2.39
2.17 6.30 2.41
2.12 6.56 2.49
1.98 6.60 2.49
1.85 6.64 2.49
1.72 6.67 2.49
1.58 6.71 2.49
1.45 6.74 2.49
1.31 6.76 2.49
1.17 6.79 2.49
1.04 6.81 2.49
0.90 6.83 2.49
0.76 6.84 2.49
0.62 6.86 2.49
0.49 6.87 2.49
0.35 6.88 2.49
0.21 6.88 2.49
0.07 6.88 2.49
-0.07 6.88 2.49
-0.21 6.88 2.49
-0.34 6.87 2.49
-0.48 6.87 2.49
-0.62 6.86 2.49
-0.76 6.84 2.49
-0.90 6.82 2.49
-1.03 6.81 2.49
-1.17 6.78 2.49
-1.30 6.76 2.49
-1.44 6.73 2.49
-1.58 6.70 2.49
-1.71 6.67 2.49
-1.84 6.63 2.49
-1.98 6.59 2.49
-2.11 6.55 2.49
-2.24 6.51 2.49
-2.37 6.46 2.49
-2.50 6.41 2.49
-2.63 6.36 2.49
-2.76 6.31 2.49
-2.88 6.25 2.49
-3.01 6.19 2.49
-3.13 6.13 2.49
-3.26 6.07 2.49
-3.38 6.00 2.49
-3.50 5.93 2.49
-3.62 5.86 2.49
-3.73 5.79 2.49
-3.85 5.72 2.49
-3.96 5.64 2.49
-4.08 5.56 2.49
-4.19 5.47 2.49
-4.30 5.39 2.49
-4.41 5.30 2.49
-4.51 5.21 2.49
-4.62 5.12 2.49
-4.72 5.03 2.49
-4.82 4.94 2.49
-4.92 4.84 2.49
-5.02 4.74 2.49
-5.11 4.64 2.49
-5.21 4.53 2.49
-5.30 4.43 2.49
-5.39 4.32 2.49
-5.47 4.22 2.49
-5.56 4.11 2.49
-5.64 3.99 2.49
-5.72 3.88 2.49
-5.80 3.77 2.49
-5.83 3.62 2.48
-5.84 3.47 2.45
-5.84 3.31 2.42
-5.85 3.16 2.40
-5.90 3.04 2.39
-5.96 2.92 2.39
-6.02 2.80 2.39
-6.07 2.68 2.39
-6.13 2.56 2.39
-6.18 2.43 2.39
-6.23 2.31 2.39
-6.27 2.18 2.39
-6.32 2.06 2.39
-6.36 1.93 2.39
-6.40 1.80 2.39
-6.44 1.67 2.39
-6.47 1.55 2.39
-6.50 1.42 2.39
-6.53 1.28 2.39
-6.56 1.15 2.39
-6.58 1.02 2.39
-6.60 0.89 2.39
-6.62 0.76 2.39
-6.63 0.62 2.39
-6.65 0.49 2.39
-6.66 0.36 2.39
-6.66 0.22 2.39
-6.67 0.09 2.39
-6.67 -0.04 2.39
-6.67 -0.18 2.39
-6.67 -0.31 2.39
-6.66 -0.45 2.39
-6.65 -0.58 2.39
-6.64 -0.71 2.39
-6.63 -0.85 2.39
-6.61 -0.98 2.39
-6.59 -1.11 2.39
-6.57 -1.24 2.39
-6.55 -1.38 2.39
-6.52 -1.51 2.39
-6.49 -1.64 2.39
-6.46 -1.77 2.39
-6.42 -1.90 2.39
-6.38 -2.03 2.39
-6.34 -2.16 2.39
-6.30 -2.28 2.39
-6.26 -2.41 2.39
-6.21 -2.54 2.39
-6.16 -2.66 2.39
-6.10 -2.79 2.39
-6.05 -2.91 2.39
-6.00 -3.03 2.39
-5.93 -3.15 2.39
-5.87 -3.27 2.39
-5.80 -3.39 2.39
-5.79 -3.54 2.41
-5.78 -3.69 2.44
-5.78 -3.86 2.47
-5.76 -4.01 2.49
-5.68 -4.13 2.49
-5.59 -4.24 2.49
-5.51 -4.35 2.49
-5.42 -4.46 2.49
-5.33 -4.57 2.49
-5.24 -4.68 2.49
-5.15 -4.79 2.49
-5.05 -4.89 2.49
-4.95 -4.99 2.49
-4.85 -5.09 2.49
-4.75 -5.19 2.49
-4.65 -5.28 2.49
-4.54 -5.38 2.49
-4.43 -5.47 2.49
-4.32 -5.56 2.49
-4.21 -5.64 2.49
-4.10 -5.73 2.49
-3.98 -5.81 2.49
-3.87 -5.89 2.49
-3.75 -5.97 2.49
-3.63 -6.04 2.49
-3.51 -6.11 2.49
-3.39 -6.18 2.49
-3.26 -6.25 2.49
-3.14 -6.32 2.49
-3.01 -6.38 2.49
-2.88 -6.44 2.49
-2.75 -6.50 2.49
-2.62 -6.55 2.49
-2.49 -6.60 2.49
-2.36 -6.65 2.49
-2.22 -6.70 2.49
-2.09 -6.74 2.49
-1.95 -6.79 2.49
-1.82 -6.82 2.49
-1.68 -6.86 2.49
-1.54 -6.89 2.49
-1.40 -6.92 2.49
-1.27 -6.95 2.49
-1.13 -6.98 2.49
-0.99 -7.00 2.49
-0.85 -7.02 2.49
-0.71 -7.03 2.49
-0.56 -7.05 2.49
-0.42 -7.06 2.49
-0.28 -7.06 2.49
-0.14 -7.07 2.49
0.00 -6.59 2.49
0.13 -6.59 2.49
0.27 -6.59 2.49
0.40 -6.58 2.49
0.53 -6.57 2.49
0.66 -6.56 2.49
0.79 -6.55 2.49
0.92 -6.53 2.49
1.05 -6.51 2.49
1.18 -6.49 2.49
1.31 -6.46 2.49
1.44 -6.43 2.49
1.57 -6.40 2.49
1.70 -6.37 2.49
1.83 -6.33 2.49
1.95 -6.30 2.49
2.08 -6.26 2.49
2.20 -6.21 2.49
2.29 -6.05 2.45
2.35 -5.87 2.39
2.47 -5.83 2.40
2.58 -5.77 2.39
2.70 -5.71 2.39
2.81 -5.66 2.39
2.92 -5.60 2.39
3.04 -5.54 2.39
3.15 -5.48 2.39
3.25 -5.41 2.39
3.36 -5.35 2.39
3.47 -5.28 2.39
3.57 -5.21 2.39
3.68 -5.13 2.39
3.78 -5.06 2.39
3.88 -4.98 2.39
3.98 -4.90 2.39
4.07 -4.82 2.39
4.17 -4.74 2.39
4.26 -4.65 2.39
4.35 -4.56 2.39
4.44 -4.47 2.39
4.53 -4.38 2.39
4.62 -4.29 2.39
4.70 -4.20 2.39
4.79 -4.10 2.39
4.87 -4.00 2.39
4.94 -3.91 2.39
5.02 -3.80 2.39
5.09 -3.70 2.39
5.17 -3.60 2.39
5.24 -3.49 2.39
5.31 -3.39 2.39
5.37 -3.28 2.39
5.43 -3.17 2.39
5.50 -3.06 2.39
5.56 -2.95 2.39
5.61 -2.84 2.39
5.67 -2.72 2.39
5.72 -2.61 2.39
5.77 -2.49 2.39
5.82 -2.38 2.39
5.86 -2.26 2.39
5.90 -2.14 2.39
5.94 -2.02 2.39
5.98 -1.90 2.39
6.02 -1.78 2.39
6.05 -1.66 2.39
6.08 -1.54 2.39
6.11 -1.41 2.39
6.14 -1.29 2.39
6.16 -1.17 2.39
6.18 -1.04 2.39
6.20 -0.92 2.39
6.21 -0.79 2.39
4.36 -0.47 1.68
4.25 -0.37 1.63
4.20 -0.28 1.61
4.18 -0.20 1.60
4.19 -0.11 1.60
4.21 -0.03 1.61
4.27 0.06 1.63
4.40 0.15 1.68
6.24 0.33 2.39
6.23 0.46 2.39
6.22 0.58 2.39
6.20 0.71 2.39
6.19 0.83 2.39
6.17 0.96 2.39
6.15 1.08 2.39
6.12 1.20 2.39
6.09 1.33 2.39
6.07 1.45 2.39
6.03 1.57 2.39
6.00 1.69 2.39
5.96 1.81 2.39
5.92 1.93 2.39
5.88 2.05 2.39
5.84 2.16 2.39
5.79 2.28 2.39
5.74 2.39 2.39
5.69 2.51 2.39
5.64 2.62 2.39
5.59 2.73 2.39
5.53 2.84 2.39
5.47 2.95 2.39
5.41 3.06 2.39
5.34 3.17 2.39
5.28 3.28 2.39
5.21 3.38 2.39
5.14 3.48 2.39
5.07 3.58 2.39
4.99 3.68 2.39
4.92 3.78 2.39
4.84 3.88 2.39
4.76 3.98 2.39
4.68 4.07 2.39
4.59 4.16 2.39
4.51 4.25 2.39
4.42 4.34 2.39
4.33 4.43 2.39
4.24 4.51 2.39
4.15 4.60 2.39
4.05 4.68 2.39
3.96 4.76 2.39
3.86 4.84 2.39
3.76 4.91 2.39
3.66 4.98 2.39
3.56 5.06 2.39
3.46 5.13 2.39
3.35 5.19 2.39
3.25 5.26 2.39
3.14 5.32 2.39
3.03 5.38 2.39
2.92 5.44 2.39
2.81 5.50 2.39
2.70 5.55 2.39
2.59 5.61 2.39
2.47 5.66 2.39
2.36 5.70 2.39
2.24 5.75 2.39
2.17 5.92 2.44
2.10 6.09 2.49
1.98 6.13 2.49
1.85 6.16 2.49
1.73 6.20 2.49
1.60 6.23 2.49
1.48 6.26 2.49
1.35 6.29 2.49
1.22 6.32 2.49
1.10 6.34 2.49
0.97 6.36 2.49
0.84 6.38 2.49
0.71 6.39 2.49
0.58 6.40 2.49
0.45 6.41 2.49
0.32 6.42 2.49
0.20 6.43 2.49
0.07 6.43 2.49
-0.06 6.43 2.49
-0.19 6.43 2.49
-0.32 6.42 2.49
-0.45 6.41 2.49
-0.58 6.40 2.49
-0.71 6.39 2.49
-0.84 6.37 2.49
-0.96 6.35 2.49
-1.09 6.33 2.49
-1.22 6.31 2.49
-1.35 6.29 2.49
-1.47 6.26 2.49
-1.60 6.23 2.49
-1.72 6.19 2.49
-1.85 6.16 2.49
-1.97 6.12 2.49
-2.09 6.08 2.49
-2.21 6.04 2.49
-2.33 5.99 2.49
-2.46 5.94 2.49
-2.57 5.89 2.49
-2.69 5.84 2.49
-2.81 5.78 2.49
-2.93 5.73 2.49
-3.04 5.67 2.49
-3.15 5.61 2.49
-3.27 5.54 2.49
-3.38 5.48 2.49
-3.49 5.41 2.49
-3.60 5.34 2.49
-3.70 5.26 2.49
-3.81 5.19 2.49
-3.91 5.11 2.49
-4.01 5.03 2.49
-4.11 4.95 2.49
-4.21 4.87 2.49
-4.31 4.78 2.49
-4.41 4.70 2.49
-4.50 4.61 2.49
-4.59 4.52 2.49
-4.68 4.42 2.49
-4.77 4.33 2.49
-4.86 4.23 2.49
-4.95 4.14 2.49
-5.03 4.04 2.49
-5.11 3.94 2.49
-5.19 3.83 2.49
-5.26 3.73 2.49
-5.34 3.62 2.49
-5.41 3.51 2.49
-5.48 3.41 2.49
-5.55 3.30 2.49
-5.62 3.18 2.49
-5.68 3.07 2.49
-5.74 2.96 2.49
-5.80 2.84 2.49
-5.83 2.71 2.48
-5.83 2.57 2.46
-5.83 2.43 2.44
-5.83 2.30 2.42
-5.84 2.16 2.40
-5.86 2.04 2.39
-5.90 1.92 2.39
-5.94 1.80 2.39
-5.97 1.68 2.39
-6.01 1.56 2.39
-6.04 1.44 2.39
-6.07 1.32 2.39
-6.09 1.20 2.39
-6.12 1.08 2.39
-6.14 0.95 2.39
-6.16 0.83 2.39
-6.18 0.71 2.39
-6.19 0.58 2.39
-6.20 0.46 2.39
-6.21 0.33 2.39
-6.22 0.21 2.39
-6.22 0.08 2.39
-6.23 -0.04 2.39
-6.23 -0.17 2.39
-6.22 -0.29 2.39
-6.22 -0.42 2.39
-6.21 -0.54 2.39
-6.20 -0.67 2.39
-6.19 -0.79 2.39
-6.17 -0.91 2.39
-6.15 -1.04 2.39
-6.13 -1.16 2.39
-6.11 -1.29 2.39
-6.08 -1.41 2.39
-6.06 -1.53 2.39
-6.03 -1.65 2.39
-6.01 -1.78 2.40
-5.96 -1.89 2.39
-5.92 -2.01 2.39
-5.88 -2.13 2.39
-5.84 -2.25 2.39
-5.80 -2.37 2.40
-5.80 -2.51 2.41
-5.79 -2.64 2.43
-5.79 -2.78 2.45
-5.79 -2.93 2.48
-5.77 -3.07 2.49
-5.71 -3.18 2.49
-5.65 -3.30 2.49
-5.58 -3.41 2.49
-5.51 -3.52 2.49
-5.44 -3.63 2.49
-5.37 -3.74 2.49
-5.29 -3.85 2.49
-5.22 -3.96 2.49
-5.14 -4.06 2.49
-5.06 -4.16 2.49
-4.97 -4.27 2.49
-4.89 -4.37 2.49
-4.80 -4.46 2.49
-4.71 -4.56 2.49
-4.62 -4.65 2.49
-4.53 -4.75 2.49
-4.43 -4.84 2.49
-4.33 -4.93 2.49
-4.23 -5.01 2.49
-4.13 -5.10 2.49
-4.03 -5.18 2.49
-3.93 -5.26 2.49
-3.82 -5.34 2.49
-3.72 -5.42 2.49
-3.61 -5.49 2.49
-3.50 -5.56 2.49
-3.38 -5.63 2.49
-3.27 -5.70 2.49
-3.16 -5.77 2.49
-3.04 -5.83 2.49
-2.92 -5.89 2.49
-2.81 -5.95 2.49
-2.69 -6.01 2.49
-2.57 -6.06 2.49
-2.44 -6.11 2.49
-2.32 -6.16 2.49
-2.20 -6.20 2.49
-2.07 -6.25 2.49
-1.95 -6.29 2.49
-1.82 -6.33 2.49
-1.69 -6.36 2.49
-1.57 -6.40 2.49
-1.44 -6.43 2.49
-1.31 -6.46 2.49
-1.18 -6.48 2.49
-1.05 -6.50 2.49
-0.92 -6.53 2.49
-0.79 -6.54 2.49
-0.66 -6.56 2.49
-0.53 -6.57 2.49
-0.39 -6.58 2.49
-0.26 -6.59 2.49
-0.13 -6.59 2.49
0.00 -6.17 2.49
0.13 -6.17 2.49
0.25 -6.16 2.49
0.37 -6.16 2.49
0.50 -6.15 2.49
0.62 -6.14 2.49
0.74 -6.13 2.49
0.86 -6.11 2.49
0.99 -6.09 2.49
1.11 -6.07 2.49
1.23 -6.05 2.49
1.35 -6.02 2.49
1.47 -5.99 2.49
1.59 -5.96 2.49
1.71 -5.93 2.49
1.83 -5.89 2.49
1.95 -5.85 2.49
2.06 -5.81 2.49
2.18 -5.77 2.49
2.28 -5.70 2.48
2.31 -5.44 2.39
2.42 -5.40 2.39
2.52 -5.35 2.39
2.63 -5.29 2.39
2.74 -5.24 2.39
2.84 -5.18 2.39
2.94 -5.13 2.39
3.05 -5.07 2.39
3.15 -5.00 2.39
3.25 -4.94 2.39
3.34 -4.87 2.39
3.44 -4.80 2.39
3.54 -4.73 2.39
3.63 -4.66 2.39
3.72 -4.59 2.39
3.81 -4.51 2.39
3.90 -4.43 2.39
3.99 -4.35 2.39
4.07 -4.27 2.39
4.16 -4.19 2.39
4.24 -4.10 2.39
4.32 -4.02 2.39
4.40 -3.93 2.39
4.48 -3.84 2.39
4.55 -3.75 2.39
4.63 -3.66 2.39
4.70 -3.56 2.39
4.77 -3.47 2.39
4.84 -3.37 2.39
4.90 -3.27 2.39
4.97 -3.17 2.39
5.03 -3.07 2.39
5.09 -2.97 2.39
5.14 -2.87 2.39
5.20 -2.76 2.39
5.25 -2.66 2.39
5.30 -2.55 2.39
5.35 -2.44 2.39
5.40 -2.33 2.39
5.44 -2.22 2.39
5.49 -2.11 2.39
5.53 -2.00 2.39
5.56 -1.89 2.39
5.60 -1.78 2.39
5.63 -1.67 2.39
5.66 -1.55 2.39
5.69 -1.44 2.39
5.72 -1.32 2.39
5.74 -1.21 2.39
5.77 -1.09 2.39
5.78 -0.98 2.39
5.80 -0.86 2.39
5.82 -0.74 2.39
4.37 -0.47 1.79
4.25 -0.37 1.74
4.20 -0.28 1.72
4.18 -0.20 1.71
4.19 -0.11 1.71
4.21 -0.03 1.72
4.27 0.06 1.74
4.40 0.15 1.80
5.84 0.31 2.39
5.83 0.43 2.39
5.82 0.55 2.39
5.81 0.66 2.39
5.79 0.78 2.39
5.78 0.90 2.39
5.75 1.01 2.39
5.73 1.13 2.39
5.71 1.24 2.39
5.68 1.35 2.39
5.65 1.47 2.39
5.62 1.58 2.39
5.58 1.69 2.39
5.55 1.80 2.39
5.51 1.91 2.39
5.47 2.02 2.39
5.42 2.13 2.39
5.38 2.24 2.39
5.33 2.35 2.39
5.28 2.45 2.39
5.23 2.56 2.39
5.18 2.66 2.39
5.12 2.77 2.39
5.06 2.87 2.39
5.00 2.97 2.39
4.94 3.07 2.39
4.88 3.17 2.39
4.81 3.26 2.39
4.75 3.36 2.39
4.68 3.45 2.39
4.60 3.54 2.39
4.53 3.63 2.39
4.46 3.72 2.39
4.38 3.81 2.39
4.30 3.90 2.39
4.22 3.98 2.39
4.14 4.07 2.39
4.06 4.15 2.39
3.97 4.23 2.39
3.88 4.31 2.39
3.80 4.38 2.39
3.71 4.46 2.39
3.62 4.53 2.39
3.52 4.60 2.39
3.43 4.67 2.39
3.34 4.74 2.39
3.24 4.80 2.39
3.14 4.86 2.39
3.04 4.93 2.39
2.94 4.99 2.39
2.84 5.04 2.39
2.74 5.10 2.39
2.63 5.15 2.39
2.53 5.20 2.39
2.43 5.25 2.39
2.32 5.30 2.39
2.21 5.34 2.39
2.18 5.57 2.47
2.08 5.66 2.49
1.97 5.70 2.49
1.85 5.74 2.49
1.73 5.77 2.49
1.62 5.81 2.49
1.50 5.84 2.49
1.38 5.87 2.49
1.26 5.89 2.49
1.15 5.92 2.49
1.03 5.94 2.49
0.91 5.96 2.49
0.79 5.97 2.49
0.67 5.99 2.49
0.55 6.00 2.49
0.43 6.01 2.49
0.30 6.02 2.49
0.18 6.02 2.49
0.06 6.02 2.49
-0.06 6.02 2.49
-0.18 6.02 2.49
-0.30 6.01 2.49
-0.42 6.01 2.49
-0.54 6.00 2.49
-0.66 5.99 2.49
-0.78 5.97 2.49
-0.90 5.95 2.49
-1.02 5.93 2.49
-1.14 5.91 2.49
-1.26 5.89 2.49
-1.38 5.86 2.49
-1.50 5.83 2.49
-1.61 5.80 2.49
-1.73 5.77 2.49
-1.85 5.73 2.49
-1.96 5.69 2.49
-2.07 5.65 2.49
-2.19 5.61 2.49
-2.30 5.57 2.49
-2.41 5.52 2.49
-2.52 5.47 2.49
-2.63 5.42 2.49
-2.74 5.37 2.49
-2.85 5.31 2.49
-2.95 5.25 2.49
-3.06 5.19 2.49
-3.16 5.13 2.49
-3.27 5.07 2.49
-3.37 5.00 2.49
-3.47 4.93 2.49
-3.57 4.86 2.49
-3.66 4.79 2.49
-3.76 4.71 2.49
-3.86 4.64 2.49
-3.95 4.56 2.49
-4.04 4.48 2.49
-4.13 4.40 2.49
-4.22 4.32 2.49
-4.30 4.23 2.49
-4.39 4.14 2.49
-4.47 4.06 2.49
-4.55 3.97 2.49
-4.63 3.87 2.49
-4.71 3.78 2.49
-4.79 3.69 2.49
-4.86 3.59 2.49
-4.93 3.49 2.49
-5.00 3.39 2.49
-5.07 3.29 2.49
-5.14 3.19 2.49
-5.20 3.09 2.49
-5.26 2.98 2.49
-5.32 2.88 2.49
-5.38 2.77 2.49
-5.44 2.66 2.49
-5.49 2.55 2.49
-5.54 2.44 2.49
-5.59 2.33 2.49
-5.64 2.22 2.49
-5.68 2.10 2.49
-5.72 1.99 2.49
-5.76 1.88 2.49
-5.80 1.76 2.49
-5.82 1.64 2.49
-5.82 1.51 2.47
-5.82 1.39 2.46
-5.82 1.27 2.45
-5.82 1.14 2.44
-5.82 1.02 2.43
-5.82 0.90 2.42
-5.82 0.78 2.41
-5.82 0.67 2.41
-5.82 0.55 2.40
-5.82 0.43 2.40
-5.82 0.31 2.39
-5.83 0.19 2.39
-5.83 0.08 2.39
-5.83 -0.04 2.39
-5.83 -0.16 2.39
-5.83 -0.27 2.39
-5.82 -0.39 2.39
-5.82 -0.51 2.39
-5.82 -0.63 2.40
-5.81 -0.74 2.40
-5.81 -0.86 2.41
-5.81 -0.98 2.41
-5.81 -1.10 2.42
-5.80 -1.22 2.43
-5.80 -1.34 2.44
-5.80 -1.47 2.45
-5.80 -1.59 2.46
-5.80 -1.72 2.47
-5.80 -1.84 2.48
-5.78 -1.97 2.49
-5.74 -2.08 2.49
-5.70 -2.20 2.49
-5.66 -2.31 2.49
-5.61 -2.43 2.49
-5.56 -2.54 2.49
-5.51 -2.65 2.49
-5.46 -2.76 2.49
-5.40 -2.87 2.49
-5.35 -2.98 2.49
-5.29 -3.09 2.49
-5.22 -3.19 2.49
-5.16 -3.30 2.49
-5.09 -3.40 2.49
-5.03 -3.50 2.49
-4.96 -3.60 2.49
-4.88 -3.70 2.49
-4.81 -3.80 2.49
-4.73 -3.90 2.49
-4.65 -3.99 2.49
-4.57 -4.09 2.49
-4.49 -4.18 2.49
-4.41 -4.27 2.49
-4.32 -4.36 2.49
-4.24 -4.44 2.49
-4.15 -4.53 2.49
-4.06 -4.61 2.49
-3.96 -4.69 2.49
-3.87 -4.77 2.49
-3.77 -4.85 2.49
-3.68 -4.93 2.49
-3.58 -5.00 2.49
-3.48 -5.07 2.49
-3.38 -5.14 2.49
-3.27 -5.21 2.49
-3.17 -5.27 2.49
-3.06 -5.34 2.49
-2.95 -5.40 2.49
-2.85 -5.46 2.49
-2.74 -5.51 2.49
-2.63 -5.57 2.49
-2.51 -5.62 2.49
-2.40 -5.67 2.49
-2.29 -5.72 2.49
-2.17 -5.76 2.49
-2.06 -5.81 2.49
-1.94 -5.85 2.49
-1.82 -5.89 2.49
-1.70 -5.92 2.49
-1.59 -5.96 2.49
-1.47 -5.99 2.49
-1.35 -6.02 2.49
-1.23 -6.04 2.49
-1.10 -6.07 2.49
-0.98 -6.09 2.49
-0.86 -6.11 2.49
-0.74 -6.12 2.49
-0.62 -6.14 2.49
-0.49 -6.15 2.49
-0.37 -6.16 2.49
-0.25 -6.16 2.49
-0.12 -6.17 2.49
0.00 -5.79 2.49
0.12 -5.79 2.49
0.23 -5.79 2.49
0.35 -5.78 2.49
0.47 -5.77 2.49
0.58 -5.76 2.49
0.70 -5.75 2.49
0.81 -5.73 2.49
0.93 -5.72 2.49
1.04 -5.70 2.49
1.15 -5.68 2.49
1.27 -5.65 2.49
1.38 -5.62 2.49
1.49 -5.60 2.49
1.60 -5.56 2.49
1.72 -5.53 2.49
1.83 -5.49 2.49
1.94 -5.46 2.49
2.05 -5.42 2.49
2.15 -5.37 2.49
2.26 -5.33 2.49
2.29 -5.10 2.41
2.37 -5.02 2.39
2.47 -4.97 2.39
2.57 -4.92 2.39
2.67 -4.87 2.39
2.76 -4.81 2.39
2.86 -4.75 2.39
2.95 -4.70 2.39
3.05 -4.64 2.39
3.14 -4.57 2.39
3.23 -4.51 2.39
3.32 -4.44 2.39
3.41 -4.37 2.39
3.49 -4.30 2.39
3.58 -4.23 2.39
3.66 -4.16 2.39
3.74 -4.09 2.39
3.82 -4.01 2.39
3.90 -3.93 2.39
3.98 -3.85 2.39
4.06 -3.77 2.39
4.13 -3.69 2.39
4.20 -3.60 2.39
4.27 -3.52 2.39
4.34 -3.43 2.39
4.41 -3.34 2.39
4.48 -3.25 2.39
4.54 -3.16 2.39
4.60 -3.07 2.39
4.66 -2.98 2.39
4.72 -2.88 2.39
4.77 -2.79 2.39
4.83 -2.69 2.39
4.88 -2.59 2.39
4.93 -2.49 2.39
4.98 -2.39 2.39
5.03 -2.29 2.39
5.07 -2.19 2.39
5.11 -2.09 2.39
5.15 -1.99 2.39
5.19 -1.88 2.39
5.22 -1.78 2.39
5.26 -1.67 2.39
5.29 -1.57 2.39
5.32 -1.46 2.39
5.35 -1.35 2.39
5.37 -1.24 2.39
5.39 -1.14 2.39
5.41 -1.03 2.39
5.43 -0.92 2.39
5.45 -0.81 2.39
5.46 -0.70 2.39
4.37 -0.47 1.91
4.25 -0.37 1.85
4.20 -0.28 1.83
4.18 -0.20 1.82
4.19 -0.11 1.82
4.21 -0.03 1.83
4.27 0.06 1.86
4.39 0.15 1.91
5.49 0.29 2.39
5.48 0.40 2.39
5.47 0.51 2.39
5.46 0.62 2.39
5.44 0.73 2.39
5.42 0.84 2.39
5.40 0.95 2.39
5.38 1.06 2.39
5.36 1.16 2.39
5.33 1.27 2.39
5.31 1.38 2.39
5.28 1.48 2.39
5.24 1.59 2.39
5.21 1.69 2.39
5.17 1.80 2.39
5.14 1.90 2.39
5.09 2.00 2.39
5.05 2.10 2.39
5.01 2.20 2.39
4.96 2.30 2.39
4.91 2.40 2.39
4.86 2.50 2.39
4.81 2.60 2.39
4.76 2.69 2.39
4.70 2.79 2.39
4.64 2.88 2.39
4.58 2.97 2.39
4.52 3.06 2.39
4.46 3.15 2.39
4.39 3.24 2.39
4.33 3.33 2.39
4.26 3.41 2.39
4.19 3.50 2.39
4.11 3.58 2.39
4.04 3.66 2.39
3.97 3.74 2.39
3.89 3.82 2.39
3.81 3.90 2.39
3.73 3.97 2.39
3.65 4.04 2.39
3.57 4.12 2.39
3.48 4.19 2.39
3.40 4.25 2.39
3.31 4.32 2.39
3.22 4.39 2.39
3.13 4.45 2.39
3.04 4.51 2.39
2.95 4.57 2.39
2.86 4.63 2.39
2.76 4.68 2.39
2.67 4.74 2.39
2.57 4.79 2.39
2.48 4.84 2.39
2.39 4.91 2.40
2.28 4.93 2.39
2.19 5.00 2.40
2.17 5.24 2.49
2.06 5.28 2.49
1.95 5.32 2.49
1.85 5.36 2.49
1.74 5.39 2.49
1.63 5.43 2.49
1.52 5.46 2.49
1.41 5.49 2.49
1.30 5.51 2.49
1.19 5.54 2.49
1.08 5.56 2.49
0.96 5.58 2.49
0.85 5.60 2.49
0.74 5.61 2.49
0.63 5.63 2.49
0.51 5.64 2.49
0.40 5.65 2.49
0.29 5.65 2.49
0.17 5.66 2.49
0.06 5.66 2.49
-0.06 5.66 2.49
-0.17 5.66 2.49
-0.28 5.65 2.49
-0.40 5.64 2.49
-0.51 5.64 2.49
-0.62 5.62 2.49
-0.74 5.61 2.49
-0.85 5.59 2.49
-0.96 5.58 2.49
-1.07 5.56 2.49
-1.18 5.53 2.49
-1.30 5.51 2.49
-1.41 5.48 2.49
-1.52 5.45 2.49
-1.63 5.42 2.49
-1.73 5.39 2.49
-1.84 5.35 2.49
-1.95 5.31 2.49
-2.06 5.27 2.49
-2.16 5.23 2.49
-2.27 5.19 2.49
-2.37 5.14 2.49
-2.47 5.09 2.49
-2.58 5.04 2.49
-2.68 4.99 2.49
-2.78 4.93 2.49
-2.88 4.88 2.49
-2.97 4.82 2.49
-3.07 4.76 2.49
-3.16 4.70 2.49
-3.26 4.63 2.49
-3.35 4.57 2.49
-3.44 4.50 2.49
-3.53 4.43 2.49
-3.62 4.36 2.49
-3.71 4.28 2.49
-3.80 4.21 2.49
-3.88 4.13 2.49
-3.96 4.05 2.49
-4.04 3.97 2.49
-4.12 3.89 2.49
-4.20 3.81 2.49
-4.28 3.73 2.49
-4.35 3.64 2.49
-4.43 3.55 2.49
-4.50 3.46 2.49
-4.57 3.37 2.49
-4.63 3.28 2.49
-4.70 3.19 2.49
-4.76 3.09 2.49
-4.83 3.00 2.49
-4.89 2.90 2.49
-4.94 2.80 2.49
-5.00 2.70 2.49
-5.05 2.60 2.49
-5.11 2.50 2.49
-5.16 2.40 2.49
-5.20 2.29 2.49
-5.25 2.19 2.49
-5.29 2.08 2.49
-5.34 1.98 2.49
-5.38 1.87 2.49
-5.41 1.76 2.49
-5.45 1.65 2.49
-5.48 1.54 2.49
-5.51 1.43 2.49
-5.54 1.32 2.49
-5.57 1.21 2.49
-5.59 1.10 2.49
-5.62 0.99 2.49
-5.64 0.87 2.49
-5.65 0.76 2.49
-5.67 0.65 2.49
-5.68 0.53 2.49
-5.69 0.42 2.49
-5.70 0.30 2.49
-5.71 0.19 2.49
-5.71 0.08 2.49
-5.71 -0.04 2.49
-5.71 -0.15 2.49
-5.71 -0.27 2.49
-5.70 -0.38 2.49
-5.70 -0.50 2.49
-5.69 -0.61 2.49
-5.67 -0.73 2.49
-5.66 -0.84 2.49
-5.64 -0.95 2.49
-5.62 -1.07 2.49
-5.60 -1.18 2.49
-5.58 -1.29 2.49
-5.55 -1.40 2.49
-5.53 -1.52 2.49
-5.50 -1.63 2.49
-5.46 -1.74 2.49
-5.43 -1.85 2.49
-5.39 -1.96 2.49
-5.35 -2.06 2.49
-5.31 -2.17 2.49
-5.27 -2.28 2.49
-5.22 -2.38 2.49
-5.17 -2.49 2.49
-5.12 -2.59 2.49
-5.07 -2.70 2.49
-5.02 -2.80 2.49
-4.96 -2.90 2.49
-4.90 -3.00 2.49
-4.84 -3.10 2.49
-4.78 -3.19 2.49
-4.72 -3.29 2.49
-4.65 -3.38 2.49
-4.58 -3.48 2.49
-4.51 -3.57 2.49
-4.44 -3.66 2.49
-4.37 -3.75 2.49
-4.29 -3.84 2.49
-4.22 -3.92 2.49
-4.14 -4.01 2.49
-4.06 -4.09 2.49
-3.98 -4.17 2.49
-3.89 -4.25 2.49
-3.81 -4.33 2.49
-3.72 -4.41 2.49
-3.63 -4.48 2.49
-3.54 -4.55 2.49
-3.45 -4.62 2.49
-3.36 -4.69 2.49
-3.26 -4.76 2.49
-3.17 -4.83 2.49
-3.07 -4.89 2.49
-2.97 -4.95 2.49
-2.87 -5.01 2.49
-2.77 -5.07 2.49
-2.67 -5.12 2.49
-2.57 -5.18 2.49
-2.46 -5.23 2.49
-2.36 -5.28 2.49
-2.25 -5.32 2.49
-2.15 -5.37 2.49
-2.04 -5.41 2.49
-1.93 -5.45 2.49
-1.82 -5.49 2.49
-1.71 -5.53 2.49
-1.60 -5.56 2.49
-1.49 -5.59 2.49
-1.38 -5.62 2.49
-1.26 -5.65 2.49
-1.15 -5.67 2.49
-1.04 -5.69 2.49
-0.92 -5.71 2.49
-0.81 -5.73 2.49
-0.69 -5.75 2.49
-0.58 -5.76 2.49
-0.46 -5.77 2.49
-0.35 -5.78 2.49
-0.23 -5.79 2.49
-0.11 -5.79 2.49
0.00 -5.45 2.49
0.11 -5.45 2.49
0.22 -5.45 2.49
0.33 -5.44 2.49
0.44 -5.43 2.49
0.55 -5.42 2.49
0.66 -5.41 2.49
0.76 -5.40 2.49
0.87 -5.38 2.49
0.98 -5.36 2.49
1.09 -5.34 2.49
1.19 -5.32 2.49
1.30 -5.29 2.49
1.41 -5.27 2.49
1.51 -5.24 2.49
1.61 -5.20 2.49
1.72 -5.17 2.49
1.82 -5.14 2.49
1.92 -5.10 2.49
2.03 -5.06 2.49
2.13 -5.02 2.49
2.23 -4.97 2.49
2.28 -4.82 2.44
2.32 -4.68 2.39
2.42 -4.63 2.39
2.51 -4.58 2.39
2.60 -4.53 2.39
2.69 -4.47 2.39
2.78 -4.42 2.39
2.87 -4.36 2.39
2.95 -4.30 2.39
3.04 -4.24 2.39
3.12 -4.18 2.39
3.21 -4.12 2.39
3.29 -4.05 2.39
3.37 -3.98 2.39
3.45 -3.92 2.39
3.52 -3.85 2.39
3.60 -3.77 2.39
3.67 -3.70 2.39
3.75 -3.63 2.39
3.82 -3.55 2.39
3.89 -3.47 2.39
3.96 -3.39 2.39
4.02 -3.31 2.39
4.09 -3.23 2.39
4.15 -3.15 2.39
4.21 -3.06 2.39
4.27 -2.98 2.39
4.33 -2.89 2.39
4.39 -2.80 2.39
4.44 -2.71 2.39
4.49 -2.62 2.39
4.54 -2.53 2.39
4.59 -2.44 2.39
4.64 -2.35 2.39
4.69 -2.25 2.39
4.73 -2.16 2.39
4.77 -2.06 2.39
4.81 -1.97 2.39
4.85 -1.87 2.39
4.88 -1.77 2.39
4.92 -1.67 2.39
4.95 -1.57 2.39
4.98 -1.47 2.39
5.01 -1.37 2.39
5.03 -1.27 2.39
5.06 -1.17 2.39
5.08 -1.07 2.39
5.10 -0.97 2.39
5.11 -0.86 2.39
5.13 -0.76 2.39
5.14 -0.66 2.39
4.37 -0.47 2.03
4.25 -0.37 1.97
4.20 -0.28 1.94
4.18 -0.20 1.93
4.19 -0.11 1.94
4.21 -0.03 1.95
4.27 0.06 1.97
4.39 0.15 2.03
5.17 0.28 2.39
5.16 0.38 2.39
5.15 0.48 2.39
5.14 0.59 2.39
5.12 0.69 2.39
5.11 0.79 2.39
5.09 0.89 2.39
5.07 0.99 2.39
5.05 1.10 2.39
5.02 1.20 2.39
5.00 1.30 2.39
4.97 1.40 2.39
4.94 1.50 2.39
4.91 1.59 2.39
4.87 1.69 2.39
4.84 1.79 2.39
4.80 1.89 2.39
4.76 1.98 2.39
4.72 2.08 2.39
4.67 2.17 2.39
4.63 2.26 2.39
4.58 2.35 2.39
4.53 2.45 2.39
4.48 2.54 2.39
4.43 2.62 2.39
4.37 2.71 2.39
4.32 2.80 2.39
4.26 2.88 2.39
4.20 2.97 2.39
4.14 3.05 2.39
4.07 3.13 2.39
4.01 3.21 2.39
3.94 3.29 2.39
3.88 3.37 2.39
3.81 3.45 2.39
3.74 3.52 2.39
3.66 3.60 2.39
3.59 3.67 2.39
3.51 3.74 2.39
3.44 3.81 2.39
3.36 3.88 2.39
3.28 3.94 2.39
3.20 4.01 2.39
3.12 4.07 2.39
3.04 4.13 2.39
2.95 4.19 2.39
2.87 4.25 2.39
2.78 4.30 2.39
2.69 4.36 2.39
2.60 4.41 2.39
2.51 4.46 2.39
2.42 4.51 2.39
2.33 4.56 2.39
2.24 4.60 2.39
2.18 4.73 2.43
2.14 4.89 2.49
2.04 4.93 2.49
1.94 4.97 2.49
1.84 5.01 2.49
1.74 5.04 2.49
1.64 5.08 2.49
1.54 5.11 2.49
1.43 5.14 2.49
1.33 5.17 2.49
1.22 5.19 2.49
1.12 5.21 2.49
1.01 5.24 2.49
0.91 5.25 2.49
0.80 5.27 2.49
0.70 5.29 2.49
0.59 5.30 2.49
0.48 5.31 2.49
0.38 5.32 2.49
0.27 5.32 2.49
0.16 5.33 2.49
0.06 5.33 2.49
-0.05 5.33 2.49
-0.16 5.33 2.49
-0.27 5.32 2.49
-0.37 5.32 2.49
-0.48 5.31 2.49
-0.59 5.30 2.49
-0.69 5.28 2.49
-0.80 5.27 2.49
-0.90 5.25 2.49
-1.01 5.23 2.49
-1.12 5.21 2.49
-1.22 5.19 2.49
-1.32 5.16 2.49
-1.43 5.13 2.49
-1.53 5.11 2.49
-1.63 5.07 2.49
-1.73 5.04 2.49
-1.84 5.00 2.49
-1.94 4.97 2.49
-2.04 4.93 2.49
-2.13 4.89 2.49
-2.23 4.84 2.49
-2.33 4.80 2.49
-2.43 4.75 2.49
-2.52 4.70 2.49
-2.62 4.65 2.49
-2.71 4.59 2.49
-2.80 4.54 2.49
-2.89 4.48 2.49
-2.98 4.42 2.49
-3.07 4.36 2.49
-3.16 4.30 2.49
-3.24 4.24 2.49
-3.33 4.17 2.49
-3.41 4.10 2.49
-3.49 4.04 2.49
-3.58 3.96 2.49
-3.65 3.89 2.49
-3.73 3.82 2.49
-3.81 3.74 2.49
-3.88 3.67 2.49
-3.96 3.59 2.49
-4.03 3.51 2.49
-4.10 3.43 2.49
-4.17 3.34 2.49
-4.24 3.26 2.49
-4.30 3.18 2.49
-4.36 3.09 2.49
-4.43 3.00 2.49
-4.49 2.91 2.49
-4.54 2.82 2.49
-4.60 2.73 2.49
-4.66 2.64 2.49
-4.71 2.54 2.49
-4.76 2.45 2.49
-4.81 2.35 2.49
-4.86 2.26 2.49
-4.90 2.16 2.49
-4.94 2.06 2.49
-4.99 1.96 2.49
-5.03 1.86 2.49
-5.06 1.76 2.49
-5.10 1.66 2.49
-5.13 1.56 2.49
-5.16 1.45 2.49
-5.19 1.35 2.49
-5.22 1.24 2.49
-5.24 1.14 2.49
-5.27 1.03 2.49
-5.29 0.93 2.49
-5.31 0.82 2.49
-5.32 0.72 2.49
-5.34 0.61 2.49
-5.35 0.50 2.49
-5.36 0.39 2.49
-5.37 0.29 2.49
-5.37 0.18 2.49
-5.38 0.07 2.49
-5.38 -0.04 2.49
-5.38 -0.15 2.49
-5.38 -0.25 2.49
-5.37 -0.36 2.49
-5.36 -0.47 2.49
-5.35 -0.58 2.49
-5.34 -0.68 2.49
-5.33 -0.79 2.49
-5.31 -0.90 2.49
-5.30 -1.01 2.49
-5.28 -1.11 2.49
-5.25 -1.22 2.49
-5.23 -1.32 2.49
-5.20 -1.43 2.49
-5.17 -1.53 2.49
-5.14 -1.64 2.49
-5.11 -1.74 2.49
-5.08 -1.84 2.49
-5.04 -1.94 2.49
-5.00 -2.05 2.49
-4.96 -2.15 2.49
-4.92 -2.25 2.49
-4.87 -2.34 2.49
-4.82 -2.44 2.49
-4.78 -2.54 2.49
-4.72 -2.63 2.49
-4.67 -2.73 2.49
-4.62 -2.82 2.49
-4.56 -2.92 2.49
-4.50 -3.01 2.49
-4.44 -3.10 2.49
-4.38 -3.19 2.49
-4.32 -3.27 2.49
-4.25 -3.36 2.49
-4.18 -3.45 2.49
-4.11 -3.53 2.49
-4.04 -3.61 2.49
-3.97 -3.69 2.49
-3.90 -3.77 2.49
-3.82 -3.85 2.49
-3.74 -3.93 2.49
-3.66 -4.00 2.49
-3.58 -4.08 2.49
-3.50 -4.15 2.49
-3.42 -4.22 2.49
-3.33 -4.29 2.49
-3.25 -4.35 2.49
-3.16 -4.42 2.49
-3.07 -4.48 2.49
-2.98 -4.54 2.49
-2.89 -4.60 2.49
-2.80 -4.66 2.49
-2.70 -4.72 2.49
-2.61 -4.77 2.49
-2.51 -4.82 2.49
-2.42 -4.87 2.49
-2.32 -4.92 2.49
-2.22 -4.97 2.49
-2.12 -5.01 2.49
-2.02 -5.05 2.49
-1.92 -5.09 2.49
-1.82 -5.13 2.49
-1.71 -5.17 2.49
-1.61 -5.20 2.49
-1.51 -5.23 2.49
-1.40 -5.26 2.49
-1.29 -5.29 2.49
-1.19 -5.31 2.49
-1.08 -5.34 2.49
-0.97 -5.36 2.49
-0.87 -5.38 2.49
-0.76 -5.39 2.49
-0.65 -5.41 2.49
-0.54 -5.42 2.49
-0.43 -5.43 2.49
-0.33 -5.44 2.49
-0.22 -5.44 2.49
-0.11 -5.45 2.49
0.00 -5.14 2.49
0.10 -5.14 2.49
0.21 -5.14 2.49
0.31 -5.13 2.49
0.41 -5.12 2.49
0.52 -5.11 2.49
0.62 -5.10 2.49
0.72 -5.09 2.49
0.82 -5.07 2.49
0.92 -5.06 2.49
1.02 -5.04 2.49
1.13 -5.02 2.49
1.23 -4.99 2.49
1.33 -4.97 2.49
1.42 -4.94 2.49
1.52 -4.91 2.49
1.62 -4.88 2.49
1.72 -4.84 2.49
1.82 -4.81 2.49
1.91 -4.77 2.49
2.01 -4.73 2.49
2.10 -4.69 2.49
2.19 -4.65 2.49
2.27 -4.58 2.48
2.28 -4.37 2.39
2.37 -4.32 2.39
2.46 -4.29 2.40
2.54 -4.22 2.39
2.62 -4.17 2.39
2.70 -4.12 2.39
2.79 -4.06 2.39
2.87 -4.00 2.39
2.95 -3.94 2.39
3.02 -3.88 2.39
3.10 -3.82 2.39
3.18 -3.76 2.39
3.25 -3.69 2.39
3.32 -3.63 2.39
3.39 -3.56 2.39
3.47 -3.49 2.39
3.53 -3.42 2.39
3.60 -3.35 2.39
3.67 -3.28 2.39
3.73 -3.20 2.39
3.79 -3.12 2.39
3.86 -3.05 2.39
3.92 -2.97 2.39
3.97 -2.89 2.39
4.03 -2.81 2.39
4.09 -2.73 2.39
4.14 -2.64 2.39
4.19 -2.56 2.39
4.24 -2.48 2.39
4.29 -2.39 2.39
4.33 -2.30 2.39
4.38 -2.22 2.39
4.42 -2.13 2.39
4.46 -2.04 2.39
4.50 -1.95 2.39
4.54 -1.86 2.39
4.57 -1.76 2.39
4.61 -1.67 2.39
4.64 -1.58 2.39
4.67 -1.49 2.39
4.70 -1.39 2.39
4.72 -1.30 2.39
4.75 -1.20 2.39
4.77 -1.11 2.39
4.79 -1.01 2.39
4.81 -0.91 2.39
4.82 -0.82 2.39
4.84 -0.72 2.39
4.85 -0.62 2.39
4.86 -0.52 2.39
4.26 -0.37 2.09
4.21 -0.28 2.06
4.19 -0.20 2.05
4.19 -0.11 2.05
4.21 -0.03 2.06
4.28 0.06 2.09
4.88 0.16 2.39
4.87 0.26 2.39
4.87 0.36 2.39
4.86 0.45 2.39
4.85 0.55 2.39
4.83 0.65 2.39
4.82 0.75 2.39
4.80 0.84 2.39
4.78 0.94 2.39
4.76 1.03 2.39
4.74 1.13 2.39
4.71 1.22 2.39
4.69 1.32 2.39
4.66 1.41 2.39
4.63 1.50 2.39
4.60 1.60 2.39
4.56 1.69 2.39
4.53 1.78 2.39
4.49 1.87 2.39
4.45 1.96 2.39
4.41 2.05 2.39
4.37 2.13 2.39
4.32 2.22 2.39
4.28 2.31 2.39
4.23 2.39 2.39
4.18 2.48 2.39
4.13 2.56 2.39
4.07 2.64 2.39
4.02 2.72 2.39
3.96 2.80 2.39
3.90 2.88 2.39
3.85 2.96 2.39
3.78 3.03 2.39
3.72 3.11 2.39
3.66 3.18 2.39
3.59 3.25 2.39
3.53 3.32 2.39
3.46 3.39 2.39
3.39 3.46 2.39
3.32 3.53 2.39
3.25 3.59 2.39
3.17 3.66 2.39
3.10 3.72 2.39
3.02 3.78 2.39
2.94 3.84 2.39
2.87 3.90 2.39
2.79 3.96 2.39
2.71 4.01 2.39
2.62 4.06 2.39
2.54 4.11 2.39
2.46 4.16 2.39
2.37 4.21 2.39
2.29 4.26 2.39
2.20 4.30 2.39
2.19 4.49 2.47
2.11 4.58 2.49
2.02 4.62 2.49
1.93 4.66 2.49
1.83 4.69 2.49
1.74 4.73 2.49
1.64 4.76 2.49
1.55 4.79 2.49
1.45 4.82 2.49
1.35 4.85 2.49
1.25 4.88 2.49
1.16 4.90 2.49
1.06 4.92 2.49
0.96 4.94 2.49
0.86 4.96 2.49
0.76 4.98 2.49
0.66 4.99 2.49
0.56 5.00 2.49
0.46 5.01 2.49
0.36 5.02 2.49
0.25 5.03 2.49
0.15 5.03 2.49
0.05 5.03 2.49
-0.05 5.03 2.49
-0.15 5.03 2.49
-0.25 5.03 2.49
-0.35 5.02 2.49
-0.45 5.01 2.49
-0.55 5.00 2.49
-0.65 4.99 2.49
-0.75 4.97 2.49
-0.85 4.96 2.49
-0.95 4.94 2.49
-1.05 4.92 2.49
-1.15 4.90 2.49
-1.25 4.87 2.49
-1.35 4.85 2.49
-1.45 4.82 2.49
-1.54 4.79 2.49
-1.64 4.76 2.49
-1.73 4.72 2.49
-1.83 4.69 2.49
-1.92 4.65 2.49
-2.02 4.61 2.49
-2.11 4.57 2.49
-2.20 4.53 2.49
-2.29 4.48 2.49
-2.38 4.44 2.49
-2.47 4.39 2.49
-2.56 4.34 2.49
-2.64 4.28 2.49
-2.73 4.23 2.49
-2.81 4.18 2.49
-2.90 4.12 2.49
-2.98 4.06 2.49
-3.06 4.00 2.49
-3.14 3.94 2.49
-3.22 3.87 2.49
-3.30 3.81 2.49
-3.37 3.74 2.49
-3.45 3.67 2.49
-3.52 3.60 2.49
-3.60 3.53 2.49
-3.67 3.46 2.49
-3.74 3.39 2.49
-3.80 3.31 2.49
-3.87 3.23 2.49
-3.93 3.16 2.49
-4.00 3.08 2.49
-4.06 3.00 2.49
-4.12 2.92 2.49
-4.18 2.83 2.49
-4.23 2.75 2.49
-4.29 2.66 2.49
-4.34 2.58 2.49
-4.40 2.49 2.49
-4.44 2.40 2.49
-4.49 2.31 2.49
-4.54 2.22 2.49
-4.58 2.13 2.49
-4.63 2.04 2.49
-4.67 1.94 2.49
-4.71 1.85 2.49
-4.74 1.76 2.49
-4.78 1.66 2.49
-4.81 1.56 2.49
-4.84 1.47 2.49
-4.87 1.37 2.49
-4.90 1.27 2.49
-4.93 1.17 2.49
-4.95 1.07 2.49
-4.97 0.98 2.49
-4.99 0.88 2.49
-5.01 0.78 2.49
-5.02 0.67 2.49
-5.04 0.57 2.49
-5.05 0.47 2.49
-5.06 0.37 2.49
-5.07 0.27 2.49
-5.07 0.17 2.49
-5.07 0.07 2.49
-5.08 -0.04 2.49
-5.08 -0.14 2.49
-5.07 -0.24 2.49
-5.07 -0.34 2.49
-5.06 -0.44 2.49
-5.05 -0.55 2.49
-5.04 -0.65 2.49
-5.03 -0.75 2.49
-5.01 -0.85 2.49
-5.00 -0.95 2.49
-4.98 -1.05 2.49
-4.96 -1.15 2.49
-4.93 -1.25 2.49
-4.91 -1.35 2.49
-4.88 -1.45 2.49
-4.85 -1.54 2.49
-4.82 -1.64 2.49
-4.79 -1.74 2.49
-4.75 -1.84 2.49
-4.72 -1.93 2.49
-4.68 -2.03 2.49
-4.64 -2.12 2.49
-4.60 -2.21 2.49
-4.55 -2.30 2.49
-4.51 -2.40 2.49
-4.46 -2.49 2.49
-4.41 -2.58 2.49
-4.36 -2.66 2.49
-4.30 -2.75 2.49
-4.25 -2.84 2.49
-4.19 -2.92 2.49
-4.13 -3.01 2.49
-4.07 -3.09 2.49
-4.01 -3.17 2.49
-3.95 -3.25 2.49
-3.88 -3.33 2.49
-3.81 -3.41 2.49
-3.74 -3.49 2.49
-3.67 -3.56 2.49
-3.60 -3.63 2.49
-3.53 -3.71 2.49
-3.46 -3.78 2.49
-3.38 -3.85 2.49
-3.30 -3.91 2.49
-3.22 -3.98 2.49
-3.14 -4.04 2.49
-3.06 -4.11 2.49
-2.98 -4.17 2.49
-2.90 -4.23 2.49
-2.81 -4.29 2.49
-2.73 -4.34 2.49
-2.64 -4.40 2.49
-2.55 -4.45 2.49
-2.46 -4.50 2.49
-2.37 -4.55 2.49
-2.28 -4.60 2.49
-2.19 -4.64 2.49
-2.09 -4.68 2.49
-2.00 -4.73 2.49
-1.91 -4.77 2.49
-1.81 -4.80 2.49
-1.71 -4.84 2.49
-1.62 -4.87 2.49
-1.52 -4.91 2.49
-1.42 -4.94 2.49
-1.32 -4.96 2.49
-1.22 -4.99 2.49
-1.12 -5.01 2.49
-1.02 -5.03 2.49
-0.92 -5.05 2.49
-0.82 -5.07 2.49
-0.72 -5.09 2.49
-0.61 -5.10 2.49
-0.51 -5.11 2.49
-0.41 -5.12 2.49
-0.31 -5.13 2.49
-0.20 -5.14 2.49
-0.10 -5.14 2.49
0.00 -4.86 2.49
0.10 -4.86 2.49
0.20 -4.85 2.49
0.29 -4.85 2.49
0.39 -4.84 2.49
0.49 -4.83 2.49
0.58 -4.82 2.49
0.68 -4.81 2.49
0.78 -4.80 2.49
0.87 -4.78 2.49
0.97 -4.76 2.49
1.06 -4.74 2.49
1.16 -4.72 2.49
1.25 -4.69 2.49
1.35 -4.67 2.49
1.44 -4.64 2.49
1.53 -4.61 2.49
1.62 -4.58 2.49
1.72 -4.55 2.49
1.81 -4.51 2.49
1.90 -4.47 2.49
1.99 -4.43 2.49
2.07 -4.39 2.49
2.16 -4.35 2.49
2.25 -4.31 2.49
2.27 -4.15 2.43
2.32 -4.04 2.39
2.40 -3.99 2.39
2.48 -3.94 2.39
2.56 -3.89 2.39
2.63 -3.84 2.39
2.71 -3.78 2.39
2.78 -3.73 2.39
2.86 -3.67 2.39
2.93 -3.61 2.39
3.00 -3.55 2.39
3.07 -3.49 2.39
3.14 -3.43 2.39
3.21 -3.37 2.39
3.28 -3.30 2.39
3.34 -3.23 2.39
3.40 -3.17 2.39
3.47 -3.10 2.39
3.53 -3.03 2.39
3.59 -2.95 2.39
3.64 -2.88 2.39
3.70 -2.81 2.39
3.76 -2.73 2.39
3.81 -2.66 2.39
3.86 -2.58 2.39
3.91 -2.50 2.39
3.96 -2.42 2.39
4.01 -2.34 2.39
4.05 -2.26 2.39
4.10 -2.18 2.39
4.14 -2.09 2.39
4.18 -2.01 2.39
4.22 -1.93 2.39
4.26 -1.84 2.39
4.29 -1.76 2.39
4.32 -1.67 2.39
4.36 -1.58 2.39
4.39 -1.49 2.39
4.41 -1.40 2.39
4.44 -1.32 2.39
4.47 -1.23 2.39
4.49 -1.14 2.39
4.51 -1.05 2.39
4.53 -0.95 2.39
4.55 -0.86 2.39
4.56 -0.77 2.39
4.57 -0.68 2.39
4.59 -0.59 2.39
4.60 -0.50 2.39
4.60 -0.40 2.39
4.26 -0.29 2.21
4.23 -0.20 2.19
4.23 -0.12 2.19
4.27 -0.03 2.21
4.59 0.06 2.38
4.61 0.15 2.39
4.61 0.24 2.39
4.60 0.34 2.39
4.59 0.43 2.39
4.58 0.52 2.39
4.57 0.61 2.39
4.56 0.70 2.39
4.54 0.80 2.39
4.52 0.89 2.39
4.50 0.98 2.39
4.48 1.07 2.39
4.46 1.16 2.39
4.43 1.25 2.39
4.41 1.33 2.39
4.38 1.42 2.39
4.35 1.51 2.39
4.32 1.60 2.39
4.28 1.68 2.39
4.25 1.77 2.39
4.21 1.85 2.39
4.17 1.94 2.39
4.13 2.02 2.39
4.09 2.10 2.39
4.04 2.18 2.39
4.00 2.26 2.39
3.95 2.34 2.39
3.90 2.42 2.39
3.85 2.50 2.39
3.80 2.57 2.39
3.75 2.65 2.39
3.69 2.72 2.39
3.64 2.80 2.39
3.58 2.87 2.39
3.52 2.94 2.39
3.46 3.01 2.39
3.40 3.08 2.39
3.33 3.14 2.39
3.27 3.21 2.39
3.20 3.27 2.39
3.14 3.34 2.39
3.07 3.40 2.39
3.00 3.46 2.39
2.93 3.52 2.39
2.86 3.58 2.39
2.78 3.63 2.39
2.71 3.69 2.39
2.64 3.74 2.39
2.56 3.79 2.39
2.48 3.84 2.39
2.40 3.89 2.39
2.33 3.94 2.39
2.25 3.98 2.39
2.19 4.07 2.42
2.17 4.24 2.49
2.09 4.29 2.49
2.00 4.33 2.49
1.91 4.37 2.49
1.82 4.40 2.49
1.73 4.44 2.49
1.64 4.47 2.49
1.55 4.50 2.49
1.46 4.53 2.49
1.37 4.56 2.49
1.28 4.59 2.49
1.19 4.61 2.49
1.09 4.64 2.49
1.00 4.66 2.49
0.91 4.67 2.49
0.81 4.69 2.49
0.72 4.71 2.49
0.62 4.72 2.49
0.53 4.73 2.49
0.43 4.74 2.49
0.34 4.75 2.49
0.24 4.75 2.49
0.15 4.76 2.49
0.05 4.76 2.49
-0.05 4.76 2.49
-0.14 4.76 2.49
-0.24 4.75 2.49
-0.33 4.75 2.49
-0.43 4.74 2.49
-0.52 4.73 2.49
-0.62 4.72 2.49
-0.71 4.70 2.49
-0.81 4.69 2.49
-0.90 4.67 2.49
-1.00 4.65 2.49
-1.09 4.63 2.49
-1.18 4.61 2.49
-1.27 4.59 2.49
-1.37 4.56 2.49
-1.46 4.53 2.49
-1.55 4.50 2.49
-1.64 4.47 2.49
-1.73 4.43 2.49
-1.82 4.40 2.49
-1.91 4.36 2.49
-1.99 4.32 2.49
-2.08 4.28 2.49
-2.17 4.24 2.49
-2.25 4.20 2.49
-2.34 4.15 2.49
-2.42 4.10 2.49
-2.50 4.05 2.49
-2.58 4.00 2.49
-2.66 3.95 2.49
-2.74 3.90 2.49
-2.82 3.84 2.49
-2.90 3.78 2.49
-2.97 3.72 2.49
-3.05 3.66 2.49
-3.12 3.60 2.49
-3.19 3.54 2.49
-3.26 3.47 2.49
-3.33 3.41 2.49
-3.40 3.34 2.49
-3.47 3.27 2.49
-3.53 3.20 2.49
-3.60 3.13 2.49
-3.66 3.06 2.49
-3.72 2.99 2.49
-3.78 2.91 2.49
-3.84 2.83 2.49
-3.90 2.76 2.49
-3.95 2.68 2.49
-4.01 2.60 2.49
-4.06 2.52 2.49
-4.11 2.44 2.49
-4.16 2.35 2.49
-4.20 2.27 2.49
-4.25 2.19 2.49
-4.29 2.10 2.49
-4.34 2.01 2.49
-4.38 1.93 2.49
-4.41 1.84 2.49
-4.45 1.75 2.49
-4.49 1.66 2.49
-4.52 1.57 2.49
-4.55 1.48 2.49
-4.58 1.39 2.49
-4.61 1.30 2.49
-4.63 1.20 2.49
-4.66 1.11 2.49
-4.68 1.02 2.49
-4.70 0.92 2.49
-4.72 0.83 2.49
-4.74 0.73 2.49
-4.75 0.64 2.49
-4.76 0.54 2.49
-4.77 0.45 2.49
-4.78 0.35 2.49
-4.79 0.25 2.49
-4.80 0.16 2.49
-4.80 0.06 2.49
-4.80 -0.03 2.49
-4.80 -0.13 2.49
-4.80 -0.23 2.49
-4.79 -0.32 2.49
-4.79 -0.42 2.49
-4.78 -0.52 2.49
-4.77 -0.61 2.49
-4.75 -0.71 2.49
-4.74 -0.80 2.49
-4.72 -0.90 2.49
-4.71 -0.99 2.49
-4.69 -1.09 2.49
-4.66 -1.18 2.49
-4.64 -1.28 2.49
-4.62 -1.37 2.49
-4.59 -1.46 2.49
-4.56 -1.55 2.49
-4.53 -1.64 2.49
-4.49 -1.74 2.49
-4.46 -1.83 2.49
-4.42 -1.92 2.49
-4.38 -2.00 2.49
-4.34 -2.09 2.49
-4.30 -2.18 2.49
-4.26 -2.27 2.49
-4.21 -2.35 2.49
-4.17 -2.44 2.49
-4.12 -2.52 2.49
-4.07 -2.60 2.49
-4.01 -2.68 2.49
-3.96 -2.76 2.49
-3.91 -2.84 2.49
-3.85 -2.92 2.49
-3.79 -3.00 2.49
-3.73 -3.07 2.49
-3.67 -3.15 2.49
-3.60 -3.22 2.49
-3.54 -3.30 2.49
-3.47 -3.37 2.49
-3.41 -3.44 2.49
-3.34 -3.50 2.49
-3.27 -3.57 2.49
-3.19 -3.64 2.49
-3.12 -3.70 2.49
-3.05 -3.76 2.49
-2.97 -3.82 2.49
-2.90 -3.88 2.49
-2.82 -3.94 2.49
-2.74 -4.00 2.49
-2.66 -4.05 2.49
-2.58 -4.10 2.49
-2.49 -4.16 2.49
-2.41 -4.21 2.49
-2.33 -4.25 2.49
-2.24 -4.30 2.49
-2.15 -4.34 2.49
-2.07 -4.39 2.49
-1.98 -4.43 2.49
-1.89 -4.47 2.49
-1.80 -4.51 2.49
-1.71 -4.54 2.49
-1.62 -4.57 2.49
-1.53 -4.61 2.49
-1.43 -4.64 2.49
-1.34 -4.66 2.49
-1.25 -4.69 2.49
-1.15 -4.72 2.49
-1.06 -4.74 2.49
-0.96 -4.76 2.49
-0.87 -4.78 2.49
-0.77 -4.79 2.49
-0.68 -4.81 2.49
-0.58 -4.82 2.49
-0.48 -4.83 2.49
-0.39 -4.84 2.49
-0.29 -4.85 2.49
-0.19 -4.85 2.49
-0.10 -4.86 2.49
0.00 -4.60 2.49
0.09 -4.60 2.49
0.19 -4.60 2.49
0.28 -4.59 2.49
0.37 -4.59 2.49
0.46 -4.58 2.49
0.55 -4.57 2.49
0.64 -4.56 2.49
0.74 -4.54 2.49
0.83 -4.53 2.49
0.92 -4.51 2.49
1.01 -4.49 2.49
1.10 -4.47 2.49
1.19 -4.45 2.49
1.27 -4.42 2.49
1.36 -4.39 2.49
1.45 -4.37 2.49
1.54 -4.34 2.49
1.62 -4.30 2.49
1.71 -4.27 2.49
1.80 -4.24 2.49
1.88 -4.20 2.49
1.96 -4.16 2.49
2.05 -4.12 2.49
2.13 -4.08 2.49
2.21 -4.03 2.49
2.27 -3.95 2.47
2.28 -3.79 2.40
2.35 -3.73 2.39
2.42 -3.68 2.39
2.49 -3.63 2.39
2.56 -3.58 2.39
2.64 -3.53 2.39
2.71 -3.48 2.39
2.77 -3.42 2.39
2.84 -3.36 2.39
2.91 -3.31 2.39
2.97 -3.25 2.39
3.04 -3.19 2.39
3.10 -3.13 2.39
3.16 -3.06 2.39
3.22 -3.00 2.39
3.28 -2.93 2.39
3.34 -2.87 2.39
3.40 -2.80 2.39
3.45 -2.73 2.39
3.50 -2.66 2.39
3.56 -2.59 2.39
3.61 -2.52 2.39
3.66 -2.44 2.39
3.70 -2.37 2.39
3.75 -2.29 2.39
3.79 -2.22 2.39
3.84 -2.14 2.39
3.88 -2.06 2.39
3.92 -1.98 2.39
3.96 -1.90 2.39
3.99 -1.82 2.39
4.03 -1.74 2.39
4.06 -1.66 2.39
4.09 -1.58 2.39
4.12 -1.50 2.39
4.15 -1.41 2.39
4.18 -1.33 2.39
4.21 -1.25 2.39
4.23 -1.16 2.39
4.25 -1.08 2.39
4.27 -0.99 2.39
4.29 -0.90 2.39
4.30 -0.82 2.39
4.32 -0.73 2.39
4.33 -0.64 2.39
4.34 -0.56 2.39
4.35 -0.47 2.39
4.36 -0.38 2.39
4.37 -0.30 2.39
4.37 -0.21 2.39
4.37 -0.12 2.39
4.37 -0.03 2.39
4.37 0.06 2.39
4.37 0.14 2.39
4.37 0.23 2.39
4.36 0.32 2.39
4.35 0.41 2.39
4.34 0.49 2.39
4.33 0.58 2.39
4.32 0.67 2.39
4.30 0.75 2.39
4.28 0.84 2.39
4.27 0.92 2.39
4.25 1.01 2.39
4.22 1.09 2.39
4.20 1.18 2.39
4.17 1.26 2.39
4.15 1.35 2.39
4.12 1.43 2.39
4.09 1.51 2.39
4.06 1.59 2.39
4.02 1.67 2.39
3.99 1.75 2.39
3.95 1.83 2.39
3.91 1.91 2.39
3.87 1.99 2.39
3.83 2.07 2.39
3.79 2.14 2.39
3.74 2.22 2.39
3.70 2.29 2.39
3.65 2.37 2.39
3.60 2.44 2.39
3.55 2.51 2.39
3.50 2.58 2.39
3.45 2.65 2.39
3.39 2.72 2.39
3.34 2.78 2.39
3.28 2.85 2.39
3.22 2.91 2.39
3.16 2.98 2.39
3.10 3.04 2.39
3.04 3.10 2.39
2.97 3.16 2.39
2.91 3.22 2.39
2.84 3.28 2.39
2.78 3.33 2.39
2.71 3.39 2.39
2.64 3.44 2.39
2.57 3.49 2.39
2.50 3.54 2.39
2.43 3.59 2.39
2.35 3.64 2.39
2.28 3.69 2.39
2.20 3.73 2.39
2.19 3.89 2.46
2.14 3.98 2.49
2.06 4.02 2.49
1.98 4.06 2.49
1.89 4.10 2.49
1.81 4.14 2.49
1.73 4.17 2.49
1.64 4.21 2.49
1.56 4.24 2.49
1.47 4.27 2.49
1.39 4.30 2.49
1.30 4.32 2.49
1.21 4.35 2.49
1.12 4.37 2.49
1.04 4.39 2.49
0.95 4.41 2.49
0.86 4.43 2.49
0.77 4.45 2.49
0.68 4.46 2.49
0.59 4.47 2.49
0.50 4.48 2.49
0.41 4.49 2.49
0.32 4.50 2.49
0.23 4.50 2.49
0.14 4.51 2.49
0.05 4.51 2.49
-0.04 4.51 2.49
-0.13 4.51 2.49
-0.22 4.50 2.49
-0.32 4.50 2.49
-0.41 4.49 2.49
-0.50 4.48 2.49
-0.59 4.47 2.49
-0.68 4.46 2.49
-0.77 4.44 2.49
-0.85 4.43 2.49
-0.94 4.41 2.49
-1.03 4.39 2.49
-1.12 4.37 2.49
-1.21 4.34 2.49
-1.30 4.32 2.49
-1.38 4.29 2.49
-1.47 4.26 2.49
-1.55 4.23 2.49
-1.64 4.20 2.49
-1.72 4.17 2.49
-1.81 4.13 2.49
-1.89 4.10 2.49
-1.97 4.06 2.49
-2.05 4.02 2.49
-2.13 3.97 2.49
-2.21 3.93 2.49
-2.29 3.89 2.49
-2.37 3.84 2.49
-2.45 3.79 2.49
-2.52 3.74 2.49
-2.60 3.69 2.49
-2.67 3.64 2.49
-2.74 3.58 2.49
-2.82 3.53 2.49
-2.89 3.47 2.49
-2.96 3.41 2.49
-3.02 3.35 2.49
-3.09 3.29 2.49
-3.16 3.23 2.49
-3.22 3.17 2.49
-3.29 3.10 2.49
-3.35 3.03 2.49
-3.41 2.97 2.49
-3.47 2.90 2.49
-3.53 2.83 2.49
-3.58 2.76 2.49
-3.64 2.68 2.49
-3.69 2.61 2.49
-3.74 2.54 2.49
-3.79 2.46 2.49
-3.84 2.39 2.49
-3.89 2.31 2.49
-3.94 2.23 2.49
-3.98 2.15 2.49
-4.03 2.07 2.49
-4.07 1.99 2.49
-4.11 1.91 2.49
-4.15 1.82 2.49
-4.18 1.74 2.49
-4.22 1.66 2.49
-4.25 1.57 2.49
-4.28 1.49 2.49
-4.31 1.40 2.49
-4.34 1.31 2.49
-4.37 1.23 2.49
-4.39 1.14 2.49
-4.41 1.05 2.49
-4.43 0.96 2.49
-4.45 0.87 2.49
-4.47 0.78 2.49
-4.49 0.69 2.49
-4.50 0.60 2.49
-4.51 0.51 2.49
-4.52 0.42 2.49
-4.53 0.33 2.49
-4.54 0.24 2.49
-4.54 0.15 2.49
-4.55 0.06 2.49
-4.55 -0.03 2.49
-4.55 -0.12 2.49
-4.54 -0.22 2.49
-4.54 -0.31 2.49
-4.53 -0.40 2.49
-4.53 -0.49 2.49
-4.52 -0.58 2.49
-4.50 -0.67 2.49
-4.49 -0.76 2.49
-4.48 -0.85 2.49
-4.46 -0.94 2.49
-4.44 -1.03 2.49
-4.42 -1.12 2.49
-4.40 -1.21 2.49
-4.37 -1.30 2.49
-4.35 -1.38 2.49
-4.32 -1.47 2.49
-4.29 -1.56 2.49
-4.26 -1.64 2.49
-4.22 -1.73 2.49
-4.19 -1.81 2.49
-4.15 -1.90 2.49
-4.11 -1.98 2.49
-4.07 -2.06 2.49
-4.03 -2.15 2.49
-3.99 -2.23 2.49
-3.95 -2.31 2.49
-3.90 -2.39 2.49
-3.85 -2.46 2.49
-3.80 -2.54 2.49
-3.75 -2.62 2.49
-3.70 -2.69 2.49
-3.64 -2.77 2.49
-3.59 -2.84 2.49
-3.53 -2.91 2.49
-3.47 -2.98 2.49
-3.41 -3.05 2.49
-3.35 -3.12 2.49
-3.29 -3.19 2.49
-3.23 -3.25 2.49
-3.16 -3.32 2.49
-3.09 -3.38 2.49
-3.03 -3.44 2.49
-2.96 -3.50 2.49
-2.89 -3.56 2.49
-2.81 -3.62 2.49
-2.74 -3.68 2.49
-2.67 -3.73 2.49
-2.59 -3.78 2.49
-2.52 -3.84 2.49
-2.44 -3.89 2.49
-2.36 -3.94 2.49
-2.28 -3.98 2.49
-2.20 -4.03 2.49
-2.12 -4.07 2.49
-2.04 -4.11 2.49
-1.96 -4.15 2.49
-1.87 -4.19 2.49
-1.79 -4.23 2.49
-1.70 -4.27 2.49
-1.62 -4.30 2.49
-1.53 -4.33 2.49
-1.45 -4.36 2.49
-1.36 -4.39 2.49
-1.27 -4.42 2.49
-1.18 -4.44 2.49
-1.09 -4.47 2.49
-1.00 -4.49 2.49
-0.91 -4.51 2.49
-0.82 -4.52 2.49
-0.73 -4.54 2.49
-0.64 -4.55 2.49
-0.55 -4.57 2.49
-0.46 -4.58 2.49
-0.37 -4.59 2.49
-0.27 -4.59 2.49
-0.18 -4.60 2.49
-0.09 -4.60 2.49
0.00 -4.36 2.49
0.09 -4.36 2.49
0.18 -4.36 2.49
0.26 -4.36 2.49
0.35 -4.35 2.49
0.44 -4.34 2.49
0.52 -4.33 2.49
0.61 -4.32 2.49
0.70 -4.31 2.49
0.78 -4.29 2.49
0.87 -4.28 2.49
0.96 -4.26 2.49
1.04 -4.24 2.49
1.12 -4.22 2.49
1.21 -4.19 2.49
1.29 -4.17 2.49
1.38 -4.14 2.49
1.46 -4.11 2.49
1.54 -4.08 2.49
1.62 -4.05 2.49
1.70 -4.02 2.49
1.78 -3.98 2.49
1.86 -3.94 2.49
1.94 -3.91 2.49
2.02 -3.87 2.49
2.09 -3.83 2.49
2.17 -3.78 2.49
2.25 -3.74 2.49
2.27 -3.61 2.44
2.29 -3.49 2.39
2.36 -3.45 2.39
2.43 -3.40 2.39
2.50 -3.35 2.39
2.57 -3.30 2.39
2.63 -3.25 2.39
2.70 -3.19 2.39
2.76 -3.14 2.39
2.82 -3.08 2.39
2.88 -3.02 2.39
2.94 -2.96 2.39
3.00 -2.90 2.39
3.06 -2.84 2.39
3.11 -2.78 2.39
3.17 -2.72 2.39
3.22 -2.65 2.39
3.27 -2.59 2.39
3.32 -2.52 2.39
3.37 -2.45 2.39
3.42 -2.39 2.39
3.47 -2.32 2.39
3.51 -2.25 2.39
3.56 -2.18 2.39
3.60 -2.10 2.39
3.64 -2.03 2.39
3.68 -1.96 2.39
3.72 -1.88 2.39
3.75 -1.81 2.39
3.79 -1.73 2.39
3.82 -1.65 2.39
3.85 -1.58 2.39
3.88 -1.50 2.39
3.91 -1.42 2.39
3.94 -1.34 2.39
3.96 -1.26 2.39
