ply
format ascii 1.0
element vertex 2946
property float32 x
property float32 y
property float32 z
end_header
-5.28 -16.98 2.49
-4.94 -17.08 2.49
-4.59 -17.17 2.49
-4.24 -17.25 2.49
-3.90 -17.32 2.49
-3.55 -17.39 2.49
-3.20 -17.45 2.49
-2.84 -17.50 2.49
-2.49 -17.55 2.49
-2.14 -17.59 2.49
-1.78 -17.62 2.49
-1.43 -17.64 2.49
-1.07 -17.66 2.49
-0.72 -17.67 2.49
-0.36 -17.67 2.49
-0.01 -15.19 2.49
0.30 -15.18 2.49
0.60 -15.16 2.49
0.91 -15.14 2.49
1.21 -15.12 2.49
1.51 -15.08 2.49
1.74 -14.42 2.39
2.03 -14.38 2.39
2.31 -14.33 2.39
2.60 -14.27 2.39
2.88 -14.21 2.39
3.17 -14.15 2.39
3.45 -14.07 2.39
3.73 -14.00 2.39
4.01 -13.91 2.39
4.29 -13.82 2.39
4.56 -13.73 2.39
4.83 -13.63 2.39
5.10 -13.53 2.39
5.37 -13.41 2.39
5.64 -13.30 2.39
6.22 -13.89 2.52
6.44 -13.64 2.50
6.66 -13.40 2.48
6.87 -13.16 2.46
7.08 -12.92 2.44
7.29 -12.69 2.43
7.46 -12.41 2.40
4.87 -7.74 1.52
7.80 -11.86 2.36
7.96 -11.59 2.34
8.11 -11.32 2.31
8.26 -11.04 2.29
8.39 -10.77 2.27
8.53 -10.50 2.25
8.66 -10.24 2.23
8.80 -9.99 2.22
8.99 -9.80 2.21
9.17 -9.60 2.21
9.35 -9.41 2.21
9.53 -9.20 2.21
9.70 -9.00 2.21
9.87 -8.80 2.20
10.03 -8.59 2.20
10.21 -8.39 2.21
10.39 -8.19 2.21
10.56 -7.99 2.21
10.73 -7.79 2.22
10.91 -7.59 2.22
11.09 -7.38 2.23
11.26 -7.18 2.23
11.43 -6.97 2.24
11.60 -6.75 2.25
11.76 -6.54 2.25
11.90 -6.30 2.25
12.04 -6.07 2.26
12.17 -5.83 2.26
12.15 -5.53 2.24
12.11 -5.22 2.21
12.15 -4.95 2.20
12.15 -4.66 2.18
12.14 -4.39 2.16
12.14 -4.11 2.15
12.14 -3.84 2.13
12.14 -3.57 2.12
12.14 -3.31 2.11
12.13 -3.05 2.10
12.13 -2.79 2.09
12.56 -2.62 2.15
13.18 -2.48 2.25
13.21 -2.21 2.25
13.26 -1.95 2.25
13.31 -1.68 2.25
13.36 -1.41 2.26
13.40 -1.15 2.26
13.44 -0.88 2.26
13.47 -0.61 2.26
13.48 -0.34 2.27
13.48 -0.07 2.26
13.47 0.20 2.26
13.49 0.47 2.27
13.50 0.75 2.27
13.50 1.02 2.27
13.50 1.29 2.28
13.50 1.56 2.28
13.47 1.84 2.28
13.43 2.11 2.28
13.37 2.37 2.28
13.28 2.63 2.27
13.19 2.89 2.27
13.09 3.15 2.26
12.99 3.40 2.26
12.89 3.65 2.25
12.81 3.91 2.25
12.73 4.17 2.25
12.65 4.42 2.25
12.57 4.68 2.25
12.48 4.94 2.25
12.39 5.19 2.26
12.29 5.44 2.26
12.18 5.69 2.26
12.06 5.93 2.26
11.83 6.11 2.23
11.70 6.35 2.23
11.57 6.58 2.23
11.44 6.81 2.23
11.30 7.04 2.23
11.16 7.27 2.23
11.01 7.49 2.23
10.86 7.71 2.23
10.70 7.93 2.23
10.72 8.28 2.27
10.57 8.51 2.28
10.43 8.75 2.28
10.28 8.98 2.29
10.12 9.20 2.29
9.92 9.40 2.29
9.73 9.59 2.29
9.53 9.78 2.29
9.34 9.98 2.29
9.15 10.17 2.29
8.93 10.34 2.28
8.70 10.49 2.28
8.49 10.67 2.28
2.57 3.36 0.71
2.43 3.32 0.69
2.34 3.33 0.68
2.27 3.37 0.68
2.21 3.43 0.68
2.17 3.53 0.69
4.68 7.95 1.54
5.38 9.59 1.83
5.38 10.04 1.90
5.35 10.49 1.96
5.31 10.96 2.03
5.31 11.54 2.12
5.78 13.25 2.41
5.47 13.28 2.39
5.21 13.39 2.39
4.94 13.50 2.39
4.67 13.60 2.39
4.40 13.69 2.39
4.12 13.78 2.39
3.85 13.87 2.39
3.57 13.95 2.39
3.29 14.02 2.39
1.79 8.37 1.42
2.72 14.15 2.39
2.44 14.21 2.39
2.16 14.26 2.39
1.87 14.31 2.39
1.58 14.35 2.39
1.35 15.00 2.49
1.05 15.03 2.49
0.75 15.06 2.49
0.45 15.07 2.49
0.14 15.09 2.49
-0.16 15.09 2.49
-0.46 15.09 2.49
-0.77 15.09 2.49
-1.07 15.07 2.49
-1.37 15.05 2.49
-1.67 15.03 2.49
-1.98 15.00 2.49
-2.28 14.96 2.49
-2.58 14.92 2.49
-2.88 14.87 2.49
-3.18 14.82 2.49
-3.48 14.76 2.49
-3.77 14.69 2.49
-4.07 14.62 2.49
-4.36 14.54 2.49
-4.66 14.45 2.49
-4.95 14.36 2.49
-5.24 14.26 2.49
-5.52 14.16 2.49
-5.81 14.05 2.49
-6.09 13.94 2.49
-6.37 13.82 2.49
-6.52 13.42 2.44
-6.64 13.00 2.39
-6.87 12.81 2.38
-6.99 12.42 2.33
-7.32 12.42 2.36
-7.68 12.45 2.39
-7.93 12.30 2.39
-8.17 12.14 2.39
-8.42 11.98 2.39
-8.66 11.81 2.39
-8.90 11.64 2.39
-9.13 11.46 2.39
-9.37 11.28 2.39
-9.59 11.09 2.39
-9.82 10.90 2.39
-10.04 10.71 2.39
-10.25 10.51 2.39
-10.47 10.30 2.39
-10.53 9.95 2.36
-11.62 10.55 2.55
-10.53 9.18 2.27
-13.95 11.68 2.96
-14.39 11.57 3.00
-14.51 11.20 2.98
-14.50 10.73 2.93
-14.71 10.44 2.93
-14.93 10.14 2.93
-10.50 6.83 2.03
-15.34 9.55 2.93
-10.51 6.25 1.98
-10.50 5.97 1.96
-15.95 8.64 2.94
-16.13 8.33 2.94
-16.31 8.01 2.95
-16.49 7.69 2.95
-16.59 7.33 2.94
-16.46 6.89 2.89
-10.49 4.14 1.83
-16.37 6.09 2.83
-16.34 5.71 2.80
-10.48 3.43 1.78
-16.53 5.04 2.80
-16.70 4.73 2.81
-16.88 4.41 2.82
-17.05 4.09 2.84
-16.68 3.65 2.76
-16.23 3.21 2.67
-10.47 1.86 1.72
-16.18 2.53 2.65
-10.46 1.43 1.71
-16.32 1.89 2.65
-10.47 1.00 1.70
-16.52 1.24 2.68
-16.86 0.93 2.73
-17.21 0.60 2.78
-17.56 0.26 2.84
-18.25 -0.09 2.95
-19.24 -0.48 3.11
-8.67 -1.99 1.44
-8.08 -2.03 1.35
-7.54 -2.05 1.26
-8.73 -2.57 1.47
-8.73 -2.76 1.48
-8.72 -2.95 1.49
-8.72 -3.15 1.50
-8.72 -3.35 1.51
-8.72 -3.55 1.52
-8.72 -3.75 1.53
-8.72 -3.96 1.55
-8.72 -4.17 1.56
-8.71 -4.39 1.58
-8.71 -4.61 1.59
-8.71 -4.83 1.61
-8.68 -5.05 1.62
-8.54 -5.20 1.62
-8.16 -5.19 1.56
-7.80 -5.19 1.52
-10.41 -7.23 2.05
-16.92 -12.26 3.38
-16.48 -12.45 3.34
-16.03 -12.63 3.30
-10.39 -8.53 2.18
-15.06 -12.88 3.21
-10.40 -9.25 2.25
-14.01 -12.99 3.10
-12.99 -12.54 2.93
-11.27 -11.32 2.59
-10.19 -10.66 2.39
-9.98 -10.86 2.39
-9.75 -11.05 2.39
-9.53 -11.24 2.39
-9.30 -11.43 2.39
-9.06 -11.61 2.39
-6.66 -8.90 1.81
-8.59 -11.96 2.39
-8.34 -12.12 2.39
-8.09 -12.29 2.39
-7.84 -12.44 2.39
-7.28 -12.08 2.29
-7.21 -12.53 2.35
-6.71 -12.22 2.27
-6.69 -12.78 2.35
-6.55 -13.14 2.39
-6.34 -13.39 2.41
-6.27 -13.97 2.49
-5.99 -14.08 2.49
-5.70 -14.20 2.49
-5.41 -14.30 2.49
-5.12 -14.40 2.49
-4.83 -14.50 2.49
-4.54 -14.59 2.49
-4.24 -14.67 2.49
-3.95 -14.75 2.49
-3.65 -14.82 2.49
-3.35 -14.88 2.49
-3.05 -14.94 2.49
-2.75 -14.99 2.49
-2.44 -15.04 2.49
-2.14 -15.08 2.49
-1.84 -15.11 2.49
-1.53 -15.14 2.49
-1.23 -15.16 2.49
-0.92 -15.18 2.49
-0.62 -15.19 2.49
-0.31 -15.19 2.49
-0.01 -13.31 2.49
0.26 -13.30 2.49
0.53 -13.29 2.49
0.79 -13.27 2.49
1.06 -13.25 2.49
1.32 -13.22 2.49
1.59 -13.18 2.49
1.77 -12.60 2.39
2.03 -12.56 2.39
2.28 -12.51 2.39
2.53 -12.46 2.39
2.78 -12.40 2.39
3.02 -12.34 2.39
3.27 -12.27 2.39
3.51 -12.20 2.39
3.76 -12.12 2.39
4.00 -12.04 2.39
4.24 -11.95 2.39
4.47 -11.86 2.39
4.71 -11.76 2.39
4.94 -11.66 2.39
5.17 -11.56 2.39
5.40 -11.45 2.39
5.63 -11.33 2.39
6.28 -12.03 2.57
6.48 -11.82 2.55
6.67 -11.61 2.53
4.56 -7.59 1.68
4.70 -7.48 1.67
4.66 -7.09 1.61
4.73 -6.89 1.58
4.88 -6.80 1.59
5.13 -6.87 1.62
7.72 -9.90 2.38
7.85 -9.67 2.36
7.97 -9.42 2.34
8.00 -9.08 2.30
8.02 -8.74 2.25
8.17 -8.55 2.24
8.37 -8.42 2.25
8.57 -8.28 2.26
8.76 -8.13 2.27
8.93 -7.96 2.27
9.10 -7.79 2.28
9.26 -7.61 2.28
9.42 -7.43 2.28
9.58 -7.25 2.29
9.74 -7.07 2.29
9.90 -6.88 2.29
10.05 -6.69 2.30
10.17 -6.48 2.30
10.27 -6.26 2.29
10.36 -6.03 2.28
10.44 -5.80 2.28
10.52 -5.58 2.27
10.34 -5.21 2.21
10.44 -5.00 2.21
10.54 -4.79 2.21
10.63 -4.58 2.21
10.72 -4.36 2.21
10.80 -4.15 2.21
10.88 -3.93 2.21
10.96 -3.71 2.21
11.03 -3.49 2.21
11.09 -3.27 2.21
11.16 -3.04 2.21
11.47 -2.88 2.26
11.53 -2.65 2.26
11.59 -2.42 2.26
11.65 -2.19 2.26
11.70 -1.96 2.27
11.74 -1.72 2.27
11.78 -1.49 2.27
11.81 -1.25 2.27
11.84 -1.01 2.27
11.86 -0.78 2.27
11.88 -0.54 2.27
11.90 -0.30 2.28
11.92 -0.06 2.28
11.94 0.18 2.28
11.95 0.42 2.29
11.96 0.66 2.29
11.94 0.90 2.29
11.91 1.14 2.29
11.88 1.38 2.29
11.84 1.61 2.29
11.77 1.85 2.28
11.70 2.08 2.27
11.63 2.31 2.27
11.57 2.54 2.26
11.52 2.77 2.27
11.47 3.00 2.27
11.42 3.23 2.27
11.36 3.47 2.27
11.30 3.70 2.27
11.22 3.92 2.27
11.15 4.15 2.27
11.06 4.37 2.27
10.97 4.60 2.27
10.88 4.82 2.27
10.79 5.04 2.28
10.69 5.25 2.28
10.47 5.41 2.25
10.36 5.62 2.25
10.25 5.83 2.25
10.13 6.04 2.25
10.02 6.24 2.25
9.89 6.44 2.25
9.77 6.64 2.26
9.64 6.84 2.26
9.50 7.04 2.26
9.37 7.23 2.26
9.50 7.65 2.33
9.37 7.86 2.33
9.23 8.07 2.34
9.08 8.25 2.34
8.90 8.43 2.34
8.72 8.60 2.34
8.55 8.77 2.33
8.36 8.93 2.33
8.18 9.10 2.33
8.01 9.28 2.34
7.86 9.48 2.34
7.69 9.66 2.35
2.48 3.25 0.78
2.38 3.25 0.77
2.29 3.27 0.76
2.22 3.31 0.76
2.17 3.37 0.76
2.12 3.45 0.77
2.10 3.57 0.79
5.38 9.59 2.09
5.38 10.05 2.16
5.35 10.49 2.24
5.31 10.96 2.31
5.26 11.44 2.39
5.03 11.55 2.39
4.80 11.65 2.39
4.57 11.75 2.39
4.33 11.84 2.39
4.10 11.93 2.39
3.86 12.01 2.39
3.62 12.09 2.39
3.37 12.17 2.39
3.13 12.24 2.39
2.88 12.30 2.39
1.79 8.37 1.62
2.39 12.41 2.39
2.14 12.46 2.39
1.89 12.51 2.39
1.64 12.55 2.39
1.45 13.13 2.49
1.18 13.16 2.49
0.92 13.18 2.49
0.66 13.20 2.49
0.39 13.22 2.49
0.12 13.23 2.49
-0.14 13.23 2.49
-0.41 13.23 2.49
-0.67 13.23 2.49
-0.94 13.21 2.49
-1.20 13.20 2.49
-1.47 13.17 2.49
-1.73 13.15 2.49
-2.00 13.11 2.49
-2.26 13.08 2.49
-2.52 13.03 2.49
-2.79 12.98 2.49
-3.05 12.93 2.49
-3.31 12.87 2.49
-3.57 12.81 2.49
-3.82 12.74 2.49
-4.08 12.66 2.49
-4.34 12.58 2.49
-4.59 12.50 2.49
-4.84 12.41 2.49
-5.09 12.31 2.49
-5.34 12.21 2.49
-5.58 12.11 2.49
-5.83 11.99 2.49
-6.07 11.88 2.49
-6.31 11.76 2.49
-6.51 11.57 2.48
-6.51 11.05 2.40
-6.72 10.90 2.39
-6.94 10.77 2.39
-7.16 10.63 2.39
-7.00 9.95 2.27
-7.27 9.92 2.29
-7.44 9.73 2.28
-8.00 10.03 2.39
-8.20 9.87 2.39
-8.40 9.71 2.39
-8.59 9.54 2.39
-8.79 9.37 2.39
-8.98 9.20 2.39
-9.16 9.02 2.39
-9.34 8.83 2.39
-9.52 8.65 2.39
-9.70 8.46 2.39
-9.87 8.26 2.39
-10.03 8.06 2.39
-10.19 7.86 2.39
-10.35 7.66 2.39
-11.49 8.15 2.61
-11.60 7.88 2.60
-10.50 6.83 2.32
-13.77 8.57 3.01
-10.51 6.25 2.27
-14.13 8.02 3.01
-14.29 7.74 3.01
-10.50 5.42 2.19
-14.47 7.10 2.99
-14.47 6.75 2.96
-14.52 6.42 2.94
-14.59 6.10 2.93
-14.64 5.78 2.91
-10.49 3.90 2.07
-14.63 5.11 2.87
-10.48 3.42 2.04
-14.54 4.43 2.81
-14.57 4.12 2.80
-14.61 3.82 2.79
-14.64 3.51 2.78
-14.68 3.21 2.78
-14.73 2.92 2.78
-14.78 2.62 2.77
-14.82 2.32 2.77
-10.46 1.42 1.95
-14.91 1.73 2.77
-14.96 1.43 2.78
-15.06 1.13 2.79
-15.18 0.84 2.81
-15.30 0.54 2.83
-15.42 0.23 2.85
-15.54 -0.08 2.87
-15.65 -0.39 2.89
-15.87 -0.72 2.93
-16.09 -1.05 2.98
-16.29 -1.39 3.02
-16.46 -1.74 3.06
-16.63 -2.10 3.10
-16.79 -2.46 3.13
-10.45 -1.75 1.96
-17.14 -3.22 3.22
-17.32 -3.61 3.27
-8.67 -1.99 1.64
-8.08 -2.03 1.54
-7.54 -2.05 1.44
-8.73 -2.57 1.68
-8.73 -2.76 1.69
-8.72 -2.95 1.70
-8.72 -3.15 1.71
-8.72 -3.35 1.73
-8.70 -3.54 1.73
-8.67 -3.73 1.74
-8.66 -3.94 1.76
-8.66 -4.14 1.77
-8.66 -4.36 1.79
-8.67 -4.59 1.81
-15.85 -8.80 3.35
-8.57 -4.98 1.83
-8.54 -5.20 1.85
-8.16 -5.19 1.79
-7.80 -5.19 1.73
-14.08 -9.78 3.17
-11.48 -8.32 2.62
-10.31 -7.79 2.39
-10.15 -7.99 2.39
-9.99 -8.19 2.39
-9.82 -8.39 2.39
-9.64 -8.59 2.39
-9.47 -8.78 2.39
-9.29 -8.96 2.39
-9.11 -9.14 2.39
-8.92 -9.32 2.39
-8.73 -9.50 2.39
-8.53 -9.67 2.39
-8.34 -9.84 2.39
-8.13 -10.00 2.39
-7.93 -10.16 2.39
-6.66 -8.90 2.06
-7.51 -10.46 2.39
-7.30 -10.61 2.39
-7.08 -10.75 2.39
-6.86 -10.89 2.39
-6.64 -11.02 2.39
-6.42 -11.15 2.39
-6.34 -11.55 2.45
-6.22 -11.88 2.49
-5.98 -12.00 2.49
-5.73 -12.11 2.49
-5.49 -12.22 2.49
-5.24 -12.33 2.49
-4.99 -12.43 2.49
-4.74 -12.52 2.49
-4.49 -12.61 2.49
-4.23 -12.69 2.49
-3.97 -12.77 2.49
-3.72 -12.84 2.49
-3.46 -12.91 2.49
-3.19 -12.97 2.49
-2.93 -13.03 2.49
-2.67 -13.08 2.49
-2.41 -13.13 2.49
-2.14 -13.17 2.49
-1.88 -13.21 2.49
-1.61 -13.24 2.49
-1.34 -13.26 2.49
-1.08 -13.28 2.49
-0.81 -13.30 2.49
-0.54 -13.31 2.49
-0.28 -13.31 2.49
-0.01 -11.83 2.49
0.23 -11.82 2.49
0.47 -11.81 2.49
0.70 -11.80 2.49
0.94 -11.78 2.49
1.18 -11.75 2.49
1.41 -11.72 2.49
1.65 -11.69 2.49
1.80 -11.17 2.39
2.02 -11.12 2.39
2.25 -11.08 2.39
2.47 -11.03 2.39
2.69 -10.97 2.39
2.91 -10.91 2.39
3.12 -10.85 2.39
3.34 -10.78 2.39
3.55 -10.71 2.39
3.77 -10.63 2.39
3.98 -10.55 2.39
4.19 -10.46 2.39
4.40 -10.38 2.39
4.60 -10.28 2.39
4.81 -10.18 2.39
5.01 -10.08 2.39
5.21 -9.98 2.39
5.41 -9.87 2.39
5.60 -9.75 2.39
4.58 -7.61 1.89
4.71 -7.49 1.88
4.69 -7.13 1.82
4.73 -6.90 1.78
4.88 -6.81 1.78
5.17 -6.92 1.84
6.61 -8.49 2.29
6.76 -8.32 2.28
6.94 -8.21 2.29
7.13 -8.10 2.30
7.32 -7.98 2.31
7.50 -7.86 2.32
7.68 -7.73 2.32
7.86 -7.60 2.33
8.04 -7.47 2.34
8.22 -7.33 2.35
8.40 -7.19 2.36
8.57 -7.05 2.37
8.75 -6.90 2.38
8.90 -6.73 2.38
9.03 -6.55 2.39
9.13 -6.35 2.38
9.22 -6.14 2.37
9.29 -5.92 2.36
8.84 -5.39 2.21
8.94 -5.21 2.21
9.04 -5.02 2.21
9.13 -4.84 2.21
9.22 -4.65 2.21
9.31 -4.46 2.21
9.40 -4.27 2.21
9.48 -4.08 2.21
9.55 -3.89 2.21
9.63 -3.70 2.21
9.69 -3.50 2.21
9.76 -3.31 2.21
9.82 -3.11 2.21
9.91 -2.92 2.21
10.23 -2.79 2.27
10.28 -2.58 2.27
10.33 -2.38 2.27
10.38 -2.17 2.27
10.42 -1.96 2.27
10.46 -1.75 2.28
10.50 -1.54 2.28
10.53 -1.33 2.28
10.56 -1.12 2.28
10.58 -0.91 2.28
10.60 -0.69 2.28
10.64 -0.48 2.29
10.64 -0.27 2.28
10.64 -0.05 2.28
10.63 0.16 2.28
10.62 0.37 2.28
10.61 0.59 2.28
10.60 0.80 2.28
10.58 1.01 2.28
10.55 1.22 2.28
10.53 1.43 2.28
10.50 1.65 2.28
10.47 1.86 2.28
10.44 2.07 2.29
10.41 2.28 2.29
10.37 2.49 2.29
10.33 2.70 2.29
10.28 2.91 2.29
10.24 3.12 2.30
10.22 3.34 2.31
10.20 3.57 2.32
10.14 3.78 2.32
10.08 3.98 2.33
10.01 4.19 2.33
9.94 4.40 2.33
9.87 4.61 2.34
9.79 4.81 2.34
9.71 5.02 2.34
9.32 5.06 2.27
9.22 5.25 2.28
9.12 5.43 2.28
9.02 5.62 2.28
8.91 5.81 2.28
8.80 5.99 2.28
8.69 6.17 2.28
8.57 6.35 2.29
8.46 6.53 2.29
8.34 6.71 2.29
8.21 6.89 2.30
8.09 7.06 2.30
8.21 7.47 2.38
8.06 7.64 2.38
7.90 7.79 2.38
7.74 7.95 2.37
7.58 8.10 2.37
7.41 8.24 2.37
7.25 8.40 2.37
7.11 8.57 2.38
2.59 3.26 0.89
2.45 3.21 0.86
2.35 3.21 0.85
2.27 3.23 0.84
2.20 3.27 0.84
2.14 3.33 0.85
2.10 3.41 0.85
2.07 3.52 0.87
5.38 9.59 2.35
5.28 9.88 2.39
5.09 9.98 2.39
4.89 10.09 2.39
4.68 10.19 2.39
4.48 10.28 2.39
4.27 10.37 2.39
4.07 10.46 2.39
3.86 10.54 2.39
3.64 10.62 2.39
3.43 10.69 2.39
3.22 10.76 2.39
3.00 10.83 2.39
2.78 10.89 2.39
2.57 10.95 2.39
1.78 8.37 1.82
2.13 11.05 2.39
1.90 11.09 2.39
1.68 11.13 2.39
1.52 11.65 2.49
1.29 11.68 2.49
1.05 11.70 2.49
0.82 11.73 2.49
0.58 11.74 2.49
0.35 11.76 2.49
0.11 11.77 2.49
-0.13 11.77 2.49
-0.36 11.77 2.49
-0.60 11.76 2.49
-0.83 11.75 2.49
-1.07 11.74 2.49
-1.31 11.72 2.49
-1.54 11.69 2.49
-1.78 11.66 2.49
-2.01 11.63 2.49
-2.25 11.59 2.49
-2.48 11.54 2.49
-2.71 11.50 2.49
-2.94 11.44 2.49
-3.17 11.39 2.49
-3.40 11.32 2.49
-3.63 11.26 2.49
-3.85 11.18 2.49
-4.08 11.11 2.49
-4.30 11.03 2.49
-4.52 10.94 2.49
-4.74 10.85 2.49
-4.96 10.76 2.49
-5.18 10.66 2.49
-5.39 10.56 2.49
-5.61 10.45 2.49
-5.82 10.34 2.49
-6.03 10.22 2.49
-6.23 10.10 2.49
-6.43 9.98 2.49
-6.49 9.64 2.44
-6.55 9.32 2.39
-6.74 9.19 2.39
-6.85 8.95 2.36
-6.84 8.58 2.30
-6.91 8.32 2.27
-7.34 8.48 2.35
-7.43 8.25 2.33
-7.43 7.92 2.28
-7.97 8.17 2.39
-8.14 8.01 2.39
-8.30 7.84 2.39
-8.46 7.68 2.39
-8.61 7.51 2.39
-8.76 7.34 2.39
-8.91 7.16 2.39
-9.05 6.98 2.39
-9.19 6.80 2.39
-9.33 6.62 2.39
-9.46 6.43 2.39
-9.59 6.24 2.39
-9.72 6.05 2.39
-9.84 5.85 2.39
-9.96 5.66 2.39
-10.07 5.46 2.39
-10.18 5.25 2.39
-10.29 5.05 2.39
-10.39 4.84 2.39
-11.49 5.08 2.62
-11.57 4.84 2.62
-11.64 4.60 2.61
-11.89 4.42 2.65
-12.16 4.25 2.69
-10.48 3.42 2.30
-12.69 3.87 2.77
-10.48 2.97 2.27
-10.48 2.74 2.26
-13.46 3.23 2.88
-13.68 3.00 2.92
-13.74 2.72 2.92
-13.79 2.44 2.92
-13.84 2.17 2.92
-10.46 1.42 2.20
-10.47 1.21 2.19
-13.97 1.33 2.92
-14.08 1.06 2.94
-14.18 0.78 2.96
-14.26 0.50 2.97
-14.34 0.21 2.98
-14.41 -0.07 3.00
-14.48 -0.36 3.01
-14.55 -0.66 3.03
-14.61 -0.96 3.05
-14.66 -1.25 3.06
-14.72 -1.56 3.08
-14.75 -1.86 3.09
-14.72 -2.16 3.09
-14.68 -2.45 3.10
-14.65 -2.75 3.10
-14.69 -3.07 3.12
-8.67 -1.99 1.85
-8.08 -2.03 1.73
-7.54 -2.05 1.63
-10.44 -3.07 2.26
-10.44 -3.30 2.28
-14.36 -4.86 3.15
-14.40 -5.19 3.19
-14.43 -5.53 3.22
-8.70 -3.54 1.96
-8.63 -3.71 1.96
-8.55 -3.89 1.96
-8.36 -4.00 1.93
-8.39 -4.22 1.96
-8.30 -4.39 1.96
-8.30 -4.60 1.98
-9.92 -5.77 2.39
-8.54 -5.20 2.08
-8.16 -5.19 2.01
-7.81 -5.19 1.95
-9.43 -6.54 2.39
-9.29 -6.73 2.39
-9.15 -6.92 2.39
-9.01 -7.10 2.39
-8.87 -7.28 2.39
-8.72 -7.45 2.39
-8.56 -7.62 2.39
-8.41 -7.79 2.39
-8.25 -7.96 2.39
-8.08 -8.12 2.39
-7.92 -8.28 2.39
-7.75 -8.43 2.39
-7.58 -8.59 2.39
-7.40 -8.73 2.39
-7.22 -8.88 2.39
-7.04 -9.02 2.39
-6.66 -8.90 2.32
-6.67 -9.29 2.39
-6.48 -9.42 2.39
-6.36 -9.65 2.42
-6.35 -10.08 2.49
-6.15 -10.21 2.49
-5.95 -10.33 2.49
-5.74 -10.44 2.49
-5.53 -10.55 2.49
-5.31 -10.66 2.49
-5.09 -10.76 2.49
-4.88 -10.86 2.49
-4.66 -10.95 2.49
-4.43 -11.04 2.49
-4.21 -11.12 2.49
-3.99 -11.20 2.49
-3.76 -11.28 2.49
-3.53 -11.35 2.49
-3.30 -11.41 2.49
-3.07 -11.47 2.49
-2.84 -11.53 2.49
-2.61 -11.58 2.49
-2.37 -11.63 2.49
-2.14 -11.67 2.49
-1.90 -11.70 2.49
-1.67 -11.74 2.49
-1.43 -11.76 2.49
-1.19 -11.79 2.49
-0.96 -11.81 2.49
-0.72 -11.82 2.49
-0.48 -11.83 2.49
-0.25 -11.83 2.49
-0.01 -10.64 2.49
0.21 -10.63 2.49
0.42 -10.62 2.49
0.63 -10.61 2.49
0.84 -10.59 2.49
1.06 -10.57 2.49
1.27 -10.54 2.49
1.48 -10.51 2.49
1.69 -10.48 2.49
1.82 -10.01 2.39
2.02 -9.96 2.39
2.22 -9.92 2.39
2.42 -9.87 2.39
2.61 -9.82 2.39
2.81 -9.76 2.39
3.00 -9.70 2.39
3.20 -9.63 2.39
3.39 -9.56 2.39
3.58 -9.49 2.39
3.77 -9.42 2.39
3.96 -9.34 2.39
4.14 -9.25 2.39
4.32 -9.16 2.39
4.51 -9.07 2.39
4.69 -8.98 2.39
4.86 -8.88 2.39
5.04 -8.78 2.39
4.59 -7.63 2.10
4.71 -7.50 2.09
4.70 -7.15 2.02
4.74 -6.91 1.98
4.89 -6.82 1.98
6.10 -8.16 2.41
6.23 -7.99 2.40
6.36 -7.83 2.39
6.48 -7.67 2.38
6.61 -7.50 2.37
6.73 -7.34 2.36
6.90 -7.23 2.37
7.07 -7.11 2.38
7.23 -6.99 2.38
7.40 -6.87 2.39
7.56 -6.74 2.40
7.72 -6.61 2.41
7.81 -6.42 2.40
7.89 -6.23 2.39
7.53 -5.70 2.24
7.63 -5.54 2.24
7.73 -5.37 2.23
7.82 -5.21 2.23
7.91 -5.04 2.23
8.00 -4.87 2.22
8.08 -4.71 2.22
8.17 -4.54 2.22
8.25 -4.37 2.22
8.33 -4.20 2.22
8.40 -4.03 2.22
8.48 -3.86 2.21
8.55 -3.68 2.21
8.62 -3.51 2.21
8.68 -3.33 2.21
8.74 -3.16 2.21
8.92 -3.02 2.24
9.09 -2.88 2.27
9.14 -2.69 2.27
9.19 -2.51 2.27
9.24 -2.32 2.27
9.29 -2.14 2.27
9.33 -1.95 2.27
9.39 -1.77 2.28
9.45 -1.58 2.28
9.50 -1.39 2.29
9.55 -1.21 2.29
9.60 -1.02 2.30
9.64 -0.83 2.31
9.68 -0.63 2.31
9.71 -0.44 2.32
9.71 -0.25 2.32
9.71 -0.05 2.32
9.71 0.15 2.31
9.70 0.34 2.31
9.69 0.53 2.31
9.68 0.73 2.31
9.66 0.92 2.31
9.64 1.12 2.31
9.61 1.31 2.31
9.59 1.50 2.31
9.56 1.70 2.31
9.53 1.89 2.32
9.50 2.08 2.32
9.46 2.28 2.32
9.45 2.47 2.33
9.44 2.67 2.34
9.42 2.87 2.35
9.40 3.08 2.36
9.38 3.28 2.37
9.35 3.48 2.38
9.30 3.68 2.38
9.24 3.87 2.39
9.18 4.06 2.39
9.10 4.25 2.39
9.02 4.44 2.40
8.94 4.62 2.40
8.85 4.80 2.40
8.44 4.80 2.31
8.30 4.95 2.30
8.21 5.12 2.30
8.11 5.29 2.31
8.01 5.45 2.31
7.91 5.62 2.31
7.81 5.78 2.31
7.70 5.95 2.32
7.59 6.11 2.32
7.47 6.27 2.32
7.36 6.43 2.32
7.24 6.58 2.33
7.12 6.74 2.33
6.99 6.89 2.33
7.04 7.23 2.40
6.90 7.38 2.40
6.76 7.52 2.40
6.62 7.67 2.41
6.46 7.80 2.41
2.57 3.23 0.98
2.43 3.18 0.95
2.34 3.20 0.94
2.26 3.22 0.93
2.19 3.26 0.93
2.13 3.32 0.94
2.09 3.39 0.94
2.06 3.50 0.96
4.93 8.79 2.39
4.76 8.89 2.39
4.58 8.99 2.39
4.40 9.08 2.39
4.22 9.17 2.39
4.03 9.25 2.39
3.85 9.33 2.39
3.66 9.41 2.39
3.47 9.49 2.39
3.28 9.56 2.39
3.09 9.62 2.39
2.89 9.69 2.39
2.70 9.74 2.39
2.50 9.80 2.39
2.31 9.85 2.39
1.78 8.37 2.02
1.62 8.44 2.03
1.71 9.98 2.39
1.55 10.26 2.45
1.37 10.48 2.49
1.16 10.51 2.49
0.95 10.53 2.49
0.73 10.55 2.49
0.52 10.57 2.49
0.31 10.58 2.49
0.10 10.59 2.49
-0.11 10.59 2.49
-0.33 10.59 2.49
-0.54 10.58 2.49
-0.75 10.57 2.49
-0.96 10.56 2.49
-1.18 10.54 2.49
-1.39 10.52 2.49
-1.60 10.49 2.49
-1.81 10.46 2.49
-2.02 10.42 2.49
-2.23 10.38 2.49
-2.44 10.34 2.49
-2.65 10.29 2.49
-2.85 10.24 2.49
-3.06 10.18 2.49
-3.26 10.12 2.49
-3.47 10.06 2.49
-3.67 9.99 2.49
-3.87 9.91 2.49
-4.07 9.84 2.49
-4.27 9.76 2.49
-4.46 9.67 2.49
-4.66 9.58 2.49
-4.85 9.49 2.49
-5.04 9.39 2.49
-5.23 9.29 2.49
-5.42 9.19 2.49
-5.60 9.08 2.49
-5.78 8.97 2.49
-5.96 8.85 2.49
-6.14 8.73 2.49
-6.32 8.61 2.49
-6.49 8.48 2.49
-6.49 8.13 2.43
-6.55 7.88 2.39
-6.71 7.75 2.39
-6.84 7.59 2.38
-6.83 7.29 2.33
-6.83 7.00 2.28
-6.94 6.83 2.27
-7.34 6.93 2.35
-7.42 6.73 2.33
-7.42 6.47 2.29
-7.47 6.26 2.27
-8.01 6.43 2.39
-8.14 6.27 2.39
-8.26 6.11 2.39
-8.38 5.94 2.39
-8.50 5.78 2.39
-8.62 5.61 2.39
-8.73 5.43 2.39
-8.84 5.26 2.39
-8.95 5.08 2.39
-9.05 4.90 2.39
-9.15 4.72 2.39
-9.24 4.54 2.39
-9.33 4.35 2.39
-9.42 4.16 2.39
-9.50 3.97 2.39
-9.58 3.78 2.39
-9.66 3.59 2.39
-9.73 3.40 2.39
-9.79 3.20 2.39
-9.86 3.00 2.39
-9.92 2.81 2.39
-9.97 2.61 2.39
-10.02 2.41 2.39
-10.07 2.21 2.39
-10.12 2.00 2.39
-10.15 1.80 2.39
-10.19 1.60 2.39
-10.22 1.39 2.39
-10.25 1.19 2.39
-10.27 0.98 2.39
-10.29 0.77 2.39
-10.30 0.57 2.39
-10.31 0.36 2.39
-10.32 0.15 2.39
-10.32 -0.05 2.39
-10.32 -0.26 2.39
-10.31 -0.47 2.39
-10.30 -0.67 2.39
-10.28 -0.88 2.39
-10.26 -1.09 2.39
-10.24 -1.29 2.39
-10.21 -1.50 2.39
-10.18 -1.70 2.39
-10.14 -1.91 2.39
-10.10 -2.11 2.39
-8.69 -2.00 2.07
-7.92 -1.99 1.89
-7.54 -2.05 1.81
-9.90 -2.91 2.39
-9.84 -3.11 2.39
-9.78 -3.31 2.39
-9.71 -3.50 2.39
-9.63 -3.69 2.39
-9.56 -3.89 2.39
-9.48 -4.08 2.39
-9.39 -4.27 2.39
-9.30 -4.45 2.39
-9.21 -4.64 2.39
-9.12 -4.82 2.39
-9.02 -5.00 2.39
-8.91 -5.18 2.39
-8.81 -5.36 2.39
-8.13 -5.18 2.24
-7.81 -5.19 2.17
-8.47 -5.88 2.39
-8.35 -6.05 2.39
-8.22 -6.21 2.39
-8.09 -6.37 2.39
-7.96 -6.53 2.39
-7.83 -6.69 2.39
-7.69 -6.85 2.39
-7.55 -7.00 2.39
-7.41 -7.15 2.39
-7.26 -7.29 2.39
-7.11 -7.44 2.39
-6.96 -7.58 2.39
-6.81 -7.71 2.39
-6.65 -7.85 2.39
-6.49 -7.98 2.39
-6.37 -8.16 2.41
-6.36 -8.50 2.47
-6.25 -8.71 2.49
-6.08 -8.83 2.49
-5.90 -8.95 2.49
-5.72 -9.06 2.49
-5.53 -9.17 2.49
-5.34 -9.28 2.49
-5.16 -9.38 2.49
-4.97 -9.48 2.49
-4.77 -9.58 2.49
-4.58 -9.67 2.49
-4.38 -9.76 2.49
-4.19 -9.84 2.49
-3.99 -9.92 2.49
-3.79 -10.00 2.49
-3.58 -10.07 2.49
-3.38 -10.13 2.49
-3.17 -10.20 2.49
-2.97 -10.26 2.49
-2.76 -10.31 2.49
-2.55 -10.36 2.49
-2.34 -10.41 2.49
-2.13 -10.45 2.49
-1.92 -10.49 2.49
-1.71 -10.52 2.49
-1.50 -10.55 2.49
-1.29 -10.58 2.49
-1.08 -10.60 2.49
-0.86 -10.61 2.49
-0.65 -10.63 2.49
-0.44 -10.63 2.49
-0.22 -10.64 2.49
-0.01 -9.65 2.49
0.19 -9.65 2.49
0.38 -9.64 2.49
0.57 -9.63 2.49
0.77 -9.61 2.49
0.96 -9.59 2.49
1.15 -9.57 2.49
1.34 -9.54 2.49
1.53 -9.51 2.49
1.69 -9.28 2.44
1.83 -9.05 2.39
2.01 -9.00 2.39
2.19 -8.96 2.39
2.37 -8.91 2.39
2.55 -8.86 2.39
2.73 -8.80 2.39
2.90 -8.75 2.39
3.08 -8.68 2.39
3.25 -8.62 2.39
3.42 -8.55 2.39
3.59 -8.48 2.39
3.76 -8.40 2.39
3.93 -8.32 2.39
4.09 -8.24 2.39
4.25 -8.15 2.39
4.42 -8.06 2.39
4.58 -7.97 2.39
4.60 -7.65 2.32
4.72 -7.51 2.31
4.71 -7.17 2.23
4.75 -6.91 2.18
4.89 -6.83 2.19
5.49 -7.35 2.39
5.64 -7.24 2.39
6.00 -7.40 2.48
6.12 -7.24 2.47
6.24 -7.08 2.46
6.33 -6.90 2.44
6.42 -6.73 2.43
6.53 -6.57 2.42
6.66 -6.43 2.42
6.77 -6.29 2.41
6.88 -6.13 2.41
6.66 -5.71 2.29
6.75 -5.55 2.28
6.84 -5.40 2.28
6.93 -5.25 2.27
7.02 -5.09 2.27
7.10 -4.94 2.26
7.18 -4.78 2.26
7.26 -4.63 2.25
7.33 -4.47 2.25
7.41 -4.31 2.24
7.48 -4.16 2.24
7.55 -4.00 2.23
7.62 -3.84 2.23
7.68 -3.68 2.23
7.73 -3.52 2.22
7.79 -3.36 2.22
7.94 -3.23 2.24
8.22 -3.16 2.31
8.26 -2.99 2.30
8.30 -2.81 2.30
8.34 -2.64 2.29
8.38 -2.47 2.29
8.44 -2.30 2.29
8.50 -2.14 2.30
8.55 -1.97 2.30
8.61 -1.80 2.30
8.65 -1.63 2.31
8.70 -1.46 2.31
8.75 -1.28 2.32
8.79 -1.11 2.32
8.84 -0.94 2.33
8.88 -0.76 2.34
8.91 -0.58 2.34
8.93 -0.41 2.34
8.93 -0.23 2.34
8.93 -0.05 2.34
8.93 0.13 2.34
8.92 0.31 2.34
8.91 0.49 2.34
8.90 0.67 2.34
8.88 0.85 2.34
8.86 1.03 2.34
8.84 1.21 2.34
8.81 1.38 2.34
8.79 1.56 2.34
8.78 1.74 2.35
8.77 1.92 2.36
8.76 2.11 2.36
8.75 2.29 2.37
8.73 2.47 2.38
8.72 2.66 2.39
8.69 2.85 2.40
8.67 3.03 2.41
8.64 3.22 2.42
8.61 3.40 2.43
8.54 3.58 2.43
8.46 3.75 2.43
8.38 3.91 2.42
8.29 4.07 2.42
8.19 4.23 2.42
8.10 4.39 2.42
8.00 4.55 2.41
7.90 4.71 2.41
7.54 4.70 2.33
7.44 4.85 2.33
7.34 5.00 2.33
7.25 5.15 2.33
7.15 5.30 2.33
7.05 5.45 2.33
6.95 5.60 2.34
6.85 5.74 2.34
6.74 5.89 2.34
6.63 6.03 2.35
6.51 6.17 2.35
6.40 6.31 2.35
6.28 6.45 2.35
6.16 6.58 2.36
6.04 6.71 2.36
5.91 6.85 2.36
5.78 6.97 2.37
2.58 3.24 1.08
2.44 3.19 1.05
2.34 3.20 1.03
2.26 3.22 1.03
2.19 3.26 1.03
2.13 3.32 1.03
2.09 3.39 1.04
2.06 3.50 1.06
4.48 7.99 2.39
4.32 8.08 2.39
4.16 8.16 2.39
3.99 8.25 2.39
3.83 8.33 2.39
3.66 8.41 2.39
3.49 8.48 2.39
3.32 8.55 2.39
3.15 8.62 2.39
2.98 8.68 2.39
2.80 8.74 2.39
2.63 8.80 2.39
2.45 8.85 2.39
2.27 8.90 2.39
2.10 8.95 2.39
1.78 8.36 2.22
1.62 8.44 2.24
1.56 9.13 2.41
1.43 9.49 2.49
1.24 9.52 2.49
1.05 9.54 2.49
0.86 9.56 2.49
0.67 9.58 2.49
0.47 9.59 2.49
0.28 9.60 2.49
0.09 9.61 2.49
-0.10 9.61 2.49
-0.30 9.61 2.49
-0.49 9.61 2.49
-0.68 9.60 2.49
-0.88 9.58 2.49
-1.07 9.57 2.49
-1.26 9.55 2.49
-1.45 9.52 2.49
-1.64 9.49 2.49
-1.83 9.46 2.49
-2.02 9.42 2.49
-2.21 9.38 2.49
-2.40 9.34 2.49
-2.59 9.29 2.49
-2.78 9.24 2.49
-2.96 9.19 2.49
-3.15 9.13 2.49
-3.33 9.06 2.49
-3.51 9.00 2.49
-3.69 8.93 2.49
-3.87 8.85 2.49
-4.05 8.78 2.49
-4.23 8.70 2.49
-4.40 8.61 2.49
-4.57 8.52 2.49
-4.75 8.43 2.49
-4.92 8.34 2.49
-5.08 8.24 2.49
-5.25 8.14 2.49
-5.41 8.03 2.49
-5.57 7.92 2.49
-5.73 7.81 2.49
-5.89 7.70 2.49
-6.04 7.58 2.49
-6.20 7.46 2.49
-6.35 7.33 2.49
-6.48 7.19 2.49
-6.48 6.90 2.43
-6.50 6.66 2.39
-6.63 6.53 2.39
-6.77 6.39 2.39
-6.83 6.20 2.37
-6.82 5.95 2.32
-6.82 5.71 2.28
-6.89 5.54 2.27
-7.00 5.40 2.27
-7.11 5.26 2.27
-7.33 5.20 2.31
-7.71 5.24 2.39
-7.82 5.08 2.39
-7.92 4.93 2.39
-8.02 4.77 2.39
-8.11 4.61 2.39
-8.21 4.44 2.39
-8.29 4.28 2.39
-8.38 4.11 2.39
-8.46 3.94 2.39
-8.54 3.77 2.39
-8.62 3.60 2.39
-8.69 3.43 2.39
-8.76 3.25 2.39
-8.82 3.08 2.39
-8.88 2.90 2.39
-8.94 2.72 2.39
-8.99 2.54 2.39
-9.04 2.36 2.39
-9.09 2.18 2.39
-9.13 2.00 2.39
-9.17 1.82 2.39
-9.21 1.63 2.39
-9.24 1.45 2.39
-9.27 1.26 2.39
-9.29 1.08 2.39
-9.31 0.89 2.39
-9.33 0.70 2.39
-9.34 0.51 2.39
-9.35 0.33 2.39
-9.35 0.14 2.39
-9.36 -0.05 2.39
-9.35 -0.24 2.39
-9.35 -0.42 2.39
-9.34 -0.61 2.39
-9.32 -0.80 2.39
-9.31 -0.98 2.39
-9.28 -1.17 2.39
-9.26 -1.36 2.39
-9.23 -1.54 2.39
-9.20 -1.73 2.39
-9.16 -1.91 2.39
-8.69 -2.00 2.28
-9.08 -2.28 2.39
-9.03 -2.46 2.39
-8.98 -2.64 2.39
-8.92 -2.82 2.39
-8.86 -3.00 2.39
-8.80 -3.17 2.39
-8.73 -3.35 2.39
-8.67 -3.52 2.39
-8.59 -3.70 2.39
-8.52 -3.87 2.39
-8.44 -4.04 2.39
-8.35 -4.21 2.39
-8.27 -4.37 2.39
-8.18 -4.54 2.39
-8.08 -4.70 2.39
-7.99 -4.86 2.39
-7.89 -5.02 2.39
-7.78 -5.18 2.39
-7.68 -5.33 2.39
-7.57 -5.48 2.39
-7.46 -5.63 2.39
-7.34 -5.78 2.39
-7.22 -5.93 2.39
-7.10 -6.07 2.39
-6.98 -6.21 2.39
-6.85 -6.35 2.39
-6.72 -6.48 2.39
-6.59 -6.61 2.39
-6.45 -6.74 2.39
-6.38 -6.94 2.42
-6.37 -7.22 2.47
-6.29 -7.42 2.49
-6.14 -7.55 2.49
-5.99 -7.67 2.49
-5.83 -7.78 2.49
-5.67 -7.90 2.49
-5.51 -8.01 2.49
-5.35 -8.12 2.49
-5.18 -8.22 2.49
-5.02 -8.32 2.49
-4.85 -8.42 2.49
-4.68 -8.51 2.49
-4.50 -8.60 2.49
-4.33 -8.69 2.49
-4.15 -8.77 2.49
-3.98 -8.85 2.49
-3.80 -8.93 2.49
-3.62 -9.00 2.49
-3.43 -9.07 2.49
-3.25 -9.13 2.49
-3.07 -9.19 2.49
-2.88 -9.25 2.49
-2.69 -9.31 2.49
-2.51 -9.36 2.49
-2.32 -9.40 2.49
-2.13 -9.44 2.49
-1.94 -9.48 2.49
-1.75 -9.52 2.49
-1.55 -9.55 2.49
-1.36 -9.57 2.49
-1.17 -9.60 2.49
-0.98 -9.62 2.49
-0.78 -9.63 2.49
-0.59 -9.64 2.49
-0.40 -9.65 2.49
-0.20 -9.65 2.49
-0.01 -8.83 2.49
0.17 -8.82 2.49
0.35 -8.82 2.49
0.52 -8.81 2.49
0.70 -8.79 2.49
0.88 -8.77 2.49
1.05 -8.75 2.49
1.23 -8.73 2.49
1.40 -8.70 2.49
1.57 -8.67 2.49
1.69 -8.34 2.41
1.84 -8.24 2.39
2.01 -8.20 2.39
2.17 -8.15 2.39
2.33 -8.10 2.39
2.49 -8.05 2.39
2.65 -8.00 2.39
2.81 -7.94 2.39
2.97 -7.88 2.39
3.13 -7.82 2.39
3.28 -7.75 2.39
3.44 -7.69 2.39
3.59 -7.61 2.39
3.74 -7.54 2.39
3.89 -7.46 2.39
4.04 -7.38 2.39
4.19 -7.29 2.39
4.33 -7.21 2.39
4.47 -7.12 2.39
4.61 -7.02 2.39
4.75 -6.93 2.39
4.89 -6.83 2.39
5.03 -6.73 2.39
5.16 -6.62 2.39
5.29 -6.52 2.39
5.42 -6.41 2.39
5.54 -6.30 2.39
5.67 -6.18 2.39
5.86 -6.14 2.42
5.98 -6.02 2.42
6.10 -5.90 2.42
6.02 -5.59 2.34
6.11 -5.45 2.33
6.20 -5.31 2.33
6.28 -5.17 2.32
6.37 -5.02 2.31
6.45 -4.88 2.31
6.52 -4.74 2.30
6.60 -4.59 2.30
6.67 -4.45 2.29
6.74 -4.30 2.29
6.81 -4.15 2.28
6.88 -4.01 2.27
6.94 -3.86 2.27
7.00 -3.71 2.27
7.06 -3.56 2.26
7.12 -3.41 2.26
7.35 -3.34 2.31
7.54 -3.25 2.35
7.58 -3.09 2.34
7.63 -2.93 2.34
7.66 -2.77 2.33
7.70 -2.61 2.33
7.75 -2.45 2.33
7.81 -2.30 2.33
7.86 -2.15 2.33
7.91 -1.99 2.34
7.96 -1.83 2.34
8.01 -1.68 2.34
8.06 -1.52 2.35
8.10 -1.36 2.35
8.14 -1.20 2.36
8.18 -1.03 2.36
8.20 -0.87 2.36
8.22 -0.70 2.36
8.24 -0.54 2.36
8.24 -0.37 2.36
8.25 -0.21 2.36
8.25 -0.04 2.36
8.24 0.12 2.36
8.24 0.29 2.36
8.23 0.45 2.36
8.22 0.62 2.36
8.20 0.78 2.36
8.18 0.95 2.36
8.17 1.11 2.36
8.15 1.28 2.36
8.13 1.44 2.37
8.11 1.61 2.37
8.11 1.78 2.38
8.09 1.95 2.39
8.08 2.11 2.39
8.06 2.28 2.40
8.04 2.45 2.41
8.02 2.62 2.42
7.99 2.79 2.43
7.94 2.96 2.43
7.88 3.12 2.43
7.81 3.27 2.43
7.75 3.43 2.43
7.67 3.58 2.43
7.59 3.73 2.42
7.51 3.88 2.42
7.42 4.03 2.42
7.33 4.17 2.42
7.24 4.32 2.41
7.15 4.46 2.41
7.06 4.60 2.41
6.82 4.64 2.36
6.68 4.75 2.35
6.59 4.88 2.35
6.50 5.02 2.35
6.40 5.16 2.35
6.31 5.29 2.36
6.21 5.42 2.36
6.11 5.55 2.36
6.00 5.68 2.36
5.89 5.81 2.37
5.78 5.94 2.37
5.67 6.06 2.37
5.56 6.18 2.38
5.44 6.30 2.38
5.34 6.44 2.39
2.58 3.24 1.18
2.44 3.19 1.15
2.34 3.20 1.13
2.26 3.22 1.12
2.19 3.26 1.12
2.13 3.32 1.13
2.09 3.39 1.14
2.06 3.50 1.16
4.10 7.31 2.39
3.95 7.39 2.39
3.80 7.47 2.39
3.65 7.55 2.39
3.50 7.62 2.39
3.35 7.69 2.39
3.20 7.76 2.39
3.04 7.82 2.39
2.88 7.88 2.39
2.72 7.94 2.39
2.56 8.00 2.39
2.40 8.05 2.39
2.24 8.10 2.39
2.08 8.14 2.39
1.92 8.18 2.39
1.77 8.31 2.41
1.59 8.26 2.39
1.48 8.65 2.49
1.31 8.68 2.49
1.13 8.71 2.49
0.96 8.73 2.49
0.78 8.75 2.49
0.61 8.76 2.49
0.43 8.78 2.49
0.26 8.79 2.49
0.08 8.79 2.49
-0.10 8.79 2.49
-0.27 8.79 2.49
-0.45 8.79 2.49
-0.63 8.78 2.49
-0.80 8.77 2.49
-0.98 8.75 2.49
-1.15 8.73 2.49
-1.33 8.71 2.49
-1.50 8.68 2.49
-1.68 8.65 2.49
-1.85 8.62 2.49
-2.03 8.58 2.49
-2.20 8.54 2.49
-2.37 8.50 2.49
-2.54 8.45 2.49
-2.71 8.40 2.49
-2.88 8.35 2.49
-3.05 8.29 2.49
-3.21 8.23 2.49
-3.38 8.16 2.49
-3.54 8.10 2.49
-3.70 8.02 2.49
-3.87 7.95 2.49
-4.03 7.87 2.49
-4.18 7.79 2.49
-4.34 7.71 2.49
-4.49 7.62 2.49
-4.65 7.53 2.49
-4.80 7.44 2.49
-4.95 7.34 2.49
-5.10 7.24 2.49
-5.24 7.14 2.49
-5.38 7.04 2.49
-5.53 6.93 2.49
-5.67 6.82 2.49
-5.80 6.70 2.49
-5.94 6.59 2.49
-6.07 6.47 2.49
-6.20 6.35 2.49
-6.33 6.22 2.49
-6.45 6.10 2.49
-6.47 5.87 2.45
-6.47 5.64 2.41
-6.53 5.46 2.39
-6.65 5.35 2.40
-6.74 5.20 2.39
-6.85 5.06 2.39
-6.95 4.93 2.39
-7.05 4.79 2.39
-7.14 4.65 2.39
-7.24 4.50 2.39
-7.33 4.36 2.39
-7.41 4.21 2.39
-7.50 4.06 2.39
-7.58 3.91 2.39
-7.66 3.76 2.39
-7.73 3.60 2.39
-7.80 3.45 2.39
-7.87 3.29 2.39
-7.94 3.13 2.39
-8.00 2.97 2.39
-8.06 2.81 2.39
-8.12 2.65 2.39
-8.17 2.49 2.39
-8.22 2.32 2.39
-8.26 2.16 2.39
-8.31 1.99 2.39
-8.35 1.83 2.39
-8.38 1.66 2.39
-8.41 1.49 2.39
-8.44 1.32 2.39
-8.47 1.15 2.39
-8.49 0.98 2.39
-8.51 0.81 2.39
-8.52 0.64 2.39
-8.53 0.47 2.39
-8.54 0.30 2.39
-8.55 0.13 2.39
-8.55 -0.04 2.39
-8.55 -0.22 2.39
-8.54 -0.39 2.39
-8.53 -0.56 2.39
-8.52 -0.73 2.39
-8.50 -0.90 2.39
-8.48 -1.07 2.39
-8.46 -1.24 2.39
-8.43 -1.41 2.39
-8.40 -1.58 2.39
-8.37 -1.75 2.39
-8.33 -1.91 2.39
-8.29 -2.08 2.39
-8.25 -2.25 2.39
-8.20 -2.41 2.39
-8.15 -2.58 2.39
-8.10 -2.74 2.39
-8.04 -2.90 2.39
-7.98 -3.06 2.39
-7.92 -3.22 2.39
-7.85 -3.38 2.39
-7.78 -3.53 2.39
-7.71 -3.69 2.39
-7.63 -3.84 2.39
-7.55 -3.99 2.39
-7.47 -4.15 2.39
-7.39 -4.29 2.39
-7.30 -4.44 2.39
-7.21 -4.59 2.39
-7.11 -4.73 2.39
-7.02 -4.87 2.39
-6.92 -5.01 2.39
-6.81 -5.15 2.39
-6.71 -5.28 2.39
-6.60 -5.41 2.39
-6.49 -5.54 2.39
-6.39 -5.69 2.40
-6.38 -5.91 2.44
-6.38 -6.15 2.48
-6.28 -6.30 2.49
-6.15 -6.43 2.49
-6.02 -6.55 2.49
-5.89 -6.67 2.49
-5.75 -6.78 2.49
-5.61 -6.90 2.49
-5.47 -7.01 2.49
-5.33 -7.11 2.49
-5.18 -7.22 2.49
-5.04 -7.32 2.49
-4.89 -7.42 2.49
-4.74 -7.51 2.49
-4.59 -7.60 2.49
-4.43 -7.69 2.49
-4.28 -7.78 2.49
-4.12 -7.86 2.49
-3.96 -7.94 2.49
-3.80 -8.02 2.49
-3.64 -8.09 2.49
-3.47 -8.16 2.49
-3.31 -8.23 2.49
-3.14 -8.29 2.49
-2.97 -8.35 2.49
-2.80 -8.41 2.49
-2.63 -8.46 2.49
-2.46 -8.51 2.49
-2.29 -8.55 2.49
-2.12 -8.60 2.49
-1.95 -8.63 2.49
-1.77 -8.67 2.49
-1.60 -8.70 2.49
-1.42 -8.73 2.49
-1.25 -8.75 2.49
-1.07 -8.78 2.49
-0.89 -8.79 2.49
-0.72 -8.81 2.49
-0.54 -8.82 2.49
-0.36 -8.82 2.49
-0.19 -8.83 2.49
-0.01 -8.12 2.49
0.16 -8.12 2.49
0.32 -8.11 2.49
0.48 -8.10 2.49
0.64 -8.09 2.49
0.81 -8.07 2.49
0.97 -8.05 2.49
1.13 -8.03 2.49
1.29 -8.01 2.49
1.45 -7.98 2.49
1.61 -7.94 2.49
1.69 -7.58 2.39
1.85 -7.54 2.39
2.00 -7.50 2.39
2.15 -7.46 2.39
2.29 -7.41 2.39
2.44 -7.36 2.39
2.59 -7.31 2.39
2.73 -7.26 2.39
2.88 -7.20 2.39
3.02 -7.14 2.39
3.16 -7.07 2.39
3.31 -7.01 2.39
3.44 -6.94 2.39
3.58 -6.87 2.39
3.72 -6.79 2.39
3.85 -6.71 2.39
3.99 -6.63 2.39
4.12 -6.55 2.39
4.25 -6.47 2.39
4.38 -6.38 2.39
4.50 -6.29 2.39
4.63 -6.20 2.39
4.75 -6.10 2.39
4.87 -6.00 2.39
4.99 -5.90 2.39
5.11 -5.80 2.39
5.22 -5.69 2.39
5.33 -5.59 2.39
5.44 -5.48 2.39
5.54 -5.35 2.39
5.62 -5.22 2.38
5.71 -5.09 2.37
5.79 -4.96 2.36
5.88 -4.83 2.36
5.95 -4.70 2.35
6.03 -4.57 2.35
6.11 -4.43 2.34
6.18 -4.30 2.33
6.25 -4.16 2.33
6.31 -4.03 2.32
6.38 -3.89 2.32
6.44 -3.75 2.31
6.50 -3.61 2.31
6.56 -3.48 2.30
6.65 -3.36 2.31
6.93 -3.32 2.38
6.97 -3.17 2.38
7.02 -3.03 2.37
7.06 -2.88 2.37
7.10 -2.73 2.36
7.14 -2.58 2.36
7.19 -2.44 2.36
7.25 -2.29 2.36
7.30 -2.15 2.37
7.35 -2.01 2.37
7.40 -1.86 2.37
7.44 -1.71 2.37
7.47 -1.56 2.37
7.51 -1.41 2.37
7.54 -1.26 2.38
7.56 -1.11 2.38
7.59 -0.96 2.38
7.61 -0.81 2.38
7.62 -0.65 2.38
7.64 -0.50 2.38
7.64 -0.35 2.38
7.65 -0.19 2.38
7.65 -0.04 2.38
7.64 0.11 2.38
7.64 0.27 2.38
7.63 0.42 2.38
7.62 0.57 2.38
7.62 0.73 2.38
7.60 0.88 2.38
7.59 1.03 2.38
7.57 1.19 2.38
7.55 1.34 2.39
7.53 1.49 2.39
7.52 1.65 2.40
7.51 1.81 2.40
7.49 1.96 2.41
7.47 2.12 2.42
7.45 2.27 2.42
7.41 2.43 2.43
7.36 2.57 2.43
7.31 2.72 2.42
7.25 2.87 2.42
7.19 3.01 2.42
7.13 3.16 2.42
7.06 3.30 2.42
7.00 3.44 2.42
6.92 3.58 2.42
6.84 3.71 2.42
6.77 3.85 2.42
6.69 3.98 2.42
6.60 4.12 2.42
6.52 4.25 2.42
6.43 4.37 2.42
6.34 4.50 2.42
6.24 4.62 2.41
6.02 4.65 2.36
5.93 4.78 2.37
5.84 4.90 2.37
5.75 5.02 2.37
5.65 5.14 2.37
5.56 5.26 2.38
5.46 5.38 2.38
5.37 5.52 2.39
5.26 5.62 2.39
5.15 5.73 2.39
5.03 5.83 2.39
4.92 5.93 2.39
2.58 3.24 1.29
2.44 3.19 1.25
2.34 3.20 1.23
2.26 3.22 1.22
2.19 3.26 1.22
2.13 3.32 1.22
2.09 3.39 1.23
2.06 3.50 1.26
3.78 6.73 2.39
3.64 6.81 2.39
3.50 6.88 2.39
3.36 6.95 2.39
3.23 7.02 2.39
3.08 7.08 2.39
2.94 7.14 2.39
2.80 7.20 2.39
2.65 7.26 2.39
2.51 7.31 2.39
2.36 7.36 2.39
2.21 7.41 2.39
2.06 7.46 2.39
1.91 7.50 2.39
1.78 7.59 2.41
1.61 7.57 2.39
1.52 7.93 2.49
1.36 7.96 2.49
1.20 7.99 2.49
1.04 8.01 2.49
0.88 8.04 2.49
0.72 8.05 2.49
0.56 8.07 2.49
0.40 8.08 2.49
0.24 8.09 2.49
0.07 8.09 2.49
-0.09 8.09 2.49
-0.25 8.09 2.49
-0.41 8.09 2.49
-0.58 8.08 2.49
-0.74 8.07 2.49
-0.90 8.05 2.49
-1.06 8.04 2.49
-1.22 8.01 2.49
-1.38 7.99 2.49
-1.55 7.96 2.49
-1.71 7.93 2.49
-1.86 7.90 2.49
-2.02 7.86 2.49
-2.18 7.82 2.49
-2.34 7.78 2.49
-2.49 7.73 2.49
-2.65 7.68 2.49
-2.80 7.63 2.49
-2.96 7.57 2.49
-3.11 7.51 2.49
-3.26 7.45 2.49
-3.41 7.38 2.49
-3.56 7.32 2.49
-3.70 7.24 2.49
-3.85 7.17 2.49
-3.99 7.09 2.49
-4.14 7.01 2.49
-4.28 6.93 2.49
-4.42 6.84 2.49
-4.55 6.76 2.49
-4.69 6.66 2.49
-4.82 6.57 2.49
-4.95 6.47 2.49
-5.08 6.37 2.49
-5.21 6.27 2.49
-5.34 6.17 2.49
-5.46 6.06 2.49
-5.58 5.95 2.49
-5.70 5.84 2.49
-5.82 5.72 2.49
-5.93 5.61 2.49
-6.05 5.49 2.49
-6.16 5.37 2.49
-6.26 5.24 2.49
-6.37 5.12 2.49
-6.46 4.98 2.49
-6.46 4.78 2.45
-6.46 4.58 2.42
-6.48 4.40 2.39
-6.57 4.27 2.39
-6.66 4.14 2.39
-6.74 4.01 2.39
-6.82 3.87 2.39
-6.90 3.73 2.39
-6.97 3.60 2.39
-7.04 3.46 2.39
-7.11 3.31 2.39
-7.18 3.17 2.39
-7.24 3.03 2.39
-7.30 2.88 2.39
-7.36 2.74 2.39
-7.41 2.59 2.39
-7.46 2.44 2.39
-7.51 2.29 2.39
-7.56 2.14 2.39
-7.60 1.99 2.39
-7.64 1.83 2.39
-7.67 1.68 2.39
-7.71 1.53 2.39
-7.74 1.37 2.39
-7.76 1.22 2.39
-7.79 1.06 2.39
-7.81 0.90 2.39
-7.82 0.75 2.39
-7.84 0.59 2.39
-7.85 0.43 2.39
-7.86 0.27 2.39
-7.86 0.12 2.39
-7.86 -0.04 2.39
-7.86 -0.20 2.39
-7.85 -0.36 2.39
-7.85 -0.51 2.39
-7.83 -0.67 2.39
-7.82 -0.83 2.39
-7.80 -0.98 2.39
-7.78 -1.14 2.39
-7.76 -1.30 2.39
-7.73 -1.45 2.39
-7.70 -1.61 2.39
-7.66 -1.76 2.39
-7.63 -1.91 2.39
-7.59 -2.07 2.39
-7.54 -2.22 2.39
-7.50 -2.37 2.39
-7.45 -2.52 2.39
-7.40 -2.67 2.39
-7.34 -2.81 2.39
-7.28 -2.96 2.39
-7.22 -3.11 2.39
-7.16 -3.25 2.39
-7.09 -3.39 2.39
-7.02 -3.53 2.39
-6.95 -3.67 2.39
-6.87 -3.81 2.39
-6.79 -3.95 2.39
-6.71 -4.08 2.39
-6.63 -4.22 2.39
-6.54 -4.35 2.39
-6.45 -4.48 2.39
-6.40 -4.64 2.41
-6.39 -4.83 2.44
-6.39 -5.03 2.48
-6.33 -5.19 2.49
-6.23 -5.32 2.49
-6.12 -5.44 2.49
-6.01 -5.56 2.49
-5.89 -5.68 2.49
-5.78 -5.80 2.49
-5.66 -5.91 2.49
-5.54 -6.02 2.49
-5.41 -6.13 2.49
-5.29 -6.24 2.49
-5.16 -6.34 2.49
-5.03 -6.44 2.49
-4.90 -6.54 2.49
-4.77 -6.64 2.49
-4.63 -6.73 2.49
-4.50 -6.82 2.49
-4.36 -6.91 2.49
-4.22 -7.00 2.49
-4.08 -7.08 2.49
-3.93 -7.16 2.49
-3.79 -7.23 2.49
-3.64 -7.31 2.49
-3.49 -7.38 2.49
-3.34 -7.44 2.49
-3.19 -7.51 2.49
-3.04 -7.57 2.49
-2.89 -7.63 2.49
-2.74 -7.68 2.49
-2.58 -7.73 2.49
-2.42 -7.78 2.49
-2.27 -7.83 2.49
-2.11 -7.87 2.49
-1.95 -7.91 2.49
-1.79 -7.94 2.49
-1.63 -7.98 2.49
-1.47 -8.01 2.49
-1.31 -8.03 2.49
-1.15 -8.06 2.49
-0.99 -8.07 2.49
-0.82 -8.09 2.49
-0.66 -8.10 2.49
-0.50 -8.11 2.49
-0.33 -8.12 2.49
-0.17 -8.12 2.49
-0.01 -7.52 2.49
0.14 -7.51 2.49
0.29 -7.51 2.49
0.44 -7.50 2.49
0.59 -7.49 2.49
0.74 -7.47 2.49
0.89 -7.45 2.49
1.04 -7.43 2.49
1.19 -7.41 2.49
1.34 -7.38 2.49
1.49 -7.35 2.49
1.63 -7.32 2.49
1.71 -6.98 2.39
1.85 -6.94 2.39
1.99 -6.90 2.39
2.12 -6.86 2.39
2.26 -6.82 2.39
2.40 -6.77 2.39
2.53 -6.72 2.39
2.66 -6.66 2.39
2.80 -6.61 2.39
2.93 -6.55 2.39
3.06 -6.49 2.39
3.19 -6.42 2.39
3.32 -6.36 2.39
3.44 -6.29 2.39
3.57 -6.22 2.39
3.69 -6.14 2.39
3.81 -6.06 2.39
3.93 -5.99 2.39
4.05 -5.90 2.39
4.17 -5.82 2.39
4.28 -5.73 2.39
4.40 -5.65 2.39
4.51 -5.56 2.39
4.62 -5.46 2.39
4.73 -5.37 2.39
4.83 -5.27 2.39
4.94 -5.17 2.39
5.04 -5.07 2.39
5.14 -4.97 2.39
5.24 -4.86 2.39
5.33 -4.76 2.39
5.42 -4.65 2.39
5.51 -4.53 2.39
5.59 -4.41 2.38
5.66 -4.29 2.38
5.73 -4.16 2.37
5.80 -4.03 2.37
5.86 -3.91 2.36
5.93 -3.78 2.36
5.99 -3.66 2.35
6.05 -3.53 2.35
6.11 -3.40 2.34
6.31 -3.34 2.39
6.38 -3.22 2.40
6.44 -3.09 2.39
6.49 -2.95 2.39
6.54 -2.82 2.39
6.59 -2.68 2.39
6.63 -2.55 2.38
6.69 -2.42 2.39
6.73 -2.28 2.39
6.78 -2.15 2.39
6.82 -2.01 2.39
6.86 -1.87 2.39
6.90 -1.73 2.39
6.93 -1.60 2.39
6.96 -1.46 2.39
6.99 -1.32 2.39
7.02 -1.18 2.39
7.05 -1.03 2.39
7.07 -0.89 2.39
7.09 -0.75 2.39
7.10 -0.61 2.39
7.11 -0.47 2.39
7.12 -0.32 2.39
7.12 -0.18 2.39
7.12 -0.04 2.39
7.13 0.11 2.39
7.13 0.25 2.40
7.12 0.39 2.40
7.12 0.54 2.40
7.11 0.68 2.40
7.10 0.82 2.40
7.08 0.97 2.40
7.07 1.11 2.40
7.05 1.25 2.41
7.03 1.39 2.41
7.01 1.54 2.41
6.99 1.68 2.42
6.98 1.83 2.42
6.94 1.97 2.42
6.90 2.11 2.42
6.86 2.24 2.42
6.81 2.38 2.42
6.76 2.52 2.42
6.71 2.65 2.42
6.65 2.79 2.42
6.60 2.92 2.42
6.54 3.05 2.42
6.47 3.18 2.42
6.41 3.31 2.42
6.34 3.44 2.42
6.27 3.57 2.42
6.20 3.69 2.42
6.12 3.81 2.42
6.04 3.94 2.42
5.96 4.05 2.42
5.87 4.17 2.42
5.79 4.29 2.42
5.70 4.40 2.42
5.55 4.47 2.39
5.46 4.58 2.39
5.37 4.69 2.39
5.27 4.80 2.39
5.18 4.90 2.39
5.08 5.01 2.39
4.98 5.11 2.39
4.87 5.21 2.39
4.77 5.31 2.39
4.66 5.40 2.39
4.55 5.49 2.39
2.58 3.24 1.39
2.44 3.19 1.35
2.34 3.20 1.33
2.26 3.22 1.32
2.19 3.26 1.32
2.13 3.32 1.32
2.09 3.39 1.33
2.06 3.50 1.36
3.49 6.23 2.39
3.37 6.30 2.39
3.24 6.37 2.39
3.11 6.43 2.39
2.99 6.50 2.39
2.85 6.56 2.39
2.72 6.61 2.39
2.59 6.67 2.39
2.46 6.72 2.39
2.32 6.77 2.39
2.18 6.82 2.39
2.05 6.86 2.39
1.91 6.90 2.39
1.78 6.98 2.40
1.63 6.97 2.39
1.56 7.31 2.49
1.41 7.34 2.49
1.26 7.37 2.49
1.11 7.39 2.49
0.97 7.42 2.49
0.82 7.44 2.49
0.67 7.45 2.49
0.52 7.47 2.49
0.37 7.48 2.49
0.22 7.48 2.49
0.07 7.49 2.49
-0.08 7.49 2.49
-0.23 7.49 2.49
-0.38 7.48 2.49
-0.53 7.48 2.49
-0.68 7.47 2.49
-0.83 7.45 2.49
-0.98 7.44 2.49
-1.13 7.42 2.49
-1.28 7.39 2.49
-1.43 7.37 2.49
-1.58 7.34 2.49
-1.73 7.31 2.49
-1.87 7.27 2.49
-2.02 7.24 2.49
-2.16 7.19 2.49
-2.31 7.15 2.49
-2.45 7.11 2.49
-2.59 7.06 2.49
-2.74 7.00 2.49
-2.88 6.95 2.49
-3.02 6.89 2.49
-3.15 6.83 2.49
-3.29 6.77 2.49
-3.43 6.70 2.49
-3.56 6.63 2.49
-3.70 6.56 2.49
-3.83 6.49 2.49
-3.96 6.41 2.49
-4.09 6.33 2.49
-4.21 6.25 2.49
-4.34 6.16 2.49
-4.46 6.08 2.49
-4.58 5.99 2.49
-4.70 5.90 2.49
-4.82 5.80 2.49
-4.94 5.70 2.49
-5.05 5.61 2.49
-5.17 5.50 2.49
-5.28 5.40 2.49
-5.38 5.29 2.49
-5.49 5.19 2.49
-5.59 5.08 2.49
-5.70 4.96 2.49
-5.79 4.85 2.49
-5.89 4.73 2.49
-5.99 4.61 2.49
-6.08 4.49 2.49
-6.17 4.37 2.49
-6.26 4.25 2.49
-6.34 4.12 2.49
-6.42 3.99 2.49
-6.45 3.84 2.47
-6.45 3.66 2.45
-6.45 3.49 2.42
-6.46 3.33 2.40
-6.51 3.20 2.39
-6.58 3.06 2.39
-6.64 2.93 2.39
-6.70 2.80 2.39
-6.75 2.66 2.39
-6.81 2.53 2.39
-6.86 2.39 2.39
-6.90 2.25 2.39
-6.95 2.12 2.39
-6.99 1.98 2.39
-7.03 1.84 2.39
-7.06 1.69 2.39
-7.10 1.55 2.39
-7.13 1.41 2.39
-7.15 1.27 2.39
-7.18 1.12 2.39
-7.20 0.98 2.39
-7.22 0.83 2.39
-7.24 0.69 2.39
-7.25 0.54 2.39
-7.26 0.40 2.39
-7.26 0.25 2.39
-7.27 0.11 2.39
-7.27 -0.04 2.39
-7.27 -0.18 2.39
-7.26 -0.33 2.39
-7.25 -0.47 2.39
-7.24 -0.62 2.39
-7.23 -0.77 2.39
-7.21 -0.91 2.39
-7.19 -1.05 2.39
-7.17 -1.20 2.39
-7.15 -1.34 2.39
-7.12 -1.49 2.39
-7.09 -1.63 2.39
-7.05 -1.77 2.39
-7.01 -1.91 2.39
-6.97 -2.05 2.39
-6.93 -2.19 2.39
-6.89 -2.33 2.39
-6.84 -2.47 2.39
-6.79 -2.60 2.39
-6.73 -2.74 2.39
-6.68 -2.87 2.39
-6.62 -3.01 2.39
-6.56 -3.14 2.39
-6.49 -3.27 2.39
-6.42 -3.40 2.39
-6.41 -3.55 2.41
-6.40 -3.72 2.44
-6.40 -3.89 2.46
-6.39 -4.07 2.49
-6.31 -4.19 2.49
-6.22 -4.32 2.49
-6.14 -4.44 2.49
-6.04 -4.57 2.49
-5.95 -4.69 2.49
-5.86 -4.80 2.49
-5.76 -4.92 2.49
-5.66 -5.03 2.49
-5.55 -5.14 2.49
-5.45 -5.25 2.49
-5.34 -5.36 2.49
-5.23 -5.47 2.49
-5.12 -5.57 2.49
-5.01 -5.67 2.49
-4.89 -5.77 2.49
-4.77 -5.87 2.49
-4.66 -5.96 2.49
-4.53 -6.05 2.49
-4.41 -6.14 2.49
-4.29 -6.23 2.49
-4.16 -6.31 2.49
-4.03 -6.39 2.49
-3.90 -6.47 2.49
-3.77 -6.55 2.49
-3.64 -6.62 2.49
-3.50 -6.69 2.49
-3.37 -6.76 2.49
-3.23 -6.82 2.49
-3.09 -6.88 2.49
-2.96 -6.94 2.49
-2.81 -7.00 2.49
-2.67 -7.05 2.49
-2.53 -7.10 2.49
-2.39 -7.15 2.49
-2.24 -7.20 2.49
-2.10 -7.24 2.49
-1.95 -7.28 2.49
-1.80 -7.32 2.49
-1.66 -7.35 2.49
-1.51 -7.38 2.49
-1.36 -7.41 2.49
-1.21 -7.43 2.49
-1.06 -7.45 2.49
-0.91 -7.47 2.49
-0.76 -7.49 2.49
-0.61 -7.50 2.49
-0.46 -7.51 2.49
-0.31 -7.51 2.49
-0.16 -7.52 2.49
-0.01 -6.99 2.49
0.13 -6.98 2.49
0.27 -6.98 2.49
0.41 -6.97 2.49
0.55 -6.96 2.49
0.69 -6.94 2.49
0.83 -6.93 2.49
0.97 -6.91 2.49
1.11 -6.89 2.49
1.25 -6.86 2.49
1.38 -6.83 2.49
1.52 -6.80 2.49
1.65 -6.77 2.49
1.72 -6.45 2.39
1.84 -6.42 2.39
1.97 -6.38 2.39
2.10 -6.34 2.39
2.23 -6.29 2.39
2.35 -6.24 2.39
2.48 -6.19 2.39
2.60 -6.14 2.39
2.72 -6.09 2.39
2.84 -6.03 2.39
2.96 -5.97 2.39
3.08 -5.91 2.39
3.20 -5.85 2.39
3.32 -5.78 2.39
3.43 -5.71 2.39
3.54 -5.64 2.39
3.66 -5.57 2.39
3.77 -5.49 2.39
3.87 -5.41 2.39
3.98 -5.33 2.39
4.09 -5.25 2.39
4.19 -5.17 2.39
4.29 -5.08 2.39
4.39 -4.99 2.39
4.49 -4.90 2.39
4.59 -4.81 2.39
4.68 -4.72 2.39
4.78 -4.62 2.39
4.87 -4.52 2.39
4.96 -4.42 2.39
5.04 -4.32 2.39
5.13 -4.22 2.39
5.21 -4.11 2.39
5.29 -4.01 2.39
5.37 -3.90 2.39
5.45 -3.79 2.39
5.52 -3.68 2.39
5.58 -3.56 2.38
5.64 -3.44 2.38
5.71 -3.33 2.38
5.82 -3.24 2.40
5.88 -3.12 2.40
5.94 -3.00 2.40
5.99 -2.87 2.40
6.04 -2.75 2.39
6.09 -2.63 2.39
6.14 -2.50 2.39
6.19 -2.38 2.39
6.24 -2.26 2.39
6.29 -2.13 2.39
6.33 -2.00 2.40
6.37 -1.88 2.40
6.41 -1.75 2.40
6.44 -1.62 2.40
6.48 -1.49 2.40
6.51 -1.36 2.40
6.54 -1.23 2.40
6.56 -1.10 2.40
6.59 -0.97 2.40
6.61 -0.84 2.40
6.62 -0.70 2.41
6.64 -0.57 2.41
6.65 -0.44 2.41
6.66 -0.30 2.41
6.67 -0.17 2.41
6.67 -0.03 2.41
6.68 0.10 2.41
6.68 0.23 2.41
6.67 0.37 2.41
6.67 0.50 2.41
6.66 0.64 2.42
6.65 0.77 2.42
6.63 0.90 2.42
6.62 1.04 2.42
6.60 1.17 2.42
6.58 1.30 2.42
6.55 1.44 2.42
6.52 1.57 2.42
6.49 1.70 2.42
6.45 1.83 2.42
6.41 1.96 2.42
6.37 2.09 2.42
6.33 2.21 2.42
6.29 2.34 2.42
6.24 2.47 2.42
6.19 2.59 2.42
6.13 2.72 2.42
6.08 2.84 2.42
6.02 2.96 2.42
5.96 3.08 2.42
5.90 3.20 2.42
5.83 3.32 2.42
5.77 3.44 2.42
5.69 3.55 2.42
5.55 3.62 2.39
5.48 3.73 2.39
5.40 3.84 2.39
5.32 3.95 2.39
5.24 4.05 2.39
5.16 4.16 2.39
5.08 4.26 2.39
4.99 4.36 2.39
4.90 4.46 2.39
4.81 4.56 2.39
4.72 4.66 2.39
4.63 4.75 2.39
4.53 4.84 2.39
4.43 4.93 2.39
4.33 5.02 2.39
4.23 5.11 2.39
2.58 3.24 1.49
2.28 2.98 1.35
2.22 3.04 1.36
2.26 3.22 1.42
2.19 3.26 1.41
2.13 3.32 1.42
2.09 3.39 1.43
2.06 3.50 1.46
3.25 5.79 2.39
3.13 5.86 2.39
3.01 5.92 2.39
2.90 5.98 2.39
2.78 6.04 2.39
2.65 6.10 2.39
2.53 6.15 2.39
2.41 6.20 2.39
2.28 6.25 2.39
2.16 6.29 2.39
2.03 6.34 2.39
1.90 6.38 2.39
1.79 6.45 2.40
1.65 6.45 2.39
1.57 6.73 2.48
1.45 6.80 2.49
1.31 6.83 2.49
1.17 6.85 2.49
1.04 6.88 2.49
0.90 6.90 2.49
0.76 6.91 2.49
0.62 6.93 2.49
0.48 6.94 2.49
0.34 6.95 2.49
0.20 6.96 2.49
0.06 6.96 2.49
-0.08 6.96 2.49
-0.22 6.96 2.49
-0.36 6.96 2.49
-0.50 6.95 2.49
-0.64 6.94 2.49
-0.78 6.93 2.49
-0.92 6.91 2.49
-1.05 6.89 2.49
-1.19 6.87 2.49
-1.33 6.85 2.49
-1.47 6.82 2.49
-1.60 6.79 2.49
-1.74 6.76 2.49
-1.88 6.72 2.49
-2.01 6.69 2.49
-2.15 6.65 2.49
-2.28 6.60 2.49
-2.41 6.56 2.49
-2.54 6.51 2.49
-2.67 6.46 2.49
-2.80 6.40 2.49
-2.93 6.35 2.49
-3.06 6.29 2.49
-3.19 6.23 2.49
-3.31 6.16 2.49
-3.43 6.10 2.49
-3.56 6.03 2.49
-3.68 5.96 2.49
-3.80 5.88 2.49
-3.92 5.81 2.49
-4.03 5.73 2.49
-4.15 5.65 2.49
-4.26 5.56 2.49
-4.37 5.48 2.49
-4.48 5.39 2.49
-4.59 5.30 2.49
-4.70 5.21 2.49
-4.80 5.11 2.49
-4.90 5.02 2.49
-5.00 4.92 2.49
-5.10 4.82 2.49
-5.20 4.72 2.49
-5.29 4.61 2.49
-5.38 4.50 2.49
-5.47 4.40 2.49
-5.56 4.29 2.49
-5.65 4.17 2.49
-5.73 4.06 2.49
-5.81 3.95 2.49
-5.89 3.83 2.49
-5.97 3.71 2.49
-6.04 3.59 2.49
-6.11 3.47 2.49
-6.18 3.35 2.49
-6.25 3.22 2.49
-6.31 3.10 2.49
-6.37 2.97 2.49
-6.43 2.84 2.49
-6.44 2.69 2.48
-6.44 2.54 2.46
-6.44 2.39 2.44
-6.45 2.25 2.42
-6.45 2.11 2.40
-6.45 1.97 2.39
-6.49 1.84 2.39
-6.53 1.71 2.39
-6.56 1.57 2.39
-6.59 1.44 2.39
-6.63 1.31 2.39
-6.65 1.18 2.39
-6.67 1.04 2.39
-6.69 0.91 2.39
-6.71 0.78 2.39
-6.72 0.64 2.39
-6.73 0.51 2.39
-6.74 0.37 2.39
-6.75 0.24 2.39
-6.75 0.10 2.39
-6.75 -0.04 2.39
-6.75 -0.17 2.39
-6.75 -0.31 2.39
-6.74 -0.44 2.39
-6.73 -0.58 2.39
-6.72 -0.71 2.39
-6.70 -0.85 2.39
-6.68 -0.98 2.39
-6.66 -1.11 2.39
-6.64 -1.25 2.39
-6.61 -1.38 2.39
-6.58 -1.51 2.39
-6.55 -1.64 2.39
-6.52 -1.77 2.39
-6.48 -1.90 2.39
-6.44 -2.03 2.39
-6.42 -2.17 2.40
-6.41 -2.31 2.41
-6.41 -2.46 2.43
-6.41 -2.60 2.45
-6.41 -2.76 2.47
-6.40 -2.91 2.49
-6.35 -3.04 2.49
-6.29 -3.17 2.49
-6.22 -3.29 2.49
-6.16 -3.42 2.49
-6.09 -3.54 2.49
-6.01 -3.66 2.49
-5.94 -3.78 2.49
-5.86 -3.90 2.49
-5.78 -4.01 2.49
-5.70 -4.13 2.49
-5.62 -4.24 2.49
-5.53 -4.35 2.49
-5.44 -4.46 2.49
-5.35 -4.57 2.49
-5.26 -4.68 2.49
-5.16 -4.78 2.49
-5.06 -4.88 2.49
-4.96 -4.98 2.49
-4.86 -5.08 2.49
-4.76 -5.18 2.49
-4.65 -5.27 2.49
-4.55 -5.36 2.49
-4.44 -5.45 2.49
-4.33 -5.54 2.49
-4.21 -5.62 2.49
-4.10 -5.70 2.49
-3.98 -5.78 2.49
-3.87 -5.86 2.49
-3.75 -5.94 2.49
-3.63 -6.01 2.49
-3.50 -6.08 2.49
-3.38 -6.15 2.49
-3.26 -6.22 2.49
-3.13 -6.28 2.49
-3.00 -6.34 2.49
-2.88 -6.40 2.49
-2.75 -6.45 2.49
-2.62 -6.50 2.49
-2.48 -6.55 2.49
-2.35 -6.60 2.49
-2.22 -6.65 2.49
-2.08 -6.69 2.49
-1.95 -6.73 2.49
-1.81 -6.76 2.49
-1.68 -6.80 2.49
-1.54 -6.83 2.49
-1.40 -6.86 2.49
-1.26 -6.88 2.49
-1.13 -6.91 2.49
-0.99 -6.93 2.49
-0.85 -6.94 2.49
-0.71 -6.96 2.49
-0.57 -6.97 2.49
-0.43 -6.98 2.49
-0.29 -6.98 2.49
-0.15 -6.99 2.49
-0.01 -6.52 2.49
0.12 -6.52 2.49
0.25 -6.51 2.49
0.38 -6.50 2.49
0.51 -6.49 2.49
0.64 -6.48 2.49
0.77 -6.46 2.49
0.90 -6.45 2.49
1.03 -6.43 2.49
1.16 -6.40 2.49
1.29 -6.38 2.49
1.42 -6.35 2.49
1.54 -6.32 2.49
1.67 -6.27 2.49
1.72 -5.99 2.39
1.84 -5.95 2.39
1.96 -5.91 2.39
2.08 -5.87 2.39
2.19 -5.83 2.39
2.31 -5.78 2.39
2.43 -5.73 2.39
2.54 -5.68 2.39
2.65 -5.63 2.39
2.76 -5.57 2.39
2.88 -5.52 2.39
2.99 -5.46 2.39
3.09 -5.39 2.39
3.20 -5.33 2.39
3.31 -5.26 2.39
3.41 -5.19 2.39
3.51 -5.12 2.39
3.62 -5.05 2.39
3.72 -4.98 2.39
3.81 -4.90 2.39
3.91 -4.82 2.39
4.01 -4.74 2.39
4.10 -4.66 2.39
4.19 -4.58 2.39
4.28 -4.49 2.39
4.37 -4.40 2.39
4.46 -4.31 2.39
4.54 -4.22 2.39
4.63 -4.13 2.39
4.71 -4.03 2.39
4.79 -3.94 2.39
4.86 -3.84 2.39
4.94 -3.74 2.39
5.01 -3.64 2.39
5.09 -3.54 2.39
5.15 -3.44 2.39
5.22 -3.33 2.39
5.29 -3.23 2.39
5.35 -3.12 2.39
5.41 -3.01 2.39
5.47 -2.90 2.39
5.53 -2.79 2.39
5.58 -2.68 2.39
5.63 -2.56 2.39
5.70 -2.46 2.40
5.75 -2.35 2.40
5.80 -2.23 2.40
5.84 -2.11 2.40
5.89 -2.00 2.40
5.93 -1.88 2.40
5.97 -1.76 2.40
6.00 -1.64 2.40
6.03 -1.52 2.41
6.07 -1.40 2.41
6.09 -1.27 2.41
6.12 -1.15 2.41
6.14 -1.03 2.41
6.16 -0.91 2.41
6.18 -0.78 2.41
6.20 -0.66 2.41
6.21 -0.53 2.41
6.22 -0.41 2.41
6.23 -0.28 2.41
6.24 -0.16 2.41
6.24 -0.03 2.41
6.24 0.09 2.41
6.24 0.22 2.42
6.24 0.34 2.42
6.23 0.47 2.42
6.22 0.59 2.42
6.21 0.72 2.42
6.20 0.85 2.42
6.18 0.97 2.42
6.17 1.09 2.42
6.14 1.22 2.42
6.12 1.34 2.42
6.09 1.46 2.42
6.06 1.59 2.42
6.02 1.71 2.42
5.99 1.83 2.42
5.95 1.95 2.42
5.91 2.07 2.42
5.87 2.19 2.42
5.82 2.30 2.42
5.78 2.42 2.42
5.73 2.54 2.42
5.60 2.62 2.39
5.55 2.73 2.39
5.49 2.84 2.39
5.43 2.95 2.39
5.37 3.06 2.39
5.31 3.17 2.39
5.25 3.27 2.39
5.18 3.38 2.39
5.11 3.48 2.39
5.04 3.58 2.39
4.97 3.68 2.39
4.89 3.78 2.39
4.82 3.88 2.39
4.74 3.98 2.39
4.66 4.07 2.39
4.58 4.17 2.39
4.49 4.26 2.39
4.41 4.35 2.39
4.32 4.44 2.39
4.23 4.52 2.39
4.14 4.61 2.39
4.05 4.69 2.39
3.95 4.77 2.39
