ply
format ascii 1.0
element vertex 2747
property float32 x
property float32 y
property float32 z
end_header
29.63 13.90 -3.22
31.38 15.50 -3.43
31.78 16.50 -3.49
32.38 17.64 -3.57
32.35 18.48 -3.59
32.63 19.52 -3.65
32.82 20.54 -3.69
32.78 21.45 -3.71
32.74 22.38 -3.74
32.97 23.52 -3.79
33.00 24.56 -3.83
32.98 25.59 -3.86
32.88 26.59 -3.88
32.75 27.59 -3.90
32.54 28.55 -3.92
32.28 29.49 -3.93
31.96 30.41 -3.93
31.27 30.97 -3.89
30.69 31.64 -3.87
30.21 32.43 -3.86
30.46 34.04 -3.94
30.04 34.96 -3.94
31.00 37.58 -4.13
30.79 38.89 -4.17
-5.63 2.76 -0.13
-16.89 7.46 -0.38
-16.91 7.07 -0.37
-16.94 6.68 -0.37
-16.96 6.30 -0.36
-16.99 5.93 -0.35
-16.90 5.52 -0.35
-16.91 5.15 -0.34
-16.92 4.79 -0.34
-16.93 4.43 -0.34
-16.95 4.07 -0.33
-16.97 3.71 -0.33
-16.61 3.29 -0.32
-16.24 2.88 -0.31
-15.89 2.49 -0.30
-15.56 2.12 -0.30
-15.33 1.78 -0.29
-15.27 1.46 -0.29
-15.09 1.14 -0.29
-15.14 0.84 -0.29
-15.19 0.53 -0.29
-15.24 0.23 -0.29
-15.29 -0.07 -0.29
-15.34 -0.38 -0.30
-15.28 -0.69 -0.30
-15.11 -0.98 -0.30
-15.04 -1.28 -0.30
-15.07 -1.59 -0.30
-15.11 -1.90 -0.31
-15.16 -2.22 -0.31
-15.21 -2.54 -0.32
-15.27 -2.86 -0.33
-15.36 -3.20 -0.33
-15.51 -3.56 -0.34
-15.67 -3.92 -0.35
-15.84 -4.31 -0.37
13.57 -17.45 -1.56
12.71 -15.69 -1.43
12.36 -14.64 -1.37
12.24 -13.92 -1.34
12.11 -13.23 -1.30
11.99 -12.58 -1.27
11.96 -12.06 -1.25
11.94 -11.56 -1.23
11.93 -11.09 -1.22
11.96 -10.68 -1.21
11.98 -10.28 -1.20
12.01 -9.89 -1.19
12.03 -9.51 -1.18
12.06 -9.14 -1.17
12.11 -8.80 -1.16
12.18 -8.48 -1.16
12.25 -8.17 -1.15
12.32 -7.86 -1.15
12.39 -7.56 -1.15
12.51 -7.29 -1.15
12.60 -7.01 -1.15
12.79 -6.78 -1.16
12.99 -6.56 -1.17
13.19 -6.33 -1.18
13.39 -6.10 -1.19
13.49 -5.82 -1.19
13.52 -5.51 -1.19
13.54 -5.20 -1.18
13.34 -4.82 -1.16
13.36 -4.53 -1.16
13.52 -4.28 -1.16
13.90 -4.09 -1.19
14.16 -3.86 -1.21
14.23 -3.57 -1.21
14.29 -3.29 -1.21
14.36 -3.00 -1.21
14.44 -2.71 -1.21
14.72 -2.46 -1.23
13.73 -2.01 -1.15
13.64 -1.72 -1.14
13.51 -1.43 -1.12
13.48 -1.15 -1.12
13.48 -0.88 -1.12
13.58 -0.61 -1.12
16.19 -0.40 -1.33
16.42 -0.07 -1.35
16.65 0.26 -1.37
16.89 0.60 -1.39
17.02 0.95 -1.40
16.87 1.28 -1.38
16.82 1.62 -1.38
17.07 1.99 -1.40
17.21 2.36 -1.41
17.32 2.73 -1.42
19.78 3.53 -1.62
22.04 4.39 -1.81
23.90 5.26 -1.96
25.79 6.23 -2.11
28.22 7.42 -2.32
29.17 8.30 -2.40
29.69 9.09 -2.44
30.23 9.93 -2.49
29.82 10.47 -2.46
29.74 11.11 -2.46
29.90 11.87 -2.48
29.77 12.51 -2.48
30.91 13.73 -2.58
30.68 14.37 -2.57
31.00 15.29 -2.60
31.25 16.20 -2.63
31.69 17.25 -2.68
31.94 18.22 -2.71
31.80 19.00 -2.71
32.04 20.03 -2.75
32.30 21.11 -2.78
31.62 21.58 -2.74
32.20 22.94 -2.80
32.35 24.04 -2.83
32.27 25.00 -2.85
32.22 26.02 -2.86
32.08 26.99 -2.87
31.94 27.98 -2.88
31.72 28.94 -2.88
31.52 29.94 -2.89
31.43 31.08 -2.91
30.51 31.41 -2.85
29.79 31.92 -2.81
30.76 34.32 -2.94
30.24 35.14 -2.92
30.75 37.22 -3.00
30.33 38.25 -3.00
30.09 39.54 -3.02
-12.18 21.63 -0.33
-12.72 21.57 -0.32
-13.28 21.51 -0.30
-13.41 20.78 -0.28
-13.41 19.90 -0.26
-13.51 19.20 -0.24
-13.53 18.43 -0.22
-13.55 17.70 -0.20
-13.68 17.15 -0.18
-13.71 16.50 -0.16
-13.74 15.88 -0.15
-13.87 15.39 -0.14
-13.91 14.83 -0.12
-13.94 14.28 -0.11
-13.97 13.75 -0.10
-14.00 13.23 -0.08
-14.03 12.74 -0.07
-14.06 12.26 -0.06
-14.09 11.79 -0.05
-14.13 11.35 -0.05
-14.16 10.92 -0.04
-14.19 10.49 -0.03
-14.21 10.08 -0.02
-14.24 9.67 -0.01
-14.33 9.32 -0.01
-14.38 8.95 -0.00
-14.41 8.57 0.00
-14.44 8.20 0.01
-14.48 7.84 0.01
-14.52 7.49 0.02
-5.63 2.76 0.01
-15.12 7.05 0.03
-16.07 7.10 0.03
-16.35 6.84 0.04
-16.38 6.47 0.04
-16.41 6.10 0.05
-16.43 5.74 0.05
-16.22 5.30 0.05
-15.97 4.87 0.05
-15.73 4.45 0.05
-15.49 4.05 0.05
-15.27 3.67 0.05
-15.17 3.32 0.05
-15.14 3.00 0.06
-15.10 2.68 0.06
-15.07 2.36 0.06
-15.04 2.05 0.06
-15.01 1.74 0.06
-14.95 1.43 0.05
-14.76 1.11 0.05
-14.56 0.80 0.05
-14.38 0.50 0.05
-14.20 0.21 0.05
-14.02 -0.07 0.05
-13.98 -0.35 0.04
-14.03 -0.63 0.04
-13.89 -0.91 0.04
-13.75 -1.18 0.04
-13.61 -1.44 0.03
-13.58 -1.71 0.03
-13.57 -1.99 0.03
-13.55 -2.26 0.02
-13.54 -2.54 0.02
-13.54 -2.82 0.02
-13.57 -3.11 0.01
-13.59 -3.41 0.01
-13.62 -3.71 0.00
-13.65 -4.01 -0.00
-13.67 -4.32 -0.01
-13.70 -4.63 -0.01
-13.73 -4.95 -0.02
-13.80 -5.29 -0.02
-13.88 -5.64 -0.03
-13.96 -6.00 -0.04
-14.42 -6.55 -0.05
-14.67 -7.02 -0.06
-15.13 -7.61 -0.07
-15.23 -8.05 -0.08
-15.30 -8.49 -0.09
-15.79 -9.18 -0.10
-15.86 -9.65 -0.11
-15.93 -10.13 -0.12
-16.01 -10.64 -0.14
-16.27 -11.29 -0.15
-16.40 -11.88 -0.17
-16.55 -12.50 -0.18
-17.01 -13.39 -0.21
-17.47 -14.33 -0.23
-17.59 -15.03 -0.25
-17.63 -15.68 -0.27
-18.78 -17.39 -0.31
13.26 -18.52 -1.06
12.66 -16.95 -1.00
11.92 -15.31 -0.93
11.78 -14.51 -0.90
11.76 -13.91 -0.89
11.74 -13.34 -0.88
11.75 -12.81 -0.87
11.73 -12.29 -0.86
11.72 -11.79 -0.85
11.70 -11.32 -0.84
11.72 -10.88 -0.83
11.76 -10.49 -0.83
11.79 -10.10 -0.82
11.81 -9.71 -0.82
11.84 -9.34 -0.82
11.87 -8.98 -0.81
11.94 -8.67 -0.81
12.01 -8.36 -0.81
12.08 -8.05 -0.81
12.15 -7.75 -0.81
12.22 -7.45 -0.81
12.29 -7.16 -0.81
12.35 -6.86 -0.81
12.50 -6.62 -0.81
12.69 -6.40 -0.82
12.89 -6.18 -0.83
13.08 -5.95 -0.84
13.27 -5.72 -0.84
13.29 -5.41 -0.84
13.31 -5.11 -0.84
13.46 -4.86 -0.85
13.65 -4.62 -0.85
13.83 -4.37 -0.86
13.95 -4.10 -0.87
14.01 -3.82 -0.87
14.07 -3.53 -0.87
14.14 -3.25 -0.87
14.20 -2.96 -0.87
14.07 -2.64 -0.86
13.91 -2.32 -0.85
13.37 -1.96 -0.81
13.43 -1.69 -0.81
13.48 -1.42 -0.81
13.42 -1.15 -0.81
13.39 -0.87 -0.80
13.45 -0.60 -0.81
15.43 -0.38 -0.92
15.44 -0.07 -0.92
16.47 0.25 -0.98
16.70 0.59 -0.99
16.84 0.94 -1.00
17.04 1.29 -1.01
16.93 1.63 -1.00
17.10 1.99 -1.01
17.07 2.34 -1.01
17.31 2.72 -1.02
19.84 3.53 -1.17
20.99 4.18 -1.23
22.16 4.87 -1.30
24.45 5.90 -1.44
25.48 6.69 -1.50
26.08 7.41 -1.53
28.46 8.71 -1.67
28.97 9.50 -1.70
29.29 10.27 -1.72
30.37 11.33 -1.78
30.53 12.10 -1.79
30.58 12.83 -1.79
30.63 13.58 -1.80
30.67 14.35 -1.80
30.70 15.12 -1.80
30.74 15.91 -1.81
31.14 16.92 -1.83
31.55 17.97 -1.86
31.41 18.74 -1.85
31.28 19.53 -1.85
31.51 20.57 -1.86
31.12 21.21 -1.84
31.73 22.57 -1.88
31.66 23.50 -1.88
31.64 24.48 -1.89
31.56 25.45 -1.89
31.43 26.41 -1.88
31.28 27.36 -1.88
31.17 28.40 -1.88
31.05 29.45 -1.88
30.97 30.57 -1.88
30.58 31.43 -1.87
30.28 32.39 -1.85
30.75 34.25 -1.89
29.84 34.62 -1.85
30.51 36.87 -1.90
29.98 37.73 -1.88
29.51 38.71 -1.86
29.33 40.13 -1.86
-11.09 47.07 -0.07
-11.40 44.37 -0.03
-11.59 41.65 0.01
-11.79 39.30 0.04
-10.95 33.99 0.06
-10.84 31.48 0.08
-10.98 29.93 0.10
-11.53 29.57 0.13
-12.16 29.43 0.15
-12.56 28.74 0.17
-12.61 27.35 0.19
-11.29 23.26 0.18
-11.23 22.00 0.19
-11.28 21.03 0.20
-11.50 20.46 0.21
-11.72 19.90 0.23
-12.01 19.50 0.24
-12.19 18.93 0.25
-12.37 18.38 0.26
-12.47 17.75 0.27
-12.63 17.23 0.28
-12.82 16.78 0.29
-12.96 16.28 0.30
-13.01 15.67 0.30
-13.17 15.24 0.31
-13.36 14.84 0.32
-13.42 14.33 0.32
-13.46 13.80 0.33
-13.50 13.30 0.33
-13.54 12.81 0.34
-13.57 12.33 0.34
-13.61 11.88 0.34
-13.65 11.43 0.35
-13.69 11.01 0.35
-13.74 10.60 0.36
-13.77 10.19 0.36
-13.80 9.79 0.36
-13.86 9.42 0.36
-13.96 9.09 0.37
-14.05 8.75 0.37
-14.08 8.38 0.37
-14.12 8.02 0.38
-14.15 7.67 0.38
-14.21 7.34 0.38
-5.63 2.76 0.15
-14.54 6.79 0.39
-14.85 6.57 0.40
-15.57 6.52 0.42
-15.86 6.27 0.43
-15.89 5.91 0.43
-15.86 5.54 0.43
-15.62 5.11 0.42
-15.39 4.69 0.41
-15.17 4.29 0.41
-15.02 3.93 0.40
-14.90 3.58 0.40
-14.85 3.25 0.40
-14.82 2.94 0.39
-14.79 2.62 0.39
-14.76 2.31 0.39
-14.73 2.01 0.39
-14.70 1.70 0.39
-14.65 1.40 0.38
-14.46 1.09 0.38
-14.27 0.79 0.37
-14.09 0.49 0.37
-13.92 0.21 0.36
-13.75 -0.07 0.35
-13.58 -0.34 0.35
-13.42 -0.61 0.34
-13.37 -0.88 0.34
-13.36 -1.14 0.34
-13.35 -1.41 0.33
-13.34 -1.68 0.33
-13.32 -1.96 0.33
-13.31 -2.23 0.33
-13.30 -2.50 0.32
-13.29 -2.78 0.32
-13.31 -3.06 0.32
-13.33 -3.35 0.32
-13.36 -3.64 0.32
-13.38 -3.94 0.31
-13.41 -4.24 0.31
-13.43 -4.55 0.31
-13.46 -4.86 0.30
-13.47 -5.17 0.30
-13.53 -5.51 0.30
-13.60 -5.86 0.30
-13.68 -6.22 0.29
-13.75 -6.59 0.29
-13.82 -6.97 0.29
-13.90 -7.36 0.28
-13.98 -7.77 0.28
-14.07 -8.19 0.28
-14.16 -8.62 0.27
-14.57 -9.28 0.28
-15.16 -10.09 0.28
-15.22 -10.58 0.28
-15.61 -11.32 0.27
-15.81 -11.96 0.27
-15.94 -12.57 0.26
-16.13 -13.24 0.26
-16.20 -13.86 0.25
-16.28 -14.51 0.24
-16.36 -15.17 0.23
-16.40 -15.84 0.22
-16.45 -16.53 0.21
-16.55 -17.32 0.20
-16.76 -18.25 0.19
-17.00 -19.27 0.18
-17.56 -20.73 0.17
-18.23 -22.42 0.16
-18.62 -23.87 0.14
-19.24 -25.70 0.13
12.39 -18.03 -0.51
11.80 -16.46 -0.49
11.56 -15.45 -0.47
11.49 -14.74 -0.47
11.48 -14.13 -0.47
11.47 -13.55 -0.47
11.47 -13.01 -0.47
11.50 -12.53 -0.47
11.49 -12.03 -0.47
11.48 -11.54 -0.47
11.47 -11.08 -0.46
11.52 -10.69 -0.47
11.57 -10.31 -0.47
11.60 -9.92 -0.47
11.63 -9.55 -0.47
11.65 -9.19 -0.47
11.70 -8.85 -0.47
11.77 -8.54 -0.47
11.85 -8.23 -0.47
11.92 -7.93 -0.47
11.99 -7.64 -0.48
12.06 -7.34 -0.48
12.12 -7.06 -0.48
12.17 -6.76 -0.48
12.29 -6.50 -0.48
12.44 -6.27 -0.49
12.60 -6.04 -0.49
12.79 -5.81 -0.50
12.98 -5.59 -0.51
13.07 -5.32 -0.51
13.10 -5.03 -0.51
13.28 -4.79 -0.52
13.46 -4.55 -0.52
13.64 -4.31 -0.53
13.80 -4.06 -0.53
13.86 -3.77 -0.53
13.92 -3.49 -0.53
13.98 -3.21 -0.54
14.05 -2.93 -0.54
13.18 -2.48 -0.50
13.21 -2.21 -0.50
13.27 -1.94 -0.50
13.34 -1.68 -0.50
13.45 -1.42 -0.51
13.56 -1.16 -0.51
13.58 -0.88 -0.51
14.03 -0.63 -0.52
15.37 -0.38 -0.57
15.30 -0.07 -0.57
15.62 0.24 -0.58
16.52 0.58 -0.61
16.67 0.93 -0.61
16.70 1.26 -0.61
17.16 1.65 -0.63
17.32 2.01 -0.63
17.42 2.38 -0.63
17.35 2.73 -0.63
18.63 3.31 -0.67
20.18 4.01 -0.72
21.10 4.63 -0.75
22.27 5.36 -0.79
24.64 6.46 -0.87
25.18 7.14 -0.89
25.66 7.84 -0.90
27.63 9.05 -0.96
28.28 9.90 -0.98
28.47 10.61 -0.98
28.63 11.33 -0.98
28.92 12.12 -0.99
29.51 13.07 -1.00
29.46 13.76 -0.99
30.22 14.86 -1.01
30.21 15.62 -1.01
30.50 16.55 -1.01
31.02 17.65 -1.02
31.03 18.49 -1.01
30.89 19.26 -1.00
30.74 20.03 -0.99
30.89 21.02 -0.99
31.26 22.21 -0.99
31.08 23.03 -0.98
30.89 23.87 -0.96
30.78 24.79 -0.95
30.64 25.70 -0.93
30.56 26.70 -0.92
30.47 27.72 -0.91
30.42 28.81 -0.90
30.39 29.96 -0.88
30.47 31.27 -0.87
30.43 32.50 -0.86
30.45 33.86 -0.85
30.38 35.19 -0.83
29.99 36.17 -0.81
29.58 37.17 -0.78
29.08 38.09 -0.75
28.74 39.25 -0.72
28.42 40.49 -0.70
-2.60 37.11 0.54
-9.94 46.53 0.96
-10.46 44.60 0.96
-10.62 41.49 0.94
-10.99 39.61 0.93
-9.96 33.32 0.82
-10.10 31.44 0.80
-10.26 29.88 0.79
-10.61 28.99 0.80
-11.24 28.89 0.82
-11.85 28.76 0.85
-12.07 27.69 0.85
-10.80 23.48 0.74
-10.83 22.35 0.73
-10.82 21.23 0.72
-10.95 20.47 0.72
-11.18 19.92 0.72
-11.36 19.33 0.72
-11.47 18.65 0.72
-11.60 18.03 0.72
-11.71 17.43 0.72
-11.85 16.89 0.72
-12.00 16.40 0.72
-12.18 15.96 0.73
-12.33 15.49 0.73
-12.52 15.10 0.73
-12.70 14.72 0.74
-12.89 14.34 0.74
-12.97 13.86 0.74
-13.01 13.36 0.74
-13.06 12.87 0.74
-13.10 12.41 0.73
-13.14 11.95 0.73
-13.18 11.52 0.73
-13.23 11.10 0.73
-13.28 10.70 0.73
-13.33 10.30 0.72
-13.37 9.91 0.72
-13.41 9.52 0.72
-13.51 9.19 0.72
-13.62 8.87 0.72
-13.72 8.55 0.73
-13.77 8.20 0.73
-13.81 7.85 0.73
-13.84 7.51 0.72
-13.92 7.20 0.73
-5.63 2.77 0.29
-14.14 6.60 0.73
-14.43 6.39 0.74
-14.73 6.17 0.76
-15.12 5.98 0.77
-15.40 5.73 0.78
-15.28 5.34 0.78
-15.06 4.93 0.76
-14.93 4.56 0.75
-14.81 4.20 0.74
-14.69 3.84 0.74
-14.57 3.50 0.73
-14.54 3.19 0.72
-14.52 2.88 0.72
-14.49 2.57 0.72
-14.46 2.27 0.71
-14.43 1.97 0.71
-14.41 1.67 0.71
-14.35 1.37 0.70
-14.17 1.07 0.69
-13.99 0.77 0.68
-13.82 0.48 0.67
-13.65 0.20 0.66
-13.49 -0.07 0.65
-13.33 -0.34 0.64
-13.18 -0.60 0.63
-13.11 -0.86 0.63
-13.13 -1.13 0.63
-13.12 -1.39 0.63
-13.10 -1.66 0.62
-13.09 -1.92 0.62
-13.08 -2.19 0.62
-13.07 -2.46 0.62
-13.05 -2.73 0.62
-13.07 -3.01 0.62
-13.09 -3.29 0.62
-13.11 -3.58 0.62
-13.13 -3.87 0.62
-13.15 -4.17 0.62
-13.18 -4.47 0.62
-13.20 -4.77 0.62
-13.21 -5.08 0.61
-13.22 -5.39 0.61
-13.27 -5.72 0.61
-13.33 -6.07 0.62
-13.40 -6.43 0.62
-13.47 -6.80 0.62
-13.53 -7.17 0.62
-13.59 -7.56 0.62
-13.67 -7.97 0.63
-13.75 -8.39 0.63
-13.83 -8.82 0.63
-13.91 -9.27 0.63
-14.11 -9.82 0.64
-14.33 -10.40 0.65
-14.72 -11.15 0.67
-15.25 -12.03 0.69
-15.36 -12.63 0.69
-15.53 -13.30 0.70
-15.68 -13.99 0.71
-15.75 -14.63 0.71
-15.81 -15.29 0.71
-15.86 -15.96 0.71
-15.89 -16.65 0.71
-15.98 -17.43 0.71
-16.13 -18.32 0.72
-16.34 -19.33 0.73
-16.60 -20.46 0.74
-16.86 -21.64 0.75
-17.09 -22.88 0.76
-17.32 -24.19 0.77
13.13 -20.82 0.01
11.99 -18.19 -0.00
11.44 -16.62 -0.02
11.31 -15.75 -0.03
11.21 -14.96 -0.04
11.21 -14.35 -0.05
11.20 -13.77 -0.06
11.20 -13.22 -0.07
11.23 -12.72 -0.08
11.26 -12.26 -0.08
11.26 -11.77 -0.09
11.26 -11.30 -0.10
11.27 -10.87 -0.10
11.33 -10.50 -0.11
11.38 -10.13 -0.12
11.41 -9.76 -0.12
11.44 -9.39 -0.13
11.47 -9.04 -0.13
11.54 -8.72 -0.14
11.61 -8.41 -0.14
11.68 -8.11 -0.15
11.76 -7.82 -0.15
11.83 -7.53 -0.15
11.90 -7.24 -0.16
11.96 -6.96 -0.16
12.00 -6.66 -0.16
12.08 -6.39 -0.17
12.23 -6.16 -0.17
12.37 -5.92 -0.18
12.52 -5.69 -0.18
12.69 -5.46 -0.18
12.86 -5.23 -0.19
12.92 -4.95 -0.19
13.10 -4.72 -0.19
13.27 -4.49 -0.20
13.45 -4.25 -0.20
13.63 -4.01 -0.21
13.71 -3.73 -0.21
13.77 -3.45 -0.21
13.84 -3.18 -0.21
13.22 -2.76 -0.20
13.14 -2.47 -0.20
13.24 -2.21 -0.20
13.29 -1.95 -0.20
13.33 -1.68 -0.20
13.38 -1.41 -0.20
14.02 -1.20 -0.21
14.71 -0.96 -0.22
15.49 -0.70 -0.23
15.54 -0.39 -0.23
15.57 -0.08 -0.23
16.11 0.24 -0.23
16.34 0.58 -0.23
16.50 0.91 -0.23
16.53 1.25 -0.23
16.79 1.61 -0.23
17.51 2.03 -0.24
17.95 2.45 -0.24
18.25 2.86 -0.24
18.36 3.26 -0.24
18.46 3.66 -0.24
20.65 4.53 -0.26
20.74 4.98 -0.26
23.31 6.10 -0.28
24.36 6.90 -0.29
24.88 7.59 -0.29
25.30 8.28 -0.28
25.38 8.87 -0.27
27.28 10.15 -0.29
27.46 10.85 -0.28
27.64 11.57 -0.27
27.96 12.37 -0.26
28.10 13.11 -0.25
28.20 13.85 -0.24
29.72 15.34 -0.24
29.78 16.14 -0.22
30.26 17.19 -0.21
30.65 18.24 -0.20
30.50 18.99 -0.18
30.36 19.76 -0.16
30.19 20.52 -0.14
30.09 21.35 -0.12
30.31 22.43 -0.10
30.13 23.25 -0.08
29.94 24.07 -0.06
29.84 24.99 -0.03
29.74 25.94 -0.01
29.67 26.95 0.02
29.60 27.99 0.05
29.54 29.07 0.08
29.52 30.25 0.11
29.65 31.63 0.14
29.59 32.85 0.17
29.28 33.86 0.21
28.99 34.90 0.24
28.70 36.00 0.28
28.25 36.93 0.32
27.66 37.71 0.36
27.07 38.49 0.39
27.14 40.29 0.44
8.99 38.06 0.94
4.88 22.71 0.58
8.45 43.55 1.14
-2.18 44.49 1.61
-8.15 47.65 1.99
-8.55 44.61 1.91
-9.35 44.00 1.92
-9.53 40.77 1.83
-10.17 39.88 1.83
-9.23 33.40 1.57
-9.41 31.58 1.52
-9.60 30.00 1.47
-9.78 28.57 1.44
-10.33 28.31 1.46
-10.95 28.24 1.49
-11.49 27.95 1.51
-11.50 26.44 1.46
-10.39 22.64 1.28
-10.40 21.50 1.24
-10.48 20.60 1.22
-10.65 19.94 1.21
-10.86 19.38 1.20
-10.94 18.64 1.19
-11.07 18.02 1.17
-11.19 17.43 1.16
-11.28 16.81 1.15
-11.43 16.31 1.15
-11.58 15.85 1.14
-11.72 15.38 1.14
-11.85 14.92 1.13
-12.06 14.57 1.13
-12.26 14.22 1.14
-12.44 13.86 1.14
-12.54 13.42 1.13
-12.59 12.94 1.12
-12.64 12.48 1.11
-12.69 12.03 1.11
-12.73 11.60 1.10
-12.79 11.18 1.09
-12.84 10.79 1.08
-12.90 10.40 1.08
-12.95 10.02 1.07
-13.00 9.64 1.07
-13.07 9.30 1.07
-13.18 8.98 1.07
-13.29 8.67 1.07
-13.39 8.35 1.07
-13.47 8.03 1.07
-13.51 7.69 1.06
-13.56 7.36 1.06
-13.64 7.06 1.06
-5.63 2.77 0.43
-13.81 6.45 1.06
-14.03 6.22 1.07
-14.32 6.00 1.08
-14.61 5.78 1.10
-14.91 5.55 1.12
-14.84 5.19 1.11
-14.72 4.82 1.09
-14.60 4.46 1.08
-14.48 4.10 1.07
-14.36 3.76 1.05
-14.26 3.43 1.04
-14.24 3.12 1.04
-14.22 2.82 1.03
-14.20 2.52 1.03
-14.18 2.22 1.02
-14.15 1.93 1.02
-14.12 1.64 1.01
-14.07 1.34 1.01
-13.90 1.04 0.99
-13.73 0.75 0.98
-13.56 0.47 0.97
-13.40 0.20 0.95
-13.24 -0.07 0.94
-13.09 -0.33 0.93
-12.94 -0.59 0.92
-12.85 -0.85 0.91
-12.87 -1.11 0.91
-12.88 -1.37 0.91
-12.88 -1.63 0.91
-12.87 -1.90 0.91
-12.85 -2.16 0.90
-12.84 -2.42 0.90
-12.83 -2.69 0.90
-12.83 -2.96 0.90
-12.85 -3.24 0.90
-12.87 -3.52 0.91
-12.89 -3.80 0.91
-12.91 -4.09 0.91
-12.93 -4.39 0.91
-12.95 -4.69 0.91
-12.96 -4.99 0.92
-12.97 -5.29 0.92
-12.98 -5.60 0.92
-13.01 -5.93 0.92
-13.07 -6.28 0.93
-13.13 -6.64 0.94
-13.19 -7.00 0.94
-13.24 -7.37 0.95
-13.29 -7.76 0.96
-13.36 -8.16 0.97
-13.44 -8.58 0.97
-13.50 -9.01 0.98
-13.56 -9.45 0.99
-13.71 -9.97 1.01
-13.91 -10.55 1.03
-14.02 -11.09 1.04
-14.36 -11.83 1.07
-14.80 -12.70 1.11
-14.95 -13.36 1.13
-15.13 -14.07 1.15
-15.22 -14.74 1.16
-15.27 -15.40 1.17
-15.32 -16.08 1.19
-15.35 -16.77 1.20
-15.43 -17.56 1.22
-15.53 -18.40 1.24
-15.71 -19.39 1.26
-15.93 -20.49 1.29
-16.16 -21.67 1.33
-16.38 -22.91 1.36
-16.55 -24.16 1.39
-16.71 -25.48 1.42
-12.41 -33.00 1.33
-13.13 -39.67 1.51
-13.59 -43.99 1.62
-13.61 -47.39 1.70
-3.80 -48.01 1.24
2.78 -44.57 1.89
3.25 -39.34 1.63
3.63 -35.30 1.44
4.01 -32.61 1.31
12.71 -21.04 0.58
11.65 -18.45 0.50
11.15 -16.89 0.45
11.06 -16.05 0.42
10.95 -15.23 0.39
10.93 -14.57 0.37
10.94 -13.99 0.35
10.94 -13.43 0.33
10.95 -12.90 0.32
11.00 -12.44 0.30
11.04 -12.00 0.29
11.04 -11.53 0.27
11.04 -11.07 0.26
11.09 -10.68 0.24
11.15 -10.32 0.23
11.20 -9.96 0.22
11.24 -9.59 0.21
11.27 -9.24 0.20
11.31 -8.90 0.19
11.38 -8.59 0.19
11.46 -8.29 0.18
11.53 -8.00 0.17
11.60 -7.71 0.17
11.67 -7.42 0.16
11.74 -7.14 0.15
11.80 -6.85 0.15
11.83 -6.56 0.14
11.88 -6.28 0.14
12.03 -6.05 0.13
12.17 -5.82 0.13
12.31 -5.59 0.13
12.46 -5.36 0.12
12.60 -5.12 0.12
12.75 -4.89 0.12
12.92 -4.66 0.12
13.09 -4.42 0.12
13.27 -4.19 0.11
13.45 -3.95 0.11
13.57 -3.69 0.11
13.63 -3.42 0.11
13.60 -3.12 0.11
13.09 -2.73 0.10
12.91 -2.42 0.10
12.95 -2.16 0.10
13.11 -1.92 0.10
13.19 -1.66 0.10
13.26 -1.40 0.10
13.58 -1.16 0.10
13.81 -0.90 0.11
15.33 -0.69 0.12
15.53 -0.39 0.12
15.73 -0.08 0.13
15.94 0.24 0.13
16.16 0.57 0.13
16.33 0.90 0.14
15.54 1.17 0.13
15.73 1.50 0.14
17.08 1.98 0.15
17.64 2.40 0.16
17.99 2.82 0.17
18.09 3.21 0.18
18.20 3.60 0.18
19.88 4.35 0.21
20.30 4.87 0.22
20.38 5.32 0.23
20.46 5.79 0.24
24.09 7.34 0.29
24.59 8.03 0.31
24.78 8.65 0.32
24.85 9.23 0.34
26.27 10.37 0.37
26.43 11.05 0.39
26.59 11.75 0.41
26.93 12.54 0.43
27.38 13.43 0.45
27.48 14.17 0.48
29.22 15.82 0.53
29.51 16.75 0.56
30.01 17.84 0.59
30.10 18.71 0.62
29.98 19.48 0.65
29.82 20.24 0.67
29.64 21.00 0.70
29.46 21.77 0.73
29.38 22.64 0.76
29.16 23.42 0.79
28.92 24.19 0.82
28.83 25.11 0.85
28.69 26.02 0.89
28.58 26.98 0.93
28.48 27.99 0.97
28.34 28.99 1.01
28.17 30.00 1.06
28.09 31.14 1.11
27.83 32.12 1.15
27.32 32.84 1.19
26.76 33.51 1.23
26.20 34.20 1.26
25.98 35.36 1.32
25.69 36.47 1.38
25.38 37.62 1.44
25.20 39.01 1.51
25.02 40.48 1.58
24.79 41.96 1.66
24.12 42.77 1.71
23.45 43.60 1.76
22.75 44.42 1.82
9.01 27.85 1.26
8.34 27.64 1.27
8.06 28.79 1.34
8.22 31.83 1.50
7.69 32.43 1.55
4.90 22.68 1.10
8.22 42.13 2.07
8.35 47.89 2.39
7.26 47.22 2.39
6.47 48.56 2.49
5.41 47.86 2.49
4.37 47.17 2.49
3.37 46.48 2.49
2.40 45.80 2.49
1.46 45.12 2.49
0.54 44.45 2.49
-0.34 43.78 2.49
-1.20 43.12 2.49
-2.01 41.82 2.46
-2.73 40.07 2.39
-3.49 39.45 2.39
-4.22 38.82 2.39
-4.93 38.21 2.39
-5.62 37.59 2.39
-6.29 36.99 2.39
-7.06 37.02 2.43
-7.59 35.86 2.40
-8.04 34.54 2.35
-8.43 33.21 2.29
-8.74 31.71 2.23
-8.95 30.12 2.15
-9.16 28.69 2.09
-9.47 27.74 2.06
-10.07 27.66 2.09
-10.59 27.37 2.10
-10.37 25.29 1.98
-9.90 22.81 1.82
-10.00 21.84 1.78
-10.06 20.85 1.73
-10.15 20.00 1.69
-10.36 19.43 1.68
-10.46 18.70 1.64
-10.55 18.01 1.62
-10.69 17.43 1.60
-10.78 16.82 1.57
-10.87 16.23 1.55
-11.03 15.78 1.54
-11.17 15.31 1.53
-11.25 14.78 1.51
-11.39 14.35 1.50
-11.59 14.02 1.50
-11.79 13.70 1.50
-11.96 13.34 1.50
-12.03 12.88 1.49
-12.09 12.44 1.47
-12.15 12.01 1.46
-12.21 11.59 1.45
-12.28 11.20 1.44
-12.36 10.82 1.43
-12.43 10.45 1.42
-12.50 10.09 1.41
-12.57 9.73 1.40
-12.65 9.39 1.40
-12.76 9.08 1.39
-12.87 8.77 1.39
-12.97 8.47 1.39
-13.08 8.16 1.39
-13.18 7.86 1.39
-13.22 7.53 1.38
-13.29 7.22 1.38
-13.38 6.92 1.38
-5.63 2.77 0.58
-13.54 6.33 1.38
-13.66 6.05 1.38
-13.93 5.84 1.40
-14.21 5.63 1.42
-14.39 5.36 1.43
-14.42 5.05 1.42
-14.39 4.71 1.41
-14.27 4.36 1.39
-14.16 4.02 1.38
-14.05 3.68 1.36
-13.97 3.36 1.35
-13.95 3.06 1.34
-13.93 2.76 1.33
-13.91 2.47 1.33
-13.89 2.18 1.32
-13.87 1.89 1.32
-13.85 1.60 1.31
-13.80 1.32 1.30
-13.63 1.02 1.28
-13.47 0.74 1.27
-13.31 0.46 1.25
-13.15 0.19 1.23
-13.00 -0.07 1.22
-12.85 -0.33 1.20
-12.71 -0.58 1.19
-12.60 -0.83 1.18
-12.62 -1.09 1.18
-12.63 -1.35 1.18
-12.65 -1.61 1.18
-12.65 -1.87 1.18
-12.63 -2.13 1.18
-12.62 -2.39 1.18
-12.61 -2.65 1.18
-12.60 -2.91 1.18
-12.62 -3.18 1.18
-12.64 -3.46 1.19
-12.65 -3.74 1.19
-12.67 -4.02 1.19
-12.69 -4.31 1.20
-12.71 -4.61 1.20
-12.72 -4.90 1.21
-12.73 -5.20 1.21
-12.73 -5.51 1.22
-12.74 -5.82 1.22
-12.75 -6.13 1.23
-12.81 -6.48 1.24
-12.87 -6.84 1.25
-12.91 -7.20 1.26
-12.96 -7.57 1.27
-13.00 -7.95 1.28
-13.06 -8.36 1.30
-13.13 -8.78 1.31
-13.18 -9.20 1.33
-13.23 -9.63 1.34
-13.31 -10.11 1.36
-13.50 -10.69 1.39
-13.57 -11.20 1.41
-13.59 -11.68 1.42
-13.98 -12.51 1.48
-14.18 -13.21 1.51
-14.40 -13.96 1.55
-14.67 -14.82 1.60
-14.70 -15.45 1.62
-14.71 -16.09 1.64
-14.71 -16.76 1.66
-14.75 -17.50 1.69
-14.84 -18.34 1.73
-14.90 -19.20 1.76
-15.28 -20.53 1.83
-15.48 -21.69 1.89
-15.68 -22.93 1.95
-15.82 -24.16 2.00
-15.94 -25.44 2.06
-15.90 -26.55 2.10
-15.21 -26.60 2.05
-14.53 -26.64 2.01
-13.88 -26.70 1.97
-13.26 -26.82 1.93
-12.69 -27.02 1.90
-11.81 -26.50 1.82
-11.97 -28.39 1.91
-12.15 -30.52 2.01
-12.36 -32.96 2.12
-12.60 -35.77 2.26
-12.77 -38.70 2.39
-12.17 -39.52 2.39
-8.52 -29.79 1.76
-8.52 -32.22 1.87
-10.23 -42.06 2.39
-9.53 -42.93 2.39
-9.19 -45.70 2.49
-8.40 -46.63 2.49
-7.59 -47.57 2.49
-6.75 -48.53 2.49
-5.88 -49.50 2.49
-4.55 -46.24 2.28
-0.68 -38.15 1.74
0.10 -30.42 2.05
0.83 -35.90 2.39
1.57 -36.34 2.39
2.33 -36.78 2.39
3.11 -37.21 2.39
3.62 -34.87 2.21
3.91 -31.50 1.98
4.03 -27.88 1.73
4.26 -25.81 1.59
11.37 -18.80 1.01
10.85 -17.14 0.92
10.80 -16.33 0.88
10.71 -15.51 0.83
9.24 -12.82 0.69
9.53 -12.69 0.68
10.68 -13.64 0.73
10.69 -13.10 0.71
10.73 -12.63 0.68
10.78 -12.18 0.66
10.82 -11.75 0.64
10.83 -11.29 0.62
10.85 -10.87 0.60
10.91 -10.50 0.58
10.97 -10.14 0.57
11.03 -9.79 0.55
11.06 -9.44 0.54
11.10 -9.09 0.52
11.16 -8.77 0.51
11.23 -8.47 0.50
11.30 -8.17 0.49
11.37 -7.88 0.48
11.45 -7.60 0.47
11.52 -7.32 0.46
11.59 -7.04 0.46
11.64 -6.75 0.45
11.67 -6.47 0.44
11.71 -6.18 0.43
11.83 -5.95 0.43
11.97 -5.72 0.43
12.11 -5.49 0.42
12.25 -5.26 0.42
12.40 -5.03 0.42
12.48 -4.78 0.42
12.75 -4.59 0.42
12.92 -4.36 0.42
13.09 -4.13 0.42
13.27 -3.89 0.42
13.42 -3.65 0.42
13.49 -3.38 0.42
13.51 -3.10 0.42
13.30 -2.77 0.41
12.97 -2.43 0.40
12.88 -2.15 0.39
12.90 -1.89 0.39
12.94 -1.63 0.39
13.06 -1.38 0.40
13.57 -1.16 0.41
13.71 -0.90 0.42
14.02 -0.63 0.43
15.37 -0.39 0.47
15.57 -0.08 0.47
15.77 0.23 0.48
15.58 0.54 0.48
15.29 0.84 0.47
15.43 1.16 0.48
15.49 1.48 0.49
16.30 1.88 0.52
17.36 2.36 0.56
17.74 2.77 0.57
17.84 3.16 0.58
17.94 3.55 0.59
18.04 3.94 0.60
19.88 4.76 0.68
19.96 5.21 0.69
20.03 5.66 0.70
20.10 6.11 0.72
22.34 7.29 0.81
22.46 7.83 0.83
24.27 9.01 0.91
24.33 9.59 0.93
24.81 10.35 0.97
24.90 10.98 0.99
25.01 11.64 1.02
25.41 12.45 1.06
26.49 13.64 1.13
26.95 14.57 1.18
28.85 16.35 1.29
29.24 17.35 1.34
29.55 18.35 1.39
29.55 19.17 1.43
29.46 19.97 1.47
29.28 20.72 1.50
29.04 21.43 1.53
28.68 22.06 1.55
28.37 22.75 1.58
28.07 23.45 1.62
27.81 24.19 1.65
27.71 25.09 1.70
27.63 26.05 1.75
27.36 26.85 1.80
26.93 27.51 1.83
26.49 28.17 1.87
26.02 28.80 1.90
25.66 29.57 1.95
25.44 30.54 2.00
25.25 31.57 2.07
25.03 32.62 2.13
24.90 33.82 2.21
24.74 35.06 2.29
24.59 36.37 2.38
24.18 37.36 2.45
23.52 37.98 2.49
22.85 38.60 2.54
22.16 39.21 2.58
21.46 39.81 2.63
20.75 40.42 2.68
20.01 40.98 2.73
19.29 41.59 2.78
18.59 42.28 2.84
8.00 19.23 1.30
6.99 17.80 1.21
6.60 17.85 1.22
6.33 18.25 1.25
6.30 19.41 1.34
8.09 26.73 1.86
7.64 27.20 1.90
7.26 28.00 1.98
7.58 31.83 2.26
4.91 22.63 1.62
6.49 33.09 2.39
5.75 32.81 2.39
5.25 33.93 2.49
4.52 33.63 2.49
3.80 33.31 2.49
3.09 33.00 2.49
2.40 32.68 2.49
1.73 32.35 2.49
1.06 32.02 2.49
0.42 31.68 2.49
-0.22 31.34 2.49
-0.84 30.99 2.49
-1.44 30.64 2.49
-2.04 30.29 2.49
-2.62 29.93 2.49
-3.12 28.96 2.44
-3.58 28.00 2.39
-4.11 27.65 2.39
-4.61 27.29 2.39
-5.11 26.94 2.39
-5.60 26.58 2.39
-6.08 26.22 2.39
-6.54 25.85 2.39
-7.00 25.49 2.39
-7.44 25.12 2.39
-7.95 24.98 2.41
-8.29 24.35 2.39
-8.65 23.82 2.37
-8.99 23.30 2.36
-9.30 22.72 2.33
-9.53 22.02 2.30
-9.64 21.11 2.24
-9.75 20.25 2.19
-9.85 19.45 2.14
-9.98 18.75 2.10
-10.08 18.06 2.06
-10.19 17.43 2.02
-10.30 16.83 1.99
-10.40 16.24 1.96
-10.50 15.70 1.93
-10.65 15.24 1.91
-10.73 14.73 1.88
-10.81 14.23 1.86
-10.95 13.83 1.85
-11.15 13.51 1.84
-11.28 13.12 1.83
-11.36 12.68 1.81
-11.43 12.26 1.79
-11.50 11.84 1.78
-11.57 11.44 1.76
-11.65 11.07 1.74
-11.73 10.70 1.73
-11.81 10.35 1.72
-11.88 10.00 1.71
-11.96 9.66 1.70
-12.03 9.32 1.69
-12.08 8.98 1.68
-12.20 8.69 1.67
-12.39 8.46 1.68
-12.58 8.22 1.69
-12.77 7.98 1.70
-12.87 7.69 1.70
-12.95 7.39 1.69
-13.03 7.09 1.69
-13.12 6.79 1.69
-5.63 2.77 0.72
-13.28 6.21 1.68
-13.35 5.92 1.68
-13.56 5.69 1.70
-13.83 5.48 1.72
-13.89 5.18 1.72
-13.92 4.88 1.71
-13.95 4.57 1.70
-13.96 4.27 1.70
-13.86 3.93 1.68
-13.75 3.60 1.66
-13.68 3.29 1.64
-13.67 3.00 1.63
-13.65 2.71 1.62
-13.64 2.42 1.62
-13.62 2.14 1.61
-13.60 1.85 1.60
-13.59 1.57 1.60
-13.53 1.29 1.59
-13.37 1.00 1.57
-13.22 0.72 1.54
-13.06 0.45 1.52
-12.92 0.19 1.50
-12.77 -0.07 1.49
-12.63 -0.33 1.47
-12.49 -0.58 1.45
-12.37 -0.82 1.44
-12.38 -1.07 1.44
-12.39 -1.32 1.44
-12.41 -1.58 1.44
-12.42 -1.84 1.44
-12.42 -2.09 1.45
-12.41 -2.35 1.45
-12.39 -2.61 1.45
-12.38 -2.87 1.45
-12.40 -3.13 1.45
-12.41 -3.40 1.46
-12.43 -3.68 1.46
-12.44 -3.96 1.47
-12.45 -4.24 1.48
-12.47 -4.53 1.48
-12.49 -4.82 1.49
-12.49 -5.11 1.50
-12.50 -5.41 1.50
-12.50 -5.71 1.51
-12.50 -6.02 1.52
-12.50 -6.34 1.53
-12.55 -6.68 1.54
-12.60 -7.04 1.56
-12.64 -7.40 1.57
-12.68 -7.77 1.59
-12.72 -8.15 1.61
-12.77 -8.55 1.63
-12.82 -8.96 1.65
-12.86 -9.38 1.67
-12.90 -9.81 1.69
-12.94 -10.26 1.71
-13.10 -10.82 1.75
-13.14 -11.30 1.77
-13.15 -11.78 1.79
-13.16 -12.28 1.81
-13.47 -13.08 1.88
-13.46 -13.62 1.90
-13.47 -14.18 1.93
-13.68 -15.00 1.99
-13.66 -15.59 2.02
-13.64 -16.22 2.05
-13.62 -16.87 2.08
-13.59 -17.54 2.11
-13.55 -18.24 2.14
-13.56 -19.04 2.19
-13.50 -19.77 2.22
-13.42 -20.54 2.26
-13.40 -21.43 2.30
-13.27 -22.20 2.34
-13.03 -22.83 2.36
-12.78 -23.49 2.37
-12.53 -24.17 2.39
-12.25 -24.83 2.41
-11.75 -25.07 2.39
-11.35 -25.55 2.39
-10.94 -26.02 2.39
-10.52 -26.50 2.39
-10.09 -26.98 2.39
-9.65 -27.46 2.39
-9.19 -27.94 2.39
-8.72 -28.42 2.39
-8.24 -28.90 2.39
-8.07 -30.64 2.49
-7.54 -31.14 2.49
-6.99 -31.64 2.49
-6.43 -32.13 2.49
-5.85 -32.63 2.49
-5.25 -33.12 2.49
-4.64 -33.61 2.49
-4.01 -34.10 2.49
-3.37 -34.59 2.49
-2.71 -35.07 2.49
-2.03 -35.56 2.49
-1.33 -36.04 2.49
-0.60 -35.59 2.43
0.11 -27.28 2.46
0.65 -26.79 2.39
1.19 -27.03 2.39
1.75 -27.26 2.39
2.32 -27.49 2.39
2.90 -27.71 2.39
3.49 -27.92 2.39
4.04 -27.77 2.36
4.25 -25.65 2.16
4.41 -23.63 1.98
4.48 -21.60 1.80
4.60 -20.16 1.67
4.80 -19.25 1.59
10.94 -18.89 1.52
10.65 -17.57 1.41
10.48 -16.54 1.33
10.46 -15.80 1.28
10.38 -15.01 1.22
9.22 -12.78 1.04
9.38 -12.47 1.02
9.72 -12.40 1.02
10.46 -12.80 1.06
10.51 -12.36 1.03
10.57 -11.92 1.01
10.61 -11.51 0.98
10.62 -11.06 0.95
10.67 -10.68 0.93
10.73 -10.32 0.91
10.80 -9.97 0.89
10.86 -9.63 0.87
10.90 -9.28 0.85
10.93 -8.94 0.83
11.01 -8.64 0.82
11.08 -8.35 0.81
11.15 -8.06 0.80
11.23 -7.77 0.78
11.30 -7.49 0.77
11.37 -7.22 0.76
11.44 -6.94 0.75
11.48 -6.66 0.74
11.52 -6.38 0.73
11.55 -6.10 0.72
11.64 -5.85 0.72
11.78 -5.63 0.71
11.92 -5.40 0.71
12.06 -5.18 0.71
12.20 -4.95 0.71
12.24 -4.68 0.71
12.45 -4.48 0.71
12.75 -4.30 0.72
12.92 -4.07 0.72
13.09 -3.84 0.73
13.26 -3.60 0.73
13.35 -3.34 0.73
13.41 -3.07 0.73
13.32 -2.78 0.72
13.20 -2.48 0.71
12.96 -2.16 0.69
13.01 -1.90 0.69
12.95 -1.63 0.69
13.09 -1.38 0.69
13.55 -1.16 0.72
13.72 -0.90 0.73
14.61 -0.66 0.77
15.22 -0.39 0.81
15.41 -0.08 0.82
15.61 0.23 0.83
15.44 0.54 0.82
15.19 0.83 0.81
15.16 1.14 0.82
15.29 1.45 0.83
16.10 1.86 0.88
16.57 2.25 0.91
17.48 2.73 0.96
17.59 3.11 0.98
17.69 3.49 0.99
17.78 3.88 1.01
17.88 4.28 1.02
19.46 5.07 1.12
19.57 5.52 1.14
19.68 5.98 1.16
19.75 6.43 1.18
20.10 7.00 1.22
20.21 7.49 1.25
20.31 7.99 1.27
21.77 9.07 1.38
21.81 9.61 1.41
21.85 10.15 1.43
22.01 10.77 1.47
23.53 12.10 1.60
24.80 13.39 1.72
25.77 14.58 1.82
27.54 16.32 1.99
28.97 17.96 2.13
29.01 18.80 2.18
28.95 19.60 2.23
28.78 20.33 2.27
28.47 20.98 2.30
28.11 21.60 2.32
27.76 22.22 2.35
27.45 22.90 2.39
27.09 23.53 2.42
26.66 24.10 2.45
26.27 24.72 2.48
25.93 25.41 2.52
25.59 26.10 2.56
25.17 26.71 2.60
24.88 27.49 2.65
24.52 28.20 2.70
24.24 29.04 2.76
24.16 30.15 2.85
23.98 31.18 2.93
23.44 31.78 2.97
22.80 32.24 3.00
22.07 32.59 3.02
21.20 32.69 3.02
20.33 32.77 3.02
19.48 32.84 3.02
18.63 32.89 3.02
17.78 32.92 3.02
16.95 32.94 3.02
16.12 32.94 3.02
15.31 32.92 3.02
7.39 16.78 1.54
7.04 16.89 1.55
6.92 17.57 1.62
6.53 17.61 1.63
6.29 18.08 1.67
6.16 18.91 1.76
5.83 19.19 1.79
7.20 25.54 2.39
6.62 25.43 2.39
6.06 25.32 2.39
4.93 22.62 2.14
4.94 25.07 2.39
4.59 26.01 2.49
4.03 25.86 2.49
3.48 25.70 2.49
2.93 25.53 2.49
2.40 25.35 2.49
1.87 25.17 2.49
1.36 24.99 2.49
0.85 24.79 2.49
0.35 24.59 2.49
-0.14 24.38 2.49
-0.63 24.17 2.49
-1.10 23.95 2.49
-1.57 23.73 2.49
-2.03 23.50 2.49
-2.48 23.27 2.49
-2.93 23.03 2.49
-3.36 22.79 2.49
-3.71 22.07 2.44
-4.04 21.37 2.39
-4.43 21.13 2.39
-4.82 20.88 2.39
-5.20 20.63 2.39
-5.57 20.37 2.39
-5.94 20.11 2.39
-6.30 19.85 2.39
-6.65 19.59 2.39
-6.99 19.32 2.39
-7.33 19.05 2.39
-7.66 18.77 2.39
-7.99 18.50 2.39
-8.43 18.49 2.43
-8.67 18.03 2.40
-8.89 17.59 2.38
-9.11 17.16 2.36
-9.32 16.74 2.34
-9.55 16.35 2.33
-9.76 15.98 2.31
-9.97 15.61 2.30
-10.13 15.18 2.28
-10.23 14.67 2.25
-10.32 14.18 2.21
-10.40 13.71 2.18
-10.55 13.34 2.17
-10.64 12.91 2.14
-10.73 12.49 2.12
-10.81 12.08 2.10
-10.88 11.69 2.07
-10.96 11.30 2.05
-11.05 10.95 2.04
-11.14 10.59 2.02
-11.22 10.25 2.01
-11.30 9.92 1.99
-11.38 9.59 1.98
-11.45 9.26 1.96
-11.51 8.93 1.95
-11.57 8.61 1.94
-11.62 8.29 1.92
-11.78 8.05 1.93
-11.96 7.82 1.94
-12.14 7.60 1.95
-12.33 7.37 1.96
-12.38 7.07 1.95
-12.53 6.82 1.95
-12.80 6.63 1.98
-5.63 2.78 0.86
-13.02 6.10 1.98
-13.10 5.82 1.98
-13.21 5.55 1.98
-13.39 5.31 1.99
-13.42 5.01 1.99
-13.45 4.72 1.98
-13.49 4.42 1.97
-13.52 4.13 1.97
-13.55 3.85 1.96
-13.47 3.53 1.94
-13.41 3.23 1.92
-13.40 2.94 1.91
-13.39 2.66 1.91
-13.37 2.37 1.90
-13.36 2.09 1.89
-13.34 1.82 1.88
-13.32 1.54 1.87
-13.26 1.26 1.86
-13.13 0.98 1.84
-12.98 0.71 1.81
-12.83 0.44 1.79
-12.69 0.18 1.77
-12.54 -0.07 1.75
-12.41 -0.32 1.73
-12.27 -0.57 1.71
-12.14 -0.81 1.69
-12.15 -1.05 1.69
-12.16 -1.30 1.69
-12.17 -1.55 1.70
-12.18 -1.80 1.70
-12.20 -2.06 1.70
-12.20 -2.31 1.71
-12.19 -2.57 1.71
-12.17 -2.82 1.71
-12.18 -3.08 1.72
-12.20 -3.35 1.72
-12.21 -3.62 1.73
-12.22 -3.89 1.74
-12.23 -4.17 1.75
-12.24 -4.45 1.75
-12.26 -4.74 1.76
-12.27 -5.03 1.77
-12.27 -5.32 1.78
-12.27 -5.62 1.79
-12.27 -5.92 1.80
-12.27 -6.23 1.81
-12.27 -6.54 1.83
-12.30 -6.88 1.84
-12.33 -7.23 1.86
-12.37 -7.59 1.88
-12.40 -7.95 1.90
-12.44 -8.33 1.93
-12.47 -8.73 1.95
-12.52 -9.14 1.98
-12.55 -9.56 2.00
-12.58 -9.99 2.03
-12.61 -10.43 2.06
-12.70 -10.95 2.10
-12.71 -11.41 2.12
-12.71 -11.88 2.15
-12.71 -12.37 2.18
-12.76 -12.92 2.22
-12.78 -13.47 2.26
-12.76 -14.01 2.29
-12.74 -14.57 2.32
-12.71 -15.14 2.36
-12.55 -15.57 2.37
-12.39 -16.01 2.39
-12.21 -16.46 2.40
-12.03 -16.92 2.41
-11.84 -17.38 2.43
-11.65 -17.86 2.45
-11.10 -17.79 2.39
-10.82 -18.14 2.39
-10.53 -18.49 2.39
-10.23 -18.83 2.39
-9.92 -19.17 2.39
-9.61 -19.52 2.39
-9.28 -19.85 2.39
-8.95 -20.19 2.39
-8.61 -20.53 2.39
-8.26 -20.86 2.39
-7.90 -21.19 2.39
-7.54 -21.52 2.39
-7.47 -22.79 2.49
-7.07 -23.13 2.49
-6.66 -23.46 2.49
-6.24 -23.79 2.49
-5.81 -24.12 2.49
-5.38 -24.44 2.49
-4.93 -24.76 2.49
-4.47 -25.07 2.49
-4.00 -25.39 2.49
-3.52 -25.69 2.49
-3.03 -25.99 2.49
-2.54 -26.29 2.49
-2.03 -26.58 2.49
-1.51 -26.87 2.49
-0.98 -27.14 2.49
-0.44 -27.42 2.49
0.11 -22.10 2.49
0.56 -22.13 2.48
0.97 -21.50 2.39
1.41 -21.64 2.39
1.86 -21.78 2.39
2.31 -21.91 2.39
2.77 -22.03 2.39
3.24 -22.14 2.39
3.71 -22.25 2.39
4.19 -22.34 2.39
4.48 -21.52 2.29
4.61 -20.10 2.13
4.71 -18.81 1.99
4.82 -17.74 1.87
4.91 -16.74 1.76
5.00 -15.87 1.67
5.10 -15.11 1.59
14.43 -33.62 3.53
14.49 -31.97 3.36
14.58 -30.53 3.21
14.81 -29.47 3.11
11.62 -22.02 2.33
10.35 -18.69 1.98
10.45 -18.01 1.92
10.16 -16.74 1.79
10.16 -16.00 1.72
10.14 -15.28 1.65
10.12 -14.62 1.59
9.27 -12.83 1.41
9.32 -12.37 1.37
9.56 -12.18 1.36
9.96 -12.17 1.37
10.31 -12.10 1.37
10.36 -11.68 1.34
10.41 -11.27 1.31
10.44 -10.86 1.28
10.50 -10.50 1.25
10.57 -10.15 1.23
10.63 -9.81 1.20
10.69 -9.47 1.18
10.73 -9.14 1.16
10.78 -8.81 1.14
10.86 -8.52 1.12
10.94 -8.23 1.11
11.01 -7.95 1.09
11.08 -7.67 1.08
11.15 -7.39 1.07
11.22 -7.12 1.05
11.29 -6.85 1.04
11.33 -6.56 1.03
11.36 -6.29 1.02
11.40 -6.01 1.00
11.46 -5.75 1.00
11.59 -5.53 0.99
11.73 -5.31 0.99
11.87 -5.09 0.99
11.97 -4.86 0.99
12.01 -4.59 0.98
12.05 -4.34 0.98
12.41 -4.18 1.00
12.75 -4.02 1.01
12.92 -3.79 1.02
13.08 -3.56 1.03
13.21 -3.31 1.03
13.27 -3.04 1.03
13.34 -2.78 1.03
13.34 -2.50 1.02
13.11 -2.19 1.00
13.21 -1.93 1.01
13.16 -1.66 1.00
13.19 -1.40 1.00
13.41 -1.15 1.01
14.33 -0.94 1.08
14.36 -0.65 1.08
14.73 -0.37 1.11
14.58 -0.08 1.10
14.43 0.21 1.09
14.53 0.50 1.10
15.42 0.84 1.18
15.34 1.15 1.17
15.42 1.46 1.18
15.94 1.83 1.23
15.96 2.16 1.24
16.85 2.62 1.31
17.25 3.04 1.36
17.44 3.44 1.38
17.53 3.82 1.40
17.63 4.21 1.42
18.38 4.78 1.49
18.56 5.23 1.52
18.74 5.68 1.55
18.83 6.12 1.58
18.93 6.58 1.60
19.20 7.10 1.65
19.30 7.58 1.68
19.34 8.05 1.70
19.39 8.53 1.73
19.44 9.02 1.76
20.94 10.23 1.93
21.06 10.81 1.97
21.45 11.56 2.04
22.03 12.45 2.13
24.10 14.27 2.37
25.02 15.49 2.51
25.92 16.78 2.65
27.08 18.30 2.82
27.14 19.14 2.89
27.19 20.01 2.96
26.96 20.68 3.00
26.46 21.15 3.01
25.95 21.61 3.02
25.35 21.98 3.02
24.72 22.32 3.02
24.09 22.64 3.02
23.46 22.95 3.02
22.82 23.24 3.02
22.19 23.51 3.02
21.55 23.77 3.02
20.91 24.01 3.02
20.27 24.24 3.02
19.62 24.45 3.02
18.98 24.65 3.02
15.92 21.55 2.62
17.70 24.99 3.02
17.06 25.14 3.02
12.50 19.24 2.30
7.50 12.07 1.44
7.32 12.32 1.46
14.53 25.61 3.02
13.91 25.69 3.02
13.28 25.76 3.02
12.66 25.81 3.02
7.70 16.52 1.93
7.29 16.50 1.93
6.93 16.58 1.93
6.89 17.45 2.04
6.52 17.54 2.05
6.28 17.97 2.10
6.04 18.47 2.16
5.81 19.07 2.23
5.70 20.13 2.36
5.32 20.34 2.39
4.87 20.29 2.39
4.43 20.23 2.39
4.17 21.03 2.49
3.72 20.95 2.49
3.27 20.87 2.49
2.83 20.77 2.49
2.40 20.67 2.49
1.97 20.57 2.49
1.54 20.45 2.49
1.12 20.33 2.49
0.71 20.21 2.49
0.30 20.08 2.49
-0.10 19.94 2.49
-0.50 19.80 2.49
-0.89 19.65 2.49
-1.27 19.49 2.49
-1.65 19.33 2.49
-2.03 19.17 2.49
-2.40 19.00 2.49
-2.76 18.82 2.49
-3.12 18.64 2.49
-3.47 18.46 2.49
-3.81 18.27 2.49
-4.08 17.76 2.45
-4.30 17.14 2.39
-4.62 16.95 2.39
-4.93 16.76 2.39
-5.24 16.56 2.39
-5.54 16.35 2.39
-5.83 16.15 2.39
-6.12 15.94 2.39
-6.40 15.73 2.39
-6.68 15.51 2.39
-6.96 15.29 2.39
-7.23 15.07 2.39
-7.49 14.85 2.39
-7.75 14.62 2.39
-8.00 14.39 2.39
-8.25 14.16 2.39
-8.68 14.22 2.44
-8.85 13.87 2.42
-9.04 13.56 2.41
-9.22 13.24 2.40
-9.40 12.94 2.39
-9.58 12.64 2.38
-9.74 12.33 2.36
-9.89 12.01 2.35
-10.03 11.70 2.34
-10.17 11.39 2.32
-10.31 11.09 2.31
-10.48 10.82 2.31
-10.58 10.49 2.29
-10.66 10.16 2.27
-10.75 9.83 2.26
-10.83 9.52 2.24
-10.91 9.20 2.22
-10.97 8.88 2.21
-11.03 8.57 2.19
-11.09 8.26 2.18
-11.15 7.96 2.16
-11.23 7.68 2.15
-11.40 7.46 2.16
-11.54 7.23 2.16
-11.60 6.94 2.15
-11.65 6.65 2.14
-11.70 6.37 2.13
-11.76 6.10 2.12
-5.63 2.78 1.01
-12.24 5.74 2.17
-12.49 5.55 2.20
-12.73 5.35 2.23
-12.82 5.09 2.23
-12.87 4.81 2.22
-12.93 4.53 2.22
-12.98 4.26 2.21
-13.02 3.98 2.21
-13.07 3.71 2.20
-13.11 3.44 2.20
-13.10 3.15 2.19
-13.03 2.86 2.17
-12.96 2.57 2.15
-12.89 2.29 2.13
-12.83 2.01 2.11
-12.76 1.74 2.10
-12.69 1.47 2.08
-12.64 1.20 2.07
-12.63 0.95 2.06
-12.63 0.69 2.06
-12.60 0.43 2.05
-12.46 0.18 2.02
-12.33 -0.07 2.00
-12.19 -0.32 1.98
-12.06 -0.56 1.96
-11.93 -0.80 1.94
-11.92 -1.04 1.93
-11.93 -1.28 1.94
-11.95 -1.53 1.94
-11.96 -1.77 1.95
-11.97 -2.02 1.95
-11.98 -2.28 1.96
-11.99 -2.53 1.96
-11.97 -2.78 1.96
-11.97 -3.04 1.97
-11.98 -3.30 1.98
-12.00 -3.56 1.99
-12.01 -3.83 2.00
-12.02 -4.10 2.01
-12.03 -4.38 2.02
-12.04 -4.66 2.03
-12.04 -4.94 2.04
-12.04 -5.23 2.05
-12.04 -5.52 2.07
-12.04 -5.82 2.08
-12.04 -6.12 2.09
-12.04 -6.43 2.11
-12.03 -6.74 2.12
-12.04 -7.07 2.14
-12.07 -7.41 2.16
-12.10 -7.77 2.19
-12.13 -8.14 2.21
-12.16 -8.52 2.24
-12.18 -8.91 2.27
-12.17 -9.28 2.29
-12.14 -9.66 2.31
-12.12 -10.04 2.34
-12.09 -10.44 2.36
-12.06 -10.84 2.39
-11.97 -11.20 2.40
-11.84 -11.53 2.41
-11.70 -11.87 2.42
-11.56 -12.21 2.43
-11.41 -12.55 2.44
-11.26 -12.90 2.45
-11.10 -13.24 2.46
-10.59 -13.16 2.39
-10.38 -13.44 2.39
-10.16 -13.72 2.39
-9.94 -14.00 2.39
-9.71 -14.28 2.39
-9.47 -14.55 2.39
-9.23 -14.83 2.39
-8.99 -15.10 2.39
-8.73 -15.37 2.39
-8.47 -15.64 2.39
-8.21 -15.90 2.39
-7.94 -16.16 2.39
-7.66 -16.42 2.39
-7.37 -16.68 2.39
-7.08 -16.94 2.39
-7.08 -17.93 2.49
-6.76 -18.19 2.49
-6.44 -18.44 2.49
-6.11 -18.69 2.49
-5.77 -18.94 2.49
-5.43 -19.19 2.49
-5.08 -19.43 2.49
-4.72 -19.66 2.49
-4.36 -19.90 2.49
-3.98 -20.12 2.49
-3.61 -20.35 2.49
-3.22 -20.56 2.49
-2.83 -20.78 2.49
-2.43 -20.98 2.49
-2.02 -21.18 2.49
-1.61 -21.38 2.49
-1.19 -21.57 2.49
-0.76 -21.76 2.49
-0.33 -21.93 2.49
0.11 -18.38 2.49
0.48 -18.49 2.49
0.86 -18.60 2.49
1.19 -17.92 2.39
1.56 -18.01 2.39
1.93 -18.10 2.39
2.31 -18.17 2.39
2.69 -18.24 2.39
3.07 -18.30 2.39
3.46 -18.36 2.39
3.85 -18.40 2.39
4.25 -18.44 2.39
4.65 -18.47 2.39
4.83 -17.69 2.29
4.92 -16.70 2.16
5.01 -15.83 2.04
5.08 -15.01 1.94
5.14 -14.24 1.84
5.20 -13.55 1.75
5.26 -12.92 1.67
5.31 -12.35 1.60
5.54 -12.19 1.59
5.88 -12.28 1.60
6.10 -12.11 1.59
6.38 -12.06 1.59
6.73 -12.12 1.60
6.96 -11.97 1.59
7.38 -12.14 1.62
7.82 -12.30 1.65
7.25 -10.91 1.48
7.40 -10.67 1.46
7.71 -10.66 1.47
7.01 -9.29 1.29
7.10 -9.03 1.27
7.34 -8.97 1.27
10.11 -11.85 1.70
10.16 -11.44 1.66
10.22 -11.05 1.62
10.27 -10.67 1.59
10.34 -10.32 1.56
10.40 -9.98 1.53
10.47 -9.65 1.51
10.53 -9.32 1.48
10.58 -8.99 1.46
10.64 -8.69 1.43
10.72 -8.40 1.42
10.79 -8.12 1.40
10.87 -7.84 1.38
10.94 -7.56 1.37
11.01 -7.29 1.35
11.08 -7.02 1.34
11.14 -6.75 1.32
11.18 -6.47 1.31
11.22 -6.20 1.29
11.25 -5.93 1.28
11.29 -5.66 1.27
11.41 -5.44 1.27
11.55 -5.23 1.26
11.68 -5.01 1.27
11.76 -4.77 1.26
11.80 -4.51 1.25
11.84 -4.26 1.24
11.98 -4.04 1.25
12.36 -3.89 1.28
12.75 -3.74 1.31
12.91 -3.51 1.32
13.07 -3.27 1.32
13.13 -3.01 1.32
13.20 -2.75 1.32
13.27 -2.49 1.32
13.33 -2.22 1.32
13.23 -1.94 1.31
13.38 -1.69 1.32
13.63 -1.44 1.34
13.90 -1.19 1.37
14.09 -0.92 1.38
14.11 -0.64 1.39
14.14 -0.36 1.39
14.33 -0.08 1.41
14.25 0.21 1.40
14.29 0.49 1.41
15.69 0.85 1.55
15.73 1.17 1.56
15.75 1.49 1.57
15.78 1.81 1.58
15.81 2.13 1.59
16.08 2.50 1.62
16.75 2.95 1.70
16.82 3.31 1.72
16.97 3.69 1.75
17.17 4.09 1.78
17.37 4.51 1.82
17.53 4.93 1.85
17.69 5.36 1.88
17.85 5.80 1.92
18.02 6.25 1.96
18.12 6.70 1.99
18.39 7.22 2.05
18.70 7.77 2.11
18.77 8.25 2.14
18.80 8.71 2.17
18.85 9.20 2.21
18.90 9.69 2.25
20.17 10.86 2.44
20.49 11.56 2.51
20.87 12.34 2.60
21.04 13.01 2.67
20.99 13.57 2.71
20.95 14.14 2.76
22.53 15.87 3.02
22.08 16.23 3.02
21.64 16.57 3.02
21.18 16.91 3.02
20.72 17.23 3.02
20.25 17.54 3.02
19.78 17.83 3.02
12.72 11.94 1.99
12.37 12.09 1.99
12.15 12.35 2.00
11.89 12.58 2.01
11.86 13.07 2.06
11.78 13.51 2.11
16.39 19.57 3.02
15.89 19.77 3.02
15.40 19.95 3.02
14.90 20.13 3.02
13.61 19.18 2.86
13.12 19.29 2.85
7.01 10.76 1.58
6.72 10.79 1.57
7.27 12.21 1.77
7.21 12.69 1.83
6.99 12.89 1.85
7.52 14.54 2.08
6.85 13.92 1.98
6.50 13.90 1.98
7.35 16.60 2.35
7.04 16.80 2.38
6.70 16.92 2.39
6.32 16.94 2.39
5.94 16.95 2.39
5.56 16.96 2.39
5.19 16.96 2.39
4.81 16.95 2.39
4.45 16.93 2.39
4.08 16.91 2.39
3.88 17.61 2.49
3.50 17.57 2.49
3.13 17.53 2.49
2.76 17.48 2.49
2.39 17.42 2.49
2.03 17.36 2.49
1.67 17.29 2.49
1.32 17.21 2.49
0.96 17.13 2.49
0.62 17.04 2.49
0.27 16.95 2.49
-0.07 16.85 2.49
-0.40 16.75 2.49
-0.73 16.64 2.49
-1.06 16.52 2.49
-1.39 16.40 2.49
-1.71 16.28 2.49
-2.02 16.15 2.49
-2.33 16.02 2.49
-2.64 15.88 2.49
-2.94 15.74 2.49
-3.24 15.59 2.49
-3.53 15.44 2.49
-3.82 15.29 2.49
-4.11 15.13 2.49
-4.34 14.79 2.46
-4.47 14.19 2.39
-4.73 14.03 2.39
-4.99 13.86 2.39
-5.24 13.69 2.39
-5.49 13.52 2.39
-5.74 13.34 2.39
-5.98 13.17 2.39
-6.21 12.98 2.39
-6.44 12.80 2.39
-6.67 12.61 2.39
-6.89 12.42 2.39
-7.11 12.23 2.39
-7.33 12.03 2.39
-7.54 11.84 2.39
-7.74 11.64 2.39
-7.95 11.43 2.39
-8.14 11.23 2.39
-8.34 11.02 2.39
-8.53 10.81 2.39
-8.71 10.60 2.39
-9.10 10.63 2.45
-9.24 10.36 2.43
-9.38 10.10 2.43
-9.54 9.86 2.42
-9.69 9.62 2.42
-9.84 9.39 2.41
-9.99 9.14 2.41
-10.11 8.89 2.40
-10.23 8.63 2.40
-10.34 8.38 2.39
-10.45 8.12 2.38
-10.55 7.87 2.37
-10.65 7.61 2.37
-10.75 7.36 2.36
-10.83 7.09 2.35
-10.89 6.82 2.34
-10.94 6.55 2.33
-10.99 6.29 2.31
-11.04 6.02 2.30
-11.09 5.76 2.29
-5.63 2.78 1.15
-11.30 5.30 2.30
-11.44 5.09 2.31
-11.53 4.85 2.31
-11.63 4.62 2.31
-11.72 4.38 2.31
-11.81 4.14 2.32
-11.87 3.90 2.31
-11.92 3.65 2.31
-11.96 3.40 2.31
-12.02 3.16 2.31
-12.12 2.92 2.31
-12.21 2.68 2.32
-12.30 2.44 2.33
-12.29 2.18 2.32
-12.23 1.92 2.30
-12.17 1.66 2.28
-12.11 1.40 2.27
-12.06 1.15 2.25
-12.06 0.90 2.25
-12.06 0.66 2.24
-12.05 0.41 2.24
-12.04 0.17 2.24
-12.03 -0.07 2.23
-11.98 -0.32 2.22
-11.86 -0.55 2.20
-11.73 -0.78 2.18
-11.70 -1.02 2.17
-11.71 -1.26 2.18
-11.73 -1.50 2.18
-11.74 -1.75 2.19
-11.75 -1.99 2.19
-11.75 -2.24 2.20
-11.76 -2.49 2.20
-11.77 -2.74 2.21
-11.77 -2.99 2.22
-11.78 -3.25 2.23
-11.79 -3.51 2.24
-11.80 -3.77 2.25
-11.81 -4.04 2.26
-11.81 -4.31 2.27
-11.82 -4.58 2.29
-11.80 -4.85 2.30
-11.74 -5.11 2.30
-11.68 -5.36 2.30
-11.61 -5.61 2.30
-11.53 -5.87 2.30
-11.46 -6.13 2.31
-11.38 -6.38 2.31
-11.30 -6.64 2.31
-11.22 -6.90 2.32
-11.16 -7.18 2.33
-11.11 -7.47 2.34
-11.07 -7.77 2.35
-11.02 -8.07 2.37
-11.00 -8.40 2.39
-10.99 -8.75 2.42
-10.97 -9.10 2.45
-10.88 -9.40 2.46
-10.43 -9.39 2.39
-10.28 -9.64 2.39
-10.13 -9.88 2.39
-9.97 -10.13 2.39
-9.80 -10.37 2.39
-9.63 -10.61 2.39
-9.46 -10.85 2.39
-9.28 -11.09 2.39
-9.10 -11.32 2.39
-8.91 -11.56 2.39
-8.72 -11.79 2.39
-8.52 -12.02 2.39
-8.31 -12.25 2.39
-8.11 -12.48 2.39
-7.89 -12.70 2.39
-7.68 -12.92 2.39
-7.45 -13.14 2.39
-7.22 -13.36 2.39
-6.99 -13.57 2.39
-6.82 -13.92 2.41
-6.79 -14.60 2.49
-6.53 -14.81 2.49
-6.27 -15.02 2.49
-6.00 -15.23 2.49
-5.72 -15.44 2.49
-5.44 -15.64 2.49
-5.16 -15.84 2.49
-4.87 -16.03 2.49
-4.57 -16.22 2.49
-4.27 -16.40 2.49
-3.96 -16.59 2.49
-3.65 -16.76 2.49
-3.34 -16.94 2.49
-3.01 -17.10 2.49
-2.69 -17.27 2.49
-2.35 -17.42 2.49
-2.02 -17.58 2.49
-1.67 -17.73 2.49
-1.33 -17.87 2.49
-0.97 -18.00 2.49
-0.62 -18.14 2.49
-0.26 -18.26 2.49
0.11 -15.72 2.49
0.43 -15.80 2.49
0.75 -15.87 2.49
1.07 -15.94 2.49
1.35 -15.41 2.40
1.66 -15.40 2.39
1.98 -15.45 2.39
2.30 -15.49 2.39
2.62 -15.53 2.39
2.95 -15.56 2.39
3.28 -15.59 2.39
3.61 -15.60 2.39
3.94 -15.61 2.39
4.28 -15.62 2.39
4.61 -15.62 2.39
4.95 -15.61 2.39
5.08 -14.98 2.30
5.14 -14.21 2.18
5.20 -13.52 2.08
5.26 -12.89 1.99
5.31 -12.30 1.90
5.47 -12.02 1.87
5.80 -12.10 1.89
6.08 -12.04 1.89
6.35 -11.99 1.89
5.99 -10.77 1.71
6.23 -10.71 1.71
6.45 -10.59 1.70
6.72 -10.55 1.71
6.43 -9.67 1.58
6.41 -9.23 1.52
6.55 -9.05 1.50
6.77 -8.96 1.50
7.02 -8.91 1.51
7.15 -8.72 1.49
7.47 -8.75 1.52
9.85 -11.08 1.95
9.95 -10.74 1.91
10.10 -10.48 1.90
10.18 -10.15 1.86
10.24 -9.81 1.83
10.31 -9.49 1.80
10.37 -9.17 1.77
10.42 -8.85 1.75
10.50 -8.57 1.72
10.58 -8.28 1.70
10.66 -8.00 1.68
10.73 -7.73 1.67
10.80 -7.46 1.65
10.87 -7.19 1.63
10.94 -6.93 1.62
10.99 -6.65 1.60
11.03 -6.38 1.58
11.07 -6.11 1.56
11.11 -5.85 1.55
11.15 -5.59 1.54
11.24 -5.35 1.53
11.37 -5.14 1.53
11.50 -4.93 1.53
11.55 -4.68 1.52
11.59 -4.43 1.51
11.63 -4.18 1.50
11.67 -3.93 1.50
11.94 -3.76 1.52
12.32 -3.61 1.56
12.72 -3.45 1.60
12.91 -3.23 1.61
13.00 -2.98 1.61
13.07 -2.72 1.61
13.13 -2.46 1.61
13.20 -2.20 1.62
13.26 -1.94 1.62
13.33 -1.68 1.62
13.40 -1.42 1.63
13.67 -1.17 1.66
13.85 -0.91 1.68
13.87 -0.63 1.68
13.90 -0.36 1.68
13.92 -0.08 1.69
14.26 0.20 1.73
14.37 0.49 1.75
14.58 0.79 1.77
15.57 1.16 1.90
15.60 1.47 1.91
15.62 1.79 1.92
15.65 2.11 1.93
15.67 2.43 1.94
16.30 2.86 2.03
16.36 3.21 2.05
16.42 3.56 2.07
16.50 3.93 2.10
16.68 4.33 2.14
16.87 4.74 2.18
16.92 5.11 2.20
16.91 5.48 2.23
17.03 5.90 2.26
17.17 6.34 2.30
17.31 6.78 2.35
17.31 7.18 2.38
17.91 7.85 2.49
18.20 8.42 2.56
18.25 8.89 2.60
18.29 9.36 2.64
18.33 9.85 2.69
18.37 10.35 2.73
18.73 11.05 2.83
18.65 11.52 2.87
18.57 11.98 2.90
18.48 12.46 2.94
10.51 7.39 1.70
10.26 7.53 1.69
10.11 7.73 1.70
9.97 7.95 1.71
9.78 8.12 1.72
9.66 8.35 1.73
9.85 8.86 1.81
9.69 9.08 1.82
12.32 12.02 2.37
12.12 12.30 2.39
11.90 12.58 2.41
11.68 12.84 2.43
11.44 13.10 2.45
8.01 9.55 1.76
7.80 9.68 1.77
7.73 10.00 1.81
12.54 16.91 3.02
7.44 10.46 1.85
7.03 10.32 1.81
6.69 10.25 1.79
6.50 10.42 1.80
6.30 10.55 1.81
6.29 11.04 1.89
6.93 12.75 2.17
7.17 13.84 2.34
6.85 13.89 2.34
6.49 13.86 2.32
6.28 14.14 2.36
6.04 14.36 2.39
5.72 14.40 2.39
5.40 14.43 2.39
5.08 14.45 2.39
4.76 14.47 2.39
4.44 14.48 2.39
4.13 14.49 2.39
3.82 14.49 2.39
3.66 15.11 2.49
3.34 15.09 2.49
3.02 15.07 2.49
2.70 15.05 2.49
2.39 15.02 2.49
2.07 14.98 2.49
1.76 14.94 2.49
1.45 14.89 2.49
1.15 14.84 2.49
0.85 14.78 2.49
0.55 14.72 2.49
0.25 14.65 2.49
-0.04 14.58 2.49
-0.33 14.50 2.49
-0.62 14.42 2.49
-0.91 14.33 2.49
-1.19 14.23 2.49
-1.47 14.14 2.49
-1.74 14.04 2.49
-2.01 13.93 2.49
-2.28 13.82 2.49
-2.55 13.71 2.49
-2.81 13.59 2.49
-3.07 13.47 2.49
-3.32 13.34 2.49
-3.57 13.21 2.49
-3.82 13.08 2.49
-4.07 12.94 2.49
-4.31 12.80 2.49
-4.53 12.61 2.48
-4.59 12.01 2.39
-4.80 11.85 2.39
-5.02 11.70 2.39
-5.23 11.55 2.39
-5.44 11.40 2.39
-5.65 11.24 2.39
-5.85 11.08 2.39
-6.05 10.92 2.39
-6.24 10.75 2.39
-6.44 10.59 2.39
-6.62 10.42 2.39
-6.81 10.25 2.39
-6.99 10.07 2.39
-7.17 9.90 2.39
-7.34 9.72 2.39
-7.51 9.54 2.39
-7.68 9.35 2.39
-7.84 9.17 2.39
-8.00 8.98 2.39
-8.16 8.79 2.39
-8.31 8.60 2.39
-8.46 8.41 2.39
-8.60 8.22 2.39
-8.75 8.02 2.39
-8.88 7.82 2.39
-9.34 7.90 2.48
-9.45 7.67 2.47
-9.56 7.44 2.46
-9.66 7.21 2.45
-9.76 6.98 2.45
-9.86 6.75 2.44
-9.95 6.53 2.44
-10.04 6.30 2.43
-10.11 6.06 2.43
-10.18 5.83 2.42
-10.24 5.59 2.41
-10.30 5.36 2.40
-5.63 2.79 1.30
-10.45 4.90 2.39
-10.53 4.68 2.39
-10.60 4.46 2.39
-10.68 4.24 2.39
-10.76 4.02 2.39
-10.83 3.80 2.39
-10.90 3.58 2.39
-10.97 3.36 2.39
-11.03 3.14 2.40
-11.11 2.92 2.40
-11.20 2.70 2.41
-11.28 2.48 2.42
-11.36 2.26 2.42
-11.44 2.03 2.43
-11.52 1.81 2.44
-11.59 1.58 2.45
-11.58 1.34 2.44
-11.54 1.10 2.43
-11.54 0.86 2.42
-11.53 0.63 2.42
-11.53 0.39 2.41
-11.52 0.16 2.41
-11.51 -0.07 2.40
-11.50 -0.30 2.40
-11.49 -0.54 2.40
-11.47 -0.77 2.40
-11.45 -1.00 2.39
-11.44 -1.23 2.39
-11.42 -1.47 2.39
-11.40 -1.70 2.39
-11.38 -1.93 2.39
-11.36 -2.17 2.39
-11.33 -2.40 2.40
-11.31 -2.63 2.40
-11.28 -2.87 2.40
-11.24 -3.10 2.40
-11.20 -3.34 2.40
-11.16 -3.57 2.40
-11.13 -3.81 2.41
-11.08 -4.05 2.41
-11.04 -4.29 2.41
-11.00 -4.53 2.42
-10.95 -4.77 2.42
-10.90 -5.01 2.43
-10.85 -5.26 2.43
-10.80 -5.51 2.44
-10.75 -5.76 2.45
-10.70 -6.01 2.46
-10.64 -6.26 2.47
-10.57 -6.51 2.47
-10.11 -6.52 2.39
-10.01 -6.74 2.39
-9.90 -6.96 2.39
-9.79 -7.18 2.39
-9.67 -7.40 2.39
-9.55 -7.62 2.39
-9.43 -7.84 2.39
-9.30 -8.05 2.39
-9.17 -8.27 2.39
-9.03 -8.48 2.39
-8.89 -8.69 2.39
-8.75 -8.90 2.39
-8.60 -9.11 2.39
-8.45 -9.32 2.39
-8.29 -9.53 2.39
-8.13 -9.73 2.39
-7.96 -9.93 2.39
-7.79 -10.13 2.39
-7.62 -10.33 2.39
-7.44 -10.53 2.39
-7.26 -10.72 2.39
-7.07 -10.91 2.39
-6.88 -11.10 2.39
-6.69 -11.29 2.39
-6.62 -11.70 2.44
-6.56 -12.16 2.49
-6.34 -12.34 2.49
-6.12 -12.53 2.49
-5.90 -12.71 2.49
-5.67 -12.88 2.49
-5.43 -13.06 2.49
-5.20 -13.23 2.49
-4.95 -13.40 2.49
-4.71 -13.56 2.49
-4.46 -13.72 2.49
-4.20 -13.88 2.49
-3.94 -14.03 2.49
-3.68 -14.18 2.49
-3.41 -14.33 2.49
-3.14 -14.47 2.49
-2.86 -14.61 2.49
-2.58 -14.74 2.49
-2.30 -14.87 2.49
-2.01 -14.99 2.49
-1.72 -15.11 2.49
-1.42 -15.22 2.49
-1.12 -15.33 2.49
-0.82 -15.44 2.49
-0.51 -15.54 2.49
-0.20 -15.63 2.49
0.11 -13.71 2.49
0.39 -13.78 2.49
0.67 -13.83 2.49
0.95 -13.88 2.49
1.23 -13.93 2.49
1.45 -13.39 2.39
1.73 -13.43 2.39
2.01 -13.45 2.39
2.29 -13.48 2.39
2.57 -13.49 2.39
2.85 -13.50 2.39
3.14 -13.51 2.39
3.42 -13.51 2.39
3.71 -13.50 2.39
4.00 -13.49 2.39
4.29 -13.47 2.39
4.58 -13.45 2.39
4.87 -13.42 2.39
5.16 -13.38 2.39
5.26 -12.86 2.31
5.15 -11.91 2.14
5.34 -11.70 2.11
5.57 -11.59 2.10
5.79 -11.46 2.09
5.66 -10.66 1.96
5.85 -10.50 1.94
5.85 -10.03 1.87
5.94 -9.73 1.82
6.05 -9.48 1.79
6.16 -9.24 1.76
6.25 -8.99 1.73
6.42 -8.85 1.72
6.64 -8.78 1.73
6.93 -8.79 1.75
7.09 -8.63 1.74
7.31 -8.54 1.74
7.49 -8.41 1.74
7.85 -8.47 1.78
8.20 -8.50 1.81
7.84 -7.81 1.69
8.04 -7.69 1.69
