ply
format ascii 1.0
element vertex 2832
property float32 x
property float32 y
property float32 z
end_header
-9.63 -1.02 -0.68
-9.63 -1.22 -0.68
-9.63 -1.41 -0.68
-9.62 -1.61 -0.68
-9.62 -1.81 -0.68
-9.62 -2.01 -0.68
-9.62 -2.21 -0.68
-9.62 -2.42 -0.69
-9.61 -2.62 -0.69
-9.61 -2.83 -0.69
-9.61 -3.04 -0.69
-9.61 -3.26 -0.70
-9.61 -3.47 -0.70
-9.61 -3.69 -0.70
-9.61 -3.92 -0.71
-9.62 -4.15 -0.71
-9.63 -4.38 -0.72
-9.63 -4.62 -0.73
-9.56 -6.65 -0.78
10.81 -16.41 -0.63
10.80 -15.70 -0.61
10.79 -15.04 -0.59
10.79 -14.41 -0.57
10.78 -13.82 -0.56
10.78 -13.25 -0.54
10.77 -12.72 -0.53
10.77 -12.20 -0.51
11.04 -12.02 -0.51
11.49 -12.02 -0.52
11.95 -12.01 -0.53
12.47 -12.04 -0.54
12.98 -12.03 -0.55
13.47 -12.00 -0.56
14.06 -12.02 -0.57
14.64 -12.02 -0.59
15.20 -11.98 -0.60
15.81 -11.95 -0.61
16.51 -11.97 -0.63
17.22 -11.96 -0.64
17.56 -11.68 -0.65
17.56 -11.18 -0.64
17.55 -10.69 -0.63
18.03 -10.49 -0.64
18.88 -10.48 -0.66
19.49 -10.31 -0.67
20.54 -10.35 -0.70
21.68 -10.38 -0.73
22.94 -10.42 -0.77
24.22 -10.43 -0.81
25.51 -10.38 -0.84
35.22 -13.51 -1.15
33.74 -12.17 -1.10
33.73 -11.41 -1.09
33.79 -10.68 -1.08
33.78 -9.94 -1.08
33.77 -9.20 -1.07
33.77 -8.48 -1.07
33.76 -7.76 -1.06
33.69 -7.03 -1.06
33.74 -6.34 -1.06
33.74 -5.64 -1.05
33.73 -4.95 -1.05
33.66 -4.25 -1.05
33.65 -3.56 -1.05
36.58 -3.13 -1.14
40.27 4.66 -1.28
16.57 2.26 -0.53
14.26 2.23 -0.46
13.41 2.38 -0.44
13.41 2.66 -0.44
13.41 2.94 -0.44
6.47 1.55 -0.21
6.76 1.77 -0.23
6.77 1.92 -0.23
6.75 2.06 -0.23
6.65 2.17 -0.23
5.15 1.80 -0.18
5.29 1.97 -0.19
5.36 2.12 -0.19
5.41 2.27 -0.19
5.32 2.35 -0.19
5.23 2.44 -0.19
5.13 2.52 -0.19
5.04 2.60 -0.19
13.50 7.31 -0.52
13.49 7.67 -0.53
5.31 3.16 -0.21
5.25 3.27 -0.21
13.00 8.46 -0.53
13.28 9.02 -0.56
12.71 9.02 -0.54
12.18 9.01 -0.53
12.01 9.27 -0.53
12.01 9.66 -0.54
12.10 10.13 -0.56
12.10 10.56 -0.57
12.09 10.99 -0.58
11.99 11.34 -0.59
11.99 11.80 -0.61
11.19 11.47 -0.58
11.98 12.78 -0.64
12.05 13.38 -0.66
11.97 13.84 -0.67
11.96 14.41 -0.69
11.96 15.01 -0.71
11.95 15.63 -0.73
11.94 16.29 -0.75
11.07 15.75 -0.72
11.93 17.72 -0.81
11.08 17.97 -0.80
19.03 43.56 -1.87
17.28 41.84 -1.79
16.06 41.21 -1.75
15.27 41.62 -1.77
14.62 42.45 -1.80
13.94 43.29 -1.83
13.20 44.01 -1.85
12.45 44.75 -1.88
11.68 45.50 -1.91
10.89 46.28 -1.94
10.09 47.07 -1.98
-9.75 13.32 -0.78
-9.79 11.81 -0.73
-9.76 11.30 -0.71
-9.75 10.84 -0.69
-9.74 10.40 -0.68
-9.74 9.99 -0.66
-9.74 9.59 -0.65
-9.75 9.22 -0.64
-9.76 8.87 -0.63
-9.78 8.54 -0.62
-9.78 8.20 -0.61
-9.77 7.87 -0.60
-9.77 7.54 -0.59
-9.77 7.23 -0.58
-9.76 6.93 -0.58
-9.76 6.64 -0.57
-9.76 6.35 -0.56
-9.76 6.08 -0.55
-9.75 5.81 -0.55
-9.75 5.54 -0.54
-9.70 5.26 -0.53
-9.75 5.03 -0.53
-9.74 4.79 -0.52
-9.74 4.55 -0.52
-9.74 4.31 -0.51
-9.74 4.08 -0.51
-9.73 3.85 -0.51
-9.73 3.62 -0.50
-9.73 3.40 -0.50
-9.73 3.18 -0.49
-9.73 2.97 -0.49
-9.72 2.75 -0.49
-9.72 2.54 -0.48
-9.72 2.34 -0.48
-9.72 2.13 -0.48
-6.56 1.30 -0.32
-9.71 1.72 -0.47
-9.71 1.52 -0.47
-9.64 1.31 -0.47
-9.71 1.12 -0.47
-9.71 0.93 -0.47
-9.70 0.73 -0.47
-9.70 0.53 -0.46
-9.70 0.34 -0.46
-9.70 0.14 -0.46
-9.70 -0.05 -0.46
-9.69 -0.24 -0.46
-9.69 -0.44 -0.46
-9.69 -0.63 -0.46
-9.69 -0.83 -0.46
-9.69 -1.03 -0.46
-9.69 -1.22 -0.46
-9.68 -1.42 -0.46
-9.68 -1.62 -0.46
-9.68 -1.82 -0.46
-9.68 -2.02 -0.46
-9.68 -2.23 -0.46
-9.67 -2.43 -0.46
-9.61 -2.62 -0.46
-9.67 -2.85 -0.47
-9.67 -3.06 -0.47
-9.67 -3.27 -0.47
-9.66 -3.49 -0.47
-9.66 -3.71 -0.47
-9.66 -3.93 -0.48
-9.66 -4.16 -0.48
-9.65 -4.39 -0.48
-9.65 -4.63 -0.49
-9.65 -4.87 -0.49
-9.65 -5.11 -0.49
-9.64 -5.36 -0.50
-9.64 -5.61 -0.50
-9.64 -5.87 -0.50
-9.64 -6.14 -0.51
-9.63 -6.42 -0.51
-9.57 -6.65 -0.52
-9.63 -6.99 -0.52
-9.63 -7.28 -0.53
-9.62 -7.59 -0.54
-9.62 -7.91 -0.54
-9.62 -8.23 -0.55
-9.61 -8.57 -0.56
-9.61 -8.92 -0.57
-9.61 -9.28 -0.57
-9.60 -9.66 -0.58
-9.60 -10.05 -0.59
-9.59 -10.46 -0.60
-9.59 -10.88 -0.61
-9.57 -11.31 -0.62
-9.55 -11.76 -0.64
-9.53 -12.22 -0.65
-9.52 -12.73 -0.66
-9.51 -13.27 -0.68
-9.51 -13.84 -0.69
-9.51 -14.46 -0.71
10.81 -16.41 -0.19
10.80 -15.71 -0.18
10.79 -15.04 -0.17
10.79 -14.41 -0.17
10.78 -13.82 -0.16
10.78 -13.25 -0.16
10.77 -12.72 -0.15
10.77 -12.21 -0.15
11.04 -12.02 -0.14
11.49 -12.02 -0.15
11.95 -12.01 -0.15
12.47 -12.04 -0.15
12.98 -12.03 -0.15
13.47 -12.00 -0.15
14.06 -12.02 -0.16
14.64 -12.02 -0.16
15.20 -11.98 -0.16
15.88 -12.01 -0.17
16.51 -11.97 -0.17
17.21 -11.96 -0.17
17.56 -11.68 -0.17
17.56 -11.18 -0.17
17.55 -10.69 -0.17
18.03 -10.49 -0.17
18.87 -10.48 -0.17
19.05 -10.08 -0.17
18.98 -9.56 -0.17
19.97 -9.56 -0.18
21.05 -9.56 -0.19
22.22 -9.57 -0.19
23.51 -9.57 -0.20
24.94 -9.57 -0.21
33.74 -12.17 -0.29
32.95 -11.14 -0.28
32.94 -10.41 -0.28
32.93 -9.68 -0.28
32.92 -8.97 -0.28
32.91 -8.26 -0.28
32.90 -7.56 -0.28
32.90 -6.87 -0.28
32.89 -6.18 -0.28
32.88 -5.50 -0.28
32.88 -4.82 -0.28
33.66 -4.25 -0.28
33.65 -3.56 -0.28
36.61 -3.13 -0.31
36.79 4.26 -0.34
16.56 2.26 -0.15
14.25 2.23 -0.13
13.41 2.38 -0.13
13.41 2.66 -0.13
5.81 1.27 -0.06
5.82 1.40 -0.06
5.83 1.53 -0.06
5.83 1.65 -0.06
13.53 4.13 -0.14
7.25 2.37 -0.08
5.41 1.89 -0.06
6.20 2.31 -0.07
6.44 2.54 -0.07
7.39 3.09 -0.09
13.51 5.98 -0.16
5.55 2.59 -0.07
13.50 6.63 -0.17
5.87 3.03 -0.07
5.74 3.11 -0.07
5.62 3.20 -0.07
5.51 3.28 -0.07
5.10 3.17 -0.07
5.11 3.33 -0.07
13.27 9.02 -0.19
12.71 9.02 -0.19
12.18 9.01 -0.19
12.01 9.27 -0.19
12.01 9.66 -0.20
12.07 10.12 -0.20
12.28 10.72 -0.21
12.09 10.99 -0.21
11.99 11.35 -0.22
11.99 11.81 -0.23
11.18 11.46 -0.22
11.98 12.78 -0.24
12.09 13.43 -0.25
12.08 13.98 -0.26
12.04 14.50 -0.27
11.96 15.01 -0.28
11.95 15.64 -0.29
12.02 16.40 -0.30
11.17 15.90 -0.29
11.93 17.73 -0.32
11.17 18.12 -0.33
19.01 43.54 -0.80
10.39 25.15 -0.46
16.06 41.21 -0.76
15.26 41.63 -0.77
14.61 42.46 -0.78
13.93 43.30 -0.80
12.71 42.39 -0.79
11.91 42.84 -0.80
11.18 43.59 -0.82
10.89 46.28 -0.87
10.08 47.07 -0.89
-9.96 33.27 -0.78
-9.92 28.87 -0.70
-6.36 17.37 -0.42
-9.92 25.49 -0.63
-9.93 24.07 -0.60
-9.92 22.73 -0.58
-9.91 21.52 -0.55
-9.90 20.41 -0.53
-9.89 19.38 -0.51
-9.88 18.44 -0.50
-9.87 17.57 -0.48
-9.86 16.76 -0.47
-9.85 16.00 -0.45
-9.85 15.29 -0.44
-9.84 14.63 -0.43
-9.83 14.01 -0.42
-9.76 13.32 -0.40
-9.82 12.86 -0.40
-9.82 12.33 -0.39
-9.81 11.83 -0.38
-9.81 11.35 -0.37
-9.80 10.90 -0.37
-9.80 10.46 -0.36
-9.80 10.05 -0.35
-9.79 9.65 -0.35
-9.76 9.24 -0.34
-9.78 8.89 -0.33
-9.78 8.54 -0.33
-9.78 8.20 -0.32
-9.77 7.86 -0.32
-9.77 7.54 -0.31
-9.77 7.23 -0.31
-9.76 6.93 -0.31
-9.76 6.64 -0.30
-9.76 6.35 -0.30
-9.76 6.08 -0.29
-9.75 5.81 -0.29
-9.75 5.54 -0.29
-9.70 5.26 -0.28
-9.75 5.03 -0.28
-9.74 4.79 -0.28
-9.74 4.55 -0.28
-9.74 4.31 -0.27
-9.74 4.08 -0.27
-9.73 3.85 -0.27
-9.73 3.62 -0.27
-9.73 3.40 -0.27
-9.73 3.18 -0.26
-9.73 2.97 -0.26
-9.72 2.75 -0.26
-9.72 2.54 -0.26
-9.72 2.34 -0.26
-9.72 2.13 -0.25
-6.56 1.30 -0.17
-9.71 1.72 -0.25
-9.71 1.52 -0.25
-9.64 1.31 -0.25
-9.71 1.12 -0.25
-9.71 0.93 -0.25
-9.70 0.73 -0.25
-9.70 0.54 -0.25
-9.70 0.34 -0.24
-9.70 0.15 -0.24
-9.70 -0.05 -0.24
-9.69 -0.24 -0.24
-9.69 -0.44 -0.24
-9.69 -0.63 -0.24
-9.69 -0.83 -0.24
-9.69 -1.03 -0.24
-9.69 -1.22 -0.24
-9.68 -1.42 -0.24
-9.68 -1.62 -0.24
-9.68 -1.82 -0.24
-9.68 -2.02 -0.24
-9.68 -2.22 -0.24
-9.67 -2.43 -0.24
-9.61 -2.62 -0.24
-9.67 -2.85 -0.24
-9.67 -3.06 -0.24
-9.67 -3.27 -0.24
-9.66 -3.49 -0.24
-9.66 -3.71 -0.24
-9.66 -3.93 -0.24
-9.66 -4.16 -0.24
-9.65 -4.39 -0.24
-9.65 -4.62 -0.24
-9.65 -4.86 -0.24
-9.65 -5.11 -0.25
-9.64 -5.36 -0.25
-9.64 -5.61 -0.25
-9.64 -5.87 -0.25
-9.64 -6.14 -0.25
-9.63 -6.41 -0.25
-9.57 -6.65 -0.25
-9.63 -6.98 -0.26
-9.63 -7.28 -0.26
-9.62 -7.59 -0.26
-9.62 -7.90 -0.26
-9.62 -8.23 -0.26
-9.61 -8.57 -0.27
-9.61 -8.92 -0.27
-9.61 -9.28 -0.27
-9.60 -9.65 -0.28
-9.60 -10.05 -0.28
-9.60 -10.45 -0.28
-9.59 -10.88 -0.29
-9.59 -11.33 -0.29
-9.58 -11.79 -0.29
-9.58 -12.28 -0.30
-9.57 -12.80 -0.30
-9.57 -13.34 -0.31
-9.56 -13.91 -0.32
-9.56 -14.52 -0.32
-9.55 -15.17 -0.33
-9.54 -15.85 -0.34
-9.54 -16.59 -0.34
-9.53 -17.37 -0.35
-9.52 -18.21 -0.36
-9.51 -19.12 -0.37
-9.50 -20.10 -0.38
-9.49 -21.17 -0.40
-9.48 -22.34 -0.41
-9.47 -23.62 -0.43
-9.45 -25.02 -0.44
-9.44 -26.59 -0.46
-9.42 -28.33 -0.48
-9.40 -30.29 -0.51
-9.38 -32.51 -0.54
-9.35 -35.05 -0.57
-9.33 -37.99 -0.61
-9.24 -41.19 -0.65
-9.20 -45.25 -0.70
10.81 -16.42 0.26
10.80 -15.71 0.25
10.79 -15.05 0.24
10.79 -14.42 0.24
10.78 -13.82 0.23
10.78 -13.26 0.23
10.77 -12.72 0.23
10.77 -12.21 0.22
11.04 -12.02 0.22
11.48 -12.02 0.23
11.95 -12.01 0.23
12.47 -12.04 0.24
12.98 -12.03 0.25
13.47 -12.00 0.25
14.06 -12.02 0.26
14.63 -12.02 0.27
15.20 -11.98 0.27
15.88 -12.01 0.28
16.51 -11.97 0.29
17.21 -11.96 0.30
17.56 -11.69 0.30
17.56 -11.18 0.30
17.55 -10.69 0.30
18.03 -10.49 0.30
18.87 -10.48 0.31
19.78 -10.47 0.32
19.04 -9.59 0.31
21.82 -10.45 0.35
20.75 -9.43 0.33
24.22 -10.43 0.38
25.60 -10.41 0.40
35.22 -13.51 0.55
33.74 -12.17 0.52
33.73 -11.41 0.52
33.72 -10.66 0.51
33.72 -9.92 0.51
33.71 -9.18 0.50
33.70 -8.46 0.50
33.70 -7.74 0.50
33.69 -7.03 0.49
33.68 -6.33 0.49
33.67 -5.63 0.49
32.70 -4.79 0.47
23.90 -3.01 0.34
24.82 -2.62 0.35
31.82 -2.72 0.45
32.91 -2.15 0.46
41.53 -1.88 0.58
46.98 -0.23 0.65
46.79 1.65 0.64
47.01 3.55 0.64
39.21 3.75 0.53
39.61 4.59 0.53
16.54 2.26 0.22
14.24 2.23 0.19
13.41 2.38 0.18
13.41 2.66 0.18
5.71 1.25 0.08
5.71 1.37 0.08
5.71 1.49 0.07
5.69 1.61 0.07
5.73 1.75 0.07
5.79 1.89 0.08
5.85 2.04 0.08
6.10 2.27 0.08
13.52 5.34 0.17
13.51 5.66 0.17
6.02 2.67 0.08
13.51 6.30 0.17
6.26 3.08 0.08
6.39 3.30 0.08
6.41 3.47 0.08
6.40 3.64 0.08
4.94 2.94 0.06
4.96 3.09 0.06
4.98 3.24 0.06
4.99 3.40 0.06
12.70 9.02 0.16
12.17 9.01 0.15
12.01 9.27 0.15
12.01 9.66 0.15
12.07 10.12 0.15
12.28 10.72 0.16
12.09 10.99 0.15
11.99 11.35 0.15
11.99 11.81 0.15
11.18 11.46 0.14
11.98 12.79 0.15
12.09 13.44 0.15
12.08 13.99 0.16
12.03 14.51 0.16
11.96 15.02 0.15
11.95 15.64 0.16
12.02 16.40 0.16
11.16 15.89 0.15
11.93 17.74 0.16
11.15 18.11 0.15
18.99 43.52 0.27
10.38 25.16 0.15
16.05 41.22 0.24
15.35 41.90 0.23
14.65 42.60 0.23
13.92 43.30 0.22
13.15 43.91 0.22
12.41 44.69 0.21
11.67 45.52 0.20
10.88 46.29 0.20
10.07 47.08 0.19
-10.16 47.48 0.03
-10.12 43.04 0.02
-10.08 39.32 0.01
-10.05 36.17 0.01
-9.97 33.26 0.00
-10.00 31.09 -0.00
-9.98 29.02 -0.01
-6.37 17.39 -0.01
-9.95 25.54 -0.01
-9.93 24.06 -0.02
-9.92 22.73 -0.02
-9.85 21.39 -0.02
-9.90 20.40 -0.02
-9.89 19.38 -0.02
-9.88 18.44 -0.03
-9.87 17.56 -0.03
-9.86 16.75 -0.03
-9.85 16.00 -0.03
-9.85 15.29 -0.03
-9.84 14.63 -0.03
-9.83 14.00 -0.03
-9.76 13.31 -0.03
-9.82 12.86 -0.03
-9.82 12.33 -0.03
-9.81 11.83 -0.03
-9.81 11.35 -0.03
-9.80 10.89 -0.03
-9.80 10.46 -0.04
-9.80 10.04 -0.04
-9.79 9.64 -0.04
-9.76 9.24 -0.04
-9.78 8.89 -0.04
-9.78 8.54 -0.04
-9.78 8.19 -0.04
-9.77 7.86 -0.04
-9.77 7.54 -0.04
-9.77 7.23 -0.04
-9.76 6.93 -0.04
-9.76 6.64 -0.04
-9.76 6.35 -0.04
-9.76 6.08 -0.04
-9.75 5.81 -0.04
-9.75 5.54 -0.04
-9.70 5.26 -0.04
-9.75 5.03 -0.04
-9.74 4.79 -0.03
-9.74 4.55 -0.03
-9.74 4.31 -0.03
-9.74 4.08 -0.03
-9.73 3.85 -0.03
-9.73 3.62 -0.03
-9.73 3.40 -0.03
-9.73 3.18 -0.03
-9.73 2.97 -0.03
-9.72 2.75 -0.03
-9.72 2.54 -0.03
-9.72 2.34 -0.03
-9.72 2.13 -0.03
-6.56 1.30 -0.02
-9.71 1.72 -0.03
-9.71 1.52 -0.03
-9.64 1.31 -0.03
-9.71 1.13 -0.03
-9.71 0.93 -0.03
-9.70 0.73 -0.03
-9.70 0.54 -0.03
-9.70 0.34 -0.03
-9.70 0.15 -0.03
-9.70 -0.05 -0.02
-9.69 -0.24 -0.02
-9.69 -0.44 -0.02
-9.69 -0.63 -0.02
-9.69 -0.83 -0.02
-9.69 -1.02 -0.02
-9.69 -1.22 -0.02
-9.68 -1.42 -0.02
-9.68 -1.62 -0.02
-9.68 -1.82 -0.02
-9.68 -2.02 -0.02
-9.68 -2.22 -0.02
-9.67 -2.43 -0.01
-9.61 -2.62 -0.01
-9.67 -2.84 -0.01
-9.67 -3.06 -0.01
-9.67 -3.27 -0.01
-9.66 -3.49 -0.01
-9.66 -3.71 -0.01
-9.66 -3.93 -0.01
-9.66 -4.16 -0.01
-9.65 -4.39 -0.00
-9.65 -4.62 -0.00
-9.65 -4.86 -0.00
-9.65 -5.11 -0.00
-9.64 -5.36 0.00
-9.64 -5.61 0.00
-9.64 -5.87 0.00
-9.64 -6.14 0.01
-9.63 -6.41 0.01
-9.57 -6.65 0.01
-9.63 -6.98 0.01
-9.63 -7.28 0.01
-9.62 -7.58 0.02
-9.62 -7.90 0.02
-9.62 -8.23 0.02
-9.61 -8.56 0.02
-9.61 -8.91 0.03
-9.61 -9.27 0.03
-9.60 -9.65 0.03
-9.60 -10.04 0.03
-9.60 -10.45 0.04
-9.59 -10.88 0.04
-9.59 -11.32 0.04
-9.58 -11.79 0.05
-9.58 -12.28 0.05
-9.57 -12.79 0.06
-9.57 -13.34 0.06
-9.56 -13.91 0.06
-9.56 -14.52 0.07
-9.55 -15.16 0.07
-9.54 -15.85 0.08
-9.54 -16.58 0.09
-9.53 -17.36 0.09
-9.52 -18.20 0.10
-9.51 -19.11 0.11
-9.50 -20.09 0.12
-9.49 -21.16 0.13
-9.48 -22.33 0.14
-9.47 -23.60 0.15
-9.45 -25.01 0.16
-9.44 -26.57 0.17
-9.42 -28.31 0.19
-9.40 -30.27 0.20
-9.38 -32.49 0.22
-9.35 -35.02 0.25
-9.33 -37.96 0.27
-9.29 -41.39 0.30
-9.25 -45.46 0.34
6.33 -25.79 0.89
5.97 -22.37 0.78
5.87 -20.37 0.71
5.72 -18.44 0.65
6.05 -18.19 0.65
6.43 -18.12 0.66
6.85 -18.15 0.66
10.71 -26.72 0.99
6.10 -14.37 0.54
11.98 -26.73 1.01
6.76 -14.30 0.55
10.81 -16.42 0.70
10.80 -15.72 0.68
10.79 -15.05 0.66
10.79 -14.42 0.64
10.78 -13.83 0.63
10.78 -13.26 0.61
10.77 -12.72 0.60
10.77 -12.21 0.59
11.03 -12.02 0.59
11.48 -12.02 0.60
11.95 -12.01 0.62
12.47 -12.04 0.63
12.97 -12.03 0.65
13.47 -12.00 0.66
14.05 -12.02 0.68
14.63 -12.02 0.69
15.20 -11.98 0.71
15.88 -12.01 0.73
16.50 -11.97 0.75
17.21 -11.96 0.77
17.56 -11.69 0.78
17.56 -11.18 0.77
17.55 -10.69 0.76
18.03 -10.49 0.77
18.87 -10.48 0.80
19.78 -10.47 0.83
20.76 -10.46 0.86
21.82 -10.45 0.90
22.97 -10.44 0.93
24.22 -10.43 0.98
25.60 -10.41 1.02
27.41 -10.52 1.09
11.72 -4.23 0.46
11.68 -3.95 0.46
11.79 -3.73 0.46
11.90 -3.50 0.46
12.28 -3.35 0.47
13.64 -3.42 0.52
14.26 -3.27 0.54
15.95 -3.33 0.60
17.40 -3.27 0.65
18.32 -3.06 0.68
19.29 -2.83 0.72
20.41 -2.57 0.76
23.62 -2.50 0.87
25.89 -2.21 0.95
26.13 -1.70 0.96
26.61 -1.20 0.97
26.11 -0.65 0.95
26.03 -0.13 0.95
26.01 0.39 0.94
26.15 0.92 0.95
26.05 1.44 0.94
25.98 1.96 0.94
25.97 2.49 0.94
26.07 3.03 0.94
16.53 2.26 0.60
14.23 2.23 0.51
13.41 2.38 0.49
13.41 2.66 0.49
5.60 1.23 0.20
5.59 1.34 0.20
5.57 1.46 0.20
5.55 1.57 0.20
5.58 1.70 0.20
5.59 1.83 0.21
13.52 4.73 0.50
13.52 5.03 0.50
6.06 2.40 0.22
5.66 2.37 0.21
5.97 2.64 0.22
13.51 6.31 0.51
13.50 6.64 0.51
5.57 2.88 0.21
13.50 7.32 0.52
13.49 7.67 0.52
13.36 7.96 0.52
4.90 3.05 0.19
4.91 3.20 0.19
4.93 3.35 0.20
4.94 3.51 0.20
12.17 9.01 0.50
12.01 9.28 0.49
12.01 9.67 0.50
12.07 10.12 0.51
12.28 10.73 0.52
12.08 10.99 0.52
11.99 11.35 0.52
11.99 11.81 0.53
11.17 11.46 0.50
11.98 12.79 0.55
12.09 13.44 0.56
12.08 13.99 0.57
12.03 14.51 0.58
11.96 15.02 0.59
11.95 15.65 0.60
12.02 16.41 0.61
11.15 15.88 0.58
11.93 17.74 0.64
13.30 20.66 0.73
11.14 18.10 0.63
12.89 21.91 0.75
7.37 13.13 0.44
6.90 12.90 0.42
10.82 21.22 0.69
7.10 14.64 0.47
6.75 14.66 0.46
6.44 14.76 0.46
6.47 15.69 0.48
6.53 16.77 0.50
6.38 17.42 0.52
6.34 18.46 0.54
6.51 20.25 0.58
12.73 42.53 1.21
12.41 44.70 1.26
11.66 45.53 1.26
10.89 46.40 1.27
10.06 47.09 1.28
-8.03 41.55 0.98
-10.16 47.44 1.12
-10.12 43.01 1.01
-10.08 39.30 0.93
-10.05 36.15 0.85
-9.97 33.26 0.78
-10.00 31.08 0.73
-9.98 29.01 0.68
-9.96 27.17 0.64
-9.88 25.36 0.60
-9.93 24.05 0.57
-9.92 22.72 0.54
-9.84 21.36 0.51
-9.90 20.39 0.49
-9.89 19.37 0.47
-9.88 18.43 0.45
-9.87 17.56 0.43
-9.86 16.75 0.41
-9.85 15.99 0.39
-9.85 15.29 0.38
-9.84 14.62 0.37
-9.83 14.00 0.35
-9.76 13.31 0.34
-9.82 12.85 0.33
-9.82 12.33 0.32
-9.81 11.82 0.31
-9.81 11.35 0.30
-9.80 10.89 0.30
-9.80 10.46 0.29
-9.80 10.04 0.28
-9.79 9.64 0.27
-9.77 9.24 0.27
-9.78 8.89 0.26
-9.78 8.54 0.26
-9.78 8.19 0.25
-9.77 7.86 0.25
-9.77 7.54 0.24
-9.77 7.23 0.24
-9.76 6.93 0.23
-9.76 6.64 0.23
-9.76 6.35 0.23
-9.76 6.08 0.22
-9.75 5.81 0.22
-9.75 5.54 0.22
-9.70 5.26 0.21
-9.75 5.03 0.21
-9.74 4.79 0.21
-9.74 4.55 0.21
-9.74 4.31 0.21
-9.74 4.08 0.20
-9.73 3.85 0.20
-9.73 3.62 0.20
-9.73 3.40 0.20
-9.73 3.18 0.20
-9.73 2.97 0.20
-9.72 2.75 0.20
-9.72 2.54 0.19
-9.72 2.34 0.19
-9.72 2.13 0.19
-6.56 1.30 0.13
-9.71 1.72 0.19
-9.71 1.52 0.19
-9.64 1.31 0.19
-9.71 1.13 0.19
-9.71 0.93 0.19
-9.70 0.73 0.19
-9.70 0.54 0.19
-9.70 0.34 0.19
-9.70 0.15 0.19
-9.70 -0.05 0.19
-9.69 -0.24 0.19
-9.69 -0.44 0.20
-9.69 -0.63 0.20
-9.69 -0.83 0.20
-9.69 -1.02 0.20
-9.69 -1.22 0.20
-9.68 -1.42 0.20
-9.68 -1.62 0.20
-9.68 -1.82 0.20
-9.68 -2.02 0.21
-9.68 -2.22 0.21
-9.67 -2.43 0.21
-9.61 -2.62 0.21
-9.67 -2.84 0.21
-9.67 -3.05 0.22
-9.67 -3.27 0.22
-9.66 -3.49 0.22
-9.66 -3.71 0.22
-9.66 -3.93 0.23
-9.66 -4.16 0.23
-9.65 -4.39 0.23
-9.65 -4.62 0.24
-9.65 -4.86 0.24
-9.65 -5.10 0.25
-9.64 -5.35 0.25
-9.64 -5.61 0.25
-9.64 -5.87 0.26
-9.64 -6.14 0.26
-9.63 -6.41 0.27
-9.57 -6.64 0.27
-9.63 -6.98 0.28
-9.63 -7.28 0.29
-9.62 -7.58 0.29
-9.62 -7.90 0.30
-9.62 -8.22 0.31
-9.61 -8.56 0.31
-9.61 -8.91 0.32
-9.61 -9.27 0.33
-9.60 -9.65 0.34
-9.60 -10.04 0.35
-9.60 -10.45 0.36
-9.59 -10.87 0.37
-9.59 -11.32 0.38
-9.58 -11.78 0.39
-9.58 -12.27 0.40
-9.57 -12.79 0.42
-9.57 -13.33 0.43
-9.56 -13.90 0.44
-9.56 -14.51 0.46
-9.55 -15.15 0.48
-9.54 -15.84 0.50
-9.54 -16.57 0.52
-9.53 -17.35 0.54
-9.52 -18.20 0.56
-9.51 -19.10 0.59
-9.50 -20.08 0.62
-9.49 -21.15 0.65
-9.48 -22.31 0.68
-9.47 -23.59 0.72
-9.45 -24.99 0.76
-9.44 -26.55 0.81
-9.42 -28.29 0.86
-9.40 -30.25 0.92
-9.38 -32.46 0.99
-9.36 -35.00 1.06
-9.33 -37.93 1.15
-9.29 -41.35 1.26
-9.25 -45.42 1.38
-0.02 -46.06 2.49
0.90 -45.91 2.49
1.82 -45.75 2.49
2.71 -45.20 2.47
3.48 -43.49 2.39
4.34 -43.29 2.39
5.20 -43.07 2.39
6.04 -42.84 2.39
4.71 -29.13 1.63
5.31 -29.12 1.64
8.54 -42.05 2.39
5.89 -26.28 1.50
6.06 -24.73 1.43
5.54 -20.77 1.21
5.86 -20.33 1.19
5.65 -18.21 1.08
6.04 -18.16 1.08
5.78 -16.31 0.98
6.07 -16.09 0.98
5.75 -14.35 0.88
6.06 -14.29 0.89
6.40 -14.29 0.90
5.84 -12.36 0.78
6.14 -12.34 0.79
6.41 -12.27 0.80
5.81 -10.59 0.70
6.02 -10.47 0.70
5.38 -8.94 0.60
5.50 -8.73 0.60
5.65 -8.58 0.60
5.90 -8.59 0.61
6.08 -8.49 0.61
6.36 -8.50 0.62
6.65 -8.54 0.63
10.78 -13.26 1.00
10.77 -12.73 0.98
10.77 -12.21 0.96
10.69 -11.65 0.93
11.48 -12.02 0.98
11.95 -12.01 1.00
12.47 -12.04 1.02
12.97 -12.03 1.04
13.46 -12.00 1.07
6.93 -5.93 0.54
14.57 -11.97 1.12
15.20 -11.98 1.15
15.83 -11.97 1.18
16.50 -11.97 1.21
6.31 -4.39 0.46
6.28 -4.18 0.45
6.32 -4.02 0.45
6.35 -3.87 0.44
6.39 -3.72 0.44
6.76 -3.75 0.46
7.04 -3.73 0.47
7.16 -3.61 0.48
7.43 -3.56 0.49
7.76 -3.53 0.51
8.64 -3.72 0.56
9.02 -3.67 0.58
9.17 -3.52 0.59
9.55 -3.44 0.60
10.79 -3.65 0.68
10.97 -3.47 0.69
11.42 -3.36 0.71
12.14 -3.31 0.75
13.33 -3.34 0.82
14.27 -3.28 0.87
15.88 -3.31 0.96
17.21 -3.23 1.04
18.26 -3.05 1.10
19.01 -2.78 1.14
20.34 -2.56 1.22
23.57 -2.49 1.40
25.87 -2.21 1.54
26.23 -1.71 1.55
26.35 -1.19 1.56
26.08 -0.65 1.54
26.03 -0.13 1.53
26.12 0.40 1.54
26.19 0.93 1.54
26.02 1.44 1.53
25.99 1.97 1.53
26.08 2.50 1.53
26.02 3.02 1.53
16.52 2.26 0.97
14.22 2.23 0.84
13.41 2.38 0.79
13.41 2.66 0.79
13.41 2.94 0.80
13.13 3.16 0.78
13.53 3.55 0.81
13.53 3.84 0.81
13.53 4.13 0.81
13.52 4.43 0.82
13.52 4.73 0.82
13.52 5.04 0.83
13.52 5.35 0.83
5.77 2.42 0.36
5.77 2.56 0.36
5.90 2.76 0.37
5.67 2.79 0.36
10.61 5.49 0.67
13.50 7.32 0.86
13.49 7.68 0.87
13.36 7.96 0.87
13.15 8.19 0.87
4.85 3.16 0.32
4.86 3.31 0.33
4.87 3.46 0.33
4.89 3.62 0.34
12.01 9.28 0.84
12.01 9.67 0.85
12.10 10.15 0.87
12.09 10.57 0.88
12.09 11.00 0.89
11.99 11.36 0.90
11.99 11.82 0.91
11.17 11.46 0.86
11.98 12.80 0.94
12.09 13.45 0.97
12.08 14.00 0.99
7.37 8.89 0.62
7.07 8.89 0.60
6.79 8.89 0.59
6.63 9.05 0.59
6.61 9.41 0.61
6.68 9.95 0.63
6.91 10.74 0.67
6.73 10.94 0.67
6.64 11.29 0.68
6.67 11.88 0.71
6.87 12.83 0.75
6.61 12.97 0.75
6.60 13.63 0.78
6.66 14.48 0.81
6.47 14.85 0.82
6.46 15.66 0.86
6.49 16.68 0.90
6.35 17.34 0.93
6.37 18.56 0.98
6.39 19.91 1.04
12.53 41.90 2.18
11.64 41.97 2.16
10.73 41.92 2.14
9.87 42.08 2.13
9.42 44.12 2.21
8.93 46.36 2.31
8.03 46.75 2.31
7.11 46.99 2.31
6.33 48.42 2.36
5.44 49.27 2.39
4.47 49.55 2.39
3.48 49.80 2.39
2.27 45.64 2.18
-8.04 41.59 1.94
-10.11 47.16 2.20
-10.12 42.97 2.01
-10.08 39.27 1.84
-10.05 36.12 1.70
-9.97 33.25 1.57
-10.00 31.06 1.47
-9.98 28.99 1.37
-9.96 27.16 1.29
-9.87 25.32 1.21
-9.93 24.04 1.16
-9.92 22.71 1.10
-7.71 16.72 0.81
-8.05 16.58 0.81
-9.89 19.37 0.96
-9.88 18.42 0.92
-9.87 17.55 0.88
-9.86 16.74 0.85
-9.85 15.99 0.82
-9.85 15.28 0.79
-9.84 14.62 0.76
-9.83 14.00 0.74
-9.76 13.31 0.71
-9.82 12.85 0.70
-9.82 12.32 0.68
-9.81 11.82 0.66
-9.81 11.35 0.64
-9.80 10.89 0.63
-9.80 10.46 0.61
-9.80 10.04 0.60
-9.79 9.64 0.58
-9.77 9.24 0.57
-9.78 8.89 0.56
-9.78 8.54 0.55
-9.78 8.19 0.54
-9.77 7.86 0.53
-9.77 7.54 0.52
-9.77 7.23 0.51
-9.76 6.93 0.50
-9.76 6.64 0.50
-9.76 6.35 0.49
-9.76 6.08 0.48
-9.75 5.81 0.48
-9.75 5.54 0.47
-9.70 5.26 0.46
-9.75 5.03 0.46
-9.74 4.79 0.45
-9.74 4.55 0.45
-9.74 4.31 0.45
-9.74 4.08 0.44
-9.73 3.85 0.44
-9.73 3.62 0.43
-9.73 3.40 0.43
-9.73 3.18 0.43
-9.73 2.97 0.43
-9.72 2.75 0.42
-9.72 2.54 0.42
-9.72 2.34 0.42
-9.72 2.13 0.42
-6.56 1.30 0.28
-9.71 1.72 0.41
-9.71 1.52 0.41
-9.64 1.32 0.41
-9.71 1.13 0.41
-9.71 0.93 0.41
-9.70 0.73 0.41
-9.70 0.54 0.41
-9.70 0.34 0.41
-9.70 0.15 0.41
-9.70 -0.05 0.41
-9.69 -0.24 0.41
-9.69 -0.44 0.41
-9.69 -0.63 0.42
-9.69 -0.83 0.42
-9.69 -1.02 0.42
-9.69 -1.22 0.42
-9.68 -1.42 0.42
-9.68 -1.62 0.42
-9.68 -1.82 0.43
-9.68 -2.02 0.43
-9.68 -2.22 0.43
-9.67 -2.43 0.43
-9.61 -2.62 0.44
-9.67 -2.84 0.44
-9.67 -3.05 0.45
-9.67 -3.27 0.45
-9.66 -3.48 0.45
-9.66 -3.70 0.46
-9.66 -3.93 0.46
-9.66 -4.15 0.47
-9.65 -4.38 0.47
-9.65 -4.62 0.48
-9.65 -4.86 0.49
-9.65 -5.10 0.49
-9.64 -5.35 0.50
-9.64 -5.61 0.51
-9.64 -5.87 0.51
-9.64 -6.13 0.52
-9.63 -6.41 0.53
-9.57 -6.64 0.53
-9.63 -6.98 0.55
-9.63 -7.27 0.56
-9.62 -7.58 0.57
-9.62 -7.89 0.58
-9.62 -8.22 0.59
-9.61 -8.56 0.60
-9.61 -8.91 0.62
-9.61 -9.27 0.63
-9.60 -9.64 0.64
-9.60 -10.03 0.66
-9.60 -10.44 0.68
-9.59 -10.87 0.69
-9.59 -11.31 0.71
-9.58 -11.78 0.73
-9.58 -12.27 0.75
-9.57 -12.78 0.78
-9.57 -13.32 0.80
-9.56 -13.90 0.82
-9.56 -14.50 0.85
-9.55 -15.15 0.88
-9.54 -15.83 0.91
-9.54 -16.56 0.95
-9.53 -17.35 0.98
-9.52 -18.19 1.03
-9.51 -19.09 1.07
-9.50 -20.07 1.12
-9.49 -21.14 1.17
-9.48 -22.30 1.23
-9.47 -23.58 1.29
-9.45 -24.98 1.36
-9.44 -26.54 1.44
-9.42 -28.27 1.53
-9.40 -30.23 1.63
-9.38 -32.44 1.75
-9.36 -34.97 1.88
-9.33 -37.90 2.03
-9.24 -41.10 2.20
-9.11 -44.67 2.39
-8.18 -44.70 2.39
-5.59 -34.42 1.84
-5.72 -40.29 2.15
-5.46 -44.94 2.40
-4.71 -46.55 2.49
-3.76 -46.48 2.49
-2.82 -46.40 2.49
-1.88 -46.31 2.49
-0.95 -46.19 2.49
-0.02 -32.49 2.49
0.63 -32.41 2.49
1.28 -32.32 2.49
1.92 -32.22 2.49
2.57 -32.11 2.49
3.20 -31.99 2.49
3.84 -31.85 2.49
4.47 -31.71 2.49
4.75 -29.43 2.33
5.40 -29.64 2.36
6.07 -29.91 2.39
5.89 -26.29 2.11
5.63 -22.97 1.86
5.48 -20.55 1.67
5.85 -20.32 1.67
5.64 -18.19 1.50
6.02 -18.14 1.51
5.77 -16.27 1.37
5.57 -14.75 1.25
5.74 -14.34 1.23
6.06 -14.30 1.24
5.61 -12.53 1.10
5.83 -12.35 1.09
6.12 -12.32 1.10
5.66 -10.84 0.98
5.74 -10.48 0.96
5.19 -9.03 0.84
5.18 -8.62 0.81
5.37 -8.54 0.81
5.62 -8.54 0.83
5.88 -8.56 0.84
6.09 -8.50 0.85
6.36 -8.51 0.86
6.62 -8.49 0.87
6.98 -8.60 0.90
10.77 -12.73 1.35
10.77 -12.22 1.32
5.82 -6.35 0.70
5.85 -6.13 0.69
5.94 -5.98 0.69
6.17 -5.96 0.70
6.41 -5.94 0.71
6.62 -5.90 0.72
6.91 -5.92 0.74
14.59 -11.99 1.55
15.19 -11.98 1.58
15.83 -11.97 1.63
16.50 -11.97 1.67
6.30 -4.38 0.63
6.28 -4.18 0.62
6.24 -3.98 0.61
6.28 -3.83 0.60
6.39 -3.72 0.61
6.62 -3.68 0.62
6.86 -3.63 0.64
7.09 -3.57 0.65
7.41 -3.55 0.68
7.73 -3.51 0.70
8.59 -3.70 0.77
8.78 -3.57 0.78
9.01 -3.45 0.79
9.51 -3.43 0.83
10.04 -3.40 0.87
10.87 -3.43 0.94
11.43 -3.36 0.98
12.12 -3.30 1.03
13.33 -3.34 1.13
14.24 -3.27 1.20
15.85 -3.30 1.33
17.18 -3.23 1.43
18.38 -3.07 1.53
18.97 -2.78 1.57
20.38 -2.57 1.68
23.48 -2.48 1.93
25.75 -2.20 2.11
26.24 -1.71 2.15
26.35 -1.18 2.15
26.11 -0.65 2.13
26.13 -0.12 2.13
26.25 0.40 2.14
26.16 0.93 2.13
25.99 1.44 2.12
26.10 1.98 2.13
26.06 2.50 2.13
26.01 3.02 2.12
16.50 2.26 1.35
14.21 2.23 1.16
13.41 2.39 1.10
13.41 2.66 1.10
13.41 2.94 1.11
13.13 3.16 1.09
13.53 3.55 1.13
13.53 3.84 1.13
13.53 4.13 1.13
13.52 4.43 1.14
13.52 4.73 1.15
13.52 5.04 1.15
10.76 4.26 0.92
10.28 4.31 0.89
5.85 2.59 0.51
5.77 2.70 0.51
10.04 4.94 0.89
10.05 5.20 0.89
10.05 5.46 0.90
10.07 5.73 0.91
10.07 6.00 0.92
13.14 8.19 1.22
4.81 3.14 0.45
4.82 3.28 0.46
4.83 3.43 0.46
4.83 3.58 0.47
12.01 9.28 1.18
11.28 9.09 1.12
11.14 9.35 1.13
12.00 10.49 1.23
12.00 10.92 1.25
11.99 11.36 1.27
11.99 11.82 1.29
11.12 11.41 1.22
11.98 12.80 1.34
12.09 13.45 1.38
12.08 14.00 1.41
7.34 8.86 0.87
7.03 8.84 0.86
6.76 8.86 0.84
6.60 9.03 0.84
6.57 9.36 0.86
6.67 9.93 0.90
6.90 10.73 0.96
6.69 10.88 0.95
6.61 11.24 0.97
6.60 11.77 1.00
6.84 12.79 1.08
6.56 12.88 1.07
6.54 13.51 1.11
6.66 14.49 1.17
6.44 14.77 1.18
6.41 15.57 1.23
6.44 16.57 1.30
6.36 17.40 1.35
6.40 18.65 1.43
6.45 20.10 1.53
9.86 33.00 2.49
9.22 33.27 2.49
8.57 33.53 2.49
7.89 33.68 2.49
4.86 22.80 1.67
4.37 22.74 1.66
3.95 23.02 1.67
5.18 34.32 2.47
4.53 34.72 2.49
3.86 35.00 2.49
3.16 35.15 2.49
2.46 35.29 2.49
1.76 35.42 2.49
1.05 35.53 2.49
0.34 35.63 2.49
-0.38 35.72 2.49
-1.10 35.78 2.49
-1.82 35.84 2.49
-2.55 35.88 2.49
-3.27 35.90 2.49
-4.00 35.91 2.49
-4.73 35.90 2.49
-5.46 35.88 2.49
-6.20 35.84 2.49
-6.47 33.43 2.33
-6.21 28.95 2.02
-6.18 26.24 1.84
-8.75 34.07 2.39
-9.45 33.96 2.39
-9.98 33.25 2.35
-9.94 30.86 2.19
-9.98 28.98 2.07
-9.96 27.14 1.95
-9.87 25.32 1.82
-9.93 24.03 1.74
-9.92 22.70 1.66
-7.69 16.69 1.23
-8.04 16.55 1.23
-9.89 19.36 1.45
-9.88 18.42 1.39
-9.87 17.55 1.33
-9.86 16.74 1.29
-9.85 15.98 1.24
-9.85 15.28 1.20
-9.84 14.62 1.16
-9.83 13.99 1.13
-9.76 13.31 1.08
-9.82 12.85 1.06
-9.82 12.32 1.03
-9.81 11.82 1.01
-9.81 11.34 0.98
-9.80 10.89 0.96
-9.80 10.45 0.93
-9.80 10.04 0.91
-9.79 9.64 0.89
-9.77 9.24 0.87
-9.78 8.89 0.86
-9.78 8.53 0.84
-9.78 8.19 0.83
-9.77 7.86 0.81
-9.77 7.54 0.80
-9.77 7.23 0.79
-9.76 6.93 0.77
-9.76 6.64 0.76
-9.76 6.35 0.75
-9.76 6.08 0.74
-9.75 5.81 0.73
-9.75 5.54 0.72
-9.70 5.26 0.71
-9.75 5.03 0.71
-9.74 4.79 0.70
-9.74 4.55 0.69
-9.74 4.31 0.69
-9.74 4.08 0.68
-9.73 3.85 0.67
-9.73 3.62 0.67
-9.73 3.40 0.66
-9.73 3.18 0.66
-9.73 2.97 0.66
-9.72 2.75 0.65
-9.72 2.54 0.65
-9.72 2.34 0.65
-9.72 2.13 0.64
-6.56 1.30 0.43
-9.71 1.73 0.64
-9.71 1.52 0.64
-9.64 1.32 0.63
-9.71 1.13 0.63
-9.71 0.93 0.63
-9.70 0.73 0.63
-9.70 0.54 0.63
-9.70 0.34 0.63
-9.70 0.15 0.63
-9.70 -0.05 0.63
-9.69 -0.24 0.63
-9.69 -0.44 0.63
-9.69 -0.63 0.63
-9.69 -0.83 0.64
-9.69 -1.02 0.64
-9.69 -1.22 0.64
-9.68 -1.42 0.64
-9.68 -1.62 0.65
-9.68 -1.82 0.65
-9.68 -2.02 0.65
-9.68 -2.22 0.66
-9.67 -2.42 0.66
-9.61 -2.62 0.66
-9.67 -2.84 0.67
-9.67 -3.05 0.67
-9.67 -3.27 0.68
-9.66 -3.48 0.69
-9.66 -3.70 0.69
-9.66 -3.93 0.70
-9.66 -4.15 0.71
-9.65 -4.38 0.71
-9.65 -4.62 0.72
-9.65 -4.86 0.73
-9.65 -5.10 0.74
-9.64 -5.35 0.75
-9.64 -5.60 0.76
-9.64 -5.86 0.77
-9.64 -6.13 0.78
-9.63 -6.40 0.79
-9.57 -6.64 0.80
-9.63 -6.97 0.82
-9.63 -7.27 0.83
-9.62 -7.58 0.84
-9.62 -7.89 0.86
-9.62 -8.22 0.88
-9.61 -8.55 0.89
-9.61 -8.90 0.91
-9.61 -9.26 0.93
-9.60 -9.64 0.95
-9.60 -10.03 0.97
-9.60 -10.44 1.00
-9.59 -10.86 1.02
-9.59 -11.31 1.05
-9.58 -11.77 1.07
-9.58 -12.26 1.10
-9.57 -12.78 1.14
-9.57 -13.32 1.17
-9.56 -13.89 1.21
-9.56 -14.50 1.24
-9.55 -15.14 1.29
-9.54 -15.83 1.33
-9.54 -16.56 1.38
-9.53 -17.34 1.43
-9.52 -18.18 1.49
-9.51 -19.08 1.55
-9.50 -20.06 1.62
-9.49 -21.13 1.69
-9.48 -22.29 1.77
-9.47 -23.56 1.86
-9.45 -24.97 1.97
-9.44 -26.52 2.08
-9.37 -28.09 2.19
-9.58 -30.78 2.39
-8.94 -30.89 2.39
-8.30 -30.99 2.39
-7.65 -31.07 2.39
-7.01 -31.15 2.39
-6.37 -31.21 2.39
-5.73 -31.26 2.39
-5.31 -32.64 2.49
-4.64 -32.67 2.49
-3.98 -32.68 2.49
-3.31 -32.68 2.49
-2.65 -32.67 2.49
-1.99 -32.64 2.49
-1.33 -32.60 2.49
-0.67 -32.55 2.49
-0.02 -25.07 2.49
0.48 -25.03 2.49
0.98 -24.97 2.49
1.48 -24.91 2.49
1.98 -24.83 2.49
2.38 -23.84 2.40
2.84 -23.63 2.39
3.31 -23.54 2.39
3.78 -23.43 2.39
4.24 -23.31 2.39
4.70 -23.19 2.39
5.16 -23.06 2.39
5.61 -22.91 2.39
5.47 -20.54 2.16
5.85 -20.31 2.15
5.63 -18.16 1.93
6.03 -18.16 1.95
5.76 -16.26 1.76
5.48 -14.53 1.59
5.73 -14.30 1.58
5.59 -13.19 1.47
5.61 -12.53 1.41
5.81 -12.31 1.40
6.11 -12.30 1.41
5.64 -10.79 1.25
4.99 -9.11 1.07
5.03 -8.75 1.04
5.17 -8.60 1.04
5.37 -8.54 1.04
5.62 -8.54 1.06
5.85 -8.52 1.07
6.11 -8.52 1.09
6.35 -8.49 1.10
6.62 -8.49 1.12
6.88 -8.47 1.13
10.77 -12.73 1.73
5.86 -6.65 0.92
5.66 -6.17 0.87
5.83 -6.11 0.88
5.93 -5.97 0.88
6.14 -5.93 0.89
6.36 -5.90 0.91
6.60 -5.88 0.92
6.87 -5.88 0.95
7.14 -5.86 0.97
15.19 -11.98 2.02
15.83 -11.97 2.08
16.50 -11.97 2.13
6.29 -4.37 0.80
6.27 -4.17 0.79
6.24 -3.98 0.78
6.28 -3.83 0.77
6.38 -3.71 0.77
6.58 -3.65 0.79
6.78 -3.59 0.80
7.01 -3.53 0.82
7.34 -3.52 0.85
7.72 -3.51 0.89
8.09 -3.48 0.92
8.79 -3.58 1.00
9.11 -3.49 1.02
9.56 -3.45 1.07
10.65 -3.60 1.18
10.89 -3.44 1.20
11.37 -3.34 1.24
12.16 -3.31 1.32
13.23 -3.32 1.43
14.24 -3.27 1.53
15.74 -3.28 1.68
17.55 -3.29 1.87
18.37 -3.07 1.95
18.99 -2.78 2.01
20.17 -2.54 2.13
19.53 -2.06 2.05
19.58 -1.67 2.05
19.62 -1.28 2.05
19.66 -0.88 2.05
19.68 -0.49 2.05
19.70 -0.09 2.05
19.71 0.30 2.05
19.72 0.70 2.05
19.71 1.10 2.05
19.70 1.49 2.05
19.68 1.89 2.05
19.78 2.30 2.07
16.49 2.26 1.73
14.20 2.23 1.49
13.41 2.39 1.41
13.41 2.67 1.41
13.41 2.95 1.42
13.13 3.16 1.39
13.53 3.55 1.44
13.53 3.84 1.45
13.53 4.14 1.46
13.52 4.43 1.46
13.52 4.74 1.47
10.92 4.07 1.20
10.36 4.10 1.14
5.97 2.50 0.66
5.78 2.56 0.65
5.87 2.74 0.66
9.91 4.88 1.13
9.92 5.13 1.14
9.92 5.39 1.15
9.93 5.66 1.16
9.95 5.93 1.17
9.98 6.23 1.19
9.74 6.35 1.17
4.78 3.26 0.58
10.03 7.13 1.24
12.15 9.01 1.52
12.01 9.29 1.53
11.28 9.09 1.45
11.14 9.35 1.46
12.00 10.49 1.59
12.00 10.92 1.62
11.83 11.21 1.62
11.62 11.46 1.62
11.12 11.42 1.58
11.19 11.96 1.62
11.11 12.37 1.64
11.09 12.85 1.68
7.32 8.84 1.13
7.03 8.84 1.11
4.50 5.90 0.73
4.33 5.92 0.72
4.22 6.02 0.72
4.18 6.23 0.73
6.90 10.74 1.25
6.67 10.85 1.24
6.60 11.24 1.27
6.61 11.78 1.31
6.84 12.80 1.41
6.57 12.90 1.40
6.56 13.56 1.45
6.66 14.50 1.54
6.43 14.78 1.55
6.43 15.61 1.62
6.45 16.61 1.71
6.34 17.35 1.77
6.46 18.83 1.90
6.45 20.11 2.01
5.89 19.71 1.96
6.72 24.27 2.39
6.25 24.45 2.39
5.76 24.62 2.39
5.28 24.77 2.39
4.42 23.02 2.21
4.48 26.14 2.49
3.96 26.27 2.49
3.44 26.40 2.49
2.92 26.51 2.49
2.39 26.61 2.49
1.86 26.70 2.49
1.32 26.78 2.49
0.79 26.85 2.49
0.25 26.91 2.49
-0.29 26.96 2.49
-0.83 27.00 2.49
-1.38 27.02 2.49
-1.92 27.04 2.49
-2.47 27.04 2.49
-3.02 27.03 2.49
-3.56 27.01 2.49
-4.11 26.98 2.49
-4.66 26.94 2.49
-5.21 26.88 2.49
-5.76 26.82 2.49
-6.15 26.07 2.43
-6.40 24.92 2.33
-6.40 22.98 2.16
-6.16 20.50 1.93
-6.11 18.96 1.80
-8.65 25.09 2.39
-9.16 24.95 2.39
-9.67 24.80 2.39
-9.88 22.60 2.21
-7.70 16.69 1.64
-8.04 16.55 1.64
-9.89 19.35 1.94
-9.88 18.41 1.86
-9.87 17.54 1.79
-9.86 16.73 1.73
-9.85 15.98 1.67
-9.85 15.27 1.61
-9.84 14.61 1.56
-9.83 13.99 1.51
-9.76 13.31 1.46
-9.82 12.85 1.43
-9.82 12.32 1.39
-9.81 11.82 1.35
-9.81 11.34 1.32
-9.80 10.89 1.29
-9.80 10.45 1.26
-9.80 10.04 1.23
-9.79 9.64 1.21
-9.77 9.24 1.18
-9.78 8.89 1.16
-9.78 8.53 1.14
-9.78 8.19 1.12
-9.77 7.86 1.10
-9.77 7.54 1.08
-9.77 7.23 1.06
-9.76 6.93 1.05
-9.76 6.64 1.03
-9.76 6.35 1.02
-9.76 6.07 1.00
-9.75 5.81 0.99
-9.75 5.54 0.98
-9.70 5.26 0.96
-9.75 5.03 0.96
-9.74 4.79 0.95
-9.74 4.55 0.94
-9.74 4.31 0.93
-9.74 4.08 0.92
-9.73 3.85 0.91
-9.73 3.62 0.90
-9.73 3.40 0.90
-9.73 3.18 0.89
-9.73 2.97 0.89
-9.72 2.76 0.88
-9.72 2.55 0.88
-9.72 2.34 0.87
-9.72 2.13 0.87
-6.56 1.30 0.58
-9.71 1.73 0.86
-9.71 1.53 0.86
-9.64 1.32 0.85
-9.71 1.13 0.85
-9.71 0.93 0.85
-9.70 0.73 0.85
-9.70 0.54 0.85
-9.70 0.34 0.85
-9.70 0.15 0.85
-9.70 -0.05 0.85
-9.69 -0.24 0.85
-9.69 -0.43 0.85
-9.69 -0.63 0.85
-9.69 -0.83 0.86
-9.69 -1.02 0.86
-9.69 -1.22 0.86
-9.68 -1.42 0.86
-9.68 -1.61 0.87
-9.68 -1.81 0.87
-9.68 -2.02 0.88
-9.68 -2.22 0.88
-9.67 -2.42 0.89
-9.62 -2.61 0.89
-9.67 -2.84 0.90
-9.67 -3.05 0.90
-9.67 -3.26 0.91
-9.66 -3.48 0.92
-9.66 -3.70 0.93
-9.66 -3.92 0.93
-9.66 -4.15 0.94
-9.65 -4.38 0.95
-9.65 -4.62 0.96
-9.65 -4.85 0.97
-9.65 -5.10 0.99
-9.64 -5.35 1.00
-9.64 -5.60 1.01
-9.64 -5.86 1.02
-9.64 -6.13 1.04
-9.63 -6.40 1.05
-9.57 -6.64 1.06
-9.63 -6.97 1.09
-9.63 -7.27 1.10
-9.62 -7.57 1.12
-9.62 -7.89 1.14
-9.62 -8.21 1.16
-9.61 -8.55 1.19
-9.61 -8.90 1.21
-9.61 -9.26 1.23
-9.60 -9.64 1.26
-9.60 -10.03 1.29
-9.60 -10.43 1.32
-9.59 -10.86 1.35
-9.59 -11.30 1.38
-9.58 -11.77 1.42
-9.58 -12.26 1.46
-9.57 -12.77 1.50
-9.57 -13.31 1.54
-9.56 -13.89 1.59
-9.56 -14.49 1.64
-9.55 -15.13 1.69
-9.54 -15.82 1.75
-9.54 -16.55 1.81
-9.53 -17.33 1.88
-9.52 -18.17 1.95
-8.80 -17.64 1.88
-8.49 -17.92 1.89
-8.71 -19.38 2.03
-8.76 -20.60 2.15
-9.28 -23.07 2.39
-8.79 -23.21 2.39
-8.31 -23.34 2.39
-7.83 -23.46 2.39
-7.34 -23.57 2.39
-6.85 -23.66 2.39
-6.36 -23.75 2.39
-5.88 -23.83 2.39
-5.62 -24.93 2.49
-5.11 -25.00 2.49
-4.60 -25.05 2.49
-4.09 -25.09 2.49
-3.57 -25.12 2.49
-3.06 -25.15 2.49
-2.55 -25.16 2.49
-2.05 -25.16 2.49
-1.54 -25.15 2.49
-1.03 -25.14 2.49
-0.52 -25.11 2.49
-0.02 -20.40 2.49
0.39 -20.37 2.49
0.80 -20.33 2.49
1.20 -20.28 2.49
1.61 -20.22 2.49
2.01 -20.16 2.49
2.34 -19.45 2.41
2.70 -19.19 2.39
3.08 -19.10 2.39
3.46 -19.01 2.39
3.83 -18.92 2.39
4.21 -18.82 2.39
4.58 -18.70 2.39
4.95 -18.59 2.39
5.31 -18.46 2.39
5.63 -18.19 2.37
6.02 -18.15 2.38
5.76 -16.27 2.15
5.57 -14.77 1.97
5.72 -14.30 1.93
6.05 -14.29 1.94
5.60 -12.52 1.72
5.81 -12.31 1.71
6.10 -12.29 1.72
5.55 -10.64 1.51
4.98 -9.09 1.30
5.02 -8.74 1.27
5.16 -8.58 1.26
5.37 -8.55 1.27
5.60 -8.53 1.29
5.84 -8.50 1.30
6.09 -8.50 1.32
6.33 -8.48 1.34
6.62 -8.50 1.36
6.96 -8.57 1.40
10.77 -12.73 2.11
5.64 -6.40 1.08
5.64 -6.14 1.06
5.73 -6.00 1.05
5.93 -5.96 1.07
6.14 -5.93 1.09
6.36 -5.90 1.10
6.62 -5.90 1.13
6.87 -5.88 1.15
8.42 -6.92 1.39
13.84 -10.91 2.25
14.05 -10.63 2.25
6.27 -4.55 0.99
6.28 -4.36 0.98
6.27 -4.18 0.96
6.24 -3.98 0.95
6.21 -3.78 0.93
6.36 -3.70 0.94
6.58 -3.65 0.96
6.77 -3.58 0.98
7.00 -3.53 1.00
7.32 -3.51 1.04
7.72 -3.51 1.08
8.45 -3.64 1.17
8.78 -3.57 1.21
9.07 -3.48 1.24
9.55 -3.45 1.30
10.64 -3.60 1.44
10.79 -3.41 1.45
11.36 -3.34 1.51
12.14 -3.31 1.61
13.25 -3.32 1.74
14.33 -3.29 1.88
15.72 -3.28 2.05
17.29 -3.24 2.24
16.05 -2.68 2.08
16.10 -2.36 2.07
16.15 -2.03 2.07
16.19 -1.71 2.07
16.22 -1.38 2.07
16.25 -1.06 2.07
16.27 -0.73 2.07
16.29 -0.40 2.07
16.30 -0.07 2.07
16.31 0.25 2.07
16.31 0.58 2.07
16.31 0.91 2.07
16.30 1.24 2.07
16.28 1.57 2.07
17.42 2.03 2.22
16.48 2.26 2.10
14.19 2.23 1.82
13.41 2.39 1.72
13.41 2.67 1.73
13.41 2.95 1.73
13.04 3.14 1.69
13.03 3.42 1.70
13.53 3.84 1.77
13.53 4.14 1.78
13.52 4.44 1.79
13.52 4.74 1.80
10.75 4.01 1.44
10.23 4.05 1.38
9.80 4.11 1.33
5.79 2.57 0.79
5.83 2.73 0.80
9.81 4.83 1.36
9.82 5.08 1.38
9.83 5.34 1.39
9.84 5.60 1.41
9.85 5.87 1.42
9.86 6.15 1.44
9.87 6.44 1.46
9.88 6.73 1.48
9.88 7.03 1.50
12.15 9.01 1.87
11.65 9.01 1.81
11.20 9.03 1.77
11.14 9.35 1.79
11.13 9.74 1.82
11.13 10.14 1.85
11.13 10.55 1.88
11.12 10.98 1.91
11.12 11.42 1.95
10.92 11.68 1.95
10.78 12.00 1.96
10.77 12.49 2.01
7.33 8.86 1.40
7.00 8.81 1.36
4.44 5.82 0.89
4.28 5.86 0.88
4.17 5.95 0.88
4.10 6.11 0.89
6.89 10.72 1.53
6.67 10.86 1.53
6.60 11.24 1.56
6.62 11.81 1.62
6.84 12.80 1.74
6.55 12.88 1.73
6.55 13.54 1.79
6.70 14.58 1.91
6.49 14.90 1.93
6.42 15.59 2.00
5.97 15.38 1.96
5.85 16.02 2.02
5.84 17.03 2.13
5.83 18.20 2.26
5.80 19.43 2.39
5.42 19.58 2.39
5.03 19.71 2.39
4.64 19.84 2.39
4.25 19.96 2.39
3.85 20.07 2.39
3.45 20.17 2.39
3.05 20.27 2.39
2.65 20.36 2.39
2.24 20.44 2.39
1.92 21.39 2.49
1.49 21.46 2.49
1.06 21.52 2.49
0.63 21.56 2.49
0.20 21.60 2.49
-0.24 21.64 2.49
-0.67 21.66 2.49
-1.11 21.67 2.49
-1.55 21.67 2.49
-1.98 21.67 2.49
-2.42 21.65 2.49
-2.86 21.63 2.49
-3.30 21.60 2.49
-3.73 21.56 2.49
-4.17 21.51 2.49
-4.61 21.45 2.49
-5.04 21.38 2.49
-5.48 21.30 2.49
-5.91 21.21 2.49
-6.10 20.31 2.40
-6.41 19.86 2.36
-6.91 20.03 2.39
-7.31 19.91 2.39
-7.72 19.78 2.39
-8.13 19.65 2.39
-8.53 19.50 2.39
-7.70 16.69 2.06
-8.04 16.55 2.06
-9.72 19.01 2.39
-10.11 18.84 2.39
-9.80 16.63 2.15
-9.85 15.98 2.09
-9.85 15.27 2.02
-9.84 14.61 1.96
-9.83 13.99 1.90
-9.76 13.30 1.83
-9.82 12.84 1.79
-9.82 12.32 1.75
-9.81 11.82 1.70
-9.81 11.34 1.66
-9.80 10.89 1.62
-9.80 10.45 1.58
-9.80 10.04 1.55
-9.79 9.64 1.52
-9.77 9.24 1.48
-9.78 8.89 1.46
-9.78 8.53 1.43
-9.78 8.19 1.41
-9.77 7.86 1.38
-9.77 7.54 1.36
-9.77 7.23 1.34
-9.76 6.93 1.32
-9.76 6.64 1.30
-9.76 6.35 1.28
-9.76 6.07 1.26
-9.75 5.80 1.25
-9.75 5.54 1.23
-9.70 5.26 1.21
-9.75 5.03 1.20
-9.74 4.79 1.19
-9.74 4.55 1.18
-9.74 4.31 1.17
-9.74 4.08 1.16
-9.73 3.85 1.15
-9.73 3.62 1.14
-9.73 3.40 1.13
-9.73 3.18 1.12
-9.73 2.97 1.12
-9.72 2.76 1.11
-9.72 2.55 1.10
-9.72 2.34 1.10
-9.72 2.13 1.09
-6.56 1.30 0.74
-9.71 1.73 1.09
-9.71 1.53 1.08
-9.64 1.32 1.07
-9.71 1.13 1.08
-9.71 0.93 1.07
-9.70 0.73 1.07
-9.70 0.54 1.07
-9.70 0.34 1.07
-9.70 0.15 1.07
-9.70 -0.04 1.07
-9.69 -0.24 1.07
-9.69 -0.43 1.07
-9.69 -0.63 1.08
-9.69 -0.82 1.08
-9.69 -1.02 1.08
-9.69 -1.22 1.08
-9.68 -1.41 1.09
-9.68 -1.61 1.09
-9.68 -1.81 1.10
-9.68 -2.01 1.10
-9.68 -2.22 1.11
-9.67 -2.42 1.11
-9.62 -2.61 1.11
-9.67 -2.84 1.13
-9.67 -3.05 1.13
-9.67 -3.26 1.14
-9.66 -3.48 1.15
-9.66 -3.70 1.16
-9.66 -3.92 1.17
-9.66 -4.15 1.18
-9.65 -4.38 1.19
-9.65 -4.61 1.21
-9.65 -4.85 1.22
-9.65 -5.10 1.23
-9.64 -5.35 1.25
-9.64 -5.60 1.26
-9.64 -5.86 1.28
-9.64 -6.13 1.30
-9.63 -6.40 1.32
-9.57 -6.64 1.33
-9.63 -6.97 1.36
-9.63 -7.27 1.38
-9.62 -7.57 1.40
-9.62 -7.89 1.43
-9.62 -8.21 1.45
-9.61 -8.55 1.48
-9.61 -8.90 1.51
-9.61 -9.26 1.54
-9.60 -9.63 1.57
-9.60 -10.02 1.60
-9.60 -10.43 1.64
-9.59 -10.86 1.68
-9.59 -11.30 1.72
-9.58 -11.76 1.76
-9.58 -12.25 1.81
-9.57 -12.77 1.86
-9.57 -13.31 1.91
-9.56 -13.88 1.97
-9.56 -14.48 2.03
-8.72 -13.81 1.92
-8.52 -14.11 1.94
-8.51 -14.77 2.01
-8.83 -16.84 2.24
-8.89 -17.82 2.35
-8.65 -18.25 2.39
-8.27 -18.39 2.39
-7.89 -18.52 2.39
-7.50 -18.65 2.39
-7.12 -18.77 2.39
-6.73 -18.88 2.39
-6.34 -18.98 2.39
-5.95 -19.08 2.39
-5.70 -19.65 2.45
-5.38 -20.07 2.49
-4.97 -20.15 2.49
-4.56 -20.21 2.49
-4.15 -20.27 2.49
-3.73 -20.32 2.49
-3.32 -20.36 2.49
-2.91 -20.39 2.49
-2.49 -20.42 2.49
-2.08 -20.43 2.49
-1.67 -20.44 2.49
-1.25 -20.44 2.49
-0.84 -20.44 2.49
-0.43 -20.42 2.49
-0.02 -17.18 2.49
0.32 -17.15 2.49
0.67 -17.12 2.49
1.01 -17.09 2.49
1.35 -17.04 2.49
1.69 -17.00 2.49
2.03 -16.94 2.49
2.30 -16.42 2.43
2.59 -16.11 2.39
2.91 -16.04 2.39
3.23 -15.96 2.39
3.55 -15.88 2.39
3.86 -15.79 2.39
4.17 -15.69 2.39
4.48 -15.59 2.39
4.79 -15.48 2.39
5.10 -15.37 2.39
5.40 -15.25 2.39
5.48 -14.54 2.30
5.71 -14.28 2.28
6.05 -14.29 2.30
5.60 -12.53 2.04
5.81 -12.31 2.02
6.11 -12.30 2.04
5.61 -10.76 1.80
4.95 -9.04 1.53
5.02 -8.74 1.50
5.13 -8.53 1.48
5.36 -8.52 1.50
5.60 -8.52 1.52
5.84 -8.51 1.54
6.10 -8.51 1.56
6.35 -8.50 1.59
6.62 -8.50 1.61
6.96 -8.57 1.65
9.87 -11.68 2.29
5.65 -6.42 1.28
5.63 -6.14 1.25
5.74 -6.01 1.25
5.92 -5.95 1.26
6.12 -5.91 1.28
6.34 -5.88 1.30
6.61 -5.89 1.33
6.88 -5.89 1.36
8.57 -7.04 1.67
11.74 -9.26 2.25
11.96 -9.05 2.26
12.19 -8.84 2.27
6.26 -4.35 1.15
6.26 -4.17 1.13
6.26 -3.99 1.12
6.22 -3.79 1.10
6.32 -3.68 1.10
6.57 -3.65 1.13
6.76 -3.58 1.15
6.98 -3.52 1.18
7.31 -3.50 1.22
7.71 -3.50 1.28
8.50 -3.66 1.40
8.70 -3.54 1.42
9.05 -3.47 1.46
9.51 -3.43 1.52
10.68 -3.61 1.70
10.82 -3.42 1.71
11.39 -3.35 1.79
12.74 -3.47 1.99
13.22 -3.32 2.05
13.92 -3.19 2.15
14.63 -3.05 2.25
13.71 -2.57 2.10
13.76 -2.30 2.10
13.81 -2.02 2.10
13.84 -1.74 2.10
13.88 -1.46 2.10
13.91 -1.18 2.10
13.93 -0.90 2.10
13.95 -0.62 2.10
13.97 -0.34 2.10
13.98 -0.06 2.10
13.98 0.22 2.10
13.98 0.50 2.10
13.98 0.78 2.10
13.97 1.06 2.10
13.95 1.34 2.10
13.93 1.62 2.10
14.89 2.04 2.25
14.18 2.23 2.14
13.41 2.39 2.03
13.41 2.67 2.04
13.41 2.95 2.05
13.08 3.15 2.00
13.53 3.55 2.08
13.53 3.84 2.09
13.47 4.12 2.09
13.40 4.40 2.10
11.30 3.96 1.78
10.51 3.92 1.66
10.00 3.96 1.59
5.82 2.44 0.93
5.75 2.55 0.93
5.86 2.74 0.96
9.79 4.82 1.61
9.80 5.07 1.63
9.81 5.33 1.65
9.82 5.59 1.66
9.83 5.86 1.68
9.84 6.14 1.70
9.84 6.42 1.72
9.95 6.78 1.77
9.96 7.09 1.79
12.14 9.01 2.21
11.64 9.01 2.15
11.19 9.03 2.10
11.14 9.36 2.12
11.13 9.74 2.16
11.03 10.05 2.17
10.73 10.17 2.15
10.52 10.39 2.15
10.36 10.65 2.15
10.19 10.91 2.16
10.02 11.17 2.17
9.89 11.47 2.19
7.33 8.86 1.66
7.00 8.81 1.62
4.43 5.81 1.05
4.28 5.85 1.04
4.16 5.95 1.04
4.10 6.11 1.05
6.90 10.74 1.83
6.66 10.85 1.82
6.61 11.27 1.87
6.60 11.79 1.93
6.83 12.79 2.07
6.56 12.90 2.06
5.99 12.38 1.96
5.88 12.82 2.00
5.88 13.51 2.09
5.87 14.27 2.19
5.86 15.11 2.29
5.80 15.89 2.39
5.49 16.02 2.39
5.17 16.15 2.39
4.85 16.27 2.39
4.53 16.39 2.39
4.21 16.50 2.39
3.88 16.60 2.39
3.55 16.70 2.39
3.22 16.79 2.39
2.89 16.87 2.39
2.55 16.94 2.39
2.21 17.01 2.39
1.95 17.81 2.49
1.60 17.87 2.49
1.24 17.92 2.49
0.88 17.96 2.49
0.52 18.00 2.49
0.16 18.03 2.49
-0.20 18.05 2.49
-0.56 18.06 2.49
-0.93 18.07 2.49
-1.29 18.07 2.49
-1.66 18.06 2.49
-2.02 18.05 2.49
-2.38 18.02 2.49
-2.75 17.99 2.49
-3.11 17.95 2.49
-3.48 17.91 2.49
-3.84 17.85 2.49
-4.20 17.79 2.49
-4.56 17.72 2.49
-4.92 17.65 2.49
-5.28 17.56 2.49
-5.64 17.47 2.49
-5.99 17.37 2.49
-6.08 16.55 2.39
-6.42 16.44 2.39
-6.76 16.33 2.39
-7.09 16.20 2.39
-7.42 16.07 2.39
-7.75 15.93 2.39
-8.07 15.79 2.39
-8.39 15.64 2.39
-8.71 15.48 2.39
-9.03 15.31 2.39
-9.34 15.14 2.39
-9.65 14.96 2.39
-9.96 14.78 2.39
-9.76 13.30 2.21
-9.77 12.77 2.15
-9.82 12.31 2.11
-9.81 11.81 2.05
-9.81 11.34 2.00
-9.80 10.88 1.96
-9.80 10.45 1.91
-9.80 10.03 1.87
-9.79 9.64 1.83
-9.77 9.24 1.79
-9.78 8.89 1.76
-9.78 8.53 1.73
-9.78 8.19 1.70
-9.77 7.86 1.67
-9.77 7.54 1.64
-9.77 7.23 1.62
-9.76 6.93 1.59
-9.76 6.63 1.57
-9.76 6.35 1.55
-9.76 6.07 1.53
-9.75 5.80 1.51
-9.75 5.54 1.49
-9.70 5.26 1.46
-9.75 5.03 1.46
-9.74 4.79 1.44
-9.74 4.55 1.43
-9.74 4.31 1.41
-9.74 4.08 1.40
-9.73 3.85 1.39
-9.73 3.62 1.38
-9.73 3.40 1.37
-9.73 3.18 1.36
-9.73 2.97 1.35
-9.72 2.76 1.34
-9.72 2.55 1.33
-9.72 2.34 1.33
-9.72 2.13 1.32
-6.56 1.30 0.89
-9.71 1.73 1.31
-9.71 1.53 1.31
-9.64 1.32 1.29
-9.71 1.13 1.30
-9.71 0.93 1.30
-9.70 0.74 1.30
-9.70 0.54 1.29
-9.70 0.34 1.29
-9.70 0.15 1.29
-9.70 -0.04 1.29
-9.69 -0.24 1.29
-9.69 -0.43 1.30
-9.69 -0.63 1.30
-9.69 -0.82 1.30
-9.69 -1.02 1.30
-9.69 -1.22 1.31
-9.68 -1.41 1.31
-9.68 -1.61 1.32
-9.68 -1.81 1.32
-9.68 -2.01 1.33
-9.68 -2.22 1.33
-9.67 -2.42 1.34
-9.62 -2.61 1.34
-9.67 -2.84 1.36
-9.67 -3.05 1.37
-9.67 -3.26 1.38
-9.66 -3.48 1.39
-9.66 -3.70 1.40
-9.66 -3.92 1.41
-9.66 -4.15 1.42
-9.65 -4.38 1.44
-9.65 -4.61 1.45
-9.65 -4.85 1.47
-9.65 -5.09 1.48
-9.64 -5.34 1.50
-9.64 -5.60 1.52
-9.64 -5.86 1.54
-9.64 -6.12 1.56
-9.63 -6.40 1.58
-9.57 -6.63 1.59
-9.63 -6.97 1.63
-9.63 -7.26 1.65
-9.62 -7.57 1.68
-9.62 -7.88 1.71
-9.62 -8.21 1.74
-9.61 -8.54 1.77
-9.61 -8.89 1.81
-9.61 -9.25 1.84
-9.60 -9.63 1.88
-9.60 -10.02 1.92
-9.60 -10.43 1.96
-9.59 -10.85 2.01
-9.59 -11.30 2.06
-8.90 -10.92 1.96
-8.55 -10.94 1.93
-8.55 -11.39 1.99
-8.54 -11.88 2.04
-9.70 -14.07 2.39
-9.40 -14.25 2.39
-8.87 -14.05 2.33
-8.80 -14.58 2.39
-8.50 -14.73 2.39
-8.19 -14.88 2.39
-7.88 -15.02 2.39
-7.57 -15.16 2.39
-7.25 -15.29 2.39
-6.93 -15.41 2.39
-6.61 -15.53 2.39
-6.29 -15.64 2.39
-5.97 -15.74 2.39
-5.73 -16.07 2.43
-5.55 -16.61 2.49
-5.21 -16.70 2.49
-4.87 -16.78 2.49
-4.52 -16.85 2.49
-4.18 -16.92 2.49
-3.83 -16.98 2.49
-3.49 -17.03 2.49
-3.14 -17.08 2.49
-2.79 -17.11 2.49
-2.45 -17.15 2.49
-2.10 -17.17 2.49
-1.75 -17.19 2.49
-1.40 -17.20 2.49
-1.06 -17.20 2.49
-0.71 -17.20 2.49
-0.37 -17.19 2.49
-0.02 -14.82 2.49
0.28 -14.80 2.49
0.57 -14.78 2.49
0.87 -14.75 2.49
1.16 -14.72 2.49
1.46 -14.68 2.49
1.75 -14.63 2.49
2.04 -14.58 2.49
2.28 -14.19 2.44
2.51 -13.86 2.39
2.79 -13.79 2.39
3.06 -13.72 2.39
3.34 -13.65 2.39
3.61 -13.57 2.39
3.87 -13.48 2.39
4.14 -13.39 2.39
4.41 -13.29 2.39
4.67 -13.19 2.39
4.93 -13.08 2.39
5.19 -12.97 2.39
5.44 -12.85 2.39
5.60 -12.52 2.35
5.79 -12.29 2.33
5.60 -11.28 2.16
5.62 -10.78 2.09
4.81 -8.78 1.72
5.02 -8.74 1.73
5.13 -8.53 1.71
5.37 -8.54 1.74
5.59 -8.51 1.76
5.84 -8.51 1.78
6.09 -8.51 1.80
6.35 -8.50 1.83
6.62 -8.49 1.86
6.96 -8.57 1.91
5.65 -6.68 1.51
5.64 -6.40 1.48
5.63 -6.14 1.44
5.68 -5.95 1.42
5.89 -5.92 1.45
6.11 -5.91 1.47
6.35 -5.90 1.50
6.61 -5.89 1.54
6.86 -5.87 1.57
7.25 -5.96 1.63
10.79 -8.51 2.39
10.95 -8.29 2.38
6.46 -4.69 1.39
6.28 -4.37 1.33
6.27 -4.18 1.31
6.25 -3.98 1.29
6.23 -3.79 1.27
6.33 -3.68 1.27
6.57 -3.65 1.31
6.71 -3.55 1.32
6.97 -3.51 1.36
7.33 -3.51 1.41
7.72 -3.51 1.47
8.32 -3.58 1.58
8.74 -3.56 1.64
9.04 -3.47 1.68
9.53 -3.44 1.76
10.63 -3.59 1.95
10.79 -3.41 1.97
11.34 -3.33 2.05
12.50 -3.40 2.25
12.53 -3.14 2.24
12.55 -2.88 2.24
12.00 -2.50 2.13
12.04 -2.26 2.13
12.09 -2.02 2.13
12.12 -1.77 2.13
12.16 -1.53 2.13
12.18 -1.28 2.13
12.21 -1.04 2.12
12.23 -0.79 2.12
12.25 -0.55 2.12
12.26 -0.30 2.12
12.27 -0.05 2.12
12.27 0.19 2.12
12.27 0.44 2.12
12.26 0.69 2.12
12.25 0.93 2.12
12.24 1.18 2.12
12.22 1.43 2.12
12.20 1.67 2.13
12.17 1.92 2.13
13.00 2.32 2.28
12.96 2.58 2.28
12.92 2.84 2.28
12.87 3.11 2.28
12.32 3.24 2.19
11.89 3.38 2.13
11.84 3.63 2.13
11.79 3.87 2.13
11.73 4.11 2.13
11.17 4.17 2.04
5.99 2.38 1.10
5.86 2.46 1.09
5.68 2.52 1.06
5.80 2.71 1.09
9.77 4.82 1.86
9.78 5.07 1.88
9.79 5.32 1.90
9.80 5.58 1.92
9.81 5.86 1.94
9.82 6.13 1.97
10.73 7.01 2.18
9.86 6.72 2.02
9.89 7.04 2.06
10.39 7.71 2.19
10.78 8.34 2.31
10.54 8.50 2.29
10.33 8.68 2.28
10.11 8.85 2.27
9.89 9.02 2.26
9.76 9.26 2.27
9.64 9.52 2.28
9.52 9.79 2.30
9.37 10.03 2.30
9.21 10.26 2.31
9.07 10.53 2.33
7.34 8.87 1.93
7.06 8.90 1.90
4.43 5.81 1.22
4.27 5.85 1.21
4.16 5.95 1.21
4.10 6.11 1.22
6.91 10.77 2.13
6.16 10.03 1.96
5.96 10.16 1.96
5.91 10.55 2.00
5.90 11.05 2.07
5.89 11.60 2.15
5.89 12.19 2.24
5.88 12.82 2.33
5.78 13.29 2.39
5.52 13.42 2.39
5.25 13.55 2.39
4.98 13.66 2.39
4.71 13.78 2.39
4.44 13.88 2.39
4.17 13.99 2.39
3.89 14.08 2.39
3.61 14.17 2.39
3.33 14.26 2.39
3.05 14.34 2.39
2.76 14.41 2.39
2.47 14.48 2.39
2.19 14.60 2.40
1.98 15.23 2.49
1.67 15.28 2.49
1.37 15.33 2.49
1.06 15.37 2.49
0.75 15.41 2.49
0.44 15.43 2.49
0.13 15.46 2.49
-0.18 15.47 2.49
-0.49 15.48 2.49
-0.80 15.48 2.49
-1.11 15.48 2.49
-1.42 15.47 2.49
-1.73 15.45 2.49
-2.04 15.43 2.49
-2.36 15.40 2.49
-2.67 15.37 2.49
-2.98 15.33 2.49
-3.29 15.28 2.49
-3.60 15.22 2.49
-3.91 15.16 2.49
-4.21 15.09 2.49
-4.52 15.02 2.49
-4.82 14.94 2.49
-5.13 14.85 2.49
-5.43 14.76 2.49
-5.73 14.66 2.49
-6.02 14.55 2.49
-6.06 13.84 2.39
-6.34 13.73 2.39
-6.62 13.61 2.39
-6.90 13.49 2.39
-7.17 13.36 2.39
-7.44 13.22 2.39
-7.71 13.08 2.39
-7.98 12.93 2.39
-8.24 12.77 2.39
-8.50 12.61 2.39
-8.76 12.45 2.39
-9.01 12.28 2.39
-9.26 12.10 2.39
-9.51 11.92 2.39
-9.75 11.73 2.39
-9.99 11.54 2.39
-9.74 9.97 2.18
-9.75 9.59 2.14
-9.77 9.24 2.10
-9.78 8.88 2.06
-9.78 8.53 2.03
-9.78 8.19 1.99
-9.77 7.86 1.96
-9.77 7.54 1.92
-9.77 7.23 1.89
-9.76 6.93 1.87
-9.76 6.63 1.84
-9.76 6.35 1.81
-9.76 6.07 1.79
-9.75 5.80 1.77
-9.75 5.54 1.75
-9.70 5.26 1.72
-9.75 5.03 1.71
-9.74 4.79 1.69
-9.74 4.55 1.67
-9.74 4.31 1.66
-9.74 4.08 1.64
-9.73 3.85 1.63
-9.73 3.62 1.62
-9.73 3.40 1.60
-9.73 3.18 1.59
-9.73 2.97 1.58
-9.72 2.76 1.57
-9.72 2.55 1.57
-9.72 2.34 1.56
-9.72 2.13 1.55
-6.56 1.30 1.04
-9.71 1.73 1.54
-9.71 1.53 1.53
-9.64 1.32 1.52
-9.71 1.13 1.52
-9.71 0.93 1.52
-9.70 0.74 1.52
-9.70 0.54 1.52
-9.70 0.35 1.52
-9.70 0.15 1.52
-9.70 -0.04 1.52
-9.69 -0.24 1.52
-9.69 -0.43 1.52
-9.69 -0.63 1.52
-9.69 -0.82 1.52
-9.69 -1.02 1.53
-9.69 -1.21 1.53
-9.68 -1.41 1.54
-9.68 -1.61 1.54
-9.68 -1.81 1.55
-9.68 -2.01 1.55
-9.68 -2.21 1.56
-9.67 -2.42 1.57
-9.62 -2.61 1.57
-9.67 -2.83 1.59
-9.67 -3.05 1.60
-9.67 -3.26 1.61
-9.66 -3.48 1.62
-9.66 -3.70 1.64
-9.66 -3.92 1.65
-9.66 -4.15 1.66
-9.65 -4.38 1.68
-9.65 -4.61 1.70
-9.65 -4.85 1.72
-9.65 -5.09 1.73
-9.64 -5.34 1.75
-9.64 -5.60 1.78
-9.64 -5.86 1.80
-9.64 -6.12 1.82
-9.63 -6.40 1.85
-9.57 -6.63 1.86
-9.63 -6.96 1.90
-9.63 -7.26 1.93
-9.62 -7.57 1.96
-9.62 -7.88 2.00
-9.62 -8.21 2.03
-8.99 -7.99 1.93
-8.64 -7.99 1.89
-8.58 -8.26 1.92
-8.57 -8.59 1.96
-8.57 -8.94 2.00
-8.57 -9.31 2.04
-9.78 -11.07 2.39
-9.55 -11.25 2.39
-9.31 -11.43 2.39
-8.73 -11.16 2.30
-8.83 -11.76 2.39
-8.58 -11.93 2.39
-8.33 -12.08 2.39
-8.08 -12.23 2.39
-7.82 -12.38 2.39
-7.56 -12.52 2.39
-7.30 -12.66 2.39
-7.04 -12.79 2.39
-6.77 -12.91 2.39
-6.51 -13.03 2.39
-6.24 -13.14 2.39
-5.99 -13.30 2.40
-5.78 -13.55 2.43
-5.65 -14.03 2.49
-5.36 -14.12 2.49
-5.07 -14.21 2.49
-4.78 -14.30 2.49
-4.49 -14.37 2.49
-4.19 -14.45 2.49
-3.90 -14.51 2.49
-3.60 -14.57 2.49
-3.30 -14.62 2.49
-3.01 -14.67 2.49
-2.71 -14.71 2.49
-2.41 -14.75 2.49
-2.11 -14.78 2.49
-1.81 -14.80 2.49
-1.51 -14.82 2.49
-1.21 -14.83 2.49
-0.92 -14.84 2.49
-0.62 -14.84 2.49
-0.32 -14.83 2.49
-0.02 -13.02 2.49
0.24 -13.01 2.49
0.50 -12.99 2.49
0.76 -12.96 2.49
1.02 -12.94 2.49
1.28 -12.90 2.49
1.54 -12.86 2.49
1.79 -12.82 2.49
2.05 -12.77 2.49
