ply
format ascii 1.0
element vertex 2823
property float32 x
property float32 y
property float32 z
end_header
43.65 17.25 2.39
43.27 18.11 2.39
42.87 18.97 2.39
42.46 19.81 2.39
42.03 20.65 2.39
40.93 21.14 2.36
40.05 21.71 2.33
38.29 21.76 2.25
36.64 21.81 2.18
35.10 21.86 2.12
33.64 21.90 2.06
32.27 21.94 2.00
30.97 21.98 1.95
28.86 21.37 1.84
27.99 21.61 1.82
28.02 22.54 1.85
27.46 23.01 1.84
24.62 21.49 1.68
24.03 21.84 1.67
24.06 22.76 1.71
23.77 23.41 1.72
24.08 24.69 1.78
24.14 25.77 1.82
24.15 26.84 1.86
24.21 28.01 1.91
25.53 30.77 2.06
23.71 29.78 1.97
22.67 29.67 1.93
22.08 30.13 1.93
22.01 31.33 1.98
21.96 32.64 2.03
24.25 37.65 2.32
24.25 39.38 2.39
23.45 39.84 2.39
22.64 40.29 2.39
21.82 40.72 2.39
20.99 41.14 2.39
20.15 41.54 2.39
19.31 41.92 2.39
14.83 33.98 1.92
14.17 34.33 1.93
14.61 37.51 2.09
15.11 41.21 2.28
14.99 43.58 2.39
14.11 43.87 2.39
13.22 44.13 2.39
9.71 34.95 1.89
9.00 35.13 1.89
10.53 44.81 2.39
9.63 45.01 2.39
8.72 45.18 2.39
7.81 45.34 2.39
6.89 45.43 2.39
5.98 45.55 2.39
3.75 33.80 1.77
4.14 45.74 2.39
3.36 47.79 2.49
2.40 47.84 2.49
1.44 47.87 2.49
0.48 47.89 2.49
-0.48 47.88 2.49
-1.44 47.86 2.49
-2.40 47.82 2.49
-3.36 47.76 2.49
-4.32 47.68 2.49
-5.06 45.61 2.39
-5.97 45.50 2.39
-6.88 45.37 2.39
-7.79 45.22 2.39
-9.31 48.24 2.56
-9.81 45.85 2.44
-10.04 42.72 2.29
-10.43 40.70 2.19
-10.75 38.68 2.09
-10.89 36.33 1.98
-11.15 34.68 1.90
-11.44 33.26 1.83
-11.86 32.35 1.79
-12.28 31.53 1.76
-12.49 30.25 1.70
-12.67 29.03 1.65
-12.74 27.67 1.59
-12.89 26.57 1.54
-13.03 25.53 1.49
-13.14 24.53 1.45
-13.28 23.64 1.41
-13.34 22.66 1.37
-13.41 21.77 1.33
-13.53 21.01 1.30
-13.55 20.14 1.26
-13.58 19.33 1.23
-13.57 18.52 1.19
-13.51 17.69 1.16
-13.44 16.88 1.12
-13.05 15.72 1.06
-12.75 14.75 1.01
-12.53 13.93 0.97
-12.36 13.20 0.94
-12.25 12.57 0.91
-12.18 12.00 0.89
-12.09 11.44 0.86
-12.01 10.91 0.84
-11.97 10.45 0.82
-11.97 10.03 0.81
-11.99 9.64 0.80
-12.01 9.27 0.78
-12.03 8.91 0.77
-12.03 8.54 0.76
-12.00 8.16 0.75
-11.98 7.80 0.74
-11.96 7.45 0.73
-11.94 7.11 0.72
-11.93 6.78 0.71
-11.93 6.47 0.70
-11.94 6.16 0.69
-11.94 5.87 0.69
-11.94 5.57 0.68
-11.93 5.28 0.67
-11.92 4.99 0.66
-11.91 4.70 0.66
-11.92 4.43 0.65
-11.93 4.17 0.65
-11.94 3.91 0.65
-11.96 3.65 0.64
-11.98 3.39 0.64
-12.00 3.14 0.64
-12.03 2.89 0.63
-12.05 2.64 0.63
-12.06 2.39 0.63
-12.07 2.14 0.63
-12.09 1.89 0.63
-12.11 1.65 0.62
-12.14 1.41 0.62
-12.16 1.16 0.62
-12.19 0.92 0.62
-12.22 0.67 0.62
-12.24 0.43 0.62
-12.25 0.18 0.62
-12.26 -0.06 0.62
-12.27 -0.31 0.62
-12.27 -0.56 0.62
-12.27 -0.80 0.63
-12.28 -1.05 0.63
-12.28 -1.30 0.63
-12.30 -1.55 0.63
-12.36 -1.81 0.63
-12.42 -2.08 0.64
-12.47 -2.34 0.64
-12.51 -2.61 0.65
-12.56 -2.89 0.65
-12.61 -3.17 0.66
-12.66 -3.45 0.66
-12.69 -3.73 0.67
-12.72 -4.02 0.67
-12.75 -4.31 0.68
-12.78 -4.61 0.69
-12.80 -4.91 0.69
-12.83 -5.22 0.70
-12.86 -5.54 0.71
-12.87 -5.85 0.71
-12.88 -6.17 0.72
-12.89 -6.49 0.73
-12.89 -6.83 0.73
-12.90 -7.16 0.74
-12.91 -7.51 0.75
-12.90 -7.86 0.76
-12.91 -8.22 0.77
-12.91 -8.59 0.78
-12.91 -8.97 0.79
-12.92 -9.37 0.80
-12.93 -9.78 0.81
-12.96 -10.21 0.83
-12.98 -10.66 0.84
-13.01 -11.13 0.86
-13.04 -11.61 0.87
-13.17 -12.22 0.90
-13.36 -12.90 0.93
-13.57 -13.64 0.96
-13.71 -14.35 0.99
-13.86 -15.10 1.02
-13.89 -15.75 1.05
-13.91 -16.42 1.07
-13.93 -17.13 1.10
-13.91 -17.83 1.13
-13.85 -18.52 1.15
-13.79 -19.23 1.18
-13.75 -20.00 1.21
-13.66 -20.76 1.24
-13.56 -21.53 1.26
-13.40 -22.25 1.29
-13.18 -22.93 1.31
-12.96 -23.62 1.34
-12.93 -24.74 1.38
-12.93 -25.98 1.44
-20.61 -43.61 2.39
-19.74 -44.03 2.39
-18.86 -44.43 2.39
-17.97 -44.81 2.39
-17.07 -45.18 2.39
-16.17 -45.52 2.39
-15.25 -45.85 2.39
-14.33 -46.16 2.39
-13.41 -46.45 2.39
-8.59 -32.16 1.65
-11.54 -46.97 2.39
0.00 -34.67 2.49
0.70 -34.66 2.49
1.39 -34.64 2.49
2.09 -34.61 2.49
2.67 -33.13 2.39
3.33 -33.07 2.39
3.99 -33.00 2.39
4.66 -32.91 2.39
5.32 -32.81 2.39
5.61 -30.70 2.24
6.63 -32.57 2.39
7.28 -32.43 2.39
7.93 -32.28 2.39
8.58 -32.11 2.39
9.22 -31.93 2.39
2.24 -7.21 0.54
10.51 -31.58 2.39
11.14 -31.36 2.39
11.76 -31.13 2.39
12.38 -30.88 2.39
13.00 -30.62 2.39
13.61 -30.35 2.39
14.22 -30.07 2.39
14.82 -29.78 2.39
15.41 -29.47 2.39
15.99 -29.15 2.39
16.57 -28.82 2.39
17.15 -28.48 2.39
17.71 -28.12 2.39
16.51 -25.08 2.16
14.77 -21.48 1.88
14.48 -20.19 1.79
14.53 -19.43 1.75
14.58 -18.70 1.71
14.55 -17.90 1.66
14.58 -17.22 1.63
14.60 -16.56 1.59
14.56 -15.86 1.55
14.59 -15.27 1.52
14.61 -14.69 1.50
14.58 -14.08 1.46
14.61 -13.55 1.44
14.64 -13.05 1.42
14.62 -12.51 1.39
14.66 -12.04 1.37
14.69 -11.58 1.35
14.67 -11.09 1.33
14.68 -10.64 1.31
14.69 -10.21 1.29
14.71 -9.79 1.28
14.66 -9.34 1.26
14.67 -8.94 1.24
14.68 -8.55 1.23
14.70 -8.16 1.22
14.65 -7.76 1.20
14.67 -7.39 1.19
14.68 -7.03 1.18
14.63 -6.65 1.17
14.63 -6.30 1.16
14.64 -5.96 1.15
14.64 -5.62 1.14
14.64 -5.29 1.13
14.59 -4.94 1.12
14.64 -4.63 1.12
14.70 -4.32 1.11
14.75 -4.02 1.11
14.80 -3.72 1.11
15.02 -3.45 1.12
15.19 -3.17 1.13
15.37 -2.89 1.14
15.55 -2.60 1.15
15.73 -2.31 1.16
15.91 -2.01 1.17
16.10 -1.70 1.18
16.29 -1.39 1.19
16.48 -1.08 1.21
16.12 -0.73 1.18
15.57 -0.39 1.14
15.33 -0.08 1.12
15.52 0.23 1.13
15.72 0.55 1.15
15.92 0.88 1.17
16.13 1.21 1.18
16.34 1.56 1.20
16.56 1.92 1.22
16.79 2.29 1.24
17.02 2.67 1.26
17.27 3.06 1.29
17.52 3.47 1.31
17.78 3.90 1.34
18.05 4.34 1.36
18.34 4.80 1.39
18.63 5.28 1.42
18.94 5.78 1.46
19.26 6.30 1.49
19.60 6.85 1.53
19.96 7.43 1.57
30.24 11.95 2.39
29.99 12.55 2.39
29.72 13.14 2.39
29.44 13.73 2.39
29.14 14.32 2.39
28.84 14.89 2.39
28.53 15.46 2.39
28.20 16.03 2.39
27.86 16.58 2.39
27.51 17.13 2.39
27.15 17.68 2.39
26.78 18.21 2.39
26.40 18.74 2.39
26.01 19.26 2.39
25.61 19.77 2.39
25.20 20.27 2.39
24.78 20.77 2.39
24.35 21.26 2.39
23.91 21.73 2.39
23.47 22.20 2.39
23.01 22.66 2.39
22.54 23.11 2.39
22.07 23.55 2.39
21.58 23.98 2.39
21.09 24.40 2.39
20.59 24.82 2.39
20.08 25.22 2.39
19.57 25.61 2.39
19.04 25.99 2.39
18.51 26.36 2.39
17.98 26.72 2.39
17.43 27.07 2.39
14.27 23.17 2.02
13.86 23.54 2.03
15.76 28.05 2.39
14.47 27.00 2.28
14.61 28.64 2.39
14.03 28.92 2.39
13.45 29.19 2.39
12.86 29.45 2.39
12.26 29.70 2.39
11.66 29.93 2.39
11.05 30.15 2.39
10.44 30.36 2.39
9.83 30.56 2.39
9.21 30.75 2.39
8.54 30.72 2.38
6.28 24.49 1.89
5.80 24.67 1.89
5.39 25.18 1.92
6.07 31.46 2.39
5.44 31.57 2.39
4.81 31.67 2.39
4.17 31.76 2.39
3.53 31.83 2.39
3.01 33.27 2.49
2.35 33.32 2.49
1.68 33.35 2.49
1.01 33.38 2.49
0.34 33.39 2.49
-0.33 33.39 2.49
-1.00 33.37 2.49
-1.67 33.34 2.49
-2.34 33.30 2.49
-3.01 33.25 2.49
-3.68 33.18 2.49
-4.34 33.10 2.49
-4.97 32.76 2.48
-5.43 31.54 2.39
-6.07 31.42 2.39
-6.70 31.29 2.39
-7.32 31.15 2.39
-7.95 31.00 2.39
-8.57 30.84 2.39
-9.22 30.78 2.40
-9.72 30.23 2.37
-10.19 29.62 2.34
-10.57 28.83 2.29
-10.90 27.98 2.24
-11.15 27.01 2.18
-11.58 26.53 2.16
-11.92 25.88 2.13
-12.23 25.20 2.09
-12.44 24.38 2.04
-12.62 23.55 1.99
-12.72 22.65 1.94
-12.79 21.73 1.88
-12.89 20.93 1.83
-12.92 20.07 1.78
-12.95 19.25 1.73
-12.96 18.45 1.68
-12.93 17.65 1.63
-12.89 16.87 1.58
-12.52 15.71 1.50
-12.15 14.64 1.42
-12.05 13.94 1.37
-11.90 13.23 1.33
-11.80 12.59 1.29
-11.78 12.07 1.26
-11.72 11.55 1.22
-11.65 11.02 1.19
-11.61 10.55 1.17
-11.61 10.13 1.15
-11.61 9.73 1.13
-11.62 9.35 1.11
-11.65 8.99 1.09
-11.67 8.64 1.08
-11.65 8.27 1.06
-11.62 7.90 1.04
-11.60 7.55 1.03
-11.59 7.22 1.01
-11.58 6.89 1.00
-11.57 6.58 0.99
-11.59 6.28 0.98
-11.60 5.99 0.97
-11.61 5.70 0.96
-11.62 5.42 0.95
-11.61 5.14 0.94
-11.60 4.86 0.93
-11.60 4.58 0.92
-11.62 4.32 0.92
-11.63 4.06 0.91
-11.65 3.81 0.91
-11.66 3.56 0.90
-11.68 3.31 0.90
-11.70 3.06 0.89
-11.72 2.82 0.89
-11.75 2.57 0.89
-11.76 2.33 0.88
-11.77 2.09 0.88
-11.79 1.85 0.88
-11.80 1.61 0.88
-11.82 1.37 0.88
-11.84 1.13 0.88
-11.87 0.89 0.88
-11.90 0.66 0.88
-11.91 0.42 0.88
-11.93 0.18 0.88
-11.94 -0.06 0.88
-11.95 -0.30 0.88
-11.95 -0.54 0.88
-11.96 -0.78 0.88
-11.96 -1.02 0.88
-11.96 -1.27 0.88
-11.97 -1.51 0.89
-12.03 -1.76 0.89
-12.08 -2.02 0.90
-12.13 -2.28 0.90
-12.18 -2.54 0.91
-12.23 -2.81 0.92
-12.27 -3.08 0.93
-12.31 -3.36 0.93
-12.35 -3.63 0.94
-12.37 -3.91 0.95
-12.40 -4.20 0.96
-12.43 -4.48 0.97
-12.45 -4.78 0.97
-12.48 -5.08 0.98
-12.50 -5.38 0.99
-12.51 -5.69 1.00
-12.52 -6.00 1.01
-12.52 -6.31 1.02
-12.52 -6.63 1.03
-12.53 -6.96 1.04
-12.53 -7.29 1.06
-12.53 -7.63 1.07
-12.52 -7.97 1.08
-12.51 -8.33 1.09
-12.51 -8.69 1.11
-12.50 -9.07 1.12
-12.50 -9.45 1.14
-12.51 -9.86 1.16
-12.53 -10.29 1.18
-12.55 -10.74 1.20
-12.57 -11.20 1.22
-12.59 -11.68 1.25
-12.66 -12.22 1.28
-12.81 -12.88 1.32
-12.99 -13.59 1.36
-12.99 -14.15 1.39
-13.13 -14.90 1.44
-13.27 -15.68 1.49
-13.25 -16.30 1.52
-13.25 -16.99 1.56
-13.24 -17.70 1.60
-13.12 -18.29 1.63
-12.99 -18.91 1.66
-12.87 -19.55 1.69
-12.80 -20.33 1.74
-12.70 -21.09 1.78
-12.56 -21.85 1.82
-12.44 -22.67 1.87
-12.25 -23.44 1.91
-12.13 -24.39 1.97
-12.13 -25.66 2.05
-12.21 -27.22 2.15
-18.13 -42.71 3.35
-17.14 -42.75 3.32
-11.72 -31.01 2.39
-11.10 -31.25 2.39
-10.47 -31.47 2.39
-9.84 -31.68 2.39
-9.20 -31.88 2.39
-8.56 -32.06 2.39
-7.92 -32.23 2.39
-7.58 -33.79 2.49
-6.90 -33.94 2.49
-6.22 -34.07 2.49
-5.54 -34.20 2.49
-4.85 -34.30 2.49
-4.16 -34.40 2.49
-3.47 -34.48 2.49
-2.78 -34.54 2.49
-2.09 -34.60 2.49
-1.39 -34.63 2.49
-0.70 -34.66 2.49
0.00 -26.36 2.49
0.53 -26.35 2.49
1.06 -26.34 2.49
1.52 -25.22 2.39
2.03 -25.19 2.39
2.53 -25.14 2.39
3.04 -25.09 2.39
3.54 -25.02 2.39
4.04 -24.95 2.39
4.54 -24.86 2.39
5.04 -24.77 2.39
5.54 -24.69 2.39
6.04 -24.58 2.39
6.53 -24.45 2.39
7.02 -24.31 2.39
2.24 -7.21 0.71
7.99 -24.01 2.39
8.47 -23.84 2.39
8.94 -23.67 2.39
9.42 -23.48 2.39
9.89 -23.29 2.39
10.35 -23.08 2.39
10.81 -22.87 2.39
11.27 -22.64 2.39
11.72 -22.41 2.39
12.16 -22.17 2.39
12.60 -21.92 2.39
13.04 -21.66 2.39
13.47 -21.39 2.39
13.90 -21.11 2.39
14.32 -20.83 2.39
14.48 -20.19 2.35
14.53 -19.43 2.30
14.58 -18.70 2.25
14.55 -17.90 2.19
14.58 -17.22 2.14
14.60 -16.56 2.09
14.56 -15.87 2.04
14.59 -15.27 2.00
14.61 -14.69 1.97
14.58 -14.08 1.92
14.61 -13.55 1.89
14.64 -13.05 1.86
14.62 -12.51 1.83
14.66 -12.04 1.80
14.69 -11.58 1.78
14.67 -11.09 1.75
14.68 -10.64 1.72
14.69 -10.21 1.70
14.71 -9.79 1.68
14.66 -9.34 1.65
14.67 -8.94 1.63
14.68 -8.55 1.62
14.70 -8.16 1.60
14.65 -7.76 1.58
14.67 -7.39 1.56
14.68 -7.03 1.55
14.63 -6.65 1.53
14.63 -6.30 1.52
14.64 -5.96 1.51
14.64 -5.62 1.49
14.64 -5.29 1.48
14.59 -4.94 1.47
14.64 -4.63 1.46
14.70 -4.32 1.46
14.75 -4.02 1.46
14.80 -3.72 1.46
15.02 -3.45 1.47
15.19 -3.17 1.48
15.37 -2.89 1.49
15.55 -2.60 1.51
15.73 -2.31 1.52
15.91 -2.01 1.53
16.10 -1.70 1.55
16.29 -1.40 1.56
16.48 -1.08 1.58
16.12 -0.73 1.54
15.58 -0.39 1.49
15.33 -0.08 1.47
15.52 0.23 1.49
15.72 0.55 1.51
15.92 0.88 1.53
16.13 1.21 1.55
16.34 1.56 1.57
16.56 1.92 1.60
16.79 2.29 1.63
17.02 2.67 1.65
17.27 3.06 1.68
17.52 3.47 1.72
17.78 3.90 1.75
18.05 4.34 1.78
18.34 4.80 1.82
18.63 5.27 1.86
18.94 5.77 1.90
19.26 6.30 1.95
19.60 6.85 2.00
19.96 7.42 2.05
23.12 9.13 2.39
22.92 9.59 2.39
22.72 10.05 2.39
22.51 10.50 2.39
22.29 10.95 2.39
22.06 11.39 2.39
21.82 11.83 2.39
21.57 12.26 2.39
21.31 12.68 2.39
21.05 13.11 2.39
20.78 13.52 2.39
20.49 13.93 2.39
20.21 14.34 2.39
19.91 14.74 2.39
19.60 15.13 2.39
19.29 15.52 2.39
18.97 15.90 2.39
18.64 16.27 2.39
18.31 16.64 2.39
17.97 17.00 2.39
17.62 17.35 2.39
17.26 17.70 2.39
16.90 18.03 2.39
16.53 18.37 2.39
16.15 18.69 2.39
15.77 19.01 2.39
15.38 19.32 2.39
14.99 19.62 2.39
14.59 19.91 2.39
14.18 20.19 2.39
13.77 20.47 2.39
13.36 20.74 2.39
12.94 21.00 2.39
12.51 21.25 2.39
12.08 21.49 2.39
11.64 21.73 2.39
11.20 21.95 2.39
10.76 22.17 2.39
10.31 22.38 2.39
9.85 22.58 2.39
9.40 22.77 2.39
8.94 22.95 2.39
8.47 23.12 2.39
8.01 23.28 2.39
7.54 23.43 2.39
7.06 23.58 2.39
6.58 23.68 2.39
6.10 23.81 2.39
5.62 23.92 2.39
5.14 24.03 2.39
4.66 24.12 2.39
4.17 24.21 2.39
3.69 24.29 2.39
3.20 24.35 2.39
2.82 25.46 2.49
2.31 25.51 2.49
1.80 25.55 2.49
1.29 25.58 2.49
0.77 25.60 2.49
0.26 25.61 2.49
-0.26 25.61 2.49
-0.77 25.60 2.49
-1.28 25.58 2.49
-1.80 25.54 2.49
-2.31 25.50 2.49
-2.82 25.45 2.49
-3.33 25.39 2.49
-3.84 25.32 2.49
-4.35 25.23 2.49
-4.85 25.14 2.49
-5.22 24.38 2.43
-5.62 23.90 2.39
-6.10 23.78 2.39
-6.57 23.65 2.39
-7.05 23.52 2.39
-7.52 23.37 2.39
-7.98 23.22 2.39
-8.45 23.05 2.39
-8.91 22.88 2.39
-10.22 24.75 2.61
-10.54 24.15 2.57
-10.84 23.54 2.52
-11.20 23.08 2.50
-11.50 22.54 2.46
-11.73 21.89 2.42
-11.90 21.17 2.36
-12.09 20.53 2.32
-12.16 19.74 2.26
-12.23 18.99 2.20
-12.23 18.18 2.13
-12.19 17.35 2.06
-12.17 16.60 2.00
-11.78 15.41 1.89
-11.55 14.50 1.80
-11.54 13.91 1.76
-11.45 13.25 1.70
-11.36 12.62 1.65
-11.35 12.11 1.61
-11.33 11.62 1.58
-11.29 11.12 1.54
-11.25 10.64 1.50
-11.25 10.23 1.48
-11.26 9.83 1.45
-11.26 9.44 1.43
-11.28 9.07 1.41
-11.31 8.73 1.39
-11.30 8.37 1.36
-11.29 8.01 1.34
-11.27 7.66 1.32
-11.25 7.33 1.30
-11.24 7.00 1.28
-11.24 6.69 1.27
-11.25 6.39 1.25
-11.26 6.10 1.24
-11.28 5.82 1.23
-11.29 5.54 1.22
-11.30 5.27 1.21
-11.31 5.00 1.20
-11.30 4.73 1.19
-11.31 4.47 1.18
-11.33 4.22 1.17
-11.35 3.96 1.16
-11.36 3.72 1.16
-11.38 3.47 1.15
-11.40 3.23 1.14
-11.41 2.99 1.14
-11.44 2.75 1.14
-11.46 2.51 1.13
-11.47 2.27 1.13
-11.48 2.04 1.13
-11.50 1.80 1.12
-11.51 1.57 1.12
-11.52 1.33 1.12
-11.54 1.10 1.12
-11.56 0.87 1.12
-11.59 0.64 1.12
-11.61 0.41 1.12
-11.62 0.17 1.12
-11.63 -0.06 1.12
-11.64 -0.29 1.12
-11.64 -0.53 1.12
-11.65 -0.76 1.12
-11.66 -1.00 1.12
-11.66 -1.23 1.13
-11.66 -1.47 1.13
-11.71 -1.72 1.14
-11.76 -1.97 1.14
-11.81 -2.22 1.15
-11.86 -2.48 1.16
-11.91 -2.74 1.17
-11.95 -3.00 1.18
-11.99 -3.27 1.19
-12.02 -3.54 1.20
-12.05 -3.81 1.21
-12.07 -4.08 1.22
-12.09 -4.36 1.23
-12.11 -4.65 1.24
-12.14 -4.94 1.25
-12.16 -5.23 1.27
-12.18 -5.54 1.28
-12.18 -5.83 1.29
-12.18 -6.14 1.30
-12.17 -6.45 1.32
-12.17 -6.76 1.33
-12.17 -7.08 1.35
-12.17 -7.41 1.36
-12.16 -7.75 1.38
-12.15 -8.08 1.39
-12.13 -8.43 1.41
-12.11 -8.78 1.43
-12.11 -9.15 1.45
-12.10 -9.54 1.47
-12.10 -9.94 1.49
-12.12 -10.37 1.52
-12.13 -10.81 1.55
-12.14 -11.26 1.58
-12.15 -11.74 1.61
-12.21 -12.27 1.65
-12.28 -12.85 1.69
-12.44 -13.55 1.75
-12.43 -14.09 1.79
-12.39 -14.63 1.82
-12.48 -15.36 1.88
-12.49 -16.01 1.93
-12.41 -16.59 1.97
-12.36 -17.23 2.01
-12.29 -17.89 2.06
-12.15 -18.46 2.10
-12.00 -19.05 2.14
-11.84 -19.67 2.18
-11.76 -20.46 2.24
-11.69 -21.31 2.31
-11.53 -22.06 2.36
-11.21 -22.53 2.39
-10.87 -23.00 2.41
-10.31 -23.00 2.39
-9.85 -23.21 2.39
-9.39 -23.41 2.39
-8.92 -23.59 2.39
-8.44 -23.77 2.39
-7.96 -23.94 2.39
-7.48 -24.10 2.39
-7.00 -24.25 2.39
-6.64 -24.86 2.44
-6.28 -25.57 2.49
-5.77 -25.70 2.49
-5.25 -25.81 2.49
-4.73 -25.91 2.49
-4.21 -26.00 2.49
-3.69 -26.09 2.49
-3.16 -26.16 2.49
-2.64 -26.22 2.49
-2.11 -26.27 2.49
-1.59 -26.31 2.49
-1.06 -26.33 2.49
-0.53 -26.35 2.49
0.00 -21.25 2.49
0.43 -21.24 2.49
0.85 -21.23 2.49
1.28 -21.21 2.49
1.63 -20.30 2.39
2.04 -20.27 2.39
2.45 -20.22 2.39
2.85 -20.17 2.39
3.26 -20.11 2.39
3.66 -20.04 2.39
4.06 -19.96 2.39
4.46 -19.87 2.39
4.86 -19.78 2.39
5.25 -19.68 2.39
5.66 -19.60 2.39
2.24 -7.21 0.89
6.44 -19.35 2.39
6.82 -19.22 2.39
7.21 -19.08 2.39
7.59 -18.93 2.39
7.97 -18.77 2.39
8.34 -18.61 2.39
8.71 -18.43 2.39
9.08 -18.25 2.39
9.44 -18.07 2.39
9.80 -17.87 2.39
10.16 -17.67 2.39
10.51 -17.46 2.39
10.86 -17.24 2.39
11.20 -17.02 2.39
11.54 -16.79 2.39
11.87 -16.55 2.39
12.20 -16.31 2.39
12.53 -16.06 2.39
12.84 -15.80 2.39
13.16 -15.54 2.39
13.47 -15.27 2.39
13.77 -15.00 2.39
14.06 -14.72 2.39
14.35 -14.43 2.39
14.64 -14.14 2.39
14.61 -13.55 2.35
14.64 -13.05 2.31
14.62 -12.51 2.27
14.66 -12.04 2.23
14.69 -11.58 2.20
14.67 -11.09 2.17
14.68 -10.65 2.14
14.69 -10.21 2.11
14.71 -9.79 2.08
14.66 -9.34 2.05
14.67 -8.94 2.03
14.68 -8.55 2.00
14.70 -8.16 1.98
14.65 -7.76 1.96
14.67 -7.39 1.94
14.68 -7.03 1.92
14.63 -6.65 1.90
14.63 -6.30 1.88
14.64 -5.96 1.87
14.64 -5.62 1.85
14.64 -5.29 1.84
14.59 -4.94 1.82
14.64 -4.63 1.81
14.70 -4.32 1.81
14.75 -4.02 1.81
14.80 -3.72 1.80
15.02 -3.45 1.82
15.19 -3.17 1.84
15.37 -2.89 1.85
15.55 -2.60 1.87
15.73 -2.31 1.88
15.91 -2.01 1.90
16.10 -1.71 1.92
16.29 -1.40 1.94
16.48 -1.08 1.96
16.12 -0.73 1.91
15.58 -0.39 1.85
15.33 -0.08 1.82
15.52 0.23 1.84
15.72 0.55 1.87
15.92 0.88 1.89
16.13 1.21 1.92
16.34 1.56 1.95
16.56 1.92 1.98
16.79 2.29 2.01
17.02 2.67 2.05
17.27 3.06 2.08
17.52 3.47 2.12
17.78 3.89 2.16
18.05 4.34 2.21
18.33 4.79 2.25
18.63 5.27 2.30
18.94 5.77 2.36
19.12 6.25 2.39
18.99 6.63 2.39
18.85 7.01 2.39
18.70 7.39 2.39
18.54 7.76 2.39
18.38 8.13 2.39
18.21 8.49 2.39
18.03 8.85 2.39
17.84 9.21 2.39
17.65 9.57 2.39
17.45 9.92 2.39
17.24 10.26 2.39
17.03 10.60 2.39
16.81 10.94 2.39
16.58 11.27 2.39
16.35 11.60 2.39
16.11 11.93 2.39
15.86 12.24 2.39
15.61 12.56 2.39
15.35 12.87 2.39
15.09 13.17 2.39
14.82 13.47 2.39
14.54 13.76 2.39
14.26 14.04 2.39
13.97 14.33 2.39
13.68 14.60 2.39
13.38 14.87 2.39
13.08 15.13 2.39
12.77 15.39 2.39
12.46 15.64 2.39
12.14 15.88 2.39
11.81 16.12 2.39
11.49 16.35 2.39
11.15 16.58 2.39
10.82 16.79 2.39
10.48 17.01 2.39
10.13 17.21 2.39
9.78 17.41 2.39
9.43 17.60 2.39
9.07 17.78 2.39
8.71 17.96 2.39
8.35 18.13 2.39
7.98 18.29 2.39
7.61 18.44 2.39
7.24 18.59 2.39
6.87 18.73 2.39
6.48 18.84 2.39
6.10 18.96 2.39
5.72 19.08 2.39
5.33 19.19 2.39
4.95 19.29 2.39
4.56 19.38 2.39
4.17 19.47 2.39
3.77 19.55 2.39
3.38 19.62 2.39
2.99 19.68 2.39
2.70 20.59 2.49
2.29 20.63 2.49
1.87 20.67 2.49
1.46 20.71 2.49
1.04 20.73 2.49
0.63 20.75 2.49
0.21 20.75 2.49
-0.21 20.75 2.49
-0.62 20.74 2.49
-1.04 20.73 2.49
-1.46 20.70 2.49
-1.87 20.67 2.49
-2.29 20.63 2.49
-2.70 20.58 2.49
-3.11 20.52 2.49
-3.52 20.45 2.49
-3.93 20.38 2.49
-4.34 20.29 2.49
-4.75 20.20 2.49
-5.15 20.10 2.49
-5.37 19.32 2.41
-5.71 19.06 2.39
-6.09 18.94 2.39
-6.47 18.81 2.39
-6.85 18.68 2.39
-7.22 18.54 2.39
-7.59 18.39 2.39
-7.96 18.24 2.39
-8.33 18.08 2.39
-8.69 17.91 2.39
-9.05 17.73 2.39
-9.40 17.55 2.39
-10.82 19.25 2.65
-10.92 18.56 2.59
-11.02 17.89 2.52
-11.08 17.21 2.46
-11.11 16.51 2.39
-11.15 15.88 2.33
-11.08 15.12 2.25
-10.97 14.36 2.17
-10.98 13.79 2.12
-10.99 13.24 2.06
-10.93 12.64 2.00
-10.92 12.14 1.96
-10.92 11.66 1.92
-10.92 11.20 1.88
-10.89 10.73 1.83
-10.91 10.32 1.80
-10.92 9.92 1.77
-10.93 9.54 1.74
-10.94 9.17 1.71
-10.96 8.81 1.68
-10.96 8.46 1.66
-10.95 8.11 1.63
-10.94 7.77 1.61
-10.93 7.43 1.58
-10.92 7.11 1.56
-10.91 6.80 1.54
-10.92 6.50 1.52
-10.94 6.22 1.51
-10.96 5.94 1.49
-10.97 5.66 1.48
-10.99 5.40 1.46
-11.00 5.13 1.45
-11.01 4.87 1.44
-11.02 4.61 1.43
-11.04 4.36 1.42
-11.06 4.11 1.41
-11.08 3.87 1.40
-11.09 3.63 1.39
-11.11 3.39 1.39
-11.13 3.15 1.38
-11.14 2.91 1.37
-11.16 2.68 1.37
-11.18 2.45 1.37
-11.20 2.22 1.36
-11.21 1.99 1.36
-11.22 1.76 1.35
-11.24 1.53 1.35
-11.25 1.30 1.35
-11.26 1.08 1.35
-11.27 0.85 1.35
-11.30 0.62 1.35
-11.31 0.40 1.35
-11.32 0.17 1.35
-11.33 -0.06 1.35
-11.34 -0.29 1.35
-11.35 -0.51 1.35
-11.36 -0.74 1.35
-11.36 -0.97 1.36
-11.37 -1.20 1.36
-11.37 -1.44 1.36
-11.41 -1.67 1.37
-11.45 -1.92 1.38
-11.50 -2.16 1.39
-11.54 -2.41 1.40
-11.59 -2.67 1.41
-11.64 -2.92 1.42
-11.68 -3.18 1.44
-11.71 -3.45 1.45
-11.73 -3.71 1.46
-11.75 -3.98 1.47
-11.77 -4.25 1.48
-11.79 -4.53 1.50
-11.81 -4.81 1.51
-11.83 -5.09 1.53
-11.85 -5.39 1.54
-11.85 -5.68 1.56
-11.85 -5.97 1.57
-11.84 -6.27 1.59
-11.84 -6.58 1.60
-11.83 -6.89 1.62
-11.83 -7.21 1.64
-11.82 -7.53 1.66
-11.80 -7.86 1.68
-11.78 -8.19 1.70
-11.76 -8.53 1.72
-11.74 -8.88 1.74
-11.72 -9.24 1.76
-11.70 -9.61 1.79
-11.71 -10.02 1.82
-11.71 -10.43 1.85
-11.71 -10.87 1.89
-11.72 -11.31 1.92
-11.73 -11.79 1.96
-11.77 -12.32 2.01
-11.82 -12.87 2.06
-11.91 -13.50 2.12
-11.90 -14.05 2.17
-11.85 -14.58 2.21
-11.79 -15.12 2.26
-11.80 -15.77 2.32
-11.71 -16.33 2.37
-11.61 -16.90 2.41
-11.51 -17.49 2.47
-11.27 -17.89 2.49
-10.97 -18.22 2.50
-10.13 -17.61 2.39
-9.77 -17.81 2.39
-9.41 -18.01 2.39
-9.05 -18.20 2.39
-8.69 -18.38 2.39
-8.32 -18.55 2.39
-7.94 -18.72 2.39
-7.57 -18.87 2.39
-7.19 -19.02 2.39
-6.81 -19.17 2.39
-6.48 -19.50 2.42
-6.29 -20.27 2.49
-5.89 -20.39 2.49
-5.48 -20.51 2.49
-5.06 -20.62 2.49
-4.65 -20.72 2.49
-4.23 -20.81 2.49
-3.81 -20.89 2.49
-3.39 -20.96 2.49
-2.97 -21.03 2.49
-2.55 -21.08 2.49
-2.13 -21.13 2.49
-1.70 -21.17 2.49
-1.28 -21.20 2.49
-0.85 -21.23 2.49
-0.43 -21.24 2.49
0.00 -17.78 2.49
0.36 -17.78 2.49
0.71 -17.77 2.49
1.07 -17.75 2.49
1.43 -17.72 2.49
1.71 -16.96 2.39
2.05 -16.92 2.39
2.39 -16.88 2.39
2.73 -16.83 2.39
3.06 -16.77 2.39
3.40 -16.70 2.39
3.73 -16.63 2.39
4.07 -16.55 2.39
4.40 -16.47 2.39
4.73 -16.38 2.39
2.24 -7.21 1.06
5.38 -16.17 2.39
5.71 -16.08 2.39
6.03 -15.96 2.39
6.35 -15.84 2.39
6.67 -15.71 2.39
6.98 -15.57 2.39
7.29 -15.43 2.39
7.60 -15.28 2.39
7.90 -15.12 2.39
8.21 -14.96 2.39
8.50 -14.79 2.39
8.80 -14.61 2.39
9.09 -14.43 2.39
9.38 -14.25 2.39
9.66 -14.05 2.39
9.94 -13.86 2.39
10.21 -13.65 2.39
10.48 -13.44 2.39
10.75 -13.23 2.39
11.01 -13.01 2.39
11.27 -12.78 2.39
11.52 -12.55 2.39
11.77 -12.32 2.39
12.02 -12.08 2.39
12.25 -11.83 2.39
12.49 -11.58 2.39
12.72 -11.33 2.39
12.94 -11.07 2.39
13.16 -10.81 2.39
13.37 -10.54 2.39
13.58 -10.27 2.39
13.78 -9.99 2.39
13.97 -9.71 2.39
14.16 -9.43 2.39
14.35 -9.14 2.39
14.53 -8.85 2.39
14.70 -8.55 2.39
14.70 -8.16 2.37
14.65 -7.76 2.34
14.67 -7.39 2.31
14.68 -7.03 2.29
14.63 -6.65 2.26
14.63 -6.30 2.25
14.64 -5.96 2.23
14.64 -5.62 2.21
14.64 -5.29 2.20
14.59 -4.94 2.17
14.64 -4.63 2.17
14.70 -4.33 2.16
14.75 -4.02 2.16
14.80 -3.72 2.15
15.02 -3.45 2.18
15.19 -3.17 2.19
15.37 -2.89 2.21
15.55 -2.60 2.23
15.73 -2.31 2.25
15.91 -2.01 2.27
16.10 -1.71 2.29
16.29 -1.40 2.31
16.48 -1.08 2.34
16.12 -0.73 2.28
15.58 -0.39 2.20
15.33 -0.08 2.17
15.52 0.23 2.20
15.72 0.55 2.23
15.92 0.88 2.26
16.13 1.21 2.29
16.34 1.56 2.32
16.56 1.92 2.36
16.75 2.28 2.39
16.70 2.62 2.39
16.64 2.95 2.39
16.57 3.28 2.39
16.50 3.61 2.39
16.42 3.94 2.39
16.33 4.27 2.39
16.24 4.60 2.39
16.14 4.92 2.39
16.03 5.24 2.39
15.92 5.56 2.39
15.80 5.88 2.39
15.68 6.19 2.39
15.55 6.51 2.39
15.41 6.82 2.39
15.27 7.12 2.39
15.12 7.43 2.39
14.97 7.73 2.39
14.81 8.02 2.39
14.64 8.32 2.39
14.47 8.61 2.39
14.29 8.90 2.39
14.10 9.18 2.39
13.91 9.46 2.39
13.72 9.73 2.39
13.52 10.01 2.39
13.31 10.27 2.39
13.10 10.54 2.39
12.88 10.80 2.39
12.66 11.05 2.39
12.44 11.30 2.39
12.21 11.55 2.39
11.97 11.79 2.39
11.73 12.02 2.39
11.48 12.25 2.39
11.23 12.48 2.39
10.98 12.70 2.39
10.72 12.92 2.39
10.46 13.13 2.39
10.19 13.33 2.39
9.92 13.53 2.39
9.64 13.73 2.39
9.36 13.92 2.39
9.08 14.10 2.39
8.80 14.28 2.39
8.51 14.45 2.39
8.21 14.61 2.39
7.92 14.77 2.39
7.62 14.93 2.39
7.32 15.08 2.39
7.01 15.22 2.39
6.70 15.35 2.39
6.39 15.47 2.39
6.07 15.59 2.39
5.76 15.71 2.39
5.44 15.82 2.39
5.12 15.92 2.39
4.80 16.02 2.39
4.48 16.11 2.39
4.15 16.20 2.39
3.83 16.28 2.39
3.50 16.35 2.39
3.17 16.42 2.39
2.84 16.48 2.39
2.62 17.24 2.49
2.27 17.29 2.49
1.92 17.33 2.49
1.57 17.36 2.49
1.22 17.39 2.49
0.88 17.41 2.49
0.53 17.42 2.49
0.18 17.43 2.49
-0.17 17.43 2.49
-0.52 17.42 2.49
-0.87 17.41 2.49
-1.22 17.39 2.49
-1.57 17.36 2.49
-1.92 17.32 2.49
-2.27 17.28 2.49
-2.61 17.23 2.49
-2.96 17.18 2.49
-3.30 17.11 2.49
-3.65 17.04 2.49
-3.99 16.97 2.49
-4.33 16.88 2.49
-4.67 16.79 2.49
-5.00 16.70 2.49
-5.34 16.59 2.49
-5.47 15.90 2.41
-5.75 15.69 2.39
-6.06 15.57 2.39
-6.38 15.45 2.39
-6.69 15.32 2.39
-6.99 15.18 2.39
-7.30 15.04 2.39
-7.60 14.89 2.39
-7.89 14.73 2.39
-8.19 14.57 2.39
-8.48 14.41 2.39
-8.77 14.24 2.39
-9.05 14.06 2.39
-9.34 13.87 2.39
-10.21 14.54 2.54
-10.28 14.02 2.49
-10.31 13.49 2.43
-10.33 12.97 2.37
-10.39 12.52 2.33
-10.40 12.04 2.27
-10.41 11.56 2.22
-10.41 11.11 2.17
-10.41 10.67 2.13
-10.47 10.31 2.10
-10.49 9.93 2.06
-10.52 9.56 2.03
-10.54 9.20 2.00
-10.56 8.84 1.97
-10.59 8.52 1.94
-10.58 8.17 1.91
-10.57 7.82 1.88
-10.56 7.49 1.85
-10.55 7.17 1.82
-10.54 6.86 1.79
-10.54 6.56 1.77
-10.57 6.29 1.75
-10.59 6.02 1.74
-10.61 5.75 1.72
-10.64 5.49 1.71
-10.66 5.23 1.69
-10.67 4.98 1.68
-10.69 4.73 1.67
-10.70 4.48 1.65
-10.73 4.24 1.64
-10.76 4.00 1.63
-10.78 3.77 1.63
-10.81 3.53 1.62
-10.83 3.30 1.61
-10.85 3.07 1.61
-10.88 2.84 1.60
-10.90 2.62 1.59
-10.92 2.39 1.59
-10.93 2.17 1.58
-10.95 1.94 1.58
-10.96 1.72 1.58
-10.97 1.49 1.57
-10.99 1.27 1.57
-11.00 1.05 1.57
-11.01 0.83 1.57
-11.02 0.61 1.57
-11.03 0.39 1.57
-11.04 0.16 1.57
-11.05 -0.06 1.57
-11.06 -0.28 1.57
-11.07 -0.50 1.57
-11.07 -0.73 1.57
-11.08 -0.95 1.58
-11.08 -1.17 1.58
-11.09 -1.40 1.58
-11.12 -1.63 1.59
-11.16 -1.87 1.60
-11.20 -2.11 1.61
-11.25 -2.35 1.63
-11.29 -2.60 1.64
-11.33 -2.85 1.65
-11.37 -3.10 1.67
-11.41 -3.36 1.68
-11.44 -3.62 1.70
-11.45 -3.88 1.71
-11.47 -4.14 1.72
-11.49 -4.41 1.74
-11.50 -4.68 1.76
-11.52 -4.96 1.77
-11.53 -5.24 1.79
-11.54 -5.53 1.81
-11.54 -5.82 1.83
-11.53 -6.11 1.84
-11.52 -6.40 1.86
-11.51 -6.70 1.88
-11.50 -7.01 1.90
-11.49 -7.32 1.92
-11.48 -7.64 1.95
-11.45 -7.96 1.97
-11.43 -8.29 1.99
-11.40 -8.63 2.02
-11.38 -8.97 2.04
-11.35 -9.32 2.07
-11.32 -9.69 2.10
-11.32 -10.09 2.14
-11.32 -10.50 2.18
-11.31 -10.92 2.22
-11.28 -11.34 2.25
-11.25 -11.77 2.29
-11.35 -12.36 2.36
-11.38 -12.91 2.42
-11.41 -13.48 2.49
-11.38 -14.00 2.54
-11.20 -14.37 2.56
-10.18 -13.61 2.39
-9.90 -13.81 2.39
-9.63 -14.01 2.39
-9.34 -14.20 2.39
-9.06 -14.39 2.39
-8.77 -14.57 2.39
-8.48 -14.74 2.39
-8.18 -14.91 2.39
-7.88 -15.07 2.39
-7.58 -15.23 2.39
-7.27 -15.38 2.39
-6.96 -15.53 2.39
-6.65 -15.67 2.39
-6.39 -15.94 2.41
-6.28 -16.61 2.49
-5.94 -16.73 2.49
-5.61 -16.85 2.49
-5.27 -16.96 2.49
-4.93 -17.07 2.49
-4.58 -17.16 2.49
-4.24 -17.25 2.49
-3.89 -17.34 2.49
-3.54 -17.41 2.49
-3.19 -17.48 2.49
-2.84 -17.54 2.49
-2.49 -17.60 2.49
-2.13 -17.64 2.49
-1.78 -17.69 2.49
-1.42 -17.72 2.49
-1.07 -17.74 2.49
-0.71 -17.76 2.49
-0.36 -17.77 2.49
0.00 -15.27 2.49
0.31 -15.27 2.49
0.61 -15.26 2.49
0.92 -15.24 2.49
1.23 -15.22 2.49
1.53 -15.20 2.49
1.76 -14.53 2.39
2.05 -14.50 2.39
2.34 -14.45 2.39
2.63 -14.40 2.39
2.92 -14.35 2.39
3.21 -14.29 2.39
3.49 -14.22 2.39
3.78 -14.14 2.39
4.06 -14.07 2.39
2.24 -7.21 1.23
4.62 -13.89 2.39
4.90 -13.80 2.39
5.17 -13.69 2.39
5.45 -13.59 2.39
5.72 -13.47 2.39
6.00 -13.37 2.39
6.26 -13.25 2.39
6.53 -13.12 2.39
6.79 -12.99 2.39
7.05 -12.85 2.39
7.30 -12.70 2.39
7.56 -12.55 2.39
7.81 -12.40 2.39
8.05 -12.24 2.39
8.30 -12.07 2.39
8.54 -11.90 2.39
8.77 -11.73 2.39
9.01 -11.55 2.39
9.24 -11.36 2.39
9.46 -11.18 2.39
9.68 -10.98 2.39
9.90 -10.79 2.39
10.11 -10.58 2.39
10.32 -10.38 2.39
10.53 -10.17 2.39
10.73 -9.95 2.39
10.92 -9.73 2.39
11.12 -9.51 2.39
11.30 -9.29 2.39
11.49 -9.06 2.39
11.66 -8.82 2.39
11.84 -8.59 2.39
12.01 -8.35 2.39
12.17 -8.10 2.39
12.33 -7.85 2.39
12.48 -7.60 2.39
12.63 -7.35 2.39
12.77 -7.10 2.39
12.91 -6.84 2.39
13.04 -6.58 2.39
13.17 -6.31 2.39
13.29 -6.05 2.39
13.41 -5.78 2.39
13.52 -5.51 2.39
13.63 -5.23 2.39
13.73 -4.96 2.39
13.82 -4.68 2.39
13.91 -4.40 2.39
14.00 -4.12 2.39
14.07 -3.84 2.39
14.14 -3.55 2.39
14.21 -3.27 2.39
14.27 -2.98 2.39
14.33 -2.69 2.39
14.37 -2.41 2.39
14.42 -2.12 2.39
14.46 -1.83 2.39
14.49 -1.54 2.39
14.51 -1.24 2.39
14.53 -0.95 2.39
14.55 -0.66 2.39
14.55 -0.37 2.39
14.56 -0.08 2.39
14.55 0.22 2.39
14.54 0.51 2.39
14.53 0.80 2.39
14.50 1.09 2.39
14.48 1.38 2.39
14.44 1.67 2.39
14.40 1.96 2.39
14.36 2.25 2.39
14.31 2.54 2.39
14.25 2.82 2.39
14.19 3.11 2.39
14.12 3.39 2.39
14.05 3.67 2.39
13.97 3.95 2.39
13.88 4.23 2.39
13.79 4.51 2.39
13.70 4.78 2.39
13.60 5.06 2.39
13.49 5.33 2.39
13.38 5.60 2.39
13.26 5.86 2.39
13.14 6.13 2.39
13.01 6.39 2.39
12.88 6.65 2.39
12.74 6.90 2.39
12.60 7.16 2.39
12.45 7.41 2.39
12.29 7.65 2.39
12.14 7.90 2.39
11.97 8.14 2.39
11.81 8.38 2.39
11.63 8.61 2.39
11.46 8.84 2.39
11.28 9.07 2.39
11.09 9.29 2.39
10.90 9.51 2.39
10.70 9.73 2.39
10.51 9.94 2.39
10.30 10.14 2.39
10.10 10.35 2.39
9.88 10.55 2.39
9.67 10.74 2.39
9.45 10.93 2.39
9.23 11.12 2.39
9.00 11.30 2.39
8.77 11.48 2.39
8.54 11.65 2.39
8.30 11.82 2.39
8.06 11.98 2.39
7.82 12.14 2.39
7.57 12.29 2.39
7.32 12.44 2.39
7.07 12.58 2.39
6.82 12.72 2.39
6.56 12.85 2.39
6.29 12.97 2.39
6.03 13.09 2.39
5.77 13.21 2.39
5.50 13.32 2.39
5.23 13.42 2.39
4.96 13.53 2.39
4.69 13.62 2.39
4.41 13.71 2.39
4.13 13.80 2.39
3.86 13.88 2.39
3.58 13.95 2.39
3.30 14.02 2.39
3.01 14.08 2.39
2.73 14.14 2.39
2.55 14.80 2.49
2.25 14.85 2.49
1.95 14.89 2.49
1.66 14.92 2.49
1.36 14.95 2.49
1.05 14.98 2.49
0.75 14.99 2.49
0.45 15.01 2.49
0.15 15.01 2.49
-0.15 15.01 2.49
-0.45 15.00 2.49
-0.75 14.99 2.49
-1.05 14.97 2.49
-1.35 14.95 2.49
-1.65 14.92 2.49
-1.95 14.88 2.49
-2.25 14.84 2.49
-2.55 14.79 2.49
-2.85 14.74 2.49
-3.14 14.68 2.49
-3.43 14.61 2.49
-3.73 14.54 2.49
-4.02 14.46 2.49
-4.31 14.38 2.49
-4.60 14.29 2.49
-4.88 14.20 2.49
-5.17 14.10 2.49
-5.45 13.99 2.49
-5.54 13.42 2.41
-5.76 13.19 2.39
-6.02 13.07 2.39
-6.28 12.95 2.39
-6.54 12.82 2.39
-6.80 12.69 2.39
-7.05 12.55 2.39
-7.30 12.41 2.39
-7.55 12.26 2.39
-7.80 12.11 2.39
-8.04 11.95 2.39
-8.28 11.78 2.39
-8.51 11.62 2.39
-8.75 11.44 2.39
-8.97 11.27 2.39
-9.20 11.09 2.39
-9.42 10.90 2.39
-9.70 10.78 2.41
-9.77 10.43 2.37
-9.85 10.10 2.34
-9.92 9.77 2.31
-9.95 9.41 2.27
-9.98 9.07 2.24
-10.01 8.73 2.20
-10.06 8.43 2.18
-10.11 8.14 2.15
-10.13 7.82 2.12
-10.13 7.50 2.09
-10.13 7.18 2.06
-10.12 6.88 2.03
-10.12 6.59 2.00
-10.16 6.33 1.98
-10.20 6.07 1.97
-10.23 5.81 1.95
-10.25 5.56 1.93
-10.28 5.30 1.91
-10.30 5.06 1.90
-10.32 4.81 1.88
-10.34 4.57 1.87
-10.35 4.33 1.86
-10.36 4.09 1.84
-10.39 3.86 1.83
-10.41 3.64 1.82
-10.44 3.41 1.82
-10.46 3.19 1.81
-10.48 2.97 1.80
-10.51 2.75 1.80
-10.53 2.53 1.79
-10.54 2.31 1.78
-10.55 2.09 1.78
-10.57 1.87 1.77
-10.59 1.66 1.77
-10.60 1.44 1.77
-10.62 1.23 1.77
-10.63 1.01 1.76
-10.65 0.80 1.76
-10.66 0.59 1.76
-10.67 0.37 1.76
-10.68 0.16 1.76
-10.69 -0.06 1.76
-10.69 -0.27 1.76
-10.70 -0.49 1.77
-10.71 -0.70 1.77
-10.71 -0.92 1.77
-10.72 -1.14 1.78
-10.72 -1.35 1.78
-10.72 -1.57 1.78
-10.70 -1.79 1.79
-10.77 -2.03 1.80
-10.85 -2.27 1.82
-10.93 -2.51 1.85
-11.00 -2.76 1.87
-11.08 -3.02 1.89
-11.12 -3.27 1.91
-11.15 -3.53 1.92
-11.17 -3.78 1.94
-11.18 -4.04 1.96
-11.19 -4.30 1.97
-11.21 -4.56 1.99
-11.22 -4.83 2.01
-11.23 -5.11 2.03
-11.24 -5.39 2.05
-11.24 -5.67 2.07
-11.23 -5.95 2.09
-11.22 -6.23 2.11
-11.21 -6.52 2.13
-11.19 -6.82 2.15
-11.15 -7.11 2.17
-11.09 -7.38 2.19
-11.03 -7.67 2.20
-10.96 -7.95 2.22
-10.87 -8.22 2.24
-10.78 -8.50 2.25
-10.69 -8.78 2.27
-10.60 -9.07 2.29
-10.50 -9.36 2.31
-10.40 -9.65 2.33
-10.34 -9.98 2.36
-10.27 -10.33 2.39
-10.08 -10.55 2.39
-9.87 -10.75 2.39
-9.65 -10.95 2.39
-9.43 -11.14 2.39
-9.21 -11.33 2.39
-8.98 -11.51 2.39
-8.75 -11.69 2.39
-8.51 -11.87 2.39
-8.27 -12.04 2.39
-8.03 -12.20 2.39
-7.78 -12.36 2.39
-7.53 -12.52 2.39
-7.28 -12.67 2.39
-7.03 -12.81 2.39
-6.77 -12.95 2.39
-6.51 -13.10 2.39
-6.31 -13.36 2.42
-6.24 -13.92 2.49
-5.96 -14.04 2.49
-5.68 -14.16 2.49
-5.39 -14.27 2.49
-5.10 -14.38 2.49
-4.81 -14.48 2.49
-4.52 -14.57 2.49
-4.23 -14.66 2.49
-3.94 -14.74 2.49
-3.64 -14.82 2.49
-3.34 -14.89 2.49
-3.04 -14.96 2.49
-2.74 -15.02 2.49
-2.44 -15.07 2.49
-2.14 -15.12 2.49
-1.83 -15.16 2.49
-1.53 -15.19 2.49
-1.22 -15.22 2.49
-0.92 -15.24 2.49
-0.61 -15.26 2.49
-0.31 -15.27 2.49
0.00 -13.37 2.49
0.27 -13.37 2.49
0.54 -13.36 2.49
0.81 -13.35 2.49
1.07 -13.33 2.49
1.34 -13.30 2.49
1.61 -13.27 2.49
1.80 -12.69 2.39
2.05 -12.65 2.39
2.30 -12.61 2.39
2.56 -12.56 2.39
2.81 -12.51 2.39
3.06 -12.45 2.39
3.31 -12.38 2.39
3.55 -12.32 2.39
2.23 -7.19 1.40
4.05 -12.16 2.39
4.29 -12.08 2.39
4.53 -11.99 2.39
4.77 -11.90 2.39
5.01 -11.80 2.39
5.24 -11.69 2.39
5.48 -11.59 2.39
5.71 -11.47 2.39
5.94 -11.37 2.39
6.17 -11.25 2.39
6.40 -11.12 2.39
6.62 -10.99 2.39
6.84 -10.86 2.39
7.05 -10.72 2.39
7.27 -10.57 2.39
7.48 -10.42 2.39
7.68 -10.27 2.39
7.89 -10.11 2.39
8.09 -9.95 2.39
8.28 -9.79 2.39
8.48 -9.62 2.39
8.67 -9.44 2.39
8.86 -9.27 2.39
9.04 -9.09 2.39
9.22 -8.90 2.39
9.40 -8.72 2.39
9.57 -8.53 2.39
9.74 -8.33 2.39
9.90 -8.13 2.39
10.06 -7.93 2.39
10.22 -7.73 2.39
10.37 -7.52 2.39
10.52 -7.31 2.39
10.66 -7.10 2.39
10.80 -6.88 2.39
10.93 -6.66 2.39
11.06 -6.44 2.39
11.19 -6.22 2.39
11.31 -5.99 2.39
11.43 -5.76 2.39
11.54 -5.53 2.39
11.65 -5.30 2.39
11.75 -5.06 2.39
11.85 -4.82 2.39
11.94 -4.58 2.39
12.03 -4.34 2.39
12.11 -4.10 2.39
12.19 -3.86 2.39
12.26 -3.61 2.39
12.33 -3.36 2.39
12.39 -3.11 2.39
12.45 -2.86 2.39
12.50 -2.61 2.39
12.55 -2.36 2.39
12.59 -2.11 2.39
12.63 -1.85 2.39
12.67 -1.60 2.39
12.69 -1.35 2.39
12.72 -1.09 2.39
12.73 -0.84 2.39
12.75 -0.58 2.39
12.75 -0.32 2.39
12.75 -0.07 2.39
12.75 0.19 2.39
12.74 0.44 2.39
12.73 0.70 2.39
12.71 0.96 2.39
12.69 1.21 2.39
12.66 1.46 2.39
12.62 1.72 2.39
12.59 1.97 2.39
12.54 2.22 2.39
12.49 2.47 2.39
12.44 2.72 2.39
12.38 2.97 2.39
12.32 3.22 2.39
12.25 3.47 2.39
12.17 3.71 2.39
12.09 3.95 2.39
12.01 4.19 2.39
11.92 4.43 2.39
11.83 4.67 2.39
11.73 4.91 2.39
11.63 5.14 2.39
11.52 5.37 2.39
11.41 5.60 2.39
11.29 5.83 2.39
11.17 6.05 2.39
11.04 6.27 2.39
10.91 6.49 2.39
10.78 6.71 2.39
10.64 6.93 2.39
10.50 7.14 2.39
10.35 7.34 2.39
10.20 7.55 2.39
10.05 7.75 2.39
9.89 7.95 2.39
9.72 8.15 2.39
9.56 8.34 2.39
9.39 8.53 2.39
9.21 8.71 2.39
9.04 8.90 2.39
8.85 9.07 2.39
8.67 9.25 2.39
8.48 9.42 2.39
8.29 9.59 2.39
8.09 9.75 2.39
7.89 9.91 2.39
7.69 10.07 2.39
7.49 10.22 2.39
7.28 10.36 2.39
7.07 10.51 2.39
6.86 10.65 2.39
6.64 10.78 2.39
6.42 10.90 2.39
6.20 11.02 2.39
5.97 11.15 2.39
5.75 11.26 2.39
5.52 11.37 2.39
5.29 11.48 2.39
5.06 11.58 2.39
4.82 11.68 2.39
4.59 11.78 2.39
4.35 11.86 2.39
4.11 11.95 2.39
3.87 12.03 2.39
3.63 12.10 2.39
3.38 12.17 2.39
3.14 12.24 2.39
2.89 12.30 2.39
2.64 12.35 2.39
2.50 12.94 2.49
2.24 12.98 2.49
1.98 13.02 2.49
1.71 13.06 2.49
1.45 13.09 2.49
1.19 13.12 2.49
0.93 13.14 2.49
0.66 13.15 2.49
0.40 13.17 2.49
0.13 13.17 2.49
-0.13 13.17 2.49
-0.40 13.16 2.49
-0.66 13.15 2.49
-0.92 13.14 2.49
-1.19 13.12 2.49
-1.45 13.09 2.49
-1.71 13.06 2.49
-1.98 13.02 2.49
-2.24 12.98 2.49
-2.50 12.93 2.49
-2.76 12.88 2.49
-3.01 12.82 2.49
-3.27 12.76 2.49
-3.53 12.69 2.49
-3.78 12.62 2.49
-4.03 12.54 2.49
-4.28 12.45 2.49
-4.53 12.37 2.49
-4.78 12.27 2.49
-5.03 12.18 2.49
-5.27 12.07 2.49
-5.51 11.96 2.49
-5.59 11.52 2.42
-5.74 11.25 2.39
-5.96 11.13 2.39
-6.19 11.01 2.39
-6.41 10.88 2.39
-6.63 10.75 2.39
-6.84 10.62 2.39
-7.05 10.48 2.39
-7.26 10.34 2.39
-7.47 10.19 2.39
-7.67 10.04 2.39
-7.87 9.88 2.39
-8.07 9.72 2.39
-8.26 9.56 2.39
-8.46 9.39 2.39
-8.64 9.22 2.39
-8.83 9.05 2.39
-9.01 8.87 2.39
-9.18 8.69 2.39
-9.36 8.50 2.39
-9.53 8.31 2.39
-9.62 8.06 2.37
-9.68 7.78 2.35
-9.72 7.50 2.32
-9.72 7.20 2.29
-9.72 6.90 2.25
-9.72 6.61 2.22
-9.77 6.36 2.20
-9.81 6.11 2.18
-9.85 5.86 2.16
-9.88 5.62 2.15
-9.91 5.37 2.13
-9.94 5.13 2.11
-9.96 4.89 2.10
-9.98 4.66 2.08
-10.00 4.42 2.06
-10.01 4.19 2.05
-10.02 3.96 2.03
-10.04 3.73 2.02
-10.06 3.51 2.01
-10.09 3.30 2.00
-10.11 3.08 1.99
-10.14 2.87 1.99
-10.16 2.66 1.98
-10.18 2.44 1.97
-10.19 2.23 1.97
-10.20 2.02 1.96
-10.21 1.81 1.95
-10.22 1.60 1.95
-10.24 1.39 1.95
-10.26 1.19 1.94
-10.27 0.98 1.94
-10.28 0.77 1.94
-10.30 0.57 1.94
-10.30 0.36 1.94
-10.31 0.15 1.94
-10.32 -0.05 1.94
-10.32 -0.26 1.94
-10.33 -0.47 1.95
-10.34 -0.68 1.95
-10.34 -0.89 1.95
-10.34 -1.10 1.96
-10.34 -1.31 1.96
-10.34 -1.52 1.97
-10.33 -1.73 1.97
-10.32 -1.94 1.97
-10.31 -2.15 1.98
-10.33 -2.38 1.99
-10.40 -2.61 2.01
-10.47 -2.85 2.04
-10.54 -3.10 2.06
-10.60 -3.35 2.09
-10.64 -3.60 2.11
-10.60 -3.83 2.11
-10.55 -4.05 2.12
-10.56 -4.30 2.14
-10.57 -4.55 2.16
-10.58 -4.81 2.18
-10.58 -5.07 2.20
-10.59 -5.34 2.22
-10.58 -5.60 2.24
-10.51 -5.84 2.25
-10.45 -6.08 2.27
-10.38 -6.32 2.28
-10.32 -6.57 2.29
-10.25 -6.83 2.31
-10.18 -7.08 2.32
-10.11 -7.33 2.34
-10.04 -7.59 2.36
-9.97 -7.86 2.38
-9.87 -8.11 2.39
-9.70 -8.30 2.39
-9.54 -8.50 2.39
-9.36 -8.69 2.39
-9.19 -8.88 2.39
-9.01 -9.06 2.39
-8.83 -9.24 2.39
-8.64 -9.42 2.39
-8.45 -9.59 2.39
-8.26 -9.76 2.39
-8.06 -9.92 2.39
-7.86 -10.08 2.39
-7.66 -10.24 2.39
-7.45 -10.39 2.39
-7.24 -10.54 2.39
-7.03 -10.69 2.39
-6.82 -10.83 2.39
-6.60 -10.96 2.39
-6.38 -11.09 2.39
-6.25 -11.40 2.43
-6.18 -11.83 2.49
-5.95 -11.96 2.49
-5.71 -12.07 2.49
-5.46 -12.19 2.49
-5.22 -12.29 2.49
-4.97 -12.40 2.49
-4.72 -12.50 2.49
-4.47 -12.59 2.49
-4.22 -12.68 2.49
-3.96 -12.76 2.49
-3.70 -12.84 2.49
-3.45 -12.91 2.49
-3.19 -12.98 2.49
-2.93 -13.04 2.49
-2.66 -13.10 2.49
-2.40 -13.15 2.49
-2.14 -13.19 2.49
-1.87 -13.24 2.49
-1.61 -13.27 2.49
-1.34 -13.30 2.49
-1.07 -13.33 2.49
-0.80 -13.35 2.49
-0.54 -13.36 2.49
-0.27 -13.37 2.49
0.00 -11.88 2.49
0.24 -11.88 2.49
0.48 -11.87 2.49
0.72 -11.86 2.49
0.95 -11.84 2.49
1.19 -11.82 2.49
1.43 -11.79 2.49
1.66 -11.76 2.49
1.82 -11.24 2.39
2.05 -11.20 2.39
2.27 -11.16 2.39
2.49 -11.11 2.39
2.72 -11.06 2.39
2.94 -11.00 2.39
3.16 -10.94 2.39
2.23 -7.19 1.58
3.59 -10.81 2.39
3.81 -10.73 2.39
4.03 -10.65 2.39
4.24 -10.57 2.39
4.45 -10.48 2.39
4.66 -10.39 2.39
4.87 -10.29 2.39
5.07 -10.19 2.39
5.27 -10.09 2.39
5.48 -9.98 2.39
5.67 -9.87 2.39
5.88 -9.77 2.39
6.07 -9.65 2.39
6.27 -9.52 2.39
6.46 -9.39 2.39
6.64 -9.26 2.39
6.83 -9.13 2.39
7.01 -8.99 2.39
7.19 -8.84 2.39
7.36 -8.70 2.39
7.53 -8.55 2.39
7.70 -8.39 2.39
7.87 -8.24 2.39
8.03 -8.08 2.39
8.19 -7.91 2.39
8.35 -7.75 2.39
8.50 -7.58 2.39
8.65 -7.40 2.39
8.80 -7.23 2.39
8.94 -7.05 2.39
9.08 -6.87 2.39
9.21 -6.68 2.39
9.35 -6.50 2.39
9.47 -6.31 2.39
9.60 -6.11 2.39
9.72 -5.92 2.39
9.83 -5.72 2.39
9.94 -5.52 2.39
10.05 -5.32 2.39
10.16 -5.12 2.39
10.26 -4.91 2.39
10.35 -4.71 2.39
10.44 -4.50 2.39
10.53 -4.29 2.39
10.61 -4.07 2.39
10.69 -3.86 2.39
10.76 -3.64 2.39
10.83 -3.43 2.39
10.90 -3.21 2.39
10.96 -2.99 2.39
11.02 -2.77 2.39
11.07 -2.55 2.39
11.12 -2.32 2.39
11.16 -2.10 2.39
11.20 -1.87 2.39
11.23 -1.65 2.39
11.26 -1.42 2.39
11.28 -1.20 2.39
11.30 -0.97 2.39
11.32 -0.74 2.39
11.33 -0.52 2.39
11.34 -0.29 2.39
11.34 -0.06 2.39
11.34 0.17 2.39
11.33 0.39 2.39
11.32 0.62 2.39
11.30 0.85 2.39
11.28 1.08 2.39
11.26 1.30 2.39
11.23 1.53 2.39
11.19 1.75 2.39
11.15 1.98 2.39
11.11 2.20 2.39
11.06 2.42 2.39
11.01 2.64 2.39
10.95 2.86 2.39
10.89 3.08 2.39
10.83 3.30 2.39
10.76 3.52 2.39
10.68 3.73 2.39
10.60 3.94 2.39
10.52 4.15 2.39
10.43 4.36 2.39
10.34 4.57 2.39
10.24 4.78 2.39
10.15 4.98 2.39
10.04 5.18 2.39
9.93 5.38 2.39
9.82 5.58 2.39
9.71 5.78 2.39
9.59 5.97 2.39
9.47 6.16 2.39
9.34 6.35 2.39
9.21 6.53 2.39
9.07 6.72 2.39
8.94 6.90 2.39
8.80 7.07 2.39
8.65 7.25 2.39
8.50 7.42 2.39
8.35 7.59 2.39
8.20 7.75 2.39
8.04 7.91 2.39
7.88 8.07 2.39
7.71 8.23 2.39
7.54 8.38 2.39
7.37 8.53 2.39
7.20 8.68 2.39
7.02 8.82 2.39
6.84 8.96 2.39
6.66 9.09 2.39
6.48 9.22 2.39
6.28 9.34 2.39
6.10 9.46 2.39
5.90 9.58 2.39
5.71 9.70 2.39
5.51 9.81 2.39
5.31 9.92 2.39
5.11 10.02 2.39
4.91 10.12 2.39
4.71 10.22 2.39
4.50 10.31 2.39
4.29 10.40 2.39
4.08 10.48 2.39
3.87 10.56 2.39
3.66 10.63 2.39
3.44 10.70 2.39
3.23 10.77 2.39
3.01 10.83 2.39
2.79 10.89 2.39
2.57 10.94 2.39
2.45 11.47 2.49
2.22 11.51 2.49
1.99 11.55 2.49
1.76 11.59 2.49
1.53 11.62 2.49
1.29 11.65 2.49
1.06 11.67 2.49
0.82 11.69 2.49
0.59 11.71 2.49
0.35 11.72 2.49
0.12 11.72 2.49
-0.12 11.72 2.49
-0.35 11.71 2.49
-0.59 11.70 2.49
-0.82 11.69 2.49
-1.06 11.67 2.49
-1.29 11.65 2.49
-1.52 11.62 2.49
-1.76 11.59 2.49
-1.99 11.55 2.49
-2.22 11.51 2.49
-2.45 11.46 2.49
-2.68 11.41 2.49
-2.91 11.35 2.49
-3.14 11.29 2.49
-3.36 11.23 2.49
-3.59 11.16 2.49
-3.81 11.08 2.49
-4.03 11.00 2.49
-4.25 10.92 2.49
-4.47 10.83 2.49
-4.69 10.74 2.49
-4.90 10.65 2.49
-5.12 10.55 2.49
-5.33 10.44 2.49
-5.54 10.33 2.49
-5.63 10.02 2.44
-5.70 9.69 2.39
-5.90 9.57 2.39
-6.09 9.45 2.39
-6.28 9.33 2.39
-6.46 9.20 2.39
-6.65 9.07 2.39
-6.83 8.93 2.39
-7.01 8.79 2.39
-7.18 8.65 2.39
-7.35 8.51 2.39
-7.52 8.36 2.39
-7.69 8.21 2.39
-7.85 8.05 2.39
-8.02 7.89 2.39
-8.17 7.73 2.39
-8.33 7.57 2.39
-8.48 7.40 2.39
-8.63 7.23 2.39
-8.77 7.05 2.39
-8.91 6.88 2.39
-9.05 6.70 2.39
-9.18 6.51 2.39
-9.31 6.33 2.39
-9.43 6.14 2.39
-9.48 5.90 2.37
-9.52 5.66 2.35
-9.56 5.43 2.33
-9.59 5.20 2.32
-9.62 4.96 2.30
-9.64 4.73 2.28
-9.66 4.51 2.26
-9.68 4.28 2.25
-9.70 4.06 2.23
-9.71 3.83 2.21
-9.72 3.62 2.20
-9.73 3.40 2.19
-9.76 3.19 2.18
-9.79 2.98 2.17
-9.81 2.78 2.16
-9.83 2.57 2.15
-9.85 2.36 2.15
-9.86 2.16 2.14
-9.87 1.95 2.13
-9.88 1.75 2.13
-9.88 1.55 2.12
-9.90 1.35 2.12
-9.91 1.15 2.11
-9.93 0.95 2.11
-9.94 0.75 2.11
-9.95 0.55 2.11
-9.96 0.35 2.11
-9.97 0.15 2.11
-9.97 -0.05 2.11
-9.98 -0.25 2.11
-9.98 -0.45 2.11
-9.99 -0.66 2.12
-9.99 -0.86 2.12
-9.99 -1.06 2.12
-9.99 -1.26 2.13
-9.99 -1.47 2.13
-9.98 -1.67 2.14
-9.97 -1.88 2.14
-9.95 -2.08 2.15
-9.94 -2.29 2.15
-9.92 -2.49 2.16
-9.91 -2.70 2.17
-9.97 -2.94 2.20
-10.03 -3.17 2.22
-10.08 -3.41 2.25
-10.09 -3.65 2.27
-10.05 -3.86 2.27
-10.01 -4.08 2.28
-9.96 -4.29 2.29
-9.92 -4.51 2.30
-9.87 -4.73 2.31
-9.84 -4.96 2.32
-9.83 -5.21 2.35
-9.82 -5.46 2.37
-9.78 -5.70 2.39
-9.68 -5.90 2.39
-9.56 -6.10 2.39
-9.44 -6.29 2.39
-9.31 -6.48 2.39
-9.18 -6.66 2.39
-9.05 -6.85 2.39
-8.91 -7.03 2.39
-8.77 -7.21 2.39
-8.62 -7.38 2.39
-8.48 -7.55 2.39
-8.32 -7.72 2.39
-8.17 -7.89 2.39
-8.01 -8.05 2.39
-7.85 -8.21 2.39
-7.68 -8.37 2.39
-7.51 -8.52 2.39
-7.34 -8.67 2.39
-7.17 -8.82 2.39
-6.99 -8.96 2.39
-6.81 -9.10 2.39
-6.62 -9.24 2.39
-6.44 -9.37 2.39
-6.25 -9.50 2.39
-6.21 -9.86 2.45
-6.12 -10.16 2.49
-5.91 -10.28 2.49
-5.71 -10.40 2.49
-5.50 -10.51 2.49
-5.28 -10.62 2.49
-5.07 -10.73 2.49
-4.85 -10.83 2.49
-4.64 -10.93 2.49
-4.42 -11.02 2.49
-4.19 -11.10 2.49
-3.97 -11.19 2.49
-3.75 -11.26 2.49
-3.52 -11.34 2.49
-3.29 -11.41 2.49
-3.06 -11.47 2.49
-2.83 -11.53 2.49
-2.60 -11.59 2.49
-2.37 -11.64 2.49
-2.13 -11.68 2.49
-1.90 -11.72 2.49
-1.66 -11.76 2.49
-1.43 -11.79 2.49
-1.19 -11.82 2.49
-0.95 -11.84 2.49
-0.71 -11.86 2.49
-0.48 -11.87 2.49
-0.24 -11.88 2.49
0.00 -10.68 2.49
0.21 -10.68 2.49
0.43 -10.67 2.49
0.64 -10.66 2.49
0.86 -10.64 2.49
1.07 -10.63 2.49
1.28 -10.60 2.49
1.50 -10.57 2.49
1.71 -10.54 2.49
1.85 -10.10 2.40
2.04 -10.03 2.39
2.24 -9.99 2.39
2.44 -9.94 2.39
2.64 -9.89 2.39
2.84 -9.84 2.39
2.23 -7.19 1.76
3.23 -9.71 2.39
3.43 -9.65 2.39
3.62 -9.58 2.39
3.81 -9.50 2.39
4.00 -9.42 2.39
4.19 -9.34 2.39
4.37 -9.25 2.39
4.56 -9.16 2.39
4.74 -9.07 2.39
4.92 -8.97 2.39
5.10 -8.87 2.39
5.28 -8.77 2.39
5.45 -8.66 2.39
5.62 -8.55 2.39
5.79 -8.43 2.39
5.97 -8.33 2.39
6.14 -8.20 2.39
6.30 -8.08 2.39
6.46 -7.95 2.39
6.62 -7.82 2.39
6.77 -7.68 2.39
6.92 -7.54 2.39
7.07 -7.40 2.39
7.22 -7.26 2.39
7.36 -7.11 2.39
7.51 -6.96 2.39
7.64 -6.81 2.39
7.78 -6.66 2.39
7.91 -6.50 2.39
8.04 -6.34 2.39
8.16 -6.17 2.39
8.28 -6.01 2.39
8.40 -5.84 2.39
8.52 -5.67 2.39
8.63 -5.50 2.39
8.74 -5.32 2.39
8.84 -5.15 2.39
8.94 -4.97 2.39
9.04 -4.79 2.39
9.13 -4.60 2.39
9.22 -4.42 2.39
9.31 -4.23 2.39
9.39 -4.04 2.39
9.47 -3.85 2.39
9.54 -3.66 2.39
9.61 -3.47 2.39
9.68 -3.28 2.39
9.74 -3.08 2.39
9.80 -2.89 2.39
9.85 -2.69 2.39
9.90 -2.49 2.39
9.95 -2.29 2.39
9.99 -2.09 2.39
10.03 -1.89 2.39
10.07 -1.69 2.39
10.10 -1.48 2.39
10.13 -1.28 2.39
10.15 -1.08 2.39
10.17 -0.87 2.39
10.18 -0.67 2.39
10.19 -0.46 2.39
10.20 -0.26 2.39
10.20 -0.05 2.39
10.20 0.15 2.39
10.19 0.35 2.39
10.18 0.56 2.39
10.16 0.76 2.39
10.15 0.97 2.39
10.12 1.17 2.39
10.10 1.37 2.39
10.07 1.58 2.39
10.03 1.78 2.39
9.99 1.98 2.39
9.95 2.18 2.39
9.90 2.38 2.39
9.85 2.57 2.39
9.80 2.77 2.39
9.74 2.97 2.39
9.67 3.16 2.39
9.61 3.35 2.39
9.54 3.55 2.39
9.46 3.74 2.39
9.39 3.93 2.39
9.30 4.11 2.39
9.22 4.30 2.39
9.13 4.48 2.39
9.03 4.66 2.39
8.94 4.84 2.39
8.84 5.02 2.39
8.73 5.20 2.39
8.63 5.37 2.39
8.52 5.54 2.39
8.40 5.71 2.39
8.28 5.88 2.39
8.16 6.04 2.39
8.04 6.20 2.39
7.91 6.36 2.39
7.78 6.52 2.39
7.65 6.67 2.39
7.51 6.83 2.39
7.37 6.97 2.39
7.23 7.12 2.39
7.09 7.26 2.39
6.94 7.40 2.39
6.79 7.54 2.39
6.63 7.67 2.39
6.48 7.81 2.39
6.31 7.92 2.39
6.15 8.05 2.39
5.99 8.17 2.39
5.82 8.29 2.39
5.66 8.40 2.39
5.48 8.51 2.39
5.31 8.62 2.39
5.14 8.73 2.39
4.96 8.83 2.39
4.78 8.92 2.39
4.60 9.02 2.39
4.42 9.11 2.39
4.24 9.19 2.39
4.05 9.28 2.39
3.86 9.35 2.39
3.67 9.43 2.39
3.48 9.50 2.39
3.29 9.57 2.39
3.10 9.63 2.39
2.90 9.69 2.39
2.71 9.75 2.39
2.51 9.80 2.39
2.42 10.27 2.49
2.21 10.32 2.49
2.00 10.36 2.49
1.79 10.40 2.49
1.58 10.43 2.49
1.37 10.46 2.49
1.16 10.48 2.49
0.95 10.51 2.49
0.74 10.52 2.49
0.53 10.54 2.49
0.32 10.54 2.49
0.11 10.55 2.49
-0.11 10.55 2.49
-0.32 10.54 2.49
-0.53 10.53 2.49
-0.74 10.52 2.49
-0.95 10.50 2.49
-1.16 10.48 2.49
-1.37 10.46 2.49
-1.58 10.43 2.49
-1.79 10.39 2.49
-2.00 10.36 2.49
-2.21 10.31 2.49
-2.41 10.27 2.49
-2.62 10.22 2.49
-2.82 10.16 2.49
-3.03 10.10 2.49
-3.23 10.04 2.49
-3.43 9.97 2.49
-3.63 9.90 2.49
-3.83 9.83 2.49
-4.03 9.75 2.49
-4.22 9.67 2.49
-4.41 9.58 2.49
-4.61 9.49 2.49
-4.80 9.40 2.49
-4.98 9.30 2.49
-5.17 9.20 2.49
-5.35 9.09 2.49
-5.53 8.98 2.49
-5.67 8.80 2.47
-5.68 8.45 2.41
-5.82 8.28 2.39
-5.98 8.16 2.39
-6.14 8.04 2.39
-6.30 7.91 2.39
-6.46 7.79 2.39
-6.62 7.66 2.39
-6.77 7.52 2.39
-6.92 7.38 2.39
-7.07 7.24 2.39
-7.21 7.10 2.39
-7.35 6.96 2.39
-7.49 6.81 2.39
-7.63 6.66 2.39
-7.76 6.50 2.39
-7.89 6.35 2.39
-8.02 6.19 2.39
-8.14 6.02 2.39
-8.26 5.86 2.39
-8.38 5.69 2.39
-8.49 5.53 2.39
-8.60 5.35 2.39
-8.71 5.18 2.39
-8.81 5.01 2.39
-8.91 4.83 2.39
-9.01 4.65 2.39
-9.10 4.47 2.39
-9.19 4.28 2.39
-9.27 4.10 2.39
-9.35 3.91 2.39
-9.41 3.72 2.39
-9.42 3.50 2.37
-9.44 3.30 2.36
-9.45 3.09 2.34
-9.48 2.89 2.33
-9.50 2.69 2.33
-9.52 2.49 2.32
-9.53 2.29 2.31
-9.55 2.09 2.30
-9.56 1.89 2.29
-9.57 1.69 2.29
-9.58 1.50 2.28
-9.58 1.30 2.28
-9.59 1.11 2.27
-9.61 0.92 2.27
-9.62 0.72 2.27
-9.63 0.53 2.27
-9.64 0.34 2.27
-9.64 0.14 2.27
-9.65 -0.05 2.27
-9.65 -0.25 2.27
-9.66 -0.44 2.27
-9.66 -0.63 2.28
-9.66 -0.83 2.28
-9.66 -1.03 2.28
-9.66 -1.22 2.29
-9.66 -1.42 2.29
-9.65 -1.62 2.30
-9.64 -1.81 2.30
-9.62 -2.01 2.31
-9.61 -2.21 2.32
-9.59 -2.41 2.32
-9.57 -2.61 2.33
-9.55 -2.81 2.34
-9.53 -3.02 2.35
-9.55 -3.24 2.37
-9.58 -3.46 2.39
-9.51 -3.65 2.39
-9.43 -3.84 2.39
-9.36 -4.03 2.39
-9.28 -4.22 2.39
-9.19 -4.40 2.39
-9.10 -4.59 2.39
-9.01 -4.77 2.39
-8.91 -4.95 2.39
-8.81 -5.13 2.39
-8.71 -5.31 2.39
-8.60 -5.48 2.39
-8.49 -5.65 2.39
-8.38 -5.82 2.39
-8.26 -5.99 2.39
-8.14 -6.16 2.39
-8.01 -6.32 2.39
-7.88 -6.48 2.39
-7.75 -6.64 2.39
-7.62 -6.79 2.39
-7.48 -6.94 2.39
-7.34 -7.09 2.39
-7.20 -7.24 2.39
-7.05 -7.38 2.39
-6.90 -7.52 2.39
-6.75 -7.66 2.39
-6.60 -7.80 2.39
-6.44 -7.93 2.39
-6.28 -8.06 2.39
-6.17 -8.25 2.41
-6.17 -8.61 2.48
-6.04 -8.79 2.49
-5.86 -8.91 2.49
-5.68 -9.02 2.49
-5.50 -9.14 2.49
-5.31 -9.25 2.49
-5.13 -9.35 2.49
-4.94 -9.45 2.49
-4.75 -9.55 2.49
-4.56 -9.64 2.49
-4.36 -9.73 2.49
-4.17 -9.82 2.49
-3.97 -9.90 2.49
-3.77 -9.98 2.49
-3.57 -10.06 2.49
-3.37 -10.13 2.49
-3.16 -10.19 2.49
-2.96 -10.25 2.49
-2.75 -10.31 2.49
-2.55 -10.37 2.49
-2.34 -10.42 2.49
-2.13 -10.46 2.49
-1.92 -10.50 2.49
-1.71 -10.54 2.49
-1.49 -10.57 2.49
-1.28 -10.60 2.49
-1.07 -10.62 2.49
-0.86 -10.64 2.49
-0.64 -10.66 2.49
-0.43 -10.67 2.49
-0.21 -10.68 2.49
0.00 -9.69 2.49
0.19 -9.69 2.49
0.39 -9.68 2.49
0.58 -9.67 2.49
0.78 -9.66 2.49
0.97 -9.64 2.49
1.16 -9.62 2.49
1.36 -9.59 2.49
1.55 -9.56 2.49
1.74 -9.53 2.49
1.87 -9.18 2.41
2.03 -9.06 2.39
2.22 -9.02 2.39
2.40 -8.97 2.39
2.58 -8.92 2.39
2.23 -7.18 1.94
2.93 -8.81 2.39
3.11 -8.75 2.39
3.28 -8.69 2.39
3.46 -8.62 2.39
3.63 -8.55 2.39
3.80 -8.47 2.39
3.97 -8.40 2.39
4.14 -8.31 2.39
4.30 -8.23 2.39
4.47 -8.14 2.39
4.63 -8.05 2.39
4.79 -7.95 2.39
4.95 -7.86 2.39
5.10 -7.76 2.39
5.26 -7.65 2.39
5.41 -7.54 2.39
5.56 -7.43 2.39
5.71 -7.32 2.39
5.85 -7.20 2.39
6.00 -7.09 2.39
6.14 -6.97 2.39
6.28 -6.85 2.39
6.42 -6.72 2.39
6.55 -6.59 2.39
6.68 -6.45 2.39
6.81 -6.32 2.39
6.93 -6.18 2.39
7.06 -6.04 2.39
7.18 -5.90 2.39
7.29 -5.75 2.39
7.41 -5.60 2.39
7.52 -5.45 2.39
7.62 -5.30 2.39
7.73 -5.15 2.39
7.83 -4.99 2.39
7.93 -4.83 2.39
8.02 -4.67 2.39
8.11 -4.51 2.39
8.20 -4.34 2.39
8.29 -4.18 2.39
8.37 -4.01 2.39
8.44 -3.84 2.39
8.52 -3.67 2.39
8.59 -3.50 2.39
8.66 -3.32 2.39
8.72 -3.15 2.39
8.78 -2.97 2.39
8.84 -2.80 2.39
8.89 -2.62 2.39
8.94 -2.44 2.39
8.99 -2.26 2.39
9.03 -2.08 2.39
9.07 -1.90 2.39
9.11 -1.71 2.39
9.14 -1.53 2.39
9.17 -1.35 2.39
9.19 -1.16 2.39
9.21 -0.98 2.39
9.23 -0.79 2.39
9.24 -0.61 2.39
9.25 -0.42 2.39
9.25 -0.24 2.39
9.26 -0.05 2.39
9.25 0.14 2.39
9.25 0.32 2.39
9.24 0.51 2.39
9.23 0.69 2.39
9.21 0.88 2.39
9.19 1.06 2.39
9.16 1.25 2.39
9.14 1.43 2.39
9.11 1.61 2.39
9.07 1.79 2.39
9.03 1.98 2.39
8.99 2.16 2.39
8.94 2.34 2.39
8.89 2.52 2.39
8.84 2.69 2.39
8.78 2.87 2.39
8.72 3.05 2.39
8.66 3.22 2.39
8.59 3.39 2.39
8.52 3.56 2.39
8.45 3.73 2.39
8.37 3.90 2.39
8.29 4.07 2.39
8.20 4.23 2.39
8.11 4.40 2.39
8.02 4.56 2.39
7.93 4.72 2.39
7.83 4.87 2.39
7.73 5.03 2.39
7.63 5.18 2.39
7.52 5.34 2.39
7.41 5.48 2.39
7.30 5.63 2.39
7.19 5.78 2.39
7.07 5.92 2.39
