ply
format ascii 1.0
element vertex 2777
property float32 x
property float32 y
property float32 z
end_header
16.83 14.10 0.25
16.92 14.77 0.25
18.82 17.11 0.28
15.60 14.77 0.24
15.54 15.30 0.24
17.42 17.87 0.27
17.17 18.33 0.27
19.51 21.68 0.31
19.39 22.45 0.31
31.26 37.68 0.51
29.98 37.65 0.50
28.73 37.61 0.49
27.03 36.89 0.46
26.16 37.25 0.46
25.87 38.46 0.46
24.74 38.43 0.45
22.65 36.77 0.42
22.18 37.68 0.42
22.09 39.33 0.43
22.05 41.17 0.44
22.02 43.17 0.45
20.66 44.86 0.45
2.16 6.72 0.06
-16.14 46.94 0.19
-16.39 44.73 0.18
-16.87 43.31 0.17
-17.13 41.49 0.16
-17.05 39.07 0.14
-16.96 36.83 0.13
-17.09 35.24 0.12
-17.13 33.58 0.11
-16.82 31.40 0.10
-15.17 26.99 0.08
-14.23 24.17 0.07
-14.19 23.03 0.07
-14.17 22.01 0.06
-13.70 20.37 0.05
-13.58 19.33 0.05
-13.47 18.38 0.05
-13.40 17.54 0.04
-13.42 16.85 0.04
-13.43 16.19 0.03
-13.45 15.56 0.03
-13.48 14.99 0.03
-13.52 14.43 0.03
-13.56 13.90 0.02
-13.55 13.35 0.02
-13.53 12.80 0.02
-13.51 12.28 0.02
-13.49 11.78 0.01
-13.66 11.45 0.01
-13.89 11.17 0.01
-14.11 10.89 0.01
-14.34 10.62 0.01
-14.36 10.19 0.01
-14.36 9.76 0.00
-14.42 9.39 0.00
-14.51 9.03 0.00
-14.56 8.67 -0.00
-14.55 8.27 -0.00
-14.55 7.89 -0.00
-14.55 7.51 -0.00
-14.56 7.15 -0.01
-14.57 6.80 -0.01
-14.56 6.44 -0.01
-14.56 6.09 -0.01
-14.55 5.75 -0.01
-14.55 5.42 -0.01
-14.56 5.09 -0.01
-14.56 4.76 -0.01
-14.56 4.44 -0.01
-14.55 4.12 -0.01
-14.55 3.81 -0.01
-14.56 3.50 -0.01
-14.59 3.20 -0.02
-14.62 2.90 -0.02
-14.61 2.59 -0.02
-14.60 2.29 -0.02
-14.59 1.99 -0.02
-14.57 1.69 -0.02
-14.63 1.40 -0.02
-14.76 1.11 -0.02
-14.77 0.82 -0.02
-14.77 0.52 -0.02
-14.77 0.22 -0.02
-14.77 -0.07 -0.02
-14.76 -0.37 -0.02
-14.80 -0.67 -0.02
-14.83 -0.97 -0.02
-14.83 -1.27 -0.02
-14.83 -1.57 -0.02
-14.82 -1.87 -0.02
-14.82 -2.17 -0.02
-14.82 -2.48 -0.02
-14.82 -2.78 -0.02
-14.81 -3.09 -0.02
-14.80 -3.40 -0.02
-14.79 -3.71 -0.02
-14.78 -4.03 -0.02
-14.77 -4.34 -0.02
-14.75 -4.66 -0.02
-14.73 -4.98 -0.02
-14.74 -5.32 -0.02
-14.75 -5.66 -0.02
-14.76 -6.01 -0.02
-14.77 -6.36 -0.02
-14.76 -6.71 -0.01
-14.72 -7.05 -0.01
-14.67 -7.39 -0.01
-14.63 -7.74 -0.01
-14.58 -8.10 -0.01
-14.53 -8.46 -0.01
-14.45 -8.80 -0.01
-14.34 -9.13 -0.01
-14.29 -9.51 -0.01
-14.27 -9.92 -0.01
-14.26 -10.34 -0.01
-14.24 -10.77 -0.00
-14.23 -11.21 -0.00
-14.22 -11.67 -0.00
-14.20 -12.15 0.00
-14.19 -12.64 0.00
-14.80 -13.73 0.00
-35.76 -34.52 0.01
-34.31 -34.48 0.02
-32.92 -34.44 0.02
-31.59 -34.41 0.03
-30.31 -34.37 0.03
-29.07 -34.33 0.03
-27.88 -34.30 0.04
-26.73 -34.27 0.04
-25.62 -34.24 0.04
-24.54 -34.21 0.05
-23.49 -34.18 0.05
-14.18 -21.54 0.04
-21.49 -34.12 0.06
-20.53 -34.09 0.06
-19.59 -34.07 0.07
-18.68 -34.04 0.07
-17.79 -34.02 0.07
-16.91 -33.99 0.08
-16.03 -33.91 0.08
-13.66 -30.47 0.08
-14.40 -33.92 0.09
-13.60 -33.90 0.09
-12.80 -33.88 0.10
-12.00 -33.78 0.10
-11.26 -33.83 0.10
-10.50 -33.81 0.11
-9.76 -33.79 0.11
-9.02 -33.77 0.12
-8.29 -33.75 0.12
-7.57 -33.73 0.12
-6.86 -33.71 0.13
-6.15 -33.69 0.13
-5.45 -33.67 0.14
-4.76 -33.65 0.14
-4.07 -33.60 0.14
-3.39 -33.61 0.15
-2.70 -33.59 0.15
-2.03 -33.57 0.16
-1.35 -33.55 0.16
-0.67 -33.53 0.17
-0.01 -33.44 0.92
0.67 -33.50 0.93
1.34 -33.48 0.93
2.01 -33.46 0.94
2.68 -33.44 0.94
3.36 -33.42 0.95
4.03 -33.33 0.96
4.72 -33.38 0.96
5.40 -33.36 0.97
6.08 -33.34 0.98
6.77 -33.32 0.99
2.88 -12.84 0.38
8.17 -33.28 1.00
5.23 -19.62 0.60
9.59 -33.24 1.02
10.31 -33.22 1.03
11.04 -33.20 1.04
11.78 -33.18 1.05
12.52 -33.16 1.07
13.28 -33.14 1.08
14.05 -33.12 1.09
14.83 -33.10 1.11
15.63 -33.07 1.12
16.44 -33.05 1.14
17.26 -33.03 1.15
18.10 -33.00 1.17
18.96 -32.98 1.18
19.84 -32.95 1.20
20.73 -32.93 1.22
21.65 -32.90 1.24
18.63 -27.11 1.04
18.75 -26.14 1.02
19.55 -26.14 1.04
20.37 -26.13 1.06
26.62 -32.76 1.36
27.71 -32.73 1.38
24.32 -27.59 1.19
24.29 -26.46 1.17
24.62 -25.76 1.16
25.60 -25.74 1.19
33.72 -32.56 1.54
35.06 -32.52 1.57
36.46 -32.49 1.61
37.92 -32.44 1.65
20.18 -14.03 0.82
20.49 -13.64 0.83
20.83 -13.27 0.83
21.11 -12.86 0.84
21.37 -11.87 0.83
21.60 -11.44 0.83
32.26 -16.26 1.23
33.95 -16.27 1.29
35.75 -16.25 1.34
37.50 -16.15 1.40
18.26 -7.43 0.68
15.89 -6.10 0.59
16.06 -5.80 0.59
22.79 -7.71 0.83
20.53 -6.49 0.74
19.99 -5.88 0.72
17.18 -4.68 0.62
16.90 -4.24 0.61
17.07 -3.92 0.61
20.82 -4.35 0.74
21.03 -3.95 0.75
21.25 -3.55 0.75
21.47 -3.15 0.76
21.69 -2.74 0.76
21.91 -2.32 0.77
22.14 -1.89 0.78
27.23 -1.78 0.96
19.10 -0.86 0.67
18.93 -0.48 0.66
39.91 -0.20 1.40
17.02 0.26 0.60
16.43 0.58 0.58
16.62 0.92 0.58
20.85 1.57 0.73
20.23 1.94 0.71
20.47 2.37 0.72
27.60 3.76 0.98
18.42 2.89 0.65
17.89 3.17 0.64
18.05 3.58 0.65
24.59 5.39 0.88
23.92 5.75 0.86
23.28 6.09 0.84
22.67 6.42 0.82
22.09 6.74 0.81
21.53 7.04 0.79
20.98 7.34 0.78
20.46 7.62 0.76
19.96 7.89 0.75
19.47 8.15 0.73
19.00 8.41 0.72
18.54 8.65 0.71
18.10 8.89 0.70
17.67 9.13 0.69
17.25 9.35 0.68
16.84 9.57 0.67
16.44 9.79 0.66
19.29 12.02 0.78
27.04 17.61 1.11
26.84 18.25 1.11
15.22 10.81 0.64
14.90 11.04 0.63
25.36 19.58 1.09
15.11 12.16 0.66
15.59 13.07 0.69
15.93 13.91 0.71
15.54 14.13 0.71
15.15 14.34 0.70
14.76 14.55 0.69
15.28 15.68 0.73
16.10 17.20 0.78
17.06 18.97 0.85
18.19 21.06 0.92
31.25 37.68 1.62
29.97 37.65 1.58
28.73 37.61 1.55
27.02 36.89 1.50
26.16 37.26 1.48
25.86 38.46 1.51
24.74 38.43 1.48
22.64 36.77 1.39
22.17 37.69 1.41
22.09 39.34 1.45
22.05 41.18 1.49
22.02 43.18 1.54
20.65 44.86 1.56
19.76 45.30 1.55
2.16 6.72 0.22
-14.88 46.24 1.29
-15.26 44.34 1.24
-15.45 42.13 1.18
-15.50 39.79 1.12
-15.55 37.65 1.06
-15.55 35.60 1.01
-15.66 33.99 0.96
-15.58 32.09 0.91
-14.92 29.24 0.84
-13.63 25.44 0.73
-13.24 23.56 0.68
-13.22 22.46 0.65
-13.13 21.32 0.63
-13.01 20.19 0.60
-12.95 19.25 0.57
-12.88 18.33 0.55
-12.84 17.51 0.53
-12.85 16.81 0.52
-12.88 16.17 0.50
-12.90 15.54 0.49
-12.92 14.94 0.47
-12.96 14.40 0.46
-13.01 13.88 0.45
-13.02 13.35 0.44
-13.02 12.82 0.43
-13.01 12.30 0.42
-13.00 11.81 0.41
-13.07 11.40 0.40
-13.13 11.00 0.40
-13.19 10.61 0.39
-13.25 10.23 0.39
-13.31 9.85 0.38
-13.35 9.48 0.37
-13.38 9.10 0.37
-13.41 8.73 0.36
-13.49 8.40 0.36
-13.57 8.08 0.36
-13.62 7.74 0.35
-13.64 7.39 0.35
-13.65 7.05 0.34
-13.67 6.72 0.34
-13.69 6.39 0.33
-13.71 6.06 0.33
-13.71 5.74 0.33
-13.72 5.42 0.32
-13.73 5.11 0.32
-13.73 4.80 0.32
-13.74 4.49 0.31
-13.75 4.19 0.31
-13.75 3.89 0.31
-13.76 3.60 0.31
-13.79 3.31 0.31
-13.82 3.03 0.30
-13.86 2.75 0.30
-13.89 2.46 0.30
-13.91 2.18 0.30
-13.90 1.89 0.30
-13.89 1.61 0.30
-13.99 1.34 0.30
-14.11 1.06 0.30
-14.23 0.79 0.30
-14.29 0.50 0.30
-14.29 0.22 0.30
-14.29 -0.07 0.30
-14.29 -0.36 0.30
-14.32 -0.65 0.30
-14.37 -0.94 0.31
-14.43 -1.23 0.31
-14.42 -1.53 0.31
-14.42 -1.82 0.31
-14.42 -2.11 0.31
-14.41 -2.41 0.31
-14.41 -2.71 0.31
-14.42 -3.01 0.31
-14.42 -3.31 0.31
-14.40 -3.61 0.32
-14.39 -3.92 0.32
-14.38 -4.23 0.32
-14.37 -4.54 0.32
-14.34 -4.85 0.32
-14.30 -5.16 0.33
-14.29 -5.48 0.33
-14.29 -5.82 0.33
-14.30 -6.15 0.34
-14.30 -6.50 0.34
-14.27 -6.83 0.34
-14.23 -7.17 0.35
-14.18 -7.51 0.35
-14.14 -7.85 0.35
-14.09 -8.19 0.36
-14.04 -8.55 0.36
-13.94 -8.87 0.36
-13.83 -9.20 0.37
-13.72 -9.53 0.37
-13.60 -9.86 0.37
-13.56 -10.25 0.38
-13.53 -10.66 0.39
-13.51 -11.09 0.39
-13.48 -11.53 0.40
-13.46 -11.99 0.41
-13.44 -12.46 0.42
-14.11 -13.62 0.45
-14.53 -14.60 0.47
-32.93 -34.44 1.09
-31.60 -34.41 1.08
-30.31 -34.37 1.06
-29.08 -34.33 1.05
-27.89 -34.30 1.03
-26.74 -34.27 1.02
-25.62 -34.24 1.01
-24.55 -34.21 1.00
-23.50 -34.18 0.99
-14.18 -21.53 0.62
-21.50 -34.12 0.97
-20.54 -34.09 0.96
-19.60 -34.07 0.95
-18.69 -34.04 0.95
-17.79 -34.02 0.94
-16.92 -33.99 0.93
-16.04 -33.91 0.93
-13.67 -30.47 0.83
-14.41 -33.92 0.92
-13.60 -33.90 0.92
-12.81 -33.88 0.91
-12.01 -33.78 0.91
-11.26 -33.83 0.91
-10.51 -33.81 0.91
-9.76 -33.79 0.90
-9.02 -33.77 0.90
-8.30 -33.75 0.90
-7.58 -33.73 0.90
-6.87 -33.71 0.90
-6.16 -33.69 0.90
-5.46 -33.67 0.90
-4.77 -33.65 0.91
-4.07 -33.61 0.91
-3.39 -33.61 0.91
-2.71 -33.59 0.91
-2.03 -33.57 0.91
-1.35 -33.55 0.92
-0.68 -33.53 0.92
-0.01 -33.45 1.68
0.66 -33.50 1.69
1.33 -33.48 1.69
2.01 -33.46 1.70
2.68 -33.44 1.70
3.35 -33.42 1.71
4.02 -33.33 1.71
4.71 -33.38 1.72
5.39 -33.36 1.73
6.08 -33.34 1.74
6.77 -33.32 1.75
2.93 -13.06 0.69
8.16 -33.28 1.78
5.23 -19.62 1.06
9.58 -33.24 1.80
10.30 -33.22 1.82
11.03 -33.20 1.83
11.77 -33.18 1.85
12.52 -33.16 1.87
13.28 -33.14 1.88
14.05 -33.12 1.90
14.83 -33.10 1.92
15.62 -33.07 1.95
16.43 -33.05 1.97
17.25 -33.03 1.99
18.10 -33.00 2.02
18.95 -32.98 2.04
19.83 -32.95 2.07
20.73 -32.93 2.10
17.47 -26.56 1.72
17.88 -26.03 1.71
18.65 -26.02 1.74
19.45 -26.01 1.77
20.27 -26.00 1.80
23.01 -27.19 1.95
22.98 -26.08 1.91
23.66 -25.79 1.93
24.61 -25.76 1.96
25.59 -25.74 2.00
26.56 -25.66 2.04
27.77 -25.76 2.10
32.14 -28.64 2.39
33.34 -28.53 2.44
34.57 -28.41 2.49
35.08 -27.66 2.49
35.56 -26.90 2.49
19.95 -14.47 1.38
19.98 -13.89 1.37
20.49 -13.64 1.38
20.79 -13.25 1.39
21.10 -12.86 1.39
21.23 -12.36 1.39
17.01 -9.45 1.10
16.53 -8.75 1.06
16.08 -8.10 1.02
15.68 -7.52 0.99
15.54 -7.07 0.97
15.40 -6.63 0.95
15.27 -6.22 0.94
15.14 -5.81 0.92
15.06 -5.44 0.91
15.07 -5.10 0.91
15.07 -4.77 0.90
15.08 -4.44 0.90
15.08 -4.11 0.90
15.08 -3.79 0.89
15.01 -3.45 0.88
20.82 -4.35 1.22
21.03 -3.95 1.23
21.25 -3.55 1.24
21.47 -3.15 1.25
21.69 -2.74 1.26
21.91 -2.32 1.27
22.14 -1.90 1.28
27.24 -1.78 1.57
19.10 -0.86 1.10
18.93 -0.48 1.09
39.91 -0.20 2.30
17.02 0.26 0.98
16.43 0.58 0.95
16.62 0.92 0.96
20.85 1.57 1.21
20.23 1.94 1.17
20.47 2.37 1.19
27.60 3.76 1.61
18.42 2.89 1.07
17.89 3.18 1.05
18.05 3.58 1.06
24.58 5.39 1.45
23.92 5.75 1.42
23.28 6.09 1.39
14.74 4.18 0.88
14.71 4.49 0.88
14.70 4.81 0.89
14.69 5.14 0.89
14.62 5.44 0.90
14.61 5.78 0.90
14.60 6.11 0.91
14.59 6.46 0.91
14.53 6.78 0.92
14.52 7.14 0.93
14.51 7.50 0.93
14.50 7.87 0.94
14.43 8.21 0.95
14.41 8.58 0.96
14.40 8.97 0.97
14.38 9.36 0.98
14.29 9.72 0.98
14.34 10.18 1.00
14.40 10.66 1.01
14.63 11.30 1.05
15.09 12.14 1.09
15.59 13.07 1.15
15.93 13.91 1.19
15.54 14.13 1.18
15.15 14.34 1.17
14.76 14.55 1.16
15.29 15.68 1.23
16.11 17.20 1.32
17.07 18.98 1.42
18.20 21.07 1.55
27.49 33.16 2.39
26.87 33.76 2.39
26.24 34.36 2.39
25.59 34.95 2.39
24.93 35.52 2.39
24.26 36.09 2.39
23.58 36.64 2.39
22.63 36.77 2.37
22.17 37.70 2.39
21.46 38.23 2.39
20.74 38.74 2.39
20.00 39.23 2.39
19.25 39.71 2.39
18.49 40.18 2.39
17.72 40.63 2.39
16.94 41.08 2.39
16.15 41.50 2.39
15.35 41.92 2.39
14.54 42.32 2.39
2.16 6.72 0.38
12.48 41.70 2.32
12.05 43.43 2.39
11.21 43.78 2.39
10.35 44.10 2.39
9.49 44.41 2.39
8.62 44.71 2.39
7.74 44.99 2.39
6.85 45.25 2.39
5.95 45.50 2.39
5.05 45.73 2.39
4.14 45.89 2.39
3.23 46.09 2.39
2.31 46.27 2.39
1.38 46.43 2.39
0.47 48.58 2.49
-0.51 48.72 2.49
-1.49 48.83 2.49
-2.47 48.92 2.49
-3.47 49.00 2.49
-4.46 49.05 2.49
-5.46 49.09 2.49
-6.46 49.11 2.49
-7.46 49.08 2.49
-8.12 47.05 2.39
-9.09 47.01 2.39
-10.06 46.94 2.39
-11.03 46.86 2.39
-12.18 47.45 2.43
-12.50 44.92 2.30
-13.03 43.43 2.23
-13.54 42.04 2.17
-13.82 40.14 2.08
-14.30 38.97 2.03
-14.51 37.21 1.95
-14.61 35.37 1.86
-14.64 33.52 1.77
-14.54 31.54 1.68
-13.37 27.54 1.47
-12.85 25.17 1.36
-12.59 23.48 1.28
-12.54 22.31 1.22
-12.46 21.16 1.17
-12.34 20.03 1.12
-12.33 19.13 1.08
-12.30 18.28 1.04
-12.29 17.48 1.01
-12.31 16.79 0.98
-12.34 16.14 0.95
-12.37 15.52 0.93
-12.39 14.92 0.91
-12.43 14.37 0.89
-12.48 13.86 0.87
-12.50 13.34 0.85
-12.52 12.83 0.83
-12.52 12.33 0.81
-12.52 11.84 0.79
-12.59 11.44 0.78
-12.68 11.06 0.77
-12.74 10.68 0.76
-12.81 10.30 0.75
-12.87 9.93 0.74
-12.92 9.56 0.73
-12.96 9.19 0.72
-12.99 8.83 0.71
-13.03 8.48 0.70
-13.06 8.13 0.69
-13.09 7.79 0.69
-13.10 7.45 0.68
-13.11 7.11 0.67
-13.12 6.77 0.66
-13.13 6.45 0.65
-13.13 6.13 0.65
-13.14 5.81 0.64
-13.14 5.50 0.63
-13.14 5.19 0.63
-13.14 4.89 0.62
-13.15 4.59 0.62
-13.15 4.30 0.61
-13.15 4.01 0.61
-13.15 3.72 0.60
-13.16 3.44 0.60
-13.18 3.17 0.60
-13.19 2.89 0.59
-13.20 2.62 0.59
-13.22 2.34 0.59
-13.23 2.07 0.59
-13.25 1.81 0.59
-13.29 1.54 0.59
-13.40 1.28 0.59
-13.51 1.02 0.59
-13.62 0.75 0.60
-13.73 0.48 0.60
-13.84 0.21 0.61
-13.84 -0.07 0.61
-13.84 -0.35 0.61
-13.87 -0.63 0.61
-13.92 -0.91 0.61
-13.97 -1.19 0.61
-14.02 -1.48 0.62
-14.04 -1.77 0.62
-14.03 -2.06 0.62
-14.03 -2.34 0.62
-14.03 -2.63 0.63
-14.03 -2.93 0.63
-14.03 -3.22 0.63
-14.03 -3.52 0.63
-14.02 -3.82 0.64
-14.01 -4.12 0.64
-13.99 -4.42 0.64
-13.97 -4.72 0.65
-13.94 -5.03 0.65
-13.90 -5.33 0.66
-13.87 -5.64 0.66
-13.86 -5.96 0.67
-13.86 -6.30 0.67
-13.85 -6.63 0.68
-13.81 -6.95 0.68
-13.76 -7.28 0.69
-13.72 -7.61 0.70
-13.67 -7.95 0.70
-13.61 -8.29 0.71
-13.55 -8.63 0.72
-13.45 -8.94 0.72
-13.34 -9.26 0.73
-13.22 -9.58 0.73
-13.11 -9.91 0.74
-12.99 -10.24 0.74
-12.88 -10.57 0.75
-12.84 -10.98 0.76
-12.82 -11.41 0.78
-12.79 -11.86 0.79
-12.76 -12.31 0.80
-13.03 -13.09 0.84
-13.82 -14.46 0.91
-31.58 -34.38 2.13
-30.32 -34.37 2.10
-29.09 -34.34 2.06
-27.89 -34.29 2.03
-26.74 -34.27 2.00
-25.63 -34.24 1.97
-24.55 -34.21 1.95
-23.51 -34.18 1.92
-14.18 -21.52 1.20
-21.50 -34.12 1.88
-20.54 -34.09 1.86
-19.61 -34.07 1.84
-18.69 -34.04 1.82
-17.80 -34.02 1.80
-16.93 -33.99 1.79
-16.04 -33.91 1.77
-13.66 -30.43 1.58
-14.41 -33.92 1.75
-13.61 -33.90 1.74
-12.81 -33.88 1.73
-12.01 -33.79 1.72
-11.27 -33.83 1.71
-10.51 -33.81 1.70
-9.77 -33.79 1.70
-9.03 -33.77 1.69
-8.30 -33.75 1.69
-7.58 -33.73 1.68
-6.87 -33.71 1.68
-6.17 -33.69 1.68
-5.47 -33.67 1.67
-4.77 -33.65 1.67
-3.40 -33.61 1.67
-2.71 -33.59 1.67
-2.04 -33.57 1.67
-1.36 -33.55 1.68
-0.68 -33.53 1.68
-0.02 -32.86 2.39
0.64 -32.79 2.39
1.30 -32.70 2.39
1.95 -32.61 2.39
2.60 -32.50 2.39
3.24 -32.38 2.39
3.89 -32.25 2.39
4.52 -32.10 2.39
5.16 -31.94 2.39
5.79 -31.77 2.39
6.41 -31.59 2.39
2.92 -13.06 0.99
7.65 -31.19 2.39
5.22 -19.59 1.51
8.86 -30.75 2.39
9.46 -30.51 2.39
10.05 -30.25 2.39
10.63 -29.99 2.39
11.21 -29.72 2.39
11.79 -29.44 2.39
12.35 -29.14 2.39
13.03 -29.09 2.41
13.73 -29.07 2.44
14.44 -29.05 2.46
15.16 -29.03 2.49
15.73 -28.70 2.49
16.28 -28.34 2.49
16.82 -27.96 2.49
17.35 -27.57 2.49
17.87 -27.17 2.49
17.81 -25.93 2.42
18.88 -26.35 2.49
19.38 -25.92 2.49
19.87 -25.49 2.49
20.34 -25.05 2.49
20.81 -24.60 2.49
21.27 -24.14 2.49
21.72 -23.67 2.49
22.16 -23.20 2.49
22.59 -22.72 2.49
23.01 -22.23 2.49
23.42 -21.74 2.49
22.83 -20.35 2.39
23.21 -19.87 2.39
23.57 -19.37 2.39
23.93 -18.87 2.39
24.27 -18.36 2.39
19.84 -14.39 1.93
19.87 -13.82 1.91
20.48 -13.64 1.94
20.79 -13.25 1.95
20.38 -12.42 1.88
21.34 -12.42 1.95
17.02 -9.45 1.54
16.53 -8.75 1.48
16.08 -8.11 1.43
15.68 -7.52 1.38
15.54 -7.07 1.36
15.40 -6.64 1.33
15.27 -6.22 1.31
15.14 -5.81 1.29
15.06 -5.44 1.28
15.07 -5.10 1.27
15.07 -4.77 1.26
15.08 -4.44 1.25
15.08 -4.11 1.25
15.08 -3.79 1.24
15.01 -3.45 1.23
15.00 -3.13 1.23
14.99 -2.82 1.22
14.99 -2.51 1.22
14.98 -2.20 1.21
14.98 -1.89 1.21
14.91 -1.58 1.20
14.90 -1.28 1.20
14.90 -0.97 1.20
14.89 -0.67 1.20
14.89 -0.37 1.20
14.88 -0.08 1.19
14.88 0.22 1.19
14.81 0.52 1.19
14.81 0.82 1.19
14.81 1.12 1.19
14.81 1.42 1.20
14.82 1.72 1.20
14.76 2.01 1.20
14.77 2.32 1.20
14.77 2.62 1.20
14.78 2.93 1.21
14.78 3.24 1.21
14.73 3.54 1.22
14.72 3.85 1.22
14.71 4.17 1.23
14.71 4.49 1.23
14.70 4.81 1.24
14.69 5.14 1.25
14.62 5.44 1.25
14.61 5.78 1.26
14.60 6.12 1.27
14.59 6.46 1.28
14.53 6.78 1.28
14.52 7.14 1.29
14.51 7.50 1.30
14.50 7.87 1.32
14.43 8.21 1.32
14.41 8.59 1.34
14.40 8.97 1.35
14.38 9.37 1.36
14.29 9.72 1.37
14.34 10.19 1.40
14.40 10.67 1.42
14.63 11.30 1.46
15.09 12.15 1.53
15.59 13.08 1.61
15.93 13.92 1.67
15.54 14.13 1.66
15.15 14.34 1.64
14.76 14.55 1.63
15.29 15.69 1.72
16.11 17.21 1.85
17.07 18.99 2.00
18.20 21.08 2.18
19.54 23.57 2.39
19.08 23.98 2.39
18.62 24.40 2.39
18.15 24.80 2.39
17.68 25.19 2.39
17.19 25.58 2.39
16.70 25.95 2.39
16.20 26.32 2.39
15.69 26.68 2.39
15.17 27.03 2.39
14.65 27.37 2.39
14.12 27.70 2.39
13.58 28.03 2.39
13.04 28.34 2.39
12.48 28.64 2.39
11.93 28.93 2.39
11.36 29.21 2.39
10.79 29.48 2.39
10.21 29.75 2.39
2.16 6.72 0.54
9.04 30.23 2.39
8.45 30.46 2.39
7.85 30.68 2.39
7.24 30.89 2.39
6.63 31.08 2.39
6.02 31.26 2.39
5.40 31.43 2.39
4.77 31.56 2.39
4.14 31.71 2.39
3.51 31.84 2.39
2.88 31.96 2.39
2.24 32.08 2.39
1.60 32.17 2.39
1.00 33.65 2.49
0.32 33.73 2.49
-0.36 33.79 2.49
-1.04 33.84 2.49
-1.72 33.88 2.49
-2.40 33.90 2.49
-3.09 33.91 2.49
-3.78 33.91 2.49
-4.46 33.89 2.49
-5.15 33.86 2.49
-5.84 33.81 2.49
-6.53 33.75 2.49
-7.01 32.66 2.42
-7.59 32.20 2.39
-8.25 32.11 2.39
-8.91 31.99 2.39
-9.56 31.87 2.39
-10.22 31.73 2.39
-10.88 31.58 2.39
-12.60 34.33 2.61
-12.92 33.12 2.54
-12.97 31.38 2.42
-12.79 29.27 2.27
-12.28 26.62 2.08
-12.06 24.83 1.95
-11.94 23.39 1.86
-11.90 22.18 1.78
-11.81 20.99 1.70
-11.71 19.87 1.62
-11.72 19.01 1.57
-11.73 18.20 1.52
-11.75 17.46 1.47
-11.79 16.77 1.43
-11.82 16.12 1.39
-11.86 15.51 1.36
-11.89 14.92 1.32
-11.92 14.35 1.29
-11.97 13.84 1.27
-12.00 13.33 1.24
-12.03 12.83 1.21
-12.05 12.35 1.19
-12.06 11.87 1.16
-12.14 11.48 1.15
-12.22 11.10 1.13
-12.31 10.73 1.12
-12.38 10.37 1.10
-12.44 10.00 1.09
-12.50 9.65 1.08
-12.54 9.28 1.06
-12.59 8.93 1.05
-12.62 8.58 1.04
-12.66 8.24 1.02
-12.69 7.90 1.01
-12.72 7.57 1.00
-12.73 7.23 0.99
-12.74 6.90 0.98
-12.75 6.58 0.97
-12.76 6.27 0.96
-12.77 5.96 0.95
-12.78 5.65 0.94
-12.78 5.35 0.93
-12.78 5.05 0.92
-12.78 4.75 0.91
-12.79 4.47 0.91
-12.79 4.18 0.90
-12.79 3.90 0.89
-12.80 3.62 0.89
-12.82 3.35 0.88
-12.83 3.08 0.88
-12.85 2.81 0.88
-12.86 2.55 0.87
-12.87 2.28 0.87
-12.89 2.02 0.87
-12.90 1.76 0.87
-12.92 1.50 0.86
-12.97 1.24 0.87
-13.03 0.98 0.87
-13.10 0.72 0.87
-13.17 0.46 0.87
-13.26 0.20 0.88
-13.37 -0.07 0.89
-13.42 -0.34 0.89
-13.44 -0.61 0.89
-13.49 -0.88 0.90
-13.54 -1.16 0.90
-13.59 -1.44 0.91
-13.64 -1.72 0.91
-13.67 -2.00 0.92
-13.67 -2.28 0.92
-13.66 -2.57 0.92
-13.66 -2.85 0.93
-13.66 -3.14 0.93
-13.66 -3.43 0.94
-13.66 -3.72 0.94
-13.66 -4.01 0.95
-13.64 -4.31 0.95
-13.62 -4.61 0.96
-13.59 -4.90 0.96
-13.55 -5.20 0.97
-13.52 -5.50 0.97
-13.48 -5.80 0.98
-13.44 -6.11 0.99
-13.44 -6.43 1.00
-13.41 -6.75 1.00
-13.36 -7.07 1.01
-13.31 -7.39 1.02
-13.26 -7.71 1.03
-13.21 -8.04 1.04
-13.16 -8.38 1.05
-13.08 -8.70 1.06
-12.98 -9.01 1.06
-12.86 -9.32 1.07
-12.75 -9.63 1.08
-12.63 -9.95 1.09
-12.51 -10.27 1.09
-12.39 -10.60 1.10
-12.38 -11.03 1.12
-12.35 -11.45 1.14
-12.32 -11.89 1.16
-12.28 -12.33 1.18
-12.26 -12.82 1.21
-13.16 -14.32 1.33
-13.54 -15.35 1.40
-23.57 -27.82 2.49
-22.97 -28.24 2.49
-22.37 -28.66 2.49
-21.76 -29.05 2.49
-21.14 -29.44 2.49
-20.51 -29.81 2.49
-14.18 -21.52 1.78
-18.91 -29.99 2.45
-18.06 -29.97 2.42
-17.24 -29.95 2.40
-16.56 -30.16 2.39
-15.93 -30.43 2.39
-15.29 -30.69 2.39
-14.64 -30.94 2.39
-13.66 -30.43 2.33
-13.34 -31.39 2.39
-12.69 -31.60 2.39
-12.03 -31.79 2.39
-11.37 -31.97 2.39
-10.71 -32.13 2.39
-10.04 -32.28 2.39
-9.37 -32.41 2.39
-8.70 -32.53 2.39
-8.04 -32.64 2.39
-7.36 -32.73 2.39
-6.69 -32.81 2.39
-6.02 -32.88 2.39
-4.83 -29.75 2.16
-4.68 -32.97 2.39
-4.01 -32.99 2.39
-3.01 -29.70 2.15
-2.67 -33.00 2.39
-2.01 -32.98 2.39
-1.21 -29.65 2.15
-0.68 -32.91 2.39
-0.02 -26.13 2.49
0.51 -26.09 2.49
1.03 -26.03 2.49
1.55 -25.97 2.49
2.07 -25.89 2.49
2.58 -25.81 2.49
3.09 -25.71 2.49
3.60 -25.61 2.49
4.11 -25.49 2.49
4.62 -25.37 2.49
5.12 -25.24 2.49
2.92 -13.06 1.30
6.11 -24.94 2.49
5.22 -19.59 1.97
5.85 -20.33 2.06
7.57 -24.42 2.49
8.04 -24.23 2.49
8.52 -24.03 2.49
8.98 -23.82 2.49
6.53 -16.30 1.72
6.82 -16.09 1.72
7.19 -16.07 1.73
10.81 -22.90 2.49
11.25 -22.65 2.49
11.69 -22.39 2.49
12.12 -22.12 2.49
12.03 -20.94 2.39
12.43 -20.67 2.39
12.82 -20.39 2.39
13.21 -20.10 2.39
13.60 -19.81 2.39
13.98 -19.51 2.39
14.35 -19.20 2.39
14.71 -18.88 2.39
15.07 -18.56 2.39
15.42 -18.24 2.39
15.77 -17.90 2.39
16.11 -17.56 2.39
16.44 -17.22 2.39
16.79 -16.89 2.39
17.10 -16.53 2.39
17.41 -16.17 2.39
17.72 -15.80 2.39
18.01 -15.42 2.39
18.30 -15.04 2.39
18.58 -14.66 2.39
18.85 -14.27 2.39
19.12 -13.87 2.39
19.38 -13.48 2.39
19.63 -13.07 2.39
19.87 -12.67 2.39
19.38 -11.81 2.31
20.33 -11.84 2.39
17.02 -9.46 1.98
16.53 -8.76 1.91
16.08 -8.11 1.84
15.69 -7.52 1.78
15.54 -7.07 1.74
15.40 -6.64 1.71
15.27 -6.22 1.69
15.14 -5.81 1.66
15.06 -5.44 1.64
15.07 -5.10 1.63
15.07 -4.77 1.62
15.08 -4.44 1.61
15.08 -4.11 1.60
15.08 -3.79 1.60
15.01 -3.45 1.58
15.00 -3.13 1.57
14.99 -2.82 1.57
14.99 -2.51 1.56
14.98 -2.20 1.56
14.98 -1.89 1.55
14.91 -1.58 1.54
14.90 -1.28 1.54
14.90 -0.97 1.54
14.89 -0.67 1.53
14.89 -0.37 1.53
14.88 -0.08 1.53
14.88 0.22 1.53
14.81 0.52 1.53
14.81 0.82 1.53
14.81 1.12 1.53
14.81 1.42 1.53
14.82 1.72 1.54
14.76 2.01 1.53
14.77 2.32 1.54
14.77 2.62 1.55
14.78 2.93 1.55
14.78 3.24 1.56
14.73 3.54 1.56
14.72 3.85 1.57
14.71 4.17 1.57
14.71 4.49 1.58
14.70 4.81 1.59
14.69 5.14 1.60
14.62 5.44 1.60
14.61 5.78 1.61
14.60 6.12 1.63
14.59 6.46 1.64
14.53 6.79 1.65
14.52 7.14 1.66
14.51 7.50 1.67
14.50 7.87 1.69
14.43 8.21 1.70
14.41 8.59 1.72
14.40 8.97 1.73
14.38 9.37 1.75
14.29 9.72 1.76
14.34 10.19 1.79
14.40 10.67 1.83
14.64 11.31 1.88
15.09 12.15 1.97
15.59 13.08 2.07
15.93 13.92 2.15
15.53 14.13 2.13
15.14 14.34 2.12
14.76 14.55 2.10
15.29 15.70 2.22
16.12 17.22 2.39
15.83 17.61 2.39
15.49 17.94 2.39
15.14 18.27 2.39
14.79 18.59 2.39
14.43 18.90 2.39
14.05 19.20 2.39
13.68 19.50 2.39
13.30 19.79 2.39
12.92 20.08 2.39
12.52 20.36 2.39
12.13 20.63 2.39
11.72 20.89 2.39
11.31 21.15 2.39
10.90 21.40 2.39
10.48 21.64 2.39
10.06 21.87 2.39
9.63 22.10 2.39
9.19 22.31 2.39
8.76 22.52 2.39
8.31 22.72 2.39
7.86 22.91 2.39
2.16 6.72 0.70
6.96 23.27 2.39
6.50 23.44 2.39
6.03 23.60 2.39
5.57 23.75 2.39
5.09 23.86 2.39
4.61 23.99 2.39
4.14 24.11 2.39
3.66 24.22 2.39
3.18 24.33 2.39
2.69 24.42 2.39
2.20 24.50 2.39
1.71 24.58 2.39
1.26 25.35 2.46
0.76 25.76 2.49
0.24 25.81 2.49
-0.28 25.85 2.49
-0.80 25.87 2.49
-1.32 25.89 2.49
-1.84 25.90 2.49
-2.36 25.89 2.49
-2.89 25.88 2.49
-3.41 25.85 2.49
-3.93 25.82 2.49
-4.46 25.77 2.49
-4.98 25.71 2.49
-5.50 25.65 2.49
-6.03 25.57 2.49
-6.55 25.48 2.49
-6.78 24.33 2.39
-7.27 24.22 2.39
-7.77 24.11 2.39
-8.26 23.98 2.39
-8.76 23.84 2.39
-9.25 23.70 2.39
-9.73 23.54 2.39
-10.22 23.37 2.39
-10.70 23.20 2.39
-10.83 22.29 2.32
-10.91 21.36 2.24
-10.85 20.23 2.14
-10.89 19.36 2.07
-10.95 18.59 2.01
-11.00 17.83 1.94
-11.04 17.12 1.89
-11.11 16.50 1.84
-11.19 15.91 1.80
-11.24 15.33 1.76
-11.32 14.80 1.72
-11.39 14.28 1.68
-11.45 13.79 1.65
-11.52 13.31 1.62
-11.55 12.83 1.58
-11.59 12.36 1.55
-11.62 11.90 1.52
-11.69 11.51 1.50
-11.78 11.14 1.48
-11.87 10.78 1.46
-11.96 10.43 1.45
-12.03 10.07 1.43
-12.10 9.72 1.41
-12.14 9.37 1.39
-12.19 9.02 1.38
-12.23 8.67 1.36
-12.27 8.34 1.34
-12.31 8.01 1.33
-12.35 7.68 1.31
-12.36 7.35 1.30
-12.38 7.03 1.28
-12.39 6.71 1.27
-12.40 6.40 1.26
-12.42 6.10 1.24
-12.43 5.80 1.23
-12.43 5.50 1.22
-12.43 5.20 1.21
-12.43 4.91 1.20
-12.44 4.63 1.19
-12.44 4.35 1.18
-12.45 4.07 1.17
-12.46 3.80 1.17
-12.47 3.53 1.16
-12.49 3.26 1.15
-12.50 3.00 1.15
-12.52 2.74 1.14
-12.54 2.48 1.14
-12.55 2.23 1.14
-12.56 1.97 1.13
-12.58 1.71 1.13
-12.60 1.46 1.13
-12.63 1.21 1.13
-12.68 0.96 1.13
-12.74 0.70 1.14
-12.81 0.45 1.14
-12.87 0.19 1.15
-12.94 -0.07 1.15
-13.00 -0.33 1.16
-13.03 -0.59 1.16
-13.08 -0.85 1.17
-13.13 -1.12 1.17
-13.18 -1.39 1.18
-13.22 -1.67 1.19
-13.27 -1.94 1.19
-13.31 -2.22 1.20
-13.31 -2.50 1.21
-13.31 -2.78 1.21
-13.31 -3.06 1.22
-13.31 -3.34 1.22
-13.31 -3.62 1.23
-13.30 -3.91 1.24
-13.30 -4.20 1.24
-13.28 -4.49 1.25
-13.25 -4.78 1.26
-13.22 -5.07 1.26
-13.18 -5.36 1.27
-13.14 -5.65 1.28
-13.10 -5.95 1.29
-13.07 -6.25 1.30
-13.03 -6.56 1.31
-12.98 -6.87 1.32
-12.92 -7.17 1.32
-12.86 -7.48 1.33
-12.80 -7.79 1.34
-12.73 -8.10 1.36
-12.67 -8.42 1.37
-12.60 -8.75 1.38
-12.52 -9.07 1.39
-12.40 -9.37 1.40
-12.29 -9.68 1.41
-12.17 -9.99 1.42
-12.05 -10.30 1.43
-11.94 -10.63 1.45
-11.92 -11.05 1.47
-11.90 -11.48 1.50
-11.86 -11.91 1.52
-11.82 -12.35 1.55
-11.79 -12.83 1.58
-11.79 -13.36 1.62
-12.86 -15.18 1.81
-16.55 -20.34 2.39
-16.12 -20.65 2.39
-15.69 -20.94 2.39
-15.24 -21.23 2.39
-14.80 -21.50 2.39
-14.18 -21.51 2.36
-14.49 -22.98 2.49
-14.01 -23.23 2.49
-13.52 -23.48 2.49
-13.03 -23.72 2.49
-12.54 -23.94 2.49
-12.04 -24.16 2.49
-11.54 -24.36 2.49
-11.03 -24.56 2.49
-10.52 -24.74 2.49
-10.01 -24.91 2.49
-9.49 -25.08 2.49
-8.98 -25.23 2.49
-8.46 -25.37 2.49
-7.93 -25.50 2.49
-7.41 -25.61 2.49
-6.89 -25.72 2.49
-6.36 -25.82 2.49
-5.83 -25.90 2.49
-5.30 -25.98 2.49
-4.77 -26.04 2.49
-4.24 -26.09 2.49
-3.71 -26.14 2.49
-3.18 -26.17 2.49
-2.65 -26.19 2.49
-2.13 -26.20 2.49
-1.60 -26.20 2.49
-1.07 -26.18 2.49
-0.54 -26.16 2.49
-0.02 -21.09 2.49
0.41 -21.07 2.49
0.83 -21.03 2.49
1.25 -20.98 2.49
1.67 -20.93 2.49
2.08 -20.87 2.49
2.50 -20.79 2.49
2.91 -20.72 2.49
3.32 -20.63 2.49
3.73 -20.53 2.49
4.14 -20.43 2.49
2.92 -13.06 1.60
4.74 -19.36 2.39
5.12 -19.24 2.39
5.50 -19.11 2.39
4.70 -15.17 1.91
4.93 -14.85 1.88
5.22 -14.75 1.89
5.51 -14.61 1.88
7.35 -18.36 2.39
6.96 -16.43 2.16
7.36 -16.44 2.18
8.41 -17.83 2.39
8.76 -17.64 2.39
9.10 -17.44 2.39
9.44 -17.23 2.39
9.79 -17.05 2.39
10.12 -16.83 2.39
10.44 -16.60 2.39
10.76 -16.37 2.39
11.08 -16.14 2.39
11.39 -15.90 2.39
11.69 -15.65 2.39
11.99 -15.40 2.39
12.29 -15.14 2.39
12.58 -14.87 2.39
12.86 -14.61 2.39
13.14 -14.33 2.39
13.41 -14.05 2.39
13.68 -13.77 2.39
13.94 -13.48 2.39
14.20 -13.18 2.39
14.45 -12.89 2.39
14.69 -12.58 2.39
14.93 -12.27 2.39
15.16 -11.96 2.39
15.39 -11.65 2.39
15.61 -11.33 2.39
15.82 -11.00 2.39
16.03 -10.68 2.39
16.22 -10.34 2.39
16.42 -10.01 2.39
16.61 -9.67 2.39
16.79 -9.33 2.39
16.53 -8.76 2.33
16.08 -8.11 2.25
15.69 -7.52 2.17
15.54 -7.07 2.13
15.40 -6.64 2.10
15.27 -6.22 2.06
15.14 -5.82 2.03
15.06 -5.44 2.01
15.07 -5.10 1.99
15.07 -4.77 1.98
15.08 -4.44 1.97
15.08 -4.11 1.96
15.08 -3.79 1.95
15.01 -3.45 1.93
15.00 -3.13 1.92
14.99 -2.82 1.92
14.99 -2.51 1.91
14.98 -2.20 1.90
14.98 -1.89 1.90
14.91 -1.58 1.88
14.90 -1.28 1.88
14.90 -0.98 1.88
14.89 -0.67 1.88
14.89 -0.37 1.87
14.88 -0.08 1.87
14.88 0.22 1.87
14.81 0.52 1.86
14.81 0.82 1.87
14.81 1.12 1.87
14.81 1.42 1.87
14.82 1.72 1.88
14.76 2.01 1.87
14.77 2.32 1.88
14.77 2.62 1.89
14.78 2.93 1.89
14.78 3.24 1.90
14.73 3.54 1.91
14.72 3.85 1.91
14.71 4.17 1.92
14.71 4.49 1.93
14.70 4.81 1.94
14.69 5.14 1.95
14.62 5.45 1.96
14.61 5.78 1.97
14.60 6.12 1.99
14.59 6.46 2.00
14.53 6.79 2.01
14.52 7.14 2.03
14.51 7.50 2.05
14.50 7.87 2.07
14.43 8.21 2.08
14.41 8.59 2.10
14.40 8.97 2.12
14.38 9.37 2.14
14.29 9.73 2.16
14.34 10.19 2.20
14.40 10.67 2.24
14.64 11.31 2.31
14.96 12.05 2.39
14.73 12.36 2.39
14.49 12.66 2.39
14.24 12.96 2.39
13.99 13.25 2.39
13.73 13.54 2.39
13.46 13.82 2.39
13.19 14.10 2.39
12.92 14.37 2.39
12.64 14.64 2.39
12.35 14.90 2.39
12.06 15.16 2.39
11.76 15.41 2.39
11.46 15.66 2.39
11.15 15.90 2.39
10.84 16.13 2.39
10.52 16.36 2.39
10.20 16.59 2.39
9.87 16.80 2.39
9.54 17.02 2.39
9.21 17.22 2.39
8.87 17.42 2.39
8.53 17.61 2.39
8.18 17.80 2.39
7.83 17.98 2.39
7.47 18.15 2.39
7.12 18.31 2.39
6.75 18.47 2.39
6.39 18.62 2.39
2.15 6.72 0.86
5.65 18.90 2.39
5.27 19.01 2.39
4.89 19.13 2.39
4.51 19.25 2.39
4.13 19.36 2.39
3.74 19.46 2.39
3.35 19.55 2.39
2.96 19.64 2.39
2.57 19.72 2.39
2.18 19.79 2.39
1.78 19.85 2.39
1.40 20.20 2.43
1.03 20.81 2.49
0.61 20.85 2.49
0.19 20.89 2.49
-0.23 20.91 2.49
-0.65 20.93 2.49
-1.07 20.93 2.49
-1.49 20.93 2.49
-1.91 20.92 2.49
-2.33 20.91 2.49
-2.76 20.88 2.49
-3.18 20.84 2.49
-3.60 20.80 2.49
-4.02 20.75 2.49
-4.44 20.69 2.49
-4.86 20.62 2.49
-5.28 20.54 2.49
-5.70 20.46 2.49
-6.12 20.36 2.49
-6.53 20.26 2.49
-6.66 19.31 2.39
-7.05 19.20 2.39
-7.45 19.08 2.39
-7.84 18.94 2.39
-8.22 18.80 2.39
-8.61 18.66 2.39
-8.99 18.50 2.39
-9.37 18.34 2.39
-9.75 18.17 2.39
-10.12 17.99 2.39
-10.27 17.43 2.34
-10.31 16.72 2.27
-10.40 16.12 2.22
-10.47 15.54 2.16
-10.53 14.97 2.11
-10.61 14.46 2.06
-10.69 13.98 2.02
-10.77 13.50 1.98
-10.84 13.04 1.95
-10.91 12.61 1.91
-10.97 12.18 1.88
-11.03 11.76 1.85
-11.10 11.36 1.82
-11.28 11.09 1.81
-11.45 10.82 1.80
-11.54 10.47 1.78
-11.62 10.14 1.76
-11.70 9.80 1.74
-11.75 9.45 1.71
-11.80 9.10 1.69
-11.85 8.76 1.67
-11.90 8.43 1.65
-11.94 8.11 1.64
-11.98 7.79 1.62
-12.00 7.47 1.60
-12.02 7.15 1.58
-12.04 6.84 1.56
-12.06 6.53 1.55
-12.07 6.23 1.53
-12.09 5.93 1.52
-12.10 5.64 1.50
-12.11 5.35 1.49
-12.11 5.06 1.48
-12.11 4.78 1.46
-12.11 4.50 1.45
-12.12 4.23 1.44
-12.13 3.96 1.43
-12.13 3.70 1.42
-12.15 3.44 1.42
-12.17 3.18 1.41
-12.19 2.93 1.41
-12.21 2.67 1.40
-12.22 2.42 1.40
-12.24 2.17 1.39
-12.25 1.92 1.39
-12.27 1.67 1.39
-12.29 1.42 1.38
-12.33 1.18 1.39
-12.36 0.93 1.39
-12.40 0.68 1.39
-12.47 0.44 1.39
-12.53 0.19 1.40
-12.59 -0.06 1.41
-12.65 -0.32 1.41
-12.67 -0.57 1.42
-12.66 -0.83 1.42
-12.68 -1.08 1.42
-12.73 -1.35 1.43
-12.78 -1.61 1.44
-12.83 -1.88 1.45
-12.88 -2.15 1.46
-12.93 -2.43 1.47
-12.92 -2.69 1.48
-12.92 -2.97 1.48
-12.91 -3.24 1.49
-12.91 -3.52 1.50
-12.91 -3.79 1.51
-12.90 -4.08 1.51
-12.90 -4.36 1.52
-12.87 -4.64 1.53
-12.81 -4.91 1.54
-12.76 -5.19 1.54
-12.70 -5.46 1.55
-12.65 -5.74 1.56
-12.59 -6.02 1.57
-12.53 -6.31 1.57
-12.47 -6.60 1.59
-12.45 -6.91 1.60
-12.41 -7.21 1.61
-12.34 -7.51 1.63
-12.28 -7.81 1.64
-12.21 -8.12 1.65
-12.14 -8.43 1.67
-12.07 -8.75 1.68
-12.01 -9.07 1.70
-11.94 -9.40 1.72
-11.84 -9.72 1.73
-11.72 -10.02 1.74
-11.60 -10.33 1.76
-11.50 -10.66 1.78
-11.48 -11.07 1.81
-11.45 -11.49 1.84
-11.42 -11.93 1.88
-11.37 -12.37 1.91
-11.34 -12.84 1.95
-11.32 -13.36 1.99
-11.31 -13.90 2.04
-11.68 -14.96 2.16
-11.59 -15.47 2.21
-12.73 -17.73 2.49
-12.68 -18.42 2.56
-12.70 -19.27 2.64
-11.13 -17.65 2.39
-10.77 -17.85 2.39
-10.39 -18.05 2.39
-10.02 -18.23 2.39
-9.64 -18.41 2.39
-9.26 -18.58 2.39
-8.88 -18.74 2.39
-8.49 -18.90 2.39
-8.10 -19.04 2.39
-7.71 -19.18 2.39
-7.31 -19.31 2.39
-7.22 -20.27 2.49
-6.80 -20.39 2.49
-6.38 -20.50 2.49
-5.96 -20.60 2.49
-5.54 -20.69 2.49
-5.12 -20.77 2.49
-4.70 -20.85 2.49
-4.27 -20.91 2.49
-3.85 -20.97 2.49
-3.42 -21.02 2.49
-3.00 -21.06 2.49
-2.57 -21.09 2.49
-2.14 -21.11 2.49
-1.72 -21.13 2.49
-1.29 -21.13 2.49
-0.87 -21.13 2.49
-0.44 -21.12 2.49
-0.02 -17.67 2.49
0.34 -17.65 2.49
0.69 -17.62 2.49
1.04 -17.59 2.49
1.39 -17.55 2.49
1.74 -17.50 2.49
2.09 -17.44 2.49
2.44 -17.38 2.49
2.79 -17.31 2.49
3.00 -16.52 2.39
3.33 -16.44 2.39
2.92 -13.06 1.91
3.98 -16.26 2.39
4.30 -16.16 2.39
4.62 -16.05 2.39
4.93 -15.94 2.39
5.25 -15.83 2.39
5.56 -15.70 2.39
5.87 -15.57 2.39
6.17 -15.44 2.39
6.49 -15.32 2.39
6.79 -15.17 2.39
7.08 -15.02 2.39
7.38 -14.86 2.39
7.67 -14.69 2.39
7.95 -14.52 2.39
8.23 -14.35 2.39
8.51 -14.17 2.39
8.68 -13.81 2.37
9.06 -13.79 2.39
9.33 -13.59 2.39
9.59 -13.39 2.39
9.85 -13.18 2.39
10.10 -12.97 2.39
10.35 -12.76 2.39
10.60 -12.54 2.39
10.84 -12.31 2.39
11.08 -12.08 2.39
11.31 -11.85 2.39
11.53 -11.61 2.39
11.76 -11.37 2.39
11.97 -11.12 2.39
12.19 -10.87 2.39
12.39 -10.62 2.39
12.60 -10.36 2.39
12.79 -10.10 2.39
12.98 -9.83 2.39
13.17 -9.56 2.39
13.35 -9.29 2.39
13.53 -9.01 2.39
13.70 -8.74 2.39
13.86 -8.45 2.39
14.02 -8.17 2.39
14.18 -7.88 2.39
14.32 -7.59 2.39
14.47 -7.30 2.39
14.60 -7.00 2.39
14.73 -6.70 2.39
14.86 -6.40 2.39
14.98 -6.10 2.39
15.09 -5.80 2.39
15.06 -5.44 2.37
15.07 -5.10 2.36
15.07 -4.77 2.34
15.08 -4.44 2.33
15.08 -4.11 2.32
15.08 -3.79 2.31
15.01 -3.45 2.29
15.00 -3.14 2.28
14.99 -2.82 2.27
14.99 -2.51 2.26
14.98 -2.20 2.25
14.98 -1.89 2.24
14.91 -1.58 2.23
14.90 -1.28 2.22
14.90 -0.98 2.22
14.89 -0.67 2.22
14.89 -0.38 2.22
14.88 -0.08 2.21
14.88 0.22 2.21
14.81 0.52 2.20
14.81 0.82 2.21
14.81 1.12 2.21
14.81 1.42 2.21
14.82 1.72 2.22
14.76 2.01 2.22
14.77 2.32 2.22
14.77 2.62 2.23
14.78 2.93 2.24
14.78 3.24 2.25
14.73 3.54 2.25
14.72 3.86 2.26
14.71 4.17 2.27
14.71 4.49 2.29
14.70 4.81 2.30
14.69 5.14 2.31
14.62 5.45 2.32
14.61 5.78 2.33
14.60 6.12 2.35
14.59 6.46 2.37
14.53 6.79 2.38
14.49 7.12 2.39
14.35 7.42 2.39
14.20 7.71 2.39
14.05 7.99 2.39
13.89 8.28 2.39
13.73 8.56 2.39
13.56 8.84 2.39
13.39 9.11 2.39
13.21 9.38 2.39
13.02 9.65 2.39
12.83 9.92 2.39
12.64 10.18 2.39
12.44 10.44 2.39
12.23 10.69 2.39
12.02 10.94 2.39
11.81 11.19 2.39
11.59 11.43 2.39
11.36 11.67 2.39
11.13 11.90 2.39
10.90 12.13 2.39
10.66 12.35 2.39
10.42 12.57 2.39
10.17 12.79 2.39
9.92 13.00 2.39
9.66 13.21 2.39
9.40 13.41 2.39
9.14 13.60 2.39
8.87 13.79 2.39
8.60 13.98 2.39
8.32 14.16 2.39
8.04 14.34 2.39
7.76 14.51 2.39
7.47 14.67 2.39
7.18 14.83 2.39
6.89 14.99 2.39
6.59 15.14 2.39
6.29 15.28 2.39
5.99 15.41 2.39
5.68 15.55 2.39
5.37 15.65 2.39
2.15 6.72 1.02
4.74 15.88 2.39
4.43 15.99 2.39
4.11 16.09 2.39
3.79 16.18 2.39
3.47 16.27 2.39
3.14 16.35 2.39
2.81 16.43 2.39
2.49 16.50 2.39
2.16 16.56 2.39
1.83 16.62 2.39
1.50 16.80 2.41
1.21 17.43 2.49
0.86 17.47 2.49
0.51 17.50 2.49
0.16 17.52 2.49
-0.19 17.54 2.49
-0.55 17.55 2.49
-0.90 17.55 2.49
-1.25 17.55 2.49
-1.61 17.54 2.49
-1.96 17.52 2.49
-2.31 17.50 2.49
-2.67 17.46 2.49
-3.02 17.42 2.49
-3.37 17.38 2.49
-3.72 17.32 2.49
-4.07 17.26 2.49
-4.42 17.19 2.49
-4.77 17.12 2.49
-5.12 17.04 2.49
-5.47 16.95 2.49
-5.81 16.85 2.49
-6.16 16.75 2.49
-6.50 16.64 2.49
-6.55 15.83 2.39
-6.88 15.72 2.39
-7.20 15.59 2.39
-7.52 15.46 2.39
-7.83 15.32 2.39
-8.14 15.17 2.39
-8.46 15.02 2.39
-8.76 14.86 2.39
-9.07 14.69 2.39
-9.37 14.52 2.39
-9.67 14.34 2.39
-9.95 14.15 2.39
-10.04 13.68 2.34
-10.12 13.23 2.30
-10.20 12.79 2.25
-10.28 12.37 2.21
-10.36 11.97 2.18
-10.41 11.56 2.14
-10.46 11.15 2.10
-10.55 10.80 2.07
-10.72 10.54 2.06
-10.89 10.29 2.05
-11.05 10.03 2.04
-11.22 9.78 2.03
-11.32 9.47 2.02
-11.43 9.18 2.00
-11.48 8.85 1.98
-11.53 8.53 1.95
-11.58 8.21 1.93
-11.62 7.89 1.91
-11.66 7.58 1.89
-11.68 7.26 1.87
-11.70 6.96 1.85
-11.72 6.65 1.83
-11.74 6.36 1.81
-11.76 6.07 1.79
-11.78 5.78 1.78
-11.79 5.49 1.76
-11.79 5.21 1.75
-11.80 4.93 1.73
-11.80 4.66 1.72
-11.80 4.39 1.70
-11.81 4.12 1.69
-11.82 3.86 1.68
-11.83 3.60 1.67
-11.85 3.35 1.66
-11.87 3.10 1.66
-11.89 2.85 1.65
-11.91 2.61 1.64
-11.93 2.36 1.64
-11.94 2.12 1.64
-11.96 1.87 1.63
-11.97 1.63 1.63
-12.00 1.39 1.63
-12.03 1.15 1.63
-12.07 0.91 1.63
-12.10 0.67 1.63
-12.14 0.43 1.64
-12.20 0.18 1.64
-12.25 -0.06 1.65
-12.31 -0.31 1.66
-12.33 -0.56 1.66
-12.32 -0.81 1.66
-12.31 -1.05 1.66
-12.31 -1.30 1.67
-12.35 -1.56 1.68
-12.40 -1.82 1.69
-12.44 -2.08 1.70
-12.48 -2.34 1.71
-12.49 -2.60 1.72
-12.46 -2.86 1.72
-12.43 -3.12 1.73
-12.43 -3.38 1.74
-12.42 -3.65 1.75
-12.42 -3.92 1.76
-12.41 -4.19 1.77
-12.40 -4.47 1.78
-12.34 -4.73 1.78
-12.28 -4.99 1.79
-12.22 -5.26 1.80
-12.17 -5.52 1.80
-12.11 -5.79 1.81
-12.05 -6.06 1.82
-11.98 -6.34 1.83
-11.93 -6.62 1.85
-11.90 -6.92 1.86
-11.87 -7.22 1.88
-11.84 -7.53 1.90
-11.78 -7.83 1.92
-11.71 -8.13 1.93
-11.64 -8.43 1.95
-11.57 -8.74 1.97
-11.50 -9.05 1.99
-11.43 -9.37 2.01
-11.35 -9.70 2.03
-11.28 -10.03 2.05
-11.17 -10.35 2.07
-11.08 -10.68 2.10
-11.04 -11.08 2.13
-11.01 -11.50 2.17
-10.97 -11.93 2.21
-10.93 -12.38 2.26
-10.89 -12.85 2.30
-10.87 -13.35 2.36
-10.85 -13.88 2.41
-10.82 -14.44 2.47
-10.79 -15.02 2.54
-10.64 -15.46 2.57
-9.58 -14.53 2.39
-9.28 -14.71 2.39
-8.98 -14.88 2.39
-8.67 -15.05 2.39
-8.36 -15.20 2.39
-8.04 -15.35 2.39
-7.73 -15.50 2.39
-7.41 -15.64 2.39
-7.09 -15.77 2.39
-6.76 -15.89 2.39
-6.44 -16.01 2.39
-6.11 -16.12 2.39
-5.78 -16.23 2.39
-5.68 -17.03 2.49
-5.33 -17.12 2.49
-4.99 -17.21 2.49
-4.63 -17.29 2.49
-4.28 -17.36 2.49
-3.93 -17.43 2.49
-3.58 -17.49 2.49
-3.22 -17.54 2.49
-2.87 -17.58 2.49
-2.51 -17.62 2.49
-2.15 -17.65 2.49
-1.80 -17.67 2.49
-1.44 -17.68 2.49
-1.08 -17.69 2.49
-0.73 -17.69 2.49
-0.37 -17.69 2.49
-0.02 -15.19 2.49
0.29 -15.18 2.49
0.59 -15.15 2.49
0.89 -15.13 2.49
1.20 -15.09 2.49
1.50 -15.05 2.49
1.80 -15.00 2.49
2.10 -14.95 2.49
2.40 -14.89 2.49
2.58 -14.22 2.39
2.86 -14.15 2.39
2.92 -13.06 2.22
3.42 -14.00 2.39
3.70 -13.92 2.39
3.97 -13.83 2.39
4.25 -13.73 2.39
4.52 -13.63 2.39
4.79 -13.53 2.39
5.05 -13.42 2.39
5.32 -13.30 2.39
5.58 -13.18 2.39
5.84 -13.06 2.39
6.09 -12.93 2.39
6.35 -12.79 2.39
6.61 -12.67 2.39
6.86 -12.53 2.39
7.10 -12.38 2.39
7.34 -12.22 2.39
7.58 -12.06 2.39
7.81 -11.90 2.39
8.05 -11.73 2.39
8.27 -11.56 2.39
8.50 -11.38 2.39
8.72 -11.20 2.39
8.94 -11.01 2.39
9.15 -10.83 2.39
9.36 -10.63 2.39
9.56 -10.44 2.39
9.76 -10.23 2.39
9.96 -10.03 2.39
10.15 -9.82 2.39
10.34 -9.61 2.39
10.53 -9.39 2.39
10.71 -9.17 2.39
10.88 -8.95 2.39
11.05 -8.73 2.39
11.22 -8.50 2.39
11.38 -8.27 2.39
11.54 -8.03 2.39
11.69 -7.79 2.39
11.84 -7.55 2.39
11.99 -7.31 2.39
12.12 -7.06 2.39
12.26 -6.82 2.39
12.39 -6.57 2.39
12.51 -6.31 2.39
12.63 -6.06 2.39
12.74 -5.80 2.39
12.85 -5.54 2.39
12.96 -5.28 2.39
13.05 -5.02 2.39
13.15 -4.75 2.39
13.24 -4.48 2.39
13.32 -4.22 2.39
13.40 -3.95 2.39
13.47 -3.68 2.39
13.54 -3.40 2.39
13.60 -3.13 2.39
13.66 -2.85 2.39
13.71 -2.58 2.39
13.75 -2.30 2.39
13.79 -2.03 2.39
13.83 -1.75 2.39
13.86 -1.47 2.39
13.89 -1.19 2.39
13.90 -0.91 2.39
13.92 -0.63 2.39
13.93 -0.35 2.39
13.93 -0.07 2.39
13.93 0.21 2.39
13.92 0.49 2.39
13.91 0.77 2.39
13.89 1.05 2.39
13.87 1.33 2.39
13.84 1.60 2.39
13.80 1.88 2.39
13.76 2.16 2.39
13.72 2.44 2.39
13.67 2.71 2.39
13.61 2.99 2.39
13.55 3.26 2.39
13.48 3.53 2.39
13.41 3.80 2.39
13.33 4.07 2.39
13.25 4.34 2.39
13.17 4.61 2.39
13.07 4.87 2.39
12.98 5.13 2.39
12.87 5.39 2.39
12.77 5.65 2.39
12.65 5.91 2.39
12.54 6.17 2.39
12.41 6.42 2.39
12.29 6.67 2.39
12.15 6.92 2.39
12.02 7.16 2.39
11.87 7.40 2.39
11.73 7.64 2.39
11.58 7.88 2.39
11.42 8.12 2.39
11.26 8.35 2.39
11.10 8.58 2.39
10.93 8.80 2.39
10.75 9.02 2.39
10.57 9.24 2.39
10.39 9.46 2.39
10.20 9.67 2.39
10.01 9.88 2.39
9.82 10.08 2.39
9.62 10.28 2.39
9.42 10.48 2.39
9.21 10.67 2.39
9.00 10.86 2.39
8.78 11.05 2.39
8.56 11.23 2.39
8.34 11.41 2.39
8.12 11.58 2.39
7.89 11.75 2.39
7.66 11.91 2.39
7.42 12.07 2.39
7.18 12.23 2.39
6.94 12.38 2.39
6.69 12.52 2.39
6.45 12.66 2.39
6.19 12.80 2.39
5.94 12.93 2.39
5.68 13.06 2.39
5.42 13.16 2.39
5.16 13.28 2.39
4.89 13.39 2.39
4.63 13.50 2.39
2.15 6.72 1.18
4.09 13.69 2.39
3.81 13.78 2.39
3.54 13.87 2.39
3.26 13.95 2.39
2.98 14.02 2.39
2.70 14.09 2.39
2.42 14.15 2.39
2.14 14.21 2.39
1.86 14.26 2.39
1.58 14.36 2.40
1.34 14.97 2.49
1.04 15.01 2.49
0.74 15.04 2.49
0.44 15.06 2.49
0.13 15.08 2.49
-0.17 15.09 2.49
-0.47 15.10 2.49
-0.78 15.10 2.49
-1.08 15.10 2.49
-1.38 15.08 2.49
-1.69 15.07 2.49
-1.99 15.04 2.49
-2.29 15.01 2.49
-2.60 14.98 2.49
-2.90 14.93 2.49
-3.20 14.89 2.49
-3.50 14.83 2.49
-3.80 14.77 2.49
-4.10 14.70 2.49
-4.40 14.63 2.49
-4.70 14.55 2.49
-4.99 14.47 2.49
-5.29 14.38 2.49
-5.58 14.28 2.49
-5.87 14.18 2.49
-6.16 14.07 2.49
-6.44 13.95 2.49
-6.46 13.29 2.40
-6.72 13.14 2.39
-6.99 13.01 2.39
-7.25 12.88 2.39
-7.52 12.74 2.39
-7.78 12.60 2.39
-8.03 12.45 2.39
-8.29 12.29 2.39
-8.54 12.14 2.39
-8.79 11.97 2.39
-9.03 11.80 2.39
-9.28 11.63 2.39
-9.51 11.45 2.39
-9.75 11.26 2.39
-9.89 10.97 2.37
-9.94 10.60 2.33
-10.04 10.28 2.30
-10.21 10.04 2.29
-10.37 9.80 2.28
-10.43 9.47 2.25
-10.49 9.14 2.22
-10.57 8.85 2.20
-10.72 8.61 2.19
-10.86 8.37 2.19
-10.99 8.13 2.18
-11.13 7.89 2.17
-11.24 7.63 2.16
-11.33 7.37 2.15
-11.37 7.07 2.13
-11.39 6.77 2.11
-11.41 6.48 2.08
-11.44 6.19 2.06
-11.46 5.91 2.05
-11.47 5.63 2.03
-11.48 5.35 2.01
-11.49 5.08 1.99
-11.50 4.81 1.97
-11.51 4.54 1.96
-11.51 4.28 1.94
-11.52 4.02 1.93
-11.52 3.76 1.92
-11.54 3.52 1.91
-11.56 3.27 1.90
-11.58 3.03 1.89
-11.60 2.78 1.89
-11.62 2.54 1.88
-11.64 2.30 1.87
-11.66 2.07 1.87
-11.67 1.83 1.86
-11.69 1.59 1.86
-11.72 1.36 1.86
-11.75 1.12 1.86
-11.78 0.89 1.86
-11.81 0.65 1.87
-11.84 0.41 1.87
-11.88 0.18 1.87
-11.94 -0.06 1.88
-11.99 -0.30 1.89
-12.01 -0.54 1.90
-12.00 -0.78 1.90
-11.99 -1.03 1.90
-11.98 -1.27 1.90
-11.97 -1.51 1.90
-11.99 -1.76 1.91
-12.03 -2.01 1.92
-12.07 -2.27 1.94
-12.09 -2.52 1.95
-12.06 -2.77 1.95
-12.03 -3.02 1.96
-12.00 -3.27 1.96
-11.97 -3.52 1.97
-11.96 -3.78 1.98
-11.95 -4.04 1.99
-11.94 -4.30 2.00
-11.91 -4.57 2.01
-11.85 -4.82 2.02
-11.79 -5.07 2.03
-11.73 -5.33 2.04
-11.66 -5.58 2.04
-11.60 -5.84 2.05
-11.54 -6.10 2.06
-11.47 -6.36 2.08
-11.42 -6.64 2.09
-11.39 -6.93 2.11
-11.35 -7.22 2.13
-11.31 -7.52 2.15
-11.27 -7.82 2.18
-11.23 -8.13 2.20
-11.16 -8.43 2.22
-11.09 -8.73 2.24
-11.01 -9.03 2.26
-10.94 -9.34 2.29
-10.85 -9.65 2.31
-10.69 -9.90 2.32
-10.53 -10.15 2.33
-10.36 -10.40 2.34
-10.22 -10.67 2.36
-10.09 -10.98 2.38
-9.96 -11.28 2.40
-9.68 -11.42 2.39
-9.45 -11.60 2.39
-9.20 -11.78 2.39
-8.96 -11.95 2.39
-8.71 -12.12 2.39
-8.46 -12.29 2.39
-8.21 -12.45 2.39
-7.95 -12.60 2.39
-7.64 -12.66 2.37
-7.38 -12.80 2.37
-7.11 -12.93 2.37
-6.90 -13.16 2.39
-6.63 -13.28 2.39
-6.35 -13.40 2.39
-6.08 -13.52 2.39
-5.80 -13.63 2.39
-5.68 -14.13 2.46
-5.47 -14.42 2.49
-5.17 -14.52 2.49
-4.88 -14.61 2.49
-4.58 -14.69 2.49
-4.28 -14.77 2.49
-3.98 -14.84 2.49
-3.68 -14.90 2.49
-3.38 -14.96 2.49
-3.07 -15.01 2.49
-2.77 -15.06 2.49
-2.46 -15.10 2.49
-2.16 -15.13 2.49
-1.85 -15.16 2.49
-1.55 -15.18 2.49
-1.24 -15.19 2.49
-0.93 -15.20 2.49
-0.63 -15.20 2.49
-0.32 -15.20 2.49
-0.02 -13.31 2.49
0.25 -13.30 2.49
0.52 -13.28 2.49
0.78 -13.26 2.49
1.05 -13.23 2.49
1.31 -13.19 2.49
1.57 -13.15 2.49
1.84 -13.11 2.49
2.10 -13.06 2.49
2.34 -12.92 2.48
2.51 -12.41 2.39
2.75 -12.35 2.39
3.00 -12.28 2.39
3.24 -12.21 2.39
3.49 -12.13 2.39
3.73 -12.05 2.39
3.96 -11.96 2.39
4.20 -11.87 2.39
4.43 -11.78 2.39
4.67 -11.68 2.39
4.90 -11.57 2.39
5.12 -11.46 2.39
5.35 -11.35 2.39
5.57 -11.23 2.39
5.79 -11.11 2.39
6.01 -10.99 2.39
6.23 -10.86 2.39
6.45 -10.74 2.39
6.66 -10.60 2.39
6.86 -10.45 2.39
7.07 -10.31 2.39
7.27 -10.16 2.39
7.47 -10.00 2.39
7.66 -9.84 2.39
7.85 -9.68 2.39
8.04 -9.52 2.39
8.22 -9.35 2.39
8.41 -9.17 2.39
8.58 -9.00 2.39
8.76 -8.82 2.39
8.93 -8.64 2.39
9.09 -8.45 2.39
9.26 -8.26 2.39
9.42 -8.07 2.39
9.57 -7.88 2.39
9.72 -7.68 2.39
9.87 -7.48 2.39
10.01 -7.27 2.39
10.15 -7.07 2.39
10.29 -6.86 2.39
10.42 -6.65 2.39
10.55 -6.43 2.39
10.67 -6.22 2.39
10.79 -6.00 2.39
10.90 -5.78 2.39
11.01 -5.56 2.39
11.12 -5.33 2.39
11.22 -5.11 2.39
11.31 -4.88 2.39
11.40 -4.65 2.39
11.49 -4.42 2.39
11.57 -4.18 2.39
11.65 -3.95 2.39
11.73 -3.71 2.39
11.80 -3.48 2.39
11.86 -3.24 2.39
11.92 -3.00 2.39
11.97 -2.76 2.39
12.03 -2.51 2.39
12.07 -2.27 2.39
12.11 -2.03 2.39
12.15 -1.78 2.39
12.18 -1.54 2.39
12.21 -1.29 2.39
12.23 -1.05 2.39
12.25 -0.80 2.39
12.26 -0.56 2.39
12.27 -0.31 2.39
12.27 -0.06 2.39
12.27 0.18 2.39
12.26 0.43 2.39
12.25 0.68 2.39
12.23 0.92 2.39
12.21 1.17 2.39
12.19 1.41 2.39
12.16 1.66 2.39
12.12 1.90 2.39
12.08 2.15 2.39
12.04 2.39 2.39
11.99 2.63 2.39
11.93 2.87 2.39
11.87 3.11 2.39
11.81 3.35 2.39
11.74 3.59 2.39
11.67 3.82 2.39
11.59 4.06 2.39
11.51 4.29 2.39
11.43 4.52 2.39
11.33 4.75 2.39
11.24 4.98 2.39
11.14 5.20 2.39
11.04 5.43 2.39
10.93 5.65 2.39
10.82 5.87 2.39
10.70 6.09 2.39
10.58 6.31 2.39
10.45 6.52 2.39
10.32 6.73 2.39
10.19 6.94 2.39
10.05 7.14 2.39
9.91 7.35 2.39
9.76 7.55 2.39
9.61 7.75 2.39
9.46 7.94 2.39
9.30 8.13 2.39
9.14 8.32 2.39
8.98 8.51 2.39
8.81 8.69 2.39
8.64 8.87 2.39
8.46 9.05 2.39
8.28 9.22 2.39
8.10 9.39 2.39
7.91 9.56 2.39
7.72 9.72 2.39
7.53 9.88 2.39
7.33 10.03 2.39
7.14 10.18 2.39
6.93 10.33 2.39
6.73 10.47 2.39
6.52 10.61 2.39
6.31 10.75 2.39
6.10 10.88 2.39
5.88 11.01 2.39
5.65 11.11 2.39
5.43 11.23 2.39
5.21 11.35 2.39
4.98 11.46 2.39
4.76 11.56 2.39
4.53 11.66 2.39
4.29 11.76 2.39
4.06 11.85 2.39
2.14 6.68 1.34
3.59 12.02 2.39
3.35 12.10 2.39
3.10 12.17 2.39
2.86 12.24 2.39
2.62 12.31 2.39
2.37 12.37 2.39
2.12 12.42 2.39
1.88 12.47 2.39
1.63 12.53 2.39
1.43 13.10 2.49
1.17 13.13 2.49
0.91 13.16 2.49
0.65 13.19 2.49
0.38 13.21 2.49
0.12 13.22 2.49
-0.15 13.23 2.49
-0.42 13.24 2.49
-0.68 13.24 2.49
-0.95 13.23 2.49
-1.21 13.22 2.49
-1.48 13.20 2.49
-1.75 13.18 2.49
-2.01 13.15 2.49
-2.28 13.12 2.49
-2.54 13.08 2.49
-2.81 13.04 2.49
-3.07 12.99 2.49
-3.33 12.93 2.49
-3.59 12.87 2.49
-3.86 12.81 2.49
-4.11 12.74 2.49
-4.37 12.66 2.49
-4.63 12.58 2.49
-4.88 12.50 2.49
-5.14 12.40 2.49
-5.39 12.31 2.49
-5.64 12.21 2.49
-5.89 12.10 2.49
-6.13 11.99 2.49
-6.38 11.87 2.49
-6.41 11.37 2.41
-6.57 11.14 2.39
-6.80 11.01 2.39
-7.03 10.88 2.39
-7.25 10.75 2.39
-7.47 10.61 2.39
-7.68 10.46 2.39
-7.90 10.31 2.39
-8.11 10.16 2.39
-8.31 10.00 2.39
-8.52 9.84 2.39
-8.72 9.67 2.39
-8.92 9.50 2.39
-9.11 9.33 2.39
-9.30 9.15 2.39
-9.49 8.96 2.39
-9.67 8.78 2.39
-9.84 8.58 2.39
-9.91 8.29 2.36
-10.05 8.07 2.36
-10.18 7.85 2.35
-10.28 7.60 2.33
-10.36 7.34 2.32
-10.43 7.08 2.30
-10.51 6.83 2.29
-10.60 6.59 2.27
-10.68 6.35 2.26
-10.77 6.11 2.25
-10.84 5.87 2.24
-10.92 5.63 2.24
-11.01 5.40 2.23
-11.05 5.15 2.21
-11.09 4.90 2.20
-11.12 4.65 2.19
-11.15 4.40 2.18
-11.18 4.16 2.16
-11.21 3.91 2.15
-11.24 3.67 2.14
-11.27 3.43 2.13
-11.29 3.19 2.13
-11.31 2.95 2.12
-11.33 2.72 2.11
-11.35 2.48 2.10
-11.37 2.25 2.10
-11.38 2.02 2.09
-11.40 1.78 2.09
-11.42 1.55 2.09
-11.45 1.32 2.09
-11.48 1.10 2.09
-11.51 0.87 2.09
-11.54 0.64 2.09
-11.57 0.40 2.09
-11.60 0.17 2.10
-11.63 -0.06 2.10
-11.69 -0.29 2.11
-11.71 -0.53 2.12
-11.70 -0.76 2.12
-11.69 -1.00 2.12
-11.67 -1.23 2.12
-11.66 -1.47 2.12
-11.65 -1.71 2.13
-11.64 -1.94 2.13
-11.68 -2.19 2.15
-11.71 -2.44 2.16
-11.68 -2.68 2.17
-11.66 -2.92 2.17
-11.63 -3.16 2.18
-11.60 -3.41 2.19
-11.56 -3.65 2.19
-11.53 -3.90 2.20
-11.51 -4.15 2.21
-11.49 -4.41 2.23
-11.45 -4.65 2.24
-11.39 -4.90 2.25
-11.32 -5.14 2.25
-11.26 -5.39 2.26
-11.20 -5.63 2.27
-11.13 -5.88 2.28
-11.06 -6.13 2.29
-10.99 -6.39 2.31
-10.92 -6.64 2.32
-10.84 -6.89 2.33
-10.76 -7.15 2.35
-10.67 -7.40 2.36
-10.58 -7.66 2.37
-10.48 -7.92 2.39
-10.38 -8.17 2.40
-10.28 -8.43 2.42
-10.16 -8.67 2.43
-9.80 -8.72 2.39
-9.62 -8.91 2.39
-9.44 -9.10 2.39
-9.25 -9.28 2.39
-9.05 -9.46 2.39
-8.86 -9.63 2.39
-8.66 -9.80 2.39
-8.46 -9.97 2.39
-8.25 -10.13 2.39
-8.04 -10.29 2.39
-7.83 -10.44 2.39
-7.61 -10.59 2.39
-7.39 -10.73 2.39
-7.17 -10.87 2.39
-6.95 -11.01 2.39
-6.72 -11.14 2.39
-6.49 -11.26 2.39
-6.26 -11.38 2.39
-6.03 -11.50 2.39
-5.79 -11.61 2.39
-5.73 -12.09 2.47
-5.54 -12.33 2.49
-5.29 -12.43 2.49
-5.04 -12.52 2.49
-4.78 -12.61 2.49
-4.53 -12.70 2.49
-4.27 -12.78 2.49
-4.01 -12.85 2.49
-3.75 -12.92 2.49
-3.48 -12.98 2.49
-3.22 -13.04 2.49
-2.96 -13.09 2.49
-2.69 -13.14 2.49
-2.42 -13.18 2.49
-2.16 -13.22 2.49
-1.89 -13.25 2.49
-1.62 -13.27 2.49
-1.36 -13.29 2.49
-1.09 -13.31 2.49
-0.82 -13.31 2.49
-0.55 -13.32 2.49
-0.28 -13.32 2.49
-0.02 -11.83 2.49
0.22 -11.82 2.49
0.46 -11.81 2.49
0.69 -11.79 2.49
0.93 -11.76 2.49
1.16 -11.73 2.49
1.40 -11.70 2.49
1.63 -11.66 2.49
1.86 -11.62 2.49
2.10 -11.57 2.49
2.30 -11.39 2.47
2.45 -10.99 2.39
2.67 -10.93 2.39
2.88 -10.86 2.39
3.10 -10.80 2.39
3.31 -10.72 2.39
3.53 -10.65 2.39
3.74 -10.57 2.39
3.95 -10.49 2.39
4.15 -10.40 2.39
4.36 -10.30 2.39
4.56 -10.21 2.39
4.76 -10.11 2.39
4.96 -10.00 2.39
5.16 -9.90 2.39
5.35 -9.78 2.39
5.54 -9.67 2.39
5.73 -9.55 2.39
5.92 -9.43 2.39
6.11 -9.30 2.39
6.30 -9.18 2.39
6.48 -9.05 2.39
6.65 -8.91 2.39
6.83 -8.77 2.39
7.00 -8.63 2.39
7.16 -8.48 2.39
7.33 -8.33 2.39
7.49 -8.18 2.39
7.65 -8.02 2.39
7.81 -7.86 2.39
7.96 -7.70 2.39
8.11 -7.54 2.39
8.25 -7.37 2.39
8.40 -7.20 2.39
8.53 -7.02 2.39
8.67 -6.85 2.39
8.80 -6.67 2.39
8.93 -6.49 2.39
9.05 -6.30 2.39
9.18 -6.12 2.39
9.29 -5.93 2.39
9.41 -5.74 2.39
9.52 -5.55 2.39
9.62 -5.35 2.39
9.72 -5.16 2.39
9.82 -4.96 2.39
9.92 -4.76 2.39
10.01 -4.56 2.39
10.09 -4.35 2.39
10.18 -4.15 2.39
10.25 -3.94 2.39
10.33 -3.73 2.39
10.40 -3.52 2.39
10.46 -3.31 2.39
10.53 -3.10 2.39
10.58 -2.89 2.39
10.64 -2.68 2.39
10.69 -2.46 2.39
10.73 -2.24 2.39
10.77 -2.03 2.39
10.81 -1.81 2.39
10.84 -1.59 2.39
10.87 -1.37 2.39
10.89 -1.16 2.39
10.91 -0.94 2.39
10.93 -0.72 2.39
10.94 -0.50 2.39
10.95 -0.28 2.39
10.95 -0.06 2.39
10.95 0.16 2.39
10.94 0.38 2.39
10.93 0.60 2.39
10.92 0.82 2.39
10.90 1.04 2.39
10.88 1.26 2.39
10.85 1.48 2.39
10.82 1.70 2.39
10.78 1.92 2.39
10.74 2.13 2.39
10.70 2.35 2.39
10.65 2.56 2.39
10.60 2.78 2.39
10.54 2.99 2.39
10.48 3.20 2.39
10.42 3.41 2.39
10.35 3.62 2.39
10.27 3.83 2.39
10.20 4.03 2.39
10.11 4.24 2.39
10.03 4.44 2.39
9.94 4.65 2.39
9.85 4.85 2.39
9.75 5.04 2.39
9.65 5.24 2.39
9.55 5.43 2.39
9.44 5.63 2.39
9.32 5.82 2.39
9.21 6.01 2.39
9.09 6.19 2.39
8.97 6.37 2.39
8.84 6.56 2.39
8.71 6.73 2.39
8.58 6.91 2.39
8.44 7.08 2.39
8.30 7.26 2.39
8.15 7.42 2.39
8.01 7.59 2.39
7.85 7.75 2.39
7.70 7.91 2.39
7.54 8.07 2.39
7.38 8.22 2.39
7.22 8.37 2.39
7.05 8.52 2.39
6.88 8.66 2.39
6.71 8.81 2.39
6.54 8.94 2.39
6.36 9.08 2.39
6.18 9.21 2.39
6.00 9.34 2.39
5.81 9.46 2.39
5.61 9.57 2.39
5.42 9.68 2.39
5.23 9.80 2.39
5.04 9.90 2.39
4.84 10.01 2.39
4.64 10.11 2.39
4.44 10.21 2.39
4.24 10.30 2.39
4.03 10.39 2.39
3.82 10.48 2.39
3.61 10.56 2.39
2.14 6.68 1.50
3.19 10.71 2.39
2.98 10.78 2.39
2.76 10.84 2.39
2.55 10.90 2.39
2.33 10.96 2.39
2.11 11.01 2.39
1.89 11.06 2.39
1.67 11.11 2.39
1.51 11.62 2.49
1.27 11.65 2.49
