ply
format ascii 1.0
element vertex 2849
property float32 x
property float32 y
property float32 z
end_header
-11.38 21.15 1.71
-11.33 20.09 1.63
-11.34 19.20 1.57
-11.43 18.49 1.52
-11.42 17.67 1.46
-11.36 16.82 1.39
-11.31 16.04 1.34
-11.30 15.36 1.29
-11.28 14.72 1.25
-11.27 14.10 1.20
-11.25 13.52 1.16
-11.28 13.01 1.13
-11.33 12.56 1.10
-11.35 12.07 1.07
-11.34 11.59 1.04
-11.49 11.28 1.02
-11.69 11.03 1.02
-11.90 10.78 1.01
-12.11 10.54 1.00
-12.27 10.25 0.99
-12.38 9.93 0.97
-12.49 9.62 0.96
-12.60 9.30 0.94
-12.71 8.99 0.93
-12.74 8.64 0.91
-12.73 8.26 0.90
-12.71 7.90 0.88
-12.70 7.54 0.86
-12.69 7.19 0.84
-12.68 6.86 0.83
-12.77 6.58 0.82
-12.86 6.30 0.81
-12.89 6.00 0.80
-12.87 5.68 0.78
-12.86 5.37 0.77
-12.85 5.06 0.76
-12.86 4.77 0.75
-12.87 4.48 0.74
-12.87 4.20 0.73
-11.10 3.37 0.62
-10.49 2.96 0.58
-10.72 2.79 0.58
-10.95 2.62 0.59
-12.79 2.79 0.68
-12.80 2.53 0.68
-12.82 2.26 0.67
-12.82 2.00 0.66
-12.81 1.74 0.66
-12.80 1.47 0.65
-12.79 1.21 0.65
-12.74 0.95 0.64
-12.70 0.69 0.64
-12.66 0.44 0.63
-12.62 0.18 0.62
-12.61 -0.07 0.62
-12.62 -0.32 0.62
-12.63 -0.58 0.62
-12.65 -0.83 0.62
-12.63 -1.08 0.61
-12.61 -1.34 0.61
-12.59 -1.59 0.61
-12.58 -1.85 0.61
-12.57 -2.10 0.61
-12.57 -2.36 0.61
-12.56 -2.62 0.61
-12.54 -2.88 0.61
-12.48 -3.14 0.61
-12.42 -3.39 0.61
-12.36 -3.64 0.61
-12.30 -3.89 0.61
-12.28 -4.15 0.61
-12.26 -4.42 0.61
-12.25 -4.70 0.62
-12.23 -4.98 0.62
-12.23 -5.26 0.63
-12.22 -5.55 0.63
-12.21 -5.85 0.64
-12.19 -6.14 0.64
-12.16 -6.43 0.65
-12.13 -6.73 0.65
-12.09 -7.03 0.66
-12.11 -7.37 0.67
-12.15 -7.73 0.68
-12.17 -8.09 0.69
-12.13 -8.42 0.70
-12.09 -8.75 0.71
-12.33 -9.31 0.74
-13.04 -10.27 0.79
-13.01 -10.67 0.81
-12.98 -11.09 0.82
-10.16 -9.04 0.66
-9.84 -9.11 0.65
-9.53 -9.19 0.64
-12.60 -12.65 0.87
-12.41 -12.97 0.88
-12.22 -13.29 0.89
-12.02 -13.61 0.90
-11.82 -13.94 0.91
-11.71 -14.38 0.93
-11.67 -14.93 0.95
-11.57 -15.44 0.97
-11.44 -15.92 0.99
-11.34 -16.47 1.02
-11.26 -17.07 1.05
-11.17 -17.70 1.08
-11.07 -18.34 1.11
-10.94 -18.98 1.14
-10.81 -19.65 1.18
-10.68 -20.36 1.21
-10.58 -21.21 1.26
-10.45 -22.04 1.30
-10.43 -23.18 1.37
-10.37 -24.35 1.43
-10.23 -25.40 1.49
-10.08 -26.56 1.56
-9.92 -27.80 1.63
-9.57 -28.62 1.68
-9.12 -29.23 1.72
-8.67 -29.86 1.75
-8.35 -31.08 1.83
-8.06 -32.62 1.92
-7.93 -35.09 2.07
-8.48 -41.36 2.45
-8.02 -43.52 2.59
-6.55 -40.03 2.39
-4.24 -29.61 1.78
-4.87 -39.66 2.39
-4.04 -39.45 2.39
-3.34 -40.61 2.48
-2.52 -40.66 2.49
-1.69 -40.39 2.49
-0.87 -40.11 2.49
-0.07 -29.25 2.49
0.52 -29.08 2.49
1.09 -28.90 2.49
1.66 -28.70 2.49
2.23 -28.50 2.49
2.78 -28.29 2.49
3.33 -28.07 2.49
3.87 -27.83 2.49
4.22 -26.45 2.39
4.72 -26.21 2.39
5.21 -25.96 2.39
5.70 -25.70 2.39
6.18 -25.44 2.39
6.65 -25.17 2.39
7.11 -24.89 2.39
7.57 -24.60 2.39
9.20 -27.89 2.74
10.65 -30.24 3.01
10.94 -29.17 2.94
11.23 -28.22 2.89
11.23 -26.64 2.76
11.29 -25.35 2.67
11.09 -23.61 2.52
11.29 -22.84 2.48
11.51 -22.16 2.44
11.66 -21.39 2.39
11.80 -20.65 2.35
11.90 -19.89 2.30
7.85 -12.53 1.48
12.26 -18.73 2.25
12.50 -18.29 2.23
12.74 -17.86 2.22
13.03 -17.51 2.22
13.37 -17.24 2.23
3.00 -3.71 0.49
13.90 -16.50 2.23
13.93 -15.89 2.20
13.96 -15.29 2.16
14.00 -14.73 2.13
14.06 -14.20 2.11
14.10 -13.68 2.08
14.13 -13.17 2.06
14.11 -12.63 2.02
14.09 -12.11 1.99
14.07 -11.61 1.97
14.05 -11.13 1.94
14.01 -10.65 1.91
14.04 -10.23 1.90
14.09 -9.84 1.89
14.15 -9.46 1.88
14.23 -9.11 1.87
14.37 -8.80 1.87
14.50 -8.48 1.87
14.58 -8.14 1.87
14.65 -7.80 1.86
14.90 -7.55 1.88
15.18 -7.31 1.91
15.38 -7.03 1.92
15.50 -6.71 1.92
15.60 -6.39 1.93
15.66 -6.04 1.93
15.71 -5.70 1.92
15.76 -5.37 1.92
15.81 -5.03 1.92
15.81 -4.68 1.91
15.78 -4.33 1.91
15.60 -3.95 1.88
15.40 -3.57 1.85
15.20 -3.20 1.83
14.98 -2.84 1.80
14.65 -2.47 1.75
14.44 -2.14 1.73
14.30 -1.83 1.71
14.16 -1.52 1.69
14.00 -1.22 1.67
13.83 -0.92 1.66
13.67 -0.64 1.64
13.52 -0.36 1.62
13.37 -0.08 1.61
13.23 0.18 1.59
7.53 0.26 0.91
12.95 0.70 1.57
12.81 0.95 1.55
12.67 1.20 1.54
12.53 1.44 1.53
12.40 1.68 1.52
12.33 1.92 1.52
12.24 2.16 1.51
12.13 2.40 1.51
12.03 2.63 1.50
11.92 2.86 1.50
11.82 3.08 1.49
11.71 3.31 1.49
11.60 3.53 1.48
11.55 3.77 1.49
11.53 4.02 1.49
11.50 4.28 1.50
11.48 4.53 1.51
11.45 4.79 1.52
11.42 5.05 1.53
11.38 5.31 1.54
11.35 5.58 1.55
11.29 5.83 1.56
11.22 6.08 1.56
11.14 6.34 1.57
11.07 6.59 1.58
11.00 6.85 1.58
10.92 7.11 1.59
10.84 7.38 1.60
10.76 7.64 1.61
10.78 7.99 1.63
10.80 8.34 1.66
10.81 8.71 1.69
10.83 9.09 1.72
10.73 9.38 1.73
10.64 9.68 1.74
10.62 10.06 1.77
10.60 10.46 1.80
10.58 10.86 1.83
10.55 11.28 1.86
10.50 11.70 1.89
6.85 7.95 1.26
10.32 12.47 1.94
10.23 12.87 1.96
10.13 13.29 1.99
10.04 13.74 2.02
9.97 14.24 2.06
9.89 14.74 2.10
9.78 15.23 2.14
9.66 15.74 2.18
9.55 16.29 2.22
9.44 16.86 2.26
9.32 17.46 2.31
9.18 18.07 2.36
9.12 18.88 2.44
9.07 19.79 2.52
8.77 20.20 2.54
8.47 20.62 2.57
6.55 16.92 2.08
6.26 17.18 2.09
7.49 21.92 2.64
7.08 22.15 2.64
6.63 22.27 2.63
6.14 22.28 2.61
5.66 22.28 2.58
4.85 20.81 2.39
4.44 20.98 2.39
4.04 21.15 2.39
3.62 21.31 2.39
3.21 21.46 2.39
2.79 21.61 2.39
2.36 21.75 2.39
1.93 21.89 2.39
1.50 22.02 2.39
1.06 22.14 2.39
0.65 23.22 2.49
0.18 23.33 2.49
-0.29 23.44 2.49
-0.76 23.53 2.49
-1.24 23.62 2.49
-1.72 23.71 2.49
-2.21 23.78 2.49
-2.70 23.85 2.49
-3.19 23.90 2.49
-3.69 23.95 2.49
-4.19 23.99 2.49
-4.70 24.03 2.49
-5.21 24.05 2.49
-5.72 24.06 2.49
-6.23 24.07 2.49
-6.75 24.06 2.49
-7.24 23.96 2.49
-7.47 23.03 2.39
-7.97 23.00 2.39
-8.48 22.96 2.39
-8.99 22.91 2.39
-9.50 22.85 2.39
-10.01 22.78 2.39
-10.52 22.70 2.39
-11.03 22.61 2.39
-11.16 21.74 2.31
-11.02 20.45 2.18
-11.04 19.54 2.10
-11.08 18.73 2.02
-11.11 17.95 1.95
-11.11 17.17 1.88
-11.05 16.34 1.80
-11.05 15.65 1.74
-11.04 15.00 1.68
-11.04 14.38 1.63
-11.03 13.79 1.58
-11.02 13.23 1.53
-11.06 12.75 1.49
-11.10 12.29 1.45
-11.10 11.80 1.41
-11.10 11.33 1.38
-11.26 11.05 1.36
-11.47 10.81 1.35
-11.67 10.57 1.34
-11.87 10.32 1.33
-11.98 10.00 1.32
-12.23 9.80 1.31
-12.34 9.49 1.30
-12.45 9.18 1.28
-12.55 8.88 1.27
-12.60 8.53 1.25
-12.58 8.16 1.22
-12.57 7.80 1.20
-12.56 7.45 1.18
-12.55 7.11 1.16
-12.54 6.77 1.14
-12.62 6.49 1.13
-12.71 6.22 1.12
-12.71 5.90 1.10
-12.70 5.59 1.09
-12.68 5.29 1.07
-12.67 4.99 1.06
-12.68 4.70 1.04
-12.69 4.41 1.03
-12.69 4.13 1.02
-11.01 3.34 0.88
-10.49 2.96 0.83
-10.72 2.79 0.83
-10.95 2.62 0.85
-12.60 2.75 0.96
-12.61 2.48 0.96
-12.62 2.23 0.95
-12.62 1.97 0.94
-12.61 1.71 0.94
-12.60 1.45 0.93
-12.59 1.19 0.92
-12.57 0.94 0.92
-12.53 0.68 0.91
-12.49 0.43 0.90
-12.45 0.18 0.90
-12.45 -0.07 0.89
-12.46 -0.32 0.89
-12.47 -0.57 0.89
-12.48 -0.82 0.89
-12.48 -1.07 0.89
-12.46 -1.32 0.89
-12.44 -1.58 0.89
-12.43 -1.83 0.89
-12.42 -2.08 0.89
-12.41 -2.34 0.89
-12.41 -2.59 0.89
-12.40 -2.85 0.89
-12.37 -3.11 0.89
-12.31 -3.36 0.89
-12.25 -3.60 0.89
-12.19 -3.85 0.89
-12.16 -4.11 0.90
-12.14 -4.38 0.90
-12.13 -4.65 0.91
-12.11 -4.93 0.91
-12.10 -5.21 0.92
-12.09 -5.49 0.93
-12.08 -5.78 0.93
-12.06 -6.07 0.94
-12.03 -6.36 0.95
-12.00 -6.66 0.96
-11.96 -6.95 0.97
-11.94 -7.26 0.98
-11.97 -7.61 0.99
-12.00 -7.98 1.01
-11.96 -8.30 1.02
-11.92 -8.63 1.03
-11.88 -8.97 1.05
-12.26 -9.65 1.10
-12.62 -10.35 1.15
-12.57 -10.74 1.17
-10.15 -9.03 0.96
-9.83 -9.10 0.95
-9.53 -9.18 0.94
-12.36 -12.40 1.25
-12.23 -12.77 1.27
-12.04 -13.08 1.28
-11.84 -13.40 1.29
-11.65 -13.72 1.30
-11.45 -14.05 1.31
-11.39 -14.57 1.35
-11.34 -15.12 1.38
-11.26 -15.65 1.41
-11.12 -16.14 1.44
-11.04 -16.72 1.48
-10.95 -17.33 1.52
-10.85 -17.96 1.56
-10.73 -18.59 1.60
-10.59 -19.24 1.65
-10.45 -19.91 1.69
-10.33 -20.68 1.75
-10.16 -21.41 1.80
-9.99 -22.17 1.86
-10.20 -23.91 1.99
-10.05 -24.95 2.07
-9.73 -25.61 2.12
-9.42 -26.37 2.18
-9.14 -27.31 2.25
-8.82 -28.23 2.33
-8.56 -29.45 2.42
-7.82 -29.07 2.39
-7.20 -29.06 2.39
-6.58 -29.05 2.39
-5.97 -29.02 2.39
-5.35 -28.98 2.39
-4.75 -28.93 2.39
-4.14 -28.86 2.39
-3.70 -30.02 2.49
-3.08 -29.92 2.49
-2.46 -29.81 2.49
-1.86 -29.69 2.49
-1.25 -29.55 2.49
-0.66 -29.40 2.49
-0.07 -23.09 2.49
0.40 -22.99 2.49
0.85 -22.87 2.49
1.30 -22.75 2.49
1.75 -22.61 2.49
2.20 -22.47 2.49
2.63 -22.32 2.49
3.07 -22.16 2.49
3.49 -21.99 2.49
3.75 -20.91 2.39
4.15 -20.74 2.39
4.55 -20.56 2.39
4.94 -20.37 2.39
5.32 -20.17 2.39
5.70 -19.97 2.39
6.07 -19.76 2.39
6.43 -19.55 2.39
6.79 -19.33 2.39
7.15 -19.10 2.39
8.06 -20.28 2.57
8.67 -20.60 2.64
9.30 -20.91 2.72
9.91 -21.14 2.79
10.21 -20.68 2.77
10.37 -19.99 2.71
10.52 -19.32 2.66
10.63 -18.63 2.61
10.71 -17.92 2.55
7.85 -12.55 1.82
10.96 -16.77 2.47
11.19 -16.39 2.45
11.32 -15.89 2.42
11.40 -15.33 2.38
11.47 -14.80 2.34
2.99 -3.71 0.60
11.91 -14.16 2.34
12.26 -13.99 2.36
12.60 -13.81 2.38
12.82 -13.50 2.38
12.93 -13.08 2.36
13.04 -12.67 2.34
13.27 -12.38 2.35
13.33 -11.95 2.32
13.33 -11.48 2.29
13.33 -11.02 2.26
13.33 -10.57 2.23
13.40 -10.20 2.22
13.48 -9.83 2.20
13.54 -9.46 2.19
13.59 -9.10 2.18
13.65 -8.75 2.16
13.78 -8.44 2.16
13.85 -8.11 2.16
13.92 -7.78 2.15
13.99 -7.45 2.14
14.10 -7.15 2.14
14.36 -6.92 2.17
14.62 -6.69 2.19
14.89 -6.46 2.22
15.01 -6.15 2.23
15.25 -5.89 2.25
15.30 -5.56 2.25
15.35 -5.23 2.24
15.40 -4.91 2.24
15.45 -4.58 2.24
15.39 -4.23 2.22
15.20 -3.85 2.19
14.93 -3.46 2.15
14.60 -3.08 2.09
14.29 -2.71 2.05
13.98 -2.37 2.00
13.86 -2.06 1.98
13.73 -1.76 1.96
13.61 -1.47 1.94
13.49 -1.18 1.92
13.38 -0.90 1.91
13.24 -0.62 1.89
13.09 -0.35 1.87
12.95 -0.08 1.85
12.82 0.17 1.84
7.53 0.25 1.08
12.54 0.68 1.80
12.40 0.92 1.79
12.27 1.16 1.77
12.13 1.39 1.76
12.01 1.62 1.75
11.94 1.86 1.75
11.87 2.10 1.74
11.80 2.33 1.74
11.73 2.56 1.74
11.63 2.79 1.73
11.52 3.01 1.73
11.42 3.23 1.72
11.32 3.45 1.72
11.25 3.67 1.72
11.22 3.92 1.73
11.19 4.16 1.74
11.17 4.41 1.75
11.14 4.66 1.76
11.11 4.91 1.77
11.07 5.17 1.78
11.04 5.42 1.79
11.00 5.68 1.80
10.92 5.93 1.81
10.85 6.17 1.81
10.78 6.42 1.82
10.71 6.67 1.83
10.63 6.93 1.84
10.55 7.18 1.85
10.47 7.44 1.86
10.42 7.73 1.88
10.44 8.07 1.91
10.45 8.42 1.94
10.46 8.78 1.97
10.47 9.16 2.01
10.44 9.51 2.03
10.38 9.85 2.06
10.36 10.23 2.09
10.33 10.62 2.13
10.31 11.03 2.16
10.28 11.45 2.20
6.85 7.95 1.50
10.12 12.23 2.26
9.99 12.59 2.29
9.83 12.90 2.30
9.66 13.22 2.32
9.48 13.54 2.34
9.35 13.94 2.37
9.23 14.39 2.41
9.12 14.86 2.45
8.99 15.34 2.50
8.86 15.84 2.54
8.72 16.36 2.59
8.58 16.90 2.64
8.44 17.49 2.70
8.28 18.08 2.76
8.11 18.69 2.82
7.93 19.32 2.88
6.54 16.90 2.49
6.25 17.17 2.51
6.70 19.62 2.84
5.93 18.58 2.66
5.00 16.85 2.39
4.68 17.00 2.39
4.35 17.14 2.39
4.02 17.28 2.39
3.68 17.41 2.39
3.34 17.54 2.39
3.00 17.66 2.39
2.65 17.78 2.39
2.30 17.89 2.39
1.95 17.99 2.39
1.59 18.09 2.39
1.23 18.19 2.39
0.90 19.06 2.49
0.52 19.15 2.49
0.14 19.23 2.49
-0.25 19.30 2.49
-0.64 19.36 2.49
-1.03 19.42 2.49
-1.43 19.47 2.49
-1.83 19.52 2.49
-2.23 19.55 2.49
-2.63 19.58 2.49
-3.03 19.61 2.49
-3.44 19.62 2.49
-3.85 19.63 2.49
-4.26 19.63 2.49
-4.67 19.62 2.49
-5.09 19.61 2.49
-5.51 19.59 2.49
-5.92 19.56 2.49
-6.34 19.52 2.49
-6.76 19.47 2.49
-6.93 18.74 2.41
-7.29 18.56 2.39
-7.70 18.49 2.39
-8.10 18.41 2.39
-8.51 18.33 2.39
-8.91 18.23 2.39
-9.32 18.13 2.39
-9.72 18.02 2.39
-10.13 17.91 2.39
-10.54 17.78 2.39
-10.81 17.43 2.36
-10.81 16.68 2.28
-10.79 15.94 2.20
-10.80 15.28 2.13
-10.80 14.65 2.06
-10.80 14.05 2.00
-10.80 13.48 1.94
-10.80 12.94 1.88
-10.85 12.49 1.84
-10.86 12.01 1.79
-10.87 11.54 1.74
-10.87 11.09 1.70
-11.05 10.83 1.69
-11.25 10.59 1.68
-11.45 10.35 1.67
-11.49 9.98 1.64
-11.60 9.67 1.62
-11.93 9.55 1.63
-12.19 9.36 1.63
-12.30 9.06 1.61
-12.40 8.76 1.60
-12.45 8.43 1.58
-12.44 8.06 1.55
-12.43 7.71 1.52
-12.42 7.36 1.49
-12.41 7.02 1.47
-12.41 6.69 1.45
-12.48 6.41 1.43
-12.54 6.13 1.42
-12.53 5.82 1.40
-12.52 5.51 1.38
-12.51 5.21 1.36
-12.50 4.91 1.35
-12.51 4.63 1.33
-12.51 4.35 1.32
-12.51 4.07 1.30
-10.92 3.31 1.13
-10.49 2.95 1.07
-10.72 2.79 1.09
-10.95 2.61 1.10
-12.41 2.70 1.24
-12.42 2.44 1.23
-12.43 2.19 1.22
-12.43 1.93 1.21
-12.42 1.68 1.21
-12.41 1.42 1.20
-12.40 1.17 1.19
-12.40 0.92 1.19
-12.36 0.67 1.18
-12.32 0.42 1.17
-12.28 0.17 1.16
-12.28 -0.07 1.16
-12.29 -0.32 1.16
-12.30 -0.57 1.16
-12.31 -0.81 1.16
-12.32 -1.06 1.16
-12.31 -1.31 1.16
-12.29 -1.56 1.16
-12.28 -1.81 1.16
-12.27 -2.06 1.16
-12.26 -2.31 1.16
-12.26 -2.56 1.16
-12.25 -2.82 1.17
-12.25 -3.08 1.17
-12.19 -3.33 1.17
-12.13 -3.57 1.17
-12.07 -3.82 1.17
-12.04 -4.07 1.17
-12.02 -4.34 1.18
-12.01 -4.61 1.19
-11.99 -4.88 1.20
-11.97 -5.15 1.20
-11.96 -5.43 1.21
-11.95 -5.72 1.22
-11.94 -6.01 1.23
-11.91 -6.30 1.24
-11.87 -6.59 1.26
-11.84 -6.88 1.27
-11.80 -7.18 1.28
-11.79 -7.50 1.29
-11.82 -7.86 1.32
-11.81 -8.19 1.33
-11.76 -8.52 1.35
-11.72 -8.85 1.37
-11.67 -9.18 1.38
-12.18 -9.99 1.47
-12.18 -10.40 1.50
-10.14 -9.02 1.27
-9.83 -9.10 1.26
-9.52 -9.17 1.24
-11.95 -11.99 1.59
-11.86 -12.38 1.62
-11.76 -12.78 1.64
-11.66 -13.19 1.67
-11.47 -13.51 1.68
-11.28 -13.83 1.70
-11.12 -14.21 1.72
-11.07 -14.75 1.76
-11.01 -15.30 1.81
-10.94 -15.86 1.85
-10.82 -16.38 1.90
-10.73 -16.97 1.94
-10.63 -17.58 2.00
-10.52 -18.21 2.05
-10.32 -18.73 2.09
-10.09 -19.21 2.13
-9.85 -19.70 2.17
-9.62 -20.25 2.21
-9.44 -20.94 2.28
-9.25 -21.66 2.34
-9.07 -22.48 2.42
-9.05 -23.78 2.55
-8.01 -22.39 2.39
-7.53 -22.46 2.39
-7.05 -22.52 2.39
-6.57 -22.57 2.39
-6.09 -22.60 2.39
-5.62 -22.63 2.39
-5.14 -22.64 2.39
-4.67 -22.65 2.39
-4.37 -23.57 2.49
-3.89 -23.60 2.49
-3.40 -23.57 2.49
-2.91 -23.53 2.49
-2.43 -23.49 2.49
-1.95 -23.43 2.49
-1.47 -23.36 2.49
-1.00 -23.28 2.49
-0.53 -23.19 2.49
-0.06 -19.06 2.49
0.32 -18.99 2.49
0.69 -18.91 2.49
1.07 -18.82 2.49
1.44 -18.72 2.49
1.81 -18.62 2.49
2.17 -18.51 2.49
2.53 -18.39 2.49
2.89 -18.27 2.49
3.24 -18.14 2.49
3.44 -17.25 2.39
3.78 -17.12 2.39
4.10 -16.97 2.39
4.42 -16.82 2.39
4.74 -16.66 2.39
5.06 -16.50 2.39
5.37 -16.33 2.39
5.67 -16.16 2.39
5.97 -15.98 2.39
6.27 -15.80 2.39
6.56 -15.61 2.39
6.84 -15.42 2.39
7.12 -15.22 2.39
8.03 -16.30 2.59
8.44 -16.28 2.63
8.84 -16.26 2.66
9.32 -16.34 2.72
9.83 -16.46 2.78
7.85 -12.58 2.16
10.28 -15.74 2.75
10.46 -15.34 2.72
10.55 -14.82 2.68
10.65 -14.34 2.64
10.74 -13.88 2.60
2.99 -3.71 0.71
11.14 -13.26 2.58
11.34 -12.96 2.58
11.52 -12.64 2.57
11.77 -12.40 2.58
12.01 -12.16 2.58
12.25 -11.91 2.59
12.48 -11.66 2.60
12.55 -11.26 2.57
12.56 -10.82 2.54
12.59 -10.42 2.51
12.65 -10.05 2.49
12.73 -9.69 2.47
12.81 -9.36 2.46
12.90 -9.03 2.45
12.98 -8.70 2.44
12.96 -8.32 2.41
12.99 -7.97 2.39
13.16 -7.72 2.40
13.31 -7.45 2.41
13.39 -7.14 2.40
13.45 -6.83 2.39
13.62 -6.57 2.40
13.78 -6.31 2.42
13.82 -6.00 2.41
13.85 -5.68 2.40
13.89 -5.37 2.39
13.98 -5.09 2.39
14.24 -4.86 2.43
14.50 -4.63 2.46
14.76 -4.38 2.50
14.83 -4.08 2.50
14.54 -3.69 2.44
14.23 -3.31 2.38
13.93 -2.94 2.33
13.65 -2.60 2.27
13.43 -2.28 2.23
13.32 -1.98 2.21
13.21 -1.70 2.19
13.10 -1.41 2.17
12.99 -1.14 2.15
12.86 -0.87 2.13
12.70 -0.60 2.11
12.57 -0.34 2.09
12.54 -0.09 2.08
12.41 0.17 2.06
7.53 0.25 1.25
12.14 0.65 2.03
12.01 0.89 2.01
11.89 1.12 1.99
11.76 1.35 1.98
11.64 1.57 1.97
11.57 1.80 1.96
11.51 2.03 1.96
11.44 2.26 1.96
11.37 2.48 1.95
11.31 2.71 1.95
11.24 2.93 1.95
11.15 3.15 1.95
11.05 3.36 1.94
10.95 3.58 1.94
10.93 3.81 1.95
10.90 4.05 1.96
10.87 4.29 1.97
10.84 4.54 1.98
10.81 4.78 1.99
10.78 5.03 2.00
10.74 5.28 2.02
10.71 5.53 2.03
10.65 5.77 2.04
10.57 6.01 2.05
10.50 6.26 2.06
10.43 6.50 2.07
10.34 6.74 2.08
10.25 6.98 2.08
10.15 7.22 2.09
10.06 7.46 2.10
9.98 7.72 2.12
9.94 8.01 2.14
9.96 8.37 2.18
9.99 8.74 2.22
10.01 9.12 2.26
10.04 9.52 2.31
9.98 9.86 2.34
9.94 10.22 2.37
9.90 10.60 2.41
9.85 10.98 2.45
6.85 7.95 1.74
9.72 11.76 2.53
9.60 12.10 2.56
9.44 12.40 2.57
9.27 12.70 2.59
9.10 13.01 2.61
8.92 13.32 2.63
8.74 13.64 2.66
8.62 14.07 2.70
8.50 14.51 2.75
8.36 14.97 2.80
8.22 15.44 2.85
8.08 15.93 2.90
7.92 16.44 2.96
7.76 16.96 3.02
7.10 16.37 2.88
6.43 15.69 2.73
5.37 13.89 2.39
5.10 14.02 2.39
4.83 14.16 2.39
4.55 14.29 2.39
4.27 14.41 2.39
3.99 14.54 2.39
3.71 14.65 2.39
3.42 14.76 2.39
3.13 14.87 2.39
2.84 14.97 2.39
2.55 15.07 2.39
2.25 15.16 2.39
1.95 15.25 2.39
1.65 15.33 2.39
1.35 15.43 2.40
1.08 16.15 2.49
0.76 16.21 2.49
0.44 16.28 2.49
0.11 16.33 2.49
-0.22 16.39 2.49
-0.55 16.43 2.49
-0.88 16.47 2.49
-1.22 16.51 2.49
-1.56 16.53 2.49
-1.89 16.56 2.49
-2.23 16.57 2.49
-2.58 16.58 2.49
-2.92 16.58 2.49
-3.26 16.58 2.49
-3.61 16.57 2.49
-3.95 16.55 2.49
-4.30 16.53 2.49
-4.65 16.50 2.49
-5.00 16.46 2.49
-5.35 16.42 2.49
-5.70 16.37 2.49
-6.05 16.31 2.49
-6.40 16.25 2.49
-6.75 16.18 2.49
-6.80 15.43 2.39
-7.14 15.35 2.39
-7.47 15.26 2.39
-7.81 15.17 2.39
-8.14 15.07 2.39
-8.47 14.96 2.39
-8.81 14.84 2.39
-9.14 14.72 2.39
-9.47 14.59 2.39
-9.79 14.45 2.39
-10.12 14.31 2.39
-10.45 14.15 2.39
-10.57 13.74 2.35
-10.58 13.19 2.28
-10.59 12.67 2.22
-10.62 12.21 2.17
-10.63 11.74 2.11
-10.64 11.28 2.06
-10.65 10.85 2.01
-10.84 10.61 2.00
-11.04 10.38 1.99
-11.09 10.02 1.96
-11.13 9.66 1.92
-11.24 9.36 1.90
-11.55 9.24 1.91
-11.87 9.11 1.93
-12.15 8.94 1.94
-12.26 8.65 1.92
-12.31 8.32 1.90
-12.31 7.96 1.86
-12.30 7.61 1.83
-12.29 7.27 1.80
-12.28 6.94 1.78
-12.27 6.61 1.75
-12.34 6.33 1.73
-12.37 6.04 1.71
-12.36 5.73 1.69
-12.35 5.43 1.67
-12.34 5.13 1.65
-12.34 4.84 1.63
-12.33 4.56 1.61
-12.34 4.28 1.60
-12.33 4.00 1.58
-10.84 3.28 1.38
-10.49 2.95 1.32
-10.72 2.78 1.34
-10.95 2.61 1.36
-12.22 2.66 1.50
-12.24 2.40 1.50
-12.25 2.15 1.49
-12.24 1.90 1.48
-12.23 1.65 1.47
-12.23 1.40 1.46
-12.22 1.15 1.45
-12.21 0.90 1.45
-12.20 0.66 1.44
-12.16 0.41 1.43
-12.12 0.17 1.42
-12.12 -0.08 1.42
-12.13 -0.32 1.42
-12.14 -0.56 1.42
-12.15 -0.81 1.42
-12.16 -1.05 1.42
-12.17 -1.30 1.42
-12.15 -1.54 1.42
-12.13 -1.79 1.42
-12.12 -2.03 1.42
-12.12 -2.28 1.43
-12.11 -2.54 1.43
-12.11 -2.79 1.44
-12.10 -3.04 1.44
-12.08 -3.30 1.45
-12.02 -3.54 1.45
-11.96 -3.78 1.45
-11.92 -4.03 1.45
-11.90 -4.30 1.46
-11.89 -4.56 1.47
-11.87 -4.83 1.48
-11.85 -5.10 1.49
-11.84 -5.38 1.50
-11.83 -5.66 1.51
-11.82 -5.95 1.52
-11.78 -6.23 1.54
-11.75 -6.52 1.55
-11.71 -6.81 1.56
-11.68 -7.10 1.58
-11.64 -7.40 1.59
-11.65 -7.74 1.61
-11.65 -8.08 1.64
-11.61 -8.40 1.66
-11.56 -8.72 1.68
-11.51 -9.06 1.70
-11.47 -9.40 1.72
-11.82 -10.09 1.81
-10.13 -9.01 1.58
-9.82 -9.09 1.56
-9.51 -9.16 1.54
-11.54 -11.57 1.91
-11.48 -11.98 1.94
-11.39 -12.37 1.97
-11.28 -12.76 2.00
-11.17 -13.15 2.03
-11.06 -13.56 2.06
-10.91 -13.94 2.09
-10.81 -14.39 2.13
-10.75 -14.92 2.18
-10.68 -15.48 2.24
-10.62 -16.06 2.30
-10.43 -16.48 2.33
-10.23 -16.91 2.37
-10.03 -17.35 2.41
-9.82 -17.81 2.45
-9.63 -18.31 2.50
-9.45 -18.88 2.56
-8.45 -17.77 2.39
-8.07 -17.88 2.39
-7.69 -17.99 2.39
-7.31 -18.09 2.39
-6.92 -18.17 2.39
-6.54 -18.25 2.39
-6.15 -18.32 2.39
-5.76 -18.38 2.39
-5.38 -18.43 2.39
-4.99 -18.48 2.39
-4.66 -18.75 2.42
-4.40 -19.33 2.49
-4.00 -19.35 2.49
-3.60 -19.36 2.49
-3.20 -19.36 2.49
-2.80 -19.35 2.49
-2.40 -19.34 2.49
-2.01 -19.31 2.49
-1.61 -19.28 2.49
-1.22 -19.24 2.49
-0.83 -19.19 2.49
-0.45 -19.13 2.49
-0.06 -16.22 2.49
0.26 -16.16 2.49
0.58 -16.10 2.49
0.90 -16.04 2.49
1.22 -15.96 2.49
1.53 -15.88 2.49
1.85 -15.80 2.49
2.15 -15.71 2.49
2.46 -15.61 2.49
2.76 -15.50 2.49
3.06 -15.39 2.49
3.22 -14.65 2.39
3.50 -14.53 2.39
3.78 -14.41 2.39
4.06 -14.28 2.39
4.33 -14.15 2.39
4.60 -14.02 2.39
4.86 -13.88 2.39
5.12 -13.73 2.39
5.38 -13.58 2.39
5.63 -13.43 2.39
5.88 -13.27 2.39
6.12 -13.10 2.39
6.36 -12.94 2.39
6.60 -12.76 2.39
6.83 -12.59 2.39
7.69 -13.51 2.60
8.30 -13.92 2.72
7.86 -12.60 2.50
9.66 -14.83 2.99
9.78 -14.37 2.95
9.89 -13.92 2.91
10.00 -13.49 2.87
10.14 -13.12 2.84
2.99 -3.71 0.82
10.47 -12.48 2.81
10.58 -12.10 2.78
10.74 -11.80 2.77
11.02 -11.63 2.78
11.30 -11.45 2.80
11.56 -11.25 2.82
11.78 -11.02 2.83
11.84 -10.64 2.80
11.91 -10.27 2.77
11.98 -9.92 2.75
12.04 -9.57 2.73
12.11 -9.23 2.71
12.20 -8.92 2.69
12.28 -8.61 2.68
12.19 -8.18 2.63
12.08 -7.76 2.58
11.97 -7.35 2.53
12.06 -7.08 2.52
12.22 -6.84 2.53
12.37 -6.61 2.54
12.43 -6.32 2.54
12.43 -6.01 2.52
12.45 -5.71 2.50
12.53 -5.45 2.50
12.61 -5.18 2.50
12.69 -4.92 2.50
12.76 -4.65 2.50
12.82 -4.38 2.50
12.88 -4.11 2.50
12.91 -3.84 2.50
12.94 -3.57 2.49
12.97 -3.30 2.49
12.99 -3.02 2.49
13.01 -2.75 2.48
13.02 -2.48 2.48
12.88 -2.19 2.45
12.72 -1.90 2.41
12.57 -1.62 2.38
12.41 -1.34 2.35
12.26 -1.08 2.32
12.11 -0.82 2.29
11.96 -0.57 2.26
11.89 -0.32 2.25
11.87 -0.08 2.25
11.85 0.16 2.25
7.52 0.25 1.43
11.77 0.63 2.24
11.65 0.86 2.22
11.53 1.08 2.20
11.41 1.31 2.19
11.29 1.52 2.17
11.22 1.74 2.17
11.16 1.97 2.16
11.09 2.19 2.16
11.03 2.41 2.16
10.97 2.62 2.16
10.90 2.84 2.16
10.83 3.06 2.16
10.77 3.28 2.16
10.69 3.49 2.15
10.64 3.71 2.16
10.62 3.95 2.17
10.59 4.18 2.18
10.56 4.42 2.19
10.52 4.65 2.21
10.48 4.89 2.22
10.43 5.12 2.23
10.38 5.36 2.24
10.33 5.61 2.25
10.27 5.84 2.26
10.19 6.07 2.27
10.10 6.30 2.28
10.01 6.53 2.29
9.92 6.76 2.30
9.83 6.99 2.31
9.73 7.22 2.32
9.64 7.46 2.33
9.56 7.71 2.34
9.51 7.99 2.37
9.44 8.26 2.39
9.41 8.58 2.42
9.42 8.94 2.47
9.43 9.32 2.52
9.41 9.68 2.56
9.32 9.98 2.59
9.22 10.29 2.62
6.84 7.95 1.98
9.07 10.97 2.69
9.00 11.35 2.73
8.91 11.71 2.77
8.78 12.04 2.80
8.65 12.38 2.84
8.52 12.72 2.87
8.37 13.07 2.91
8.21 13.40 2.94
8.05 13.76 2.97
7.91 14.17 3.02
7.30 13.71 2.89
6.72 13.27 2.76
6.19 12.86 2.64
5.38 11.76 2.39
5.15 11.89 2.39
4.92 12.02 2.39
4.68 12.14 2.39
4.45 12.25 2.39
4.21 12.37 2.39
3.97 12.48 2.39
3.72 12.58 2.39
3.48 12.68 2.39
3.23 12.78 2.39
2.98 12.87 2.39
2.73 12.96 2.39
2.47 13.05 2.39
2.21 13.13 2.39
1.95 13.20 2.39
1.69 13.27 2.39
1.45 13.56 2.43
1.21 13.98 2.49
0.93 14.04 2.49
0.65 14.09 2.49
0.37 14.14 2.49
0.09 14.19 2.49
-0.20 14.23 2.49
-0.49 14.26 2.49
-0.78 14.29 2.49
-1.07 14.31 2.49
-1.36 14.33 2.49
-1.65 14.34 2.49
-1.94 14.35 2.49
-2.24 14.35 2.49
-2.53 14.35 2.49
-2.83 14.34 2.49
-3.13 14.32 2.49
-3.42 14.30 2.49
-3.72 14.27 2.49
-4.02 14.24 2.49
-4.32 14.20 2.49
-4.62 14.16 2.49
-4.92 14.11 2.49
-5.22 14.05 2.49
-5.52 13.99 2.49
-5.81 13.92 2.49
-6.11 13.85 2.49
-6.41 13.76 2.49
-6.61 13.48 2.46
-6.71 13.02 2.39
-7.00 12.93 2.39
-7.28 12.83 2.39
-7.56 12.72 2.39
-7.84 12.61 2.39
-8.12 12.49 2.39
-8.39 12.37 2.39
-8.67 12.24 2.39
-8.94 12.10 2.39
-9.21 11.96 2.39
-9.48 11.81 2.39
-9.75 11.66 2.39
-10.01 11.50 2.39
-10.27 11.33 2.39
-10.42 11.04 2.37
-10.45 10.63 2.32
-10.64 10.41 2.31
-10.70 10.05 2.27
-10.75 9.70 2.23
-10.80 9.36 2.19
-10.90 9.07 2.17
-11.20 8.94 2.18
-11.50 8.82 2.20
-11.82 8.69 2.22
-12.12 8.54 2.24
-12.18 8.22 2.21
-12.17 7.87 2.18
-12.16 7.52 2.14
-12.16 7.19 2.11
-12.15 6.86 2.08
-12.15 6.54 2.05
-12.20 6.25 2.03
-12.20 5.95 2.00
-12.19 5.64 1.98
-12.18 5.35 1.95
-12.18 5.06 1.93
-12.17 4.77 1.91
-12.17 4.49 1.89
-12.18 4.22 1.87
-12.16 3.94 1.85
-10.75 3.25 1.62
-10.49 2.94 1.57
-10.72 2.78 1.59
-10.95 2.61 1.61
-12.06 2.62 1.77
-12.06 2.36 1.75
-12.07 2.12 1.75
-12.06 1.87 1.74
-12.05 1.62 1.73
-12.05 1.37 1.72
-12.04 1.13 1.71
-12.03 0.89 1.70
-12.02 0.64 1.70
-12.00 0.40 1.69
-11.96 0.16 1.68
-11.97 -0.08 1.68
-11.98 -0.32 1.68
-11.99 -0.56 1.68
-12.00 -0.80 1.68
-12.00 -1.04 1.68
-12.01 -1.28 1.68
-12.01 -1.53 1.68
-11.99 -1.77 1.68
-11.98 -2.01 1.69
-11.97 -2.26 1.69
-11.97 -2.51 1.69
-11.96 -2.76 1.70
-11.96 -3.01 1.71
-11.95 -3.26 1.71
-11.91 -3.51 1.72
-11.85 -3.75 1.72
-11.81 -4.00 1.72
-11.79 -4.26 1.73
-11.77 -4.52 1.74
-11.76 -4.78 1.75
-11.74 -5.05 1.76
-11.72 -5.32 1.78
-11.70 -5.60 1.79
-11.69 -5.89 1.81
-11.66 -6.17 1.82
-11.63 -6.45 1.84
-11.59 -6.73 1.85
-11.55 -7.03 1.87
-11.51 -7.32 1.89
-11.48 -7.62 1.91
-11.50 -7.97 1.94
-11.45 -8.29 1.96
-11.41 -8.61 1.98
-11.36 -8.93 2.01
-11.31 -9.26 2.03
-11.26 -9.60 2.06
-10.13 -9.00 1.89
-9.81 -9.08 1.86
-9.51 -9.15 1.84
-11.19 -11.21 2.21
-11.11 -11.58 2.25
-11.03 -11.97 2.28
-10.93 -12.35 2.32
-10.82 -12.73 2.35
-10.64 -13.04 2.37
-10.46 -13.35 2.39
-10.27 -13.67 2.42
-10.08 -13.99 2.44
-9.97 -14.43 2.49
-9.85 -14.89 2.54
-9.71 -15.33 2.59
-8.67 -14.33 2.39
-8.37 -14.46 2.39
-8.06 -14.60 2.39
-7.75 -14.72 2.39
-7.43 -14.84 2.39
-7.12 -14.95 2.39
-6.80 -15.05 2.39
-6.48 -15.15 2.39
-6.16 -15.23 2.39
-5.84 -15.31 2.39
-5.52 -15.39 2.39
-5.20 -15.45 2.39
-4.87 -15.51 2.39
-4.74 -16.24 2.49
-4.41 -16.28 2.49
-4.07 -16.32 2.49
-3.73 -16.35 2.49
-3.39 -16.37 2.49
-3.05 -16.39 2.49
-2.72 -16.40 2.49
-2.38 -16.40 2.49
-2.05 -16.40 2.49
-1.71 -16.38 2.49
-1.38 -16.36 2.49
-1.05 -16.34 2.49
-0.72 -16.30 2.49
-0.39 -16.26 2.49
-0.06 -14.10 2.49
0.22 -14.06 2.49
0.50 -14.01 2.49
0.78 -13.96 2.49
1.05 -13.90 2.49
1.33 -13.84 2.49
1.60 -13.77 2.49
1.87 -13.69 2.49
2.14 -13.61 2.49
2.40 -13.53 2.49
2.67 -13.44 2.49
2.93 -13.34 2.49
3.05 -12.69 2.39
3.30 -12.59 2.39
3.54 -12.49 2.39
3.78 -12.38 2.39
4.01 -12.27 2.39
4.25 -12.15 2.39
4.48 -12.02 2.39
4.70 -11.90 2.39
4.93 -11.77 2.39
5.15 -11.63 2.39
5.36 -11.49 2.39
5.58 -11.35 2.39
5.79 -11.20 2.39
5.99 -11.05 2.39
6.20 -10.90 2.39
6.40 -10.74 2.39
6.59 -10.58 2.39
6.78 -10.42 2.39
7.69 -11.31 2.64
8.25 -11.62 2.76
8.84 -11.94 2.88
9.48 -12.28 3.02
2.99 -3.71 0.93
9.74 -11.62 2.96
9.84 -11.28 2.93
10.06 -11.06 2.94
10.32 -10.90 2.96
10.57 -10.73 2.98
10.75 -10.48 2.97
10.90 -10.21 2.97
11.09 -9.97 2.97
11.27 -9.73 2.97
11.41 -9.46 2.97
11.48 -9.13 2.94
11.54 -8.81 2.92
11.57 -8.47 2.89
11.48 -8.05 2.83
11.39 -7.65 2.78
11.30 -7.27 2.73
11.21 -6.89 2.68
11.13 -6.54 2.63
11.14 -6.25 2.61
11.14 -5.96 2.59
11.15 -5.67 2.57
11.16 -5.40 2.55
11.17 -5.13 2.53
11.17 -4.86 2.51
11.19 -4.60 2.50
11.26 -4.37 2.50
11.32 -4.13 2.50
11.38 -3.90 2.50
11.44 -3.66 2.50
11.49 -3.42 2.50
11.53 -3.18 2.50
11.57 -2.94 2.50
11.59 -2.70 2.50
11.62 -2.46 2.49
11.64 -2.22 2.49
11.67 -1.99 2.49
11.69 -1.75 2.49
11.70 -1.51 2.49
11.70 -1.27 2.49
11.57 -1.02 2.46
11.44 -0.78 2.43
11.31 -0.54 2.40
11.27 -0.31 2.40
11.25 -0.08 2.39
11.23 0.14 2.39
7.52 0.25 1.60
11.19 0.60 2.39
11.17 0.82 2.39
11.15 1.05 2.39
11.07 1.26 2.38
10.96 1.48 2.37
10.89 1.69 2.36
10.83 1.91 2.36
10.77 2.12 2.35
10.70 2.33 2.35
10.64 2.54 2.35
10.55 2.75 2.34
10.47 2.96 2.34
10.38 3.16 2.33
10.30 3.36 2.33
10.22 3.57 2.33
10.18 3.78 2.34
10.14 4.00 2.35
10.10 4.22 2.35
10.05 4.45 2.37
10.01 4.67 2.38
9.96 4.89 2.39
9.91 5.12 2.40
9.86 5.35 2.41
9.81 5.58 2.43
9.78 5.83 2.45
9.76 6.08 2.47
9.70 6.32 2.49
9.61 6.55 2.50
9.52 6.77 2.51
9.43 6.99 2.52
9.33 7.22 2.53
9.24 7.45 2.54
9.16 7.70 2.56
9.10 7.97 2.59
9.03 8.24 2.61
8.97 8.51 2.64
8.90 8.79 2.67
8.86 9.12 2.71
8.86 9.49 2.77
8.78 9.79 2.80
6.84 7.95 2.23
8.58 10.39 2.86
8.47 10.69 2.89
8.36 11.00 2.93
8.25 11.32 2.96
8.14 11.65 3.00
7.86 11.75 2.98
7.34 11.47 2.87
6.86 11.21 2.76
6.40 10.94 2.66
5.56 9.96 2.39
5.36 10.08 2.39
5.17 10.21 2.39
4.97 10.33 2.39
4.77 10.44 2.39
4.56 10.55 2.39
4.36 10.66 2.39
4.15 10.77 2.39
3.94 10.87 2.39
3.73 10.97 2.39
3.51 11.06 2.39
3.30 11.15 2.39
3.08 11.24 2.39
2.86 11.33 2.39
2.63 11.40 2.39
2.41 11.48 2.39
2.18 11.55 2.39
1.95 11.62 2.39
1.72 11.68 2.39
1.54 12.11 2.47
1.31 12.31 2.49
1.07 12.36 2.49
0.82 12.41 2.49
0.57 12.45 2.49
0.32 12.49 2.49
0.07 12.53 2.49
-0.18 12.56 2.49
-0.44 12.58 2.49
-0.69 12.60 2.49
-0.95 12.62 2.49
-1.20 12.63 2.49
-1.46 12.64 2.49
-1.72 12.64 2.49
-1.98 12.64 2.49
-2.24 12.63 2.49
-2.50 12.62 2.49
-2.76 12.60 2.49
-3.02 12.57 2.49
-3.28 12.55 2.49
-3.54 12.51 2.49
-3.80 12.47 2.49
-4.06 12.43 2.49
-4.32 12.38 2.49
-4.58 12.33 2.49
-4.85 12.27 2.49
-5.11 12.20 2.49
-5.36 12.13 2.49
-5.62 12.06 2.49
-5.88 11.98 2.49
-6.14 11.89 2.49
-6.39 11.80 2.49
-6.48 11.41 2.43
-6.62 11.12 2.39
-6.86 11.02 2.39
-7.10 10.91 2.39
-7.34 10.80 2.39
-7.57 10.68 2.39
-7.81 10.56 2.39
-8.04 10.43 2.39
-8.27 10.29 2.39
-8.50 10.16 2.39
-8.73 10.01 2.39
-8.95 9.86 2.39
-9.18 9.71 2.39
-9.40 9.55 2.39
-9.61 9.39 2.39
-9.83 9.22 2.39
-10.04 9.05 2.39
-10.25 8.87 2.39
-10.57 8.79 2.42
-10.86 8.67 2.44
-11.15 8.54 2.46
-11.45 8.41 2.48
-11.72 8.25 2.49
-11.82 7.97 2.47
-11.92 7.69 2.46
-12.01 7.42 2.44
-12.03 7.10 2.41
-12.02 6.78 2.37
-12.02 6.46 2.34
-12.03 6.16 2.31
-12.03 5.86 2.28
-12.03 5.56 2.25
-12.02 5.27 2.23
-12.02 4.98 2.20
-12.01 4.70 2.18
-12.01 4.43 2.16
-12.01 4.16 2.14
-11.99 3.88 2.12
-10.67 3.22 1.87
-10.49 2.94 1.82
-10.72 2.77 1.85
-10.95 2.60 1.87
-11.90 2.58 2.02
-11.88 2.32 2.01
-11.89 2.08 2.00
-11.88 1.83 1.99
-11.88 1.59 1.98
-11.87 1.35 1.97
-11.86 1.11 1.96
-11.86 0.87 1.95
-11.85 0.63 1.95
-11.84 0.39 1.94
-11.80 0.16 1.93
-11.81 -0.08 1.93
-11.82 -0.32 1.93
-11.83 -0.55 1.93
-11.84 -0.79 1.93
-11.85 -1.03 1.93
-11.86 -1.27 1.94
-11.87 -1.51 1.94
-11.85 -1.75 1.94
-11.84 -1.99 1.94
-11.83 -2.23 1.95
-11.83 -2.48 1.95
-11.82 -2.72 1.96
-11.81 -2.97 1.97
-11.80 -3.22 1.97
-11.80 -3.48 1.98
-11.74 -3.72 1.99
-11.69 -3.96 1.99
-11.67 -4.22 2.00
-11.66 -4.47 2.01
-11.64 -4.74 2.02
-11.62 -5.00 2.04
-11.60 -5.27 2.05
-11.58 -5.54 2.07
-11.57 -5.82 2.09
-11.54 -6.10 2.10
-11.51 -6.38 2.12
-11.47 -6.66 2.14
-11.43 -6.95 2.16
-11.39 -7.24 2.18
-11.35 -7.54 2.20
-11.33 -7.86 2.23
-11.30 -8.18 2.25
-11.26 -8.49 2.28
-11.21 -8.81 2.31
-11.16 -9.14 2.34
-11.10 -9.47 2.37
-10.12 -8.99 2.20
-9.81 -9.07 2.17
-9.50 -9.14 2.14
-10.80 -10.81 2.49
-10.66 -11.11 2.51
-10.51 -11.40 2.53
-10.36 -11.70 2.55
-10.20 -12.00 2.58
-10.04 -12.30 2.60
-8.99 -11.47 2.39
-8.74 -11.62 2.39
-8.49 -11.78 2.39
-8.24 -11.93 2.39
-7.99 -12.07 2.39
-7.73 -12.20 2.39
-7.47 -12.33 2.39
-7.21 -12.46 2.39
-6.95 -12.57 2.39
-6.68 -12.68 2.39
-6.41 -12.79 2.39
-6.14 -12.89 2.39
-5.87 -12.98 2.39
-5.60 -13.07 2.39
-5.32 -13.15 2.39
-5.05 -13.22 2.39
-4.96 -13.80 2.48
-4.69 -13.93 2.49
-4.40 -13.98 2.49
-4.11 -14.04 2.49
-3.82 -14.08 2.49
-3.53 -14.12 2.49
-3.23 -14.15 2.49
-2.94 -14.18 2.49
-2.65 -14.20 2.49
-2.36 -14.21 2.49
-2.07 -14.22 2.49
-1.78 -14.22 2.49
-1.49 -14.21 2.49
-1.20 -14.20 2.49
-0.92 -14.18 2.49
-0.63 -14.16 2.49
-0.35 -14.13 2.49
-0.06 -12.46 2.49
0.19 -12.42 2.49
0.43 -12.39 2.49
0.68 -12.34 2.49
0.92 -12.30 2.49
1.17 -12.24 2.49
1.41 -12.19 2.49
1.65 -12.13 2.49
1.89 -12.06 2.49
2.12 -11.99 2.49
2.36 -11.91 2.49
2.59 -11.83 2.49
2.82 -11.75 2.49
2.96 -11.33 2.42
3.15 -11.15 2.41
3.35 -10.99 2.39
3.56 -10.89 2.39
3.76 -10.79 2.39
3.97 -10.69 2.39
4.17 -10.58 2.39
4.37 -10.46 2.39
4.57 -10.35 2.39
4.76 -10.23 2.39
4.96 -10.10 2.39
5.14 -9.98 2.39
5.33 -9.84 2.39
5.51 -9.71 2.39
5.69 -9.57 2.39
5.87 -9.43 2.39
6.04 -9.29 2.39
6.21 -9.14 2.39
6.38 -9.00 2.39
6.54 -8.84 2.39
6.70 -8.69 2.39
2.98 -3.71 1.04
7.96 -9.51 2.72
8.45 -9.69 2.82
8.96 -9.87 2.93
9.42 -9.96 3.02
9.57 -9.72 3.02
9.72 -9.49 3.01
9.87 -9.25 3.00
10.04 -9.04 3.01
10.21 -8.82 3.01
10.37 -8.60 3.01
10.51 -8.37 3.01
10.64 -8.13 3.01
10.63 -7.79 2.97
10.54 -7.40 2.90
10.45 -7.03 2.85
10.36 -6.67 2.79
10.40 -6.40 2.77
10.44 -6.14 2.75
10.47 -5.88 2.74
10.48 -5.61 2.71
10.49 -5.35 2.69
10.50 -5.09 2.67
10.50 -4.83 2.65
10.51 -4.58 2.64
10.51 -4.33 2.62
10.51 -4.08 2.60
10.54 -3.85 2.59
10.57 -3.62 2.59
10.59 -3.39 2.58
10.61 -3.17 2.57
10.63 -2.94 2.57
10.65 -2.72 2.56
10.67 -2.49 2.56
10.68 -2.27 2.55
10.69 -2.05 2.55
10.70 -1.82 2.54
10.70 -1.60 2.54
10.71 -1.38 2.54
10.71 -1.17 2.53
10.71 -0.95 2.53
10.70 -0.73 2.53
10.70 -0.51 2.53
10.65 -0.30 2.52
10.64 -0.08 2.52
10.62 0.13 2.51
7.52 0.25 1.78
10.58 0.56 2.51
10.56 0.77 2.51
10.53 0.99 2.51
10.50 1.20 2.51
10.47 1.41 2.51
10.47 1.62 2.52
10.44 1.84 2.52
10.36 2.04 2.52
10.29 2.24 2.51
10.21 2.44 2.50
10.13 2.64 2.50
10.05 2.84 2.49
9.97 3.03 2.49
9.89 3.23 2.48
9.80 3.42 2.48
9.75 3.62 2.48
9.70 3.83 2.49
9.66 4.04 2.50
9.62 4.25 2.51
9.57 4.47 2.52
9.52 4.68 2.53
9.47 4.90 2.55
9.42 5.11 2.56
9.37 5.33 2.57
9.32 5.55 2.59
9.29 5.79 2.61
9.26 6.04 2.64
9.22 6.28 2.66
9.18 6.53 2.69
9.14 6.78 2.71
9.04 7.00 2.72
8.95 7.22 2.74
8.85 7.44 2.75
8.78 7.69 2.77
8.71 7.94 2.80
8.64 8.21 2.83
8.57 8.47 2.86
8.50 8.75 2.89
8.42 9.03 2.92
8.34 9.31 2.95
6.84 7.95 2.48
8.14 9.86 3.02
7.69 9.71 2.92
7.25 9.54 2.82
6.84 9.39 2.73
6.44 9.23 2.64
5.66 8.47 2.39
5.50 8.60 2.39
5.33 8.72 2.39
5.16 8.84 2.39
4.99 8.95 2.39
4.82 9.06 2.39
4.64 9.17 2.39
4.46 9.28 2.39
4.28 9.38 2.39
4.09 9.48 2.39
3.91 9.58 2.39
3.72 9.67 2.39
3.53 9.76 2.39
3.34 9.85 2.39
3.15 9.93 2.39
2.95 10.01 2.39
2.75 10.08 2.39
2.56 10.16 2.39
2.36 10.23 2.39
2.15 10.29 2.39
1.95 10.35 2.39
1.74 10.41 2.39
1.60 10.92 2.49
1.39 10.97 2.49
1.17 11.02 2.49
0.95 11.06 2.49
0.73 11.11 2.49
0.50 11.14 2.49
0.28 11.17 2.49
0.06 11.20 2.49
-0.17 11.23 2.49
-0.40 11.25 2.49
-0.62 11.26 2.49
-0.85 11.28 2.49
-1.08 11.28 2.49
-1.31 11.29 2.49
-1.54 11.28 2.49
-1.77 11.28 2.49
-2.00 11.27 2.49
-2.23 11.25 2.49
-2.47 11.23 2.49
-2.70 11.21 2.49
-2.93 11.18 2.49
-3.16 11.15 2.49
-3.39 11.11 2.49
-3.63 11.07 2.49
-3.86 11.02 2.49
-4.09 10.97 2.49
-4.32 10.91 2.49
-4.55 10.85 2.49
-4.78 10.79 2.49
-5.01 10.72 2.49
-5.23 10.64 2.49
-5.46 10.56 2.49
-5.69 10.48 2.49
-5.91 10.39 2.49
-6.13 10.29 2.49
-6.35 10.20 2.49
-6.39 9.81 2.42
-6.51 9.57 2.39
-6.72 9.46 2.39
-6.93 9.35 2.39
-7.13 9.24 2.39
-7.33 9.11 2.39
-7.54 8.99 2.39
-7.73 8.86 2.39
-7.93 8.72 2.39
-8.12 8.59 2.39
-8.31 8.44 2.39
-8.50 8.30 2.39
-8.69 8.14 2.39
-8.87 7.99 2.39
-9.05 7.83 2.39
-9.23 7.66 2.39
-9.41 7.50 2.39
-9.58 7.32 2.39
-9.75 7.15 2.39
-9.91 6.97 2.39
-10.07 6.78 2.39
-11.09 7.15 2.59
-11.18 6.90 2.58
-11.27 6.65 2.56
-11.35 6.39 2.54
-11.41 6.13 2.52
-11.45 5.86 2.50
-11.52 5.61 2.48
-11.60 5.36 2.47
-11.67 5.11 2.46
-11.73 4.86 2.45
-11.80 4.61 2.43
-11.85 4.36 2.42
-11.84 4.09 2.40
-11.83 3.82 2.38
-10.58 3.19 2.11
-10.49 2.94 2.08
-10.72 2.77 2.10
-10.95 2.60 2.14
-11.74 2.54 2.27
-11.71 2.29 2.26
-11.71 2.04 2.24
-11.71 1.80 2.23
-11.70 1.56 2.22
-11.70 1.33 2.21
-11.69 1.09 2.20
-11.68 0.85 2.20
-11.68 0.62 2.19
-11.67 0.39 2.18
-11.65 0.15 2.18
-11.66 -0.08 2.17
-11.67 -0.31 2.17
-11.68 -0.55 2.18
-11.69 -0.78 2.18
-11.70 -1.02 2.18
-11.71 -1.26 2.18
-11.71 -1.49 2.19
-11.71 -1.73 2.19
-11.70 -1.97 2.20
-11.69 -2.21 2.20
-11.69 -2.45 2.21
-11.68 -2.69 2.21
-11.67 -2.94 2.22
-11.66 -3.19 2.23
-11.66 -3.44 2.24
-11.63 -3.68 2.25
-11.58 -3.92 2.25
-11.56 -4.17 2.27
-11.54 -4.43 2.28
-11.53 -4.69 2.29
-11.51 -4.95 2.31
-11.49 -5.22 2.32
-11.47 -5.49 2.34
-11.45 -5.76 2.36
-11.42 -6.04 2.38
-11.39 -6.31 2.40
-11.35 -6.59 2.42
-11.31 -6.88 2.44
-11.27 -7.16 2.46
-11.23 -7.46 2.49
-11.19 -7.76 2.51
-11.16 -8.07 2.54
-11.11 -8.38 2.57
-11.05 -8.68 2.60
-10.91 -8.93 2.61
-10.76 -9.18 2.62
-10.11 -8.98 2.51
-9.80 -9.06 2.48
-9.27 -8.92 2.39
-9.09 -9.09 2.39
-8.89 -9.26 2.39
-8.70 -9.43 2.39
-8.50 -9.59 2.39
-8.29 -9.75 2.39
-8.09 -9.90 2.39
-7.88 -10.04 2.39
-7.66 -10.18 2.39
-7.45 -10.32 2.39
-7.23 -10.45 2.39
-7.01 -10.58 2.39
-6.78 -10.70 2.39
-6.56 -10.81 2.39
-6.33 -10.93 2.39
-6.10 -11.03 2.39
-5.87 -11.13 2.39
-5.63 -11.23 2.39
-5.40 -11.32 2.39
-5.16 -11.40 2.39
-5.08 -11.83 2.47
-4.89 -12.05 2.49
-4.63 -12.12 2.49
-4.38 -12.19 2.49
-4.13 -12.25 2.49
-3.88 -12.30 2.49
-3.62 -12.35 2.49
-3.37 -12.39 2.49
-3.11 -12.43 2.49
-2.86 -12.46 2.49
-2.60 -12.49 2.49
-2.34 -12.51 2.49
-2.09 -12.53 2.49
-1.83 -12.54 2.49
-1.58 -12.54 2.49
-1.32 -12.54 2.49
-1.07 -12.53 2.49
-0.82 -12.52 2.49
-0.56 -12.50 2.49
-0.31 -12.48 2.49
-0.06 -11.15 2.49
0.16 -11.12 2.49
0.38 -11.09 2.49
0.60 -11.05 2.49
0.82 -11.01 2.49
1.04 -10.97 2.49
1.26 -10.92 2.49
1.47 -10.87 2.49
1.69 -10.81 2.49
1.90 -10.75 2.49
2.11 -10.69 2.49
2.32 -10.62 2.49
2.52 -10.54 2.49
2.73 -10.47 2.49
2.89 -10.24 2.46
3.00 -9.87 2.39
3.19 -9.79 2.39
3.38 -9.70 2.39
3.56 -9.61 2.39
3.75 -9.51 2.39
3.93 -9.41 2.39
4.10 -9.31 2.39
4.28 -9.20 2.39
4.45 -9.09 2.39
4.62 -8.98 2.39
4.79 -8.87 2.39
4.96 -8.75 2.39
5.12 -8.63 2.39
5.28 -8.50 2.39
5.44 -8.38 2.39
5.59 -8.25 2.39
5.74 -8.11 2.39
5.89 -7.98 2.39
6.04 -7.84 2.39
2.98 -3.71 1.15
6.32 -7.56 2.39
6.46 -7.41 2.39
6.59 -7.27 2.39
6.72 -7.12 2.39
7.67 -7.80 2.68
8.05 -7.87 2.76
8.45 -7.93 2.85
8.85 -7.98 2.94
9.26 -8.02 3.02
9.40 -7.81 3.02
9.53 -7.60 3.02
9.66 -7.39 3.02
9.73 -7.14 3.00
9.67 -6.80 2.95
9.69 -6.52 2.92
9.73 -6.27 2.90
9.78 -6.03 2.88
9.82 -5.79 2.86
9.86 -5.54 2.85
9.89 -5.30 2.83
9.90 -5.05 2.81
9.92 -4.81 2.79
9.93 -4.57 2.77
9.94 -4.33 2.75
9.94 -4.10 2.73
9.95 -3.87 2.72
9.95 -3.64 2.70
9.97 -3.42 2.69
10.00 -3.21 2.69
10.02 -2.99 2.68
10.04 -2.78 2.67
10.06 -2.57 2.67
10.08 -2.36 2.66
10.09 -2.15 2.66
10.10 -1.94 2.65
10.11 -1.73 2.65
10.12 -1.52 2.64
10.12 -1.31 2.64
10.13 -1.11 2.64
10.13 -0.90 2.64
10.13 -0.69 2.63
10.11 -0.49 2.63
10.06 -0.28 2.62
10.01 -0.08 2.61
9.96 0.12 2.60
7.52 0.24 1.96
7.60 0.40 1.99
9.87 0.72 2.58
9.84 0.92 2.58
9.82 1.12 2.58
9.79 1.32 2.58
9.77 1.51 2.59
9.79 1.72 2.60
9.80 1.93 2.62
9.82 2.14 2.63
9.81 2.34 2.65
9.74 2.54 2.64
9.66 2.73 2.63
9.58 2.91 2.63
9.50 3.10 2.63
9.42 3.29 2.62
9.34 3.47 2.62
9.30 3.67 2.63
9.26 3.87 2.64
9.22 4.08 2.65
9.17 4.28 2.66
9.12 4.48 2.67
9.07 4.69 2.68
9.02 4.90 2.70
8.97 5.10 2.71
8.91 5.31 2.72
8.86 5.53 2.74
8.82 5.76 2.76
8.79 5.99 2.79
8.75 6.22 2.82
8.71 6.46 2.84
8.66 6.71 2.87
8.61 6.95 2.90
8.56 7.20 2.93
8.48 7.43 2.95
8.40 7.67 2.97
8.33 7.92 3.00
8.18 8.09 3.00
7.80 8.03 2.92
7.43 7.97 2.84
7.08 7.91 2.76
6.74 7.84 2.69
5.86 7.10 2.39
5.72 7.22 2.39
5.58 7.34 2.39
5.43 7.46 2.39
5.29 7.58 2.39
5.14 7.69 2.39
4.99 7.80 2.39
4.84 7.91 2.39
4.68 8.02 2.39
4.52 8.12 2.39
4.36 8.22 2.39
4.20 8.32 2.39
4.04 8.42 2.39
3.88 8.51 2.39
3.71 8.60 2.39
3.54 8.68 2.39
3.37 8.77 2.39
3.20 8.85 2.39
3.02 8.92 2.39
2.85 9.00 2.39
2.67 9.07 2.39
2.49 9.13 2.39
2.31 9.20 2.39
2.13 9.26 2.39
1.94 9.32 2.39
1.76 9.37 2.39
1.64 9.83 2.49
1.45 9.88 2.49
1.25 9.93 2.49
1.05 9.97 2.49
0.85 10.01 2.49
0.65 10.04 2.49
0.45 10.07 2.49
0.25 10.10 2.49
0.04 10.12 2.49
-0.16 10.14 2.49
-0.36 10.16 2.49
-0.57 10.17 2.49
-0.78 10.18 2.49
-0.98 10.18 2.49
-1.19 10.18 2.49
-1.40 10.18 2.49
-1.60 10.17 2.49
-1.81 10.16 2.49
-2.02 10.15 2.49
-2.23 10.13 2.49
-2.44 10.10 2.49
-2.65 10.07 2.49
-2.85 10.04 2.49
-3.06 10.01 2.49
-3.27 9.96 2.49
-3.48 9.92 2.49
-3.69 9.87 2.49
-3.89 9.82 2.49
-4.10 9.76 2.49
-4.30 9.70 2.49
-4.51 9.63 2.49
-4.71 9.56 2.49
-4.91 9.49 2.49
-5.11 9.41 2.49
-5.31 9.33 2.49
-5.51 9.24 2.49
-5.71 9.15 2.49
-5.91 9.06 2.49
-6.10 8.96 2.49
-6.30 8.85 2.49
-6.31 8.51 2.43
-6.40 8.28 2.39
-6.58 8.17 2.39
-6.76 8.05 2.39
-6.94 7.94 2.39
-7.11 7.81 2.39
-7.28 7.69 2.39
-7.45 7.56 2.39
-7.62 7.42 2.39
-7.78 7.29 2.39
-7.94 7.14 2.39
-8.10 7.00 2.39
-8.26 6.85 2.39
-8.42 6.70 2.39
-8.57 6.54 2.39
-8.71 6.38 2.39
-8.86 6.22 2.39
-9.00 6.06 2.39
-9.14 5.89 2.39
-9.27 5.72 2.39
-9.41 5.54 2.39
-9.53 5.36 2.39
-9.66 5.18 2.39
-9.78 5.00 2.39
-9.90 4.81 2.39
-10.01 4.62 2.39
-10.83 4.74 2.56
-10.89 4.51 2.55
-10.95 4.28 2.54
-11.04 4.06 2.53
-11.12 3.84 2.53
-11.19 3.61 2.52
-10.50 3.16 2.35
-10.49 2.93 2.33
-10.72 2.76 2.36
-10.95 2.59 2.40
-11.11 2.40 2.42
-11.10 2.16 2.40
-11.13 1.94 2.40
-11.16 1.72 2.39
-11.18 1.49 2.39
-11.20 1.27 2.38
-11.21 1.04 2.38
-11.22 0.82 2.37
-11.23 0.59 2.37
-11.24 0.37 2.37
-11.25 0.14 2.36
-11.28 -0.08 2.37
-11.37 -0.31 2.38
-11.46 -0.54 2.40
-11.54 -0.78 2.42
-11.55 -1.01 2.42
-11.56 -1.24 2.43
-11.56 -1.48 2.43
-11.57 -1.71 2.44
-11.56 -1.95 2.44
-11.56 -2.18 2.45
-11.55 -2.42 2.46
-11.54 -2.66 2.46
-11.53 -2.91 2.47
-11.53 -3.15 2.48
-11.52 -3.39 2.50
-11.51 -3.64 2.51
-11.47 -3.89 2.52
-11.45 -4.14 2.53
-11.43 -4.39 2.54
-11.41 -4.64 2.56
-11.39 -4.90 2.58
-11.37 -5.17 2.59
-11.35 -5.43 2.61
-11.33 -5.70 2.63
-11.31 -5.98 2.66
-11.27 -6.25 2.68
-11.23 -6.52 2.70
-11.19 -6.80 2.72
-11.13 -7.08 2.74
-10.99 -7.30 2.74
-10.85 -7.52 2.75
-9.31 -6.73 2.39
-9.17 -6.91 2.39
-9.02 -7.09 2.39
-8.87 -7.26 2.39
-8.72 -7.43 2.39
-8.56 -7.60 2.39
-8.40 -7.76 2.39
-8.24 -7.92 2.39
-8.07 -8.08 2.39
-7.90 -8.23 2.39
-7.73 -8.38 2.39
-7.55 -8.52 2.39
-7.37 -8.66 2.39
-7.19 -8.79 2.39
-7.00 -8.93 2.39
-6.82 -9.05 2.39
-6.62 -9.17 2.39
-6.43 -9.29 2.39
-6.24 -9.41 2.39
-6.04 -9.52 2.39
-5.84 -9.62 2.39
-5.64 -9.72 2.39
-5.43 -9.82 2.39
-5.23 -9.91 2.39
-5.17 -10.29 2.46
-5.02 -10.51 2.49
-4.80 -10.59 2.49
-4.58 -10.67 2.49
-4.36 -10.74 2.49
-4.14 -10.80 2.49
-3.91 -10.86 2.49
-3.69 -10.92 2.49
-3.46 -10.97 2.49
-3.24 -11.01 2.49
-3.01 -11.06 2.49
-2.78 -11.09 2.49
-2.55 -11.12 2.49
-2.33 -11.15 2.49
-2.10 -11.17 2.49
-1.87 -11.19 2.49
-1.64 -11.20 2.49
-1.42 -11.21 2.49
-1.19 -11.21 2.49
-0.96 -11.20 2.49
-0.74 -11.20 2.49
-0.51 -11.18 2.49
-0.29 -11.17 2.49
-0.06 -10.08 2.49
0.14 -10.05 2.49
0.34 -10.03 2.49
0.54 -10.00 2.49
0.74 -9.97 2.49
0.94 -9.93 2.49
1.13 -9.89 2.49
1.33 -9.84 2.49
1.52 -9.79 2.49
1.71 -9.74 2.49
1.90 -9.68 2.49
2.09 -9.62 2.49
2.28 -9.56 2.49
2.47 -9.49 2.49
2.65 -9.42 2.49
2.83 -9.34 2.49
2.89 -8.88 2.39
3.06 -8.80 2.39
3.23 -8.72 2.39
3.39 -8.63 2.39
3.56 -8.54 2.39
3.72 -8.45 2.39
3.88 -8.36 2.39
4.04 -8.26 2.39
4.20 -8.16 2.39
4.35 -8.06 2.39
4.50 -7.95 2.39
4.65 -7.84 2.39
4.80 -7.73 2.39
4.94 -7.62 2.39
5.08 -7.50 2.39
5.22 -7.38 2.39
5.36 -7.26 2.39
5.49 -7.14 2.39
2.98 -3.72 1.27
5.75 -6.88 2.39
5.87 -6.75 2.39
6.00 -6.62 2.39
6.12 -6.48 2.39
6.23 -6.35 2.39
6.35 -6.21 2.39
6.46 -6.07 2.39
6.57 -5.92 2.39
7.31 -6.34 2.62
7.61 -6.33 2.69
7.91 -6.32 2.75
8.22 -6.30 2.82
8.53 -6.27 2.89
8.81 -6.20 2.95
9.07 -6.12 3.00
9.18 -5.92 3.00
9.23 -5.69 2.98
9.27 -5.47 2.96
9.31 -5.24 2.95
9.35 -5.02 2.93
9.37 -4.79 2.91
9.39 -4.56 2.89
9.41 -4.34 2.87
9.42 -4.11 2.86
9.43 -3.89 2.84
9.44 -3.68 2.82
9.45 -3.46 2.81
9.45 -3.25 2.79
9.46 -3.04 2.78
9.49 -2.84 2.78
9.51 -2.64 2.77
9.53 -2.44 2.76
9.55 -2.24 2.76
9.56 -2.04 2.75
9.57 -1.84 2.75
9.58 -1.64 2.75
9.59 -1.44 2.74
9.60 -1.25 2.74
9.60 -1.05 2.74
9.60 -0.86 2.73
9.60 -0.66 2.73
9.57 -0.46 2.72
9.53 -0.27 2.71
9.49 -0.08 2.70
9.44 0.11 2.69
7.51 0.24 2.14
7.60 0.40 2.17
9.29 0.68 2.66
9.24 0.86 2.65
9.21 1.05 2.65
9.18 1.23 2.65
9.15 1.42 2.65
9.16 1.61 2.66
9.17 1.80 2.68
9.18 2.00 2.69
9.19 2.20 2.71
9.19 2.39 2.72
9.20 2.59 2.74
9.19 2.79 2.76
9.14 2.98 2.76
9.07 3.16 2.76
8.99 3.34 2.75
8.93 3.52 2.75
8.89 3.72 2.76
8.84 3.91 2.78
8.80 4.11 2.79
8.75 4.30 2.80
8.70 4.50 2.81
8.65 4.69 2.82
8.59 4.89 2.84
8.54 5.09 2.85
8.48 5.29 2.87
8.37 5.46 2.87
8.19 5.58 2.84
8.01 5.70 2.82
7.82 5.81 2.79
7.63 5.91 2.76
7.44 6.01 2.74
7.25 6.10 2.71
7.06 6.19 2.68
6.87 6.27 2.65
6.67 6.34 2.63
6.48 6.41 2.60
5.84 6.02 2.39
5.73 6.14 2.39
5.60 6.26 2.39
5.48 6.38 2.39
5.36 6.50 2.39
5.23 6.61 2.39
5.10 6.72 2.39
4.97 6.83 2.39
4.83 6.93 2.39
4.70 7.04 2.39
4.56 7.14 2.39
4.42 7.24 2.39
4.28 7.33 2.39
4.13 7.43 2.39
3.99 7.52 2.39
3.84 7.61 2.39
3.69 7.69 2.39
3.54 7.78 2.39
3.39 7.86 2.39
3.23 7.93 2.39
3.07 8.01 2.39
2.92 8.08 2.39
2.76 8.15 2.39
2.60 8.22 2.39
2.43 8.28 2.39
2.27 8.34 2.39
2.10 8.40 2.39
1.94 8.45 2.39
1.77 8.50 2.39
1.67 8.92 2.49
1.49 8.97 2.49
1.31 9.01 2.49
1.13 9.05 2.49
0.95 9.09 2.49
0.77 9.12 2.49
0.59 9.15 2.49
0.41 9.18 2.49
0.22 9.20 2.49
0.04 9.22 2.49
-0.15 9.24 2.49
-0.34 9.25 2.49
-0.52 9.26 2.49
-0.71 9.27 2.49
-0.90 9.27 2.49
-1.09 9.27 2.49
-1.28 9.26 2.49
-1.47 9.26 2.49
-1.65 9.24 2.49
-1.84 9.23 2.49
-2.03 9.21 2.49
-2.22 9.18 2.49
-2.41 9.16 2.49
-2.60 9.13 2.49
-2.79 9.09 2.49
-2.98 9.05 2.49
-3.17 9.01 2.49
-3.35 8.96 2.49
-3.54 8.91 2.49
-3.73 8.86 2.49
-3.91 8.80 2.49
-4.10 8.74 2.49
-4.28 8.68 2.49
-4.46 8.61 2.49
-4.64 8.53 2.49
-4.83 8.46 2.49
-5.00 8.38 2.49
-5.18 8.29 2.49
-5.36 8.21 2.49
-5.54 8.11 2.49
-5.71 8.02 2.49
-5.88 7.92 2.49
-6.05 7.82 2.49
-6.22 7.71 2.49
-6.24 7.43 2.44
-6.28 7.18 2.39
-6.44 7.07 2.39
-6.59 6.95 2.39
-6.74 6.83 2.39
-6.89 6.71 2.39
-7.04 6.58 2.39
-7.19 6.45 2.39
-7.33 6.32 2.39
-7.47 6.19 2.39
-7.61 6.05 2.39
-7.74 5.91 2.39
-7.87 5.76 2.39
-8.00 5.61 2.39
-8.13 5.46 2.39
-8.25 5.31 2.39
-8.37 5.15 2.39
-8.49 4.99 2.39
-8.60 4.83 2.39
-8.72 4.67 2.39
-8.82 4.50 2.39
-8.93 4.33 2.39
-9.03 4.16 2.39
-9.12 3.99 2.39
-9.22 3.81 2.39
-9.31 3.63 2.39
-9.39 3.45 2.39
-9.48 3.27 2.39
-9.55 3.08 2.39
-9.63 2.89 2.39
-9.70 2.71 2.39
-9.76 2.51 2.39
-9.83 2.32 2.39
-9.89 2.13 2.39
-10.57 2.06 2.54
-10.60 1.84 2.54
-10.63 1.63 2.53
-10.65 1.42 2.53
-10.67 1.20 2.52
-10.69 0.99 2.52
-10.70 0.78 2.52
-10.71 0.56 2.51
-10.72 0.35 2.51
-10.73 0.13 2.51
-10.76 -0.08 2.51
-10.78 -0.30 2.52
-10.81 -0.51 2.52
-10.88 -0.73 2.54
-10.96 -0.96 2.56
-11.04 -1.19 2.58
-11.11 -1.42 2.60
-11.18 -1.66 2.63
-11.24 -1.90 2.65
-11.24 -2.13 2.65
-11.27 -2.37 2.67
-11.29 -2.61 2.69
-11.32 -2.85 2.70
-11.33 -3.10 2.72
-11.35 -3.35 2.74
-11.36 -3.60 2.76
-11.36 -3.85 2.77
-11.34 -4.10 2.79
-11.30 -4.34 2.80
-9.58 -3.90 2.39
-9.50 -4.09 2.39
-9.42 -4.28 2.39
-9.33 -4.46 2.39
-9.24 -4.65 2.39
-9.14 -4.83 2.39
-9.04 -5.01 2.39
-8.94 -5.19 2.39
-8.83 -5.37 2.39
-8.72 -5.54 2.39
-8.60 -5.71 2.39
-8.48 -5.88 2.39
-8.36 -6.04 2.39
-8.24 -6.21 2.39
-8.11 -6.37 2.39
-7.97 -6.52 2.39
-7.83 -6.68 2.39
-7.69 -6.83 2.39
-7.55 -6.97 2.39
-7.41 -7.12 2.39
-7.26 -7.26 2.39
-7.10 -7.39 2.39
-6.95 -7.53 2.39
-6.79 -7.66 2.39
-6.63 -7.78 2.39
-6.47 -7.90 2.39
-6.30 -8.02 2.39
-6.13 -8.14 2.39
-5.96 -8.25 2.39
-5.79 -8.36 2.39
-5.61 -8.46 2.39
-5.44 -8.56 2.39
-5.28 -8.69 2.40
-5.25 -9.04 2.47
-5.10 -9.21 2.49
-4.91 -9.30 2.49
-4.72 -9.38 2.49
-4.52 -9.46 2.49
-4.33 -9.54 2.49
-4.13 -9.61 2.49
-3.93 -9.67 2.49
-3.73 -9.73 2.49
-3.53 -9.79 2.49
-3.33 -9.84 2.49
-3.13 -9.89 2.49
-2.92 -9.93 2.49
-2.72 -9.97 2.49
-2.51 -10.00 2.49
-2.31 -10.03 2.49
-2.10 -10.06 2.49
-1.90 -10.08 2.49
-1.69 -10.10 2.49
-1.49 -10.11 2.49
-1.28 -10.12 2.49
-1.08 -10.12 2.49
-0.87 -10.12 2.49
-0.67 -10.12 2.49
-0.47 -10.11 2.49
-0.26 -10.09 2.49
-0.06 -9.18 2.49
0.12 -9.17 2.49
0.30 -9.14 2.49
0.49 -9.12 2.49
0.67 -9.09 2.49
0.85 -9.06 2.49
1.03 -9.02 2.49
1.20 -8.98 2.49
1.38 -8.94 2.49
1.56 -8.89 2.49
1.73 -8.84 2.49
1.90 -8.79 2.49
2.08 -8.73 2.49
2.25 -8.67 2.49
2.41 -8.60 2.49
2.58 -8.54 2.49
2.75 -8.47 2.49
2.79 -8.04 2.39
2.96 -8.02 2.41
3.10 -7.89 2.39
3.25 -7.82 2.39
3.40 -7.73 2.39
3.55 -7.65 2.39
3.69 -7.56 2.39
3.83 -7.47 2.39
3.98 -7.38 2.39
4.11 -7.28 2.39
4.25 -7.18 2.39
4.39 -7.08 2.39
4.52 -6.98 2.39
4.65 -6.87 2.39
4.78 -6.76 2.39
4.90 -6.65 2.39
5.03 -6.54 2.39
2.96 -3.70 1.38
3.07 -3.68 1.39
5.38 -6.19 2.39
5.49 -6.07 2.39
5.60 -5.95 2.39
5.71 -5.82 2.39
5.82 -5.70 2.39
5.92 -5.57 2.39
6.02 -5.44 2.39
6.12 -5.31 2.39
6.21 -5.17 2.39
6.31 -5.04 2.39
6.39 -4.90 2.39
6.48 -4.77 2.39
6.57 -4.63 2.39
7.35 -4.96 2.64
7.54 -4.87 2.68
7.72 -4.77 2.72
7.92 -4.67 2.76
8.11 -4.57 2.79
8.30 -4.46 2.83
8.49 -4.34 2.87
8.64 -4.20 2.89
8.73 -4.03 2.90
8.81 -3.85 2.91
8.88 -3.67 2.91
8.95 -3.49 2.91
8.98 -3.30 2.91
8.99 -3.10 2.89
9.00 -2.90 2.88
9.00 -2.70 2.86
9.02 -2.51 2.86
9.04 -2.32 2.85
9.06 -2.13 2.85
9.08 -1.94 2.84
9.09 -1.75 2.84
9.10 -1.56 2.83
9.11 -1.37 2.83
9.12 -1.19 2.83
9.12 -1.00 2.82
9.12 -0.82 2.82
9.12 -0.63 2.82
9.09 -0.44 2.81
9.05 -0.26 2.80
9.01 -0.08 2.78
8.97 0.11 2.77
7.51 0.24 2.33
7.60 0.40 2.36
8.83 0.64 2.74
8.79 0.82 2.74
8.74 0.99 2.73
8.67 1.16 2.71
8.58 1.33 2.70
8.52 1.49 2.69
8.53 1.67 2.70
8.56 1.86 2.72
8.58 2.05 2.75
8.60 2.24 2.77
8.62 2.43 2.79
8.62 2.62 2.80
8.61 2.81 2.82
8.60 3.00 2.84
8.59 3.19 2.85
8.58 3.38 2.87
8.48 3.55 2.87
8.36 3.70 2.85
8.23 3.84 2.83
8.10 3.98 2.81
7.96 4.12 2.79
7.82 4.25 2.77
7.68 4.37 2.75
7.54 4.49 2.73
7.39 4.61 2.71
7.24 4.72 2.69
7.08 4.83 2.67
6.93 4.93 2.64
6.77 5.03 2.62
6.61 5.12 2.60
5.99 4.84 2.39
5.89 4.96 2.39
5.80 5.08 2.39
5.69 5.20 2.39
5.59 5.32 2.39
5.49 5.43 2.39
5.38 5.55 2.39
5.27 5.66 2.39
5.16 5.77 2.39
5.04 5.88 2.39
4.93 5.98 2.39
4.81 6.08 2.39
4.69 6.19 2.39
4.57 6.29 2.39
4.45 6.38 2.39
4.32 6.48 2.39
4.19 6.57 2.39
4.06 6.66 2.39
3.93 6.75 2.39
3.80 6.83 2.39
3.66 6.92 2.39
3.53 7.00 2.39
3.39 7.08 2.39
3.25 7.15 2.39
3.11 7.23 2.39
2.97 7.30 2.39
2.82 7.36 2.39
2.68 7.43 2.39
2.53 7.49 2.39
2.38 7.55 2.39
2.23 7.61 2.39
2.08 7.67 2.39
1.93 7.72 2.39
1.80 7.86 2.42
1.69 8.15 2.49
1.53 8.20 2.49
1.37 8.24 2.49
1.20 8.28 2.49
1.04 8.31 2.49
0.87 8.35 2.49
0.70 8.38 2.49
0.54 8.40 2.49
0.37 8.43 2.49
0.20 8.45 2.49
0.03 8.46 2.49
-0.14 8.48 2.49
-0.31 8.49 2.49
-0.49 8.50 2.49
-0.66 8.50 2.49
-0.83 8.50 2.49
-1.00 8.50 2.49
-1.18 8.49 2.49
-1.35 8.48 2.49
-1.52 8.47 2.49
-1.69 8.45 2.49
-1.87 8.43 2.49
-2.04 8.41 2.49
-2.21 8.38 2.49
-2.39 8.35 2.49
-2.56 8.32 2.49
-2.73 8.28 2.49
-2.90 8.24 2.49
-3.07 8.20 2.49
-3.24 8.15 2.49
-3.41 8.10 2.49
-3.58 8.05 2.49
-3.75 7.99 2.49
-3.92 7.93 2.49
-4.08 7.87 2.49
-4.25 7.80 2.49
-4.41 7.73 2.49
-4.58 7.65 2.49
-4.74 7.57 2.49
-4.90 7.49 2.49
-5.06 7.41 2.49
-5.22 7.32 2.49
-5.37 7.23 2.49
-5.53 7.13 2.49
-5.68 7.03 2.49
-5.83 6.93 2.49
-5.98 6.83 2.49
-6.13 6.72 2.49
-6.19 6.51 2.46
-6.18 6.25 2.40
-6.29 6.11 2.39
-6.42 6.00 2.39
-6.55 5.88 2.39
-6.68 5.76 2.39
-6.81 5.63 2.39
-6.93 5.51 2.39
-7.05 5.38 2.39
-7.17 5.24 2.39
-7.29 5.11 2.39
-7.40 4.97 2.39
-7.52 4.83 2.39
-7.62 4.69 2.39
-7.73 4.54 2.39
-7.83 4.39 2.39
-7.93 4.24 2.39
-8.03 4.09 2.39
-8.12 3.94 2.39
