ply
format ascii 1.0
element vertex 2928
property float32 x
property float32 y
property float32 z
end_header
-11.86 4.16 1.86
-11.87 3.89 1.85
-11.87 3.63 1.84
-11.87 3.37 1.83
-11.88 3.12 1.82
-11.91 2.87 1.82
-11.96 2.63 1.82
-12.01 2.39 1.82
-12.05 2.15 1.82
-12.07 1.90 1.82
-12.08 1.66 1.81
-12.09 1.41 1.81
-12.17 1.17 1.82
-12.30 0.94 1.84
-12.44 0.70 1.86
-12.57 0.45 1.88
-12.70 0.20 1.90
-12.79 -0.06 1.91
-12.82 -0.31 1.92
-12.85 -0.57 1.92
-12.85 -0.83 1.93
-12.86 -1.09 1.93
-12.86 -1.35 1.94
-12.86 -1.62 1.94
-12.87 -1.88 1.95
-6.17 -1.03 0.94
-12.84 -2.41 1.96
-12.83 -2.67 1.97
-12.81 -2.94 1.97
-12.79 -3.21 1.98
-12.78 -3.48 1.99
-12.76 -3.75 2.00
-12.72 -4.02 2.00
-12.75 -4.31 2.02
-12.77 -4.60 2.04
-12.78 -4.90 2.06
-12.80 -5.20 2.08
-12.81 -5.51 2.10
-12.82 -5.83 2.12
-12.81 -6.13 2.14
-12.79 -6.44 2.15
-12.77 -6.76 2.17
-12.75 -7.08 2.19
-12.72 -7.40 2.21
-12.70 -7.73 2.24
-12.67 -8.07 2.26
-12.51 -8.33 2.26
-12.33 -8.57 2.26
-12.15 -8.81 2.25
-11.96 -9.05 2.25
-11.78 -9.29 2.25
-11.59 -9.53 2.25
-11.41 -9.76 2.25
-11.22 -10.00 2.26
-11.11 -10.31 2.27
-11.02 -10.65 2.30
-10.94 -11.00 2.33
-10.85 -11.36 2.35
-10.76 -11.72 2.38
-10.64 -12.08 2.41
-10.54 -12.46 2.44
-10.40 -12.80 2.47
-10.16 -13.04 2.47
-9.91 -13.26 2.48
-9.32 -13.00 2.39
-9.06 -13.20 2.39
-8.80 -13.38 2.39
-8.53 -13.56 2.39
-8.26 -13.74 2.39
-7.99 -13.91 2.39
-7.71 -14.08 2.39
-7.43 -14.24 2.39
-7.15 -14.40 2.39
-6.87 -14.55 2.39
-6.58 -14.69 2.39
-6.28 -14.84 2.39
-5.99 -14.97 2.39
-5.69 -15.10 2.39
-5.39 -15.22 2.39
-5.31 -16.00 2.49
-4.99 -16.12 2.49
-4.67 -16.23 2.49
-4.35 -16.34 2.49
-4.02 -16.43 2.49
-3.69 -16.53 2.49
-3.36 -16.61 2.49
-3.03 -16.69 2.49
-2.70 -16.77 2.49
-2.36 -16.83 2.49
-2.03 -16.89 2.49
-1.69 -16.95 2.49
-1.35 -16.99 2.49
-1.01 -17.04 2.49
-0.67 -17.07 2.49
-0.33 -17.10 2.49
0.02 -14.78 2.49
0.32 -14.79 2.49
0.61 -14.79 2.49
0.91 -14.79 2.49
1.21 -14.78 2.49
1.51 -14.77 2.49
1.81 -14.75 2.49
2.10 -14.73 2.49
2.40 -14.70 2.49
2.70 -14.66 2.49
2.87 -14.03 2.39
3.16 -13.97 2.39
3.44 -13.92 2.39
3.72 -13.86 2.39
4.00 -13.79 2.39
4.28 -13.73 2.39
4.56 -13.65 2.39
4.84 -13.57 2.39
5.12 -13.49 2.39
5.39 -13.39 2.39
5.67 -13.30 2.39
5.94 -13.19 2.39
6.21 -13.09 2.39
6.48 -12.97 2.39
6.75 -12.87 2.39
7.02 -12.74 2.39
7.28 -12.61 2.39
7.54 -12.48 2.39
7.79 -12.34 2.39
8.05 -12.19 2.39
8.30 -12.04 2.39
8.55 -11.88 2.39
8.80 -11.72 2.39
9.04 -11.56 2.39
9.28 -11.38 2.39
9.52 -11.21 2.39
9.75 -11.03 2.39
9.98 -10.84 2.39
10.20 -10.65 2.39
10.43 -10.45 2.39
10.65 -10.25 2.39
10.86 -10.05 2.39
11.07 -9.84 2.39
11.28 -9.62 2.39
11.48 -9.40 2.39
11.68 -9.18 2.39
11.87 -8.95 2.39
12.06 -8.72 2.39
12.24 -8.49 2.39
12.33 -8.18 2.37
12.32 -7.82 2.34
12.31 -7.47 2.31
10.92 -6.34 2.02
11.78 -6.53 2.15
11.92 -6.29 2.15
12.06 -6.06 2.15
12.16 -5.81 2.15
12.15 -5.50 2.12
12.14 -5.21 2.10
12.13 -4.92 2.08
12.16 -4.65 2.07
12.17 -4.38 2.05
12.21 -4.12 2.04
12.20 -3.84 2.03
12.20 -3.57 2.01
12.19 -3.31 2.00
12.18 -3.05 1.99
12.26 -2.81 1.99
12.26 -2.55 1.98
12.25 -2.29 1.97
12.24 -2.04 1.96
12.23 -1.78 1.95
12.23 -1.53 1.94
12.13 -1.27 1.92
12.13 -1.03 1.91
12.12 -0.78 1.91
11.27 -0.50 1.77
11.14 -0.27 1.75
10.61 -0.05 1.67
10.54 0.16 1.65
10.43 0.37 1.64
10.45 0.58 1.64
10.45 0.79 1.64
10.44 1.00 1.64
10.44 1.22 1.65
10.41 1.42 1.65
10.52 1.66 1.67
10.89 1.94 1.73
11.23 2.23 1.79
11.75 2.58 1.88
11.74 2.83 1.89
11.74 3.07 1.90
10.87 3.08 1.76
10.02 3.06 1.64
9.56 3.13 1.57
10.49 3.67 1.73
10.48 3.90 1.75
10.42 4.12 1.75
10.34 4.33 1.75
10.28 4.55 1.75
9.79 4.57 1.69
9.18 4.51 1.60
9.09 4.69 1.60
9.08 4.92 1.61
10.24 5.82 1.84
10.23 6.09 1.86
10.13 6.31 1.86
9.67 6.29 1.80
9.24 6.28 1.74
9.08 6.44 1.74
10.45 7.73 2.03
10.34 7.97 2.04
10.21 8.21 2.05
10.23 8.57 2.09
10.22 8.92 2.12
10.11 9.18 2.13
11.12 10.51 2.39
10.90 10.73 2.39
10.68 10.94 2.39
10.46 11.15 2.39
10.23 11.35 2.39
9.99 11.55 2.39
9.76 11.75 2.39
9.51 11.93 2.39
9.27 12.12 2.39
9.02 12.29 2.39
8.77 12.47 2.39
8.51 12.63 2.39
8.25 12.79 2.39
7.99 12.95 2.39
7.72 13.10 2.39
7.45 13.24 2.39
7.18 13.38 2.39
6.91 13.51 2.39
6.63 13.64 2.39
6.35 13.76 2.39
6.07 13.88 2.39
5.78 13.97 2.39
5.50 14.07 2.39
5.21 14.17 2.39
4.92 14.26 2.39
4.63 14.35 2.39
4.34 14.42 2.39
4.04 14.50 2.39
3.75 14.56 2.39
3.45 14.62 2.39
3.16 14.68 2.39
2.86 14.73 2.39
2.56 14.77 2.39
2.26 14.80 2.39
1.96 14.83 2.39
1.74 15.49 2.49
1.42 15.51 2.49
1.11 15.52 2.49
0.80 15.53 2.49
0.49 15.53 2.49
0.17 15.52 2.49
-0.14 15.50 2.49
-0.45 15.48 2.49
-0.76 15.45 2.49
-1.07 15.42 2.49
-1.37 15.38 2.49
-1.68 15.34 2.49
-1.99 15.28 2.49
-2.29 15.22 2.49
-2.59 15.16 2.49
-2.89 15.09 2.49
-3.19 15.01 2.49
-3.49 14.93 2.49
-3.78 14.84 2.49
-4.08 14.75 2.49
-4.37 14.65 2.49
-4.65 14.54 2.49
-4.94 14.43 2.49
-5.22 14.31 2.49
-5.50 14.19 2.49
-5.78 14.06 2.49
-6.06 13.93 2.49
-6.14 13.38 2.42
-6.34 13.11 2.40
-6.58 12.94 2.39
-6.83 12.79 2.39
-7.08 12.63 2.39
-7.32 12.48 2.39
-7.56 12.31 2.39
-7.80 12.15 2.39
-8.03 11.98 2.39
-8.20 11.71 2.37
-8.49 11.62 2.39
-8.71 11.43 2.39
-8.93 11.25 2.39
-9.14 11.05 2.39
-9.35 10.86 2.39
-9.56 10.66 2.39
-9.76 10.45 2.39
-9.96 10.24 2.39
-9.99 9.87 2.35
-9.98 9.47 2.31
-9.97 9.09 2.26
-9.96 8.72 2.22
-9.95 8.36 2.19
-9.94 8.02 2.15
-10.04 7.77 2.14
-10.15 7.54 2.13
-10.26 7.31 2.13
-10.38 7.08 2.12
-10.49 6.85 2.12
-10.60 6.62 2.11
-10.71 6.39 2.11
-10.82 6.17 2.11
-10.93 5.94 2.11
-11.24 5.82 2.15
-11.39 5.61 2.16
-11.39 5.33 2.14
-11.40 5.06 2.12
-11.40 4.79 2.11
-11.41 4.53 2.09
-11.45 4.28 2.09
-11.47 4.02 2.08
-11.48 3.77 2.06
-11.48 3.52 2.05
-11.49 3.27 2.04
-11.49 3.02 2.03
-11.49 2.77 2.03
-11.53 2.54 2.02
-11.57 2.30 2.02
-11.61 2.07 2.02
-11.62 1.83 2.02
-11.63 1.60 2.02
-11.65 1.36 2.02
-11.66 1.12 2.02
-11.67 0.89 2.02
-11.79 0.66 2.03
-11.91 0.43 2.05
-12.03 0.19 2.07
-12.09 -0.05 2.09
-12.09 -0.30 2.09
-12.09 -0.54 2.09
-12.09 -0.78 2.09
-12.12 -1.03 2.10
-12.14 -1.28 2.11
-12.16 -1.53 2.12
-12.17 -1.78 2.13
-6.17 -1.03 1.08
-12.17 -2.28 2.14
-12.16 -2.53 2.15
-12.13 -2.78 2.16
-12.10 -3.03 2.16
-12.07 -3.28 2.17
-12.03 -3.53 2.17
-11.99 -3.79 2.18
-11.95 -4.04 2.19
-11.94 -4.31 2.20
-11.93 -4.58 2.22
-11.93 -4.85 2.23
-11.97 -5.15 2.26
-12.01 -5.46 2.29
-12.05 -5.77 2.32
-12.07 -6.08 2.34
-11.98 -6.34 2.35
-11.90 -6.61 2.36
-11.81 -6.87 2.37
-11.74 -7.15 2.39
-11.67 -7.44 2.40
-11.60 -7.72 2.42
-11.52 -8.01 2.43
-11.42 -8.29 2.45
-11.32 -8.56 2.46
-11.21 -8.84 2.47
-11.10 -9.12 2.49
-10.99 -9.40 2.51
-10.87 -9.69 2.52
-10.70 -9.93 2.53
-10.57 -10.21 2.54
-10.39 -10.45 2.55
-10.16 -10.64 2.55
-9.34 -10.19 2.39
-9.14 -10.37 2.39
-8.93 -10.56 2.39
-8.72 -10.74 2.39
-8.51 -10.92 2.39
-8.29 -11.09 2.39
-8.07 -11.26 2.39
-7.84 -11.43 2.39
-7.62 -11.59 2.39
-7.39 -11.75 2.39
-7.15 -11.90 2.39
-6.92 -12.05 2.39
-6.68 -12.19 2.39
-6.43 -12.33 2.39
-6.19 -12.46 2.39
-5.94 -12.59 2.39
-5.69 -12.72 2.39
-5.44 -12.84 2.39
-5.38 -13.46 2.48
-5.14 -13.63 2.49
-4.86 -13.74 2.49
-4.59 -13.84 2.49
-4.31 -13.94 2.49
-4.04 -14.04 2.49
-3.76 -14.12 2.49
-3.47 -14.21 2.49
-3.19 -14.29 2.49
-2.91 -14.36 2.49
-2.62 -14.43 2.49
-2.33 -14.49 2.49
-2.04 -14.54 2.49
-1.75 -14.59 2.49
-1.46 -14.64 2.49
-1.16 -14.68 2.49
-0.87 -14.71 2.49
-0.57 -14.74 2.49
-0.28 -14.76 2.49
0.02 -12.99 2.49
0.28 -13.00 2.49
0.54 -13.00 2.49
0.80 -13.00 2.49
1.06 -12.99 2.49
1.33 -12.98 2.49
1.59 -12.96 2.49
1.85 -12.93 2.49
2.11 -12.91 2.49
2.37 -12.87 2.49
2.63 -12.83 2.49
2.77 -12.26 2.39
3.02 -12.21 2.39
3.27 -12.16 2.39
3.51 -12.10 2.39
3.76 -12.04 2.39
4.01 -11.98 2.39
4.25 -11.90 2.39
4.49 -11.83 2.39
4.73 -11.75 2.39
4.97 -11.66 2.39
5.21 -11.57 2.39
5.45 -11.47 2.39
5.68 -11.37 2.39
5.91 -11.26 2.39
6.14 -11.15 2.39
6.37 -11.04 2.39
6.60 -10.92 2.39
6.83 -10.81 2.39
7.05 -10.68 2.39
7.27 -10.54 2.39
7.49 -10.41 2.39
7.70 -10.26 2.39
7.92 -10.12 2.39
8.12 -9.96 2.39
8.33 -9.81 2.39
8.53 -9.65 2.39
8.73 -9.48 2.39
8.93 -9.31 2.39
9.12 -9.14 2.39
9.31 -8.96 2.39
9.50 -8.78 2.39
9.68 -8.60 2.39
9.86 -8.41 2.39
10.04 -8.22 2.39
10.21 -8.02 2.39
10.38 -7.82 2.39
10.54 -7.62 2.39
10.70 -7.41 2.39
10.86 -7.20 2.39
11.01 -6.99 2.39
10.59 -6.43 2.27
10.58 -6.14 2.24
10.57 -5.85 2.21
10.56 -5.57 2.19
10.56 -5.30 2.16
10.64 -5.08 2.15
10.75 -4.87 2.15
10.85 -4.66 2.15
10.67 -4.33 2.10
11.05 -4.22 2.15
11.33 -4.07 2.19
12.03 -4.05 2.31
12.20 -3.84 2.32
12.20 -3.57 2.31
12.19 -3.31 2.29
12.18 -3.04 2.28
12.17 -2.78 2.26
12.17 -2.53 2.25
12.16 -2.27 2.24
12.15 -2.02 2.23
12.15 -1.77 2.22
12.14 -1.52 2.21
12.13 -1.27 2.20
12.13 -1.03 2.20
12.12 -0.78 2.19
11.27 -0.50 2.03
11.14 -0.27 2.01
10.61 -0.05 1.91
10.54 0.17 1.90
10.43 0.37 1.88
10.45 0.58 1.88
10.45 0.79 1.88
10.44 1.00 1.89
10.44 1.22 1.89
10.41 1.43 1.89
10.52 1.66 1.91
10.89 1.94 1.99
11.23 2.23 2.06
11.75 2.58 2.16
11.74 2.83 2.17
11.74 3.08 2.18
10.87 3.08 2.03
10.02 3.06 1.88
9.28 3.04 1.75
9.17 3.21 1.74
10.11 3.77 1.93
10.11 4.00 1.95
10.10 4.23 1.96
10.09 4.47 1.98
9.79 4.57 1.94
9.27 4.55 1.85
9.13 4.72 1.84
9.13 4.95 1.86
9.88 5.61 2.04
9.87 5.87 2.06
9.86 6.14 2.08
9.67 6.29 2.07
9.24 6.28 2.00
9.09 6.45 2.00
10.45 7.73 2.33
10.34 7.97 2.34
10.21 8.21 2.35
10.14 8.49 2.37
10.05 8.77 2.39
9.87 8.96 2.39
9.69 9.16 2.39
9.50 9.35 2.39
9.31 9.53 2.39
9.11 9.71 2.39
8.91 9.89 2.39
8.71 10.06 2.39
8.50 10.23 2.39
8.29 10.40 2.39
8.08 10.56 2.39
7.86 10.71 2.39
7.64 10.86 2.39
7.42 11.01 2.39
7.19 11.15 2.39
6.96 11.29 2.39
6.73 11.42 2.39
6.50 11.54 2.39
6.26 11.67 2.39
6.02 11.78 2.39
5.78 11.88 2.39
5.53 11.99 2.39
5.29 12.09 2.39
5.04 12.18 2.39
4.80 12.28 2.39
4.55 12.36 2.39
4.29 12.44 2.39
4.04 12.52 2.39
3.79 12.59 2.39
3.53 12.65 2.39
3.27 12.71 2.39
3.02 12.76 2.39
2.76 12.81 2.39
2.50 12.86 2.39
2.24 12.89 2.39
1.98 12.92 2.39
1.79 13.51 2.49
1.52 13.53 2.49
1.25 13.55 2.49
0.97 13.56 2.49
0.70 13.57 2.49
0.43 13.57 2.49
0.16 13.56 2.49
-0.12 13.55 2.49
-0.39 13.53 2.49
-0.66 13.51 2.49
-0.93 13.48 2.49
-1.20 13.45 2.49
-1.47 13.41 2.49
-1.73 13.37 2.49
-2.00 13.32 2.49
-2.26 13.26 2.49
-2.53 13.20 2.49
-2.79 13.14 2.49
-3.05 13.07 2.49
-3.31 12.99 2.49
-3.56 12.91 2.49
-3.82 12.82 2.49
-4.07 12.73 2.49
-4.32 12.64 2.49
-4.57 12.54 2.49
-4.82 12.43 2.49
-5.06 12.32 2.49
-5.30 12.20 2.49
-5.54 12.08 2.49
-5.78 11.96 2.49
-6.01 11.83 2.49
-6.08 11.40 2.43
-6.20 11.08 2.39
-6.42 10.94 2.39
-6.63 10.80 2.39
-6.84 10.65 2.39
-7.04 10.51 2.39
-7.25 10.35 2.39
-7.44 10.20 2.39
-7.64 10.03 2.39
-7.83 9.87 2.39
-8.02 9.70 2.39
-8.21 9.53 2.39
-8.39 9.35 2.39
-8.57 9.18 2.39
-8.74 8.99 2.39
-8.92 8.81 2.39
-9.08 8.62 2.39
-9.25 8.43 2.39
-9.40 8.23 2.39
-9.56 8.04 2.39
-9.71 7.84 2.39
-9.86 7.63 2.39
-10.15 7.54 2.43
-10.26 7.31 2.42
-10.38 7.08 2.41
-10.49 6.85 2.41
-10.60 6.62 2.41
-10.71 6.40 2.40
-10.82 6.17 2.40
-10.93 5.95 2.40
-11.04 5.72 2.40
-11.05 5.45 2.38
-11.05 5.18 2.36
-11.06 4.91 2.34
-11.07 4.65 2.32
-11.07 4.39 2.31
-11.09 4.14 2.30
-11.10 3.90 2.28
-11.11 3.65 2.27
-11.12 3.41 2.26
-11.12 3.16 2.25
-11.13 2.92 2.24
-11.13 2.69 2.23
-11.13 2.45 2.22
-11.16 2.22 2.22
-11.19 2.00 2.22
-11.20 1.77 2.21
-11.22 1.54 2.21
-11.23 1.31 2.21
-11.24 1.08 2.21
-11.25 0.86 2.20
-11.25 0.63 2.20
-11.31 0.41 2.21
-11.42 0.18 2.24
-11.46 -0.05 2.25
-11.46 -0.28 2.25
-11.46 -0.51 2.25
-11.46 -0.74 2.25
-11.45 -0.97 2.25
-11.44 -1.20 2.26
-11.44 -1.44 2.26
-11.46 -1.67 2.27
-6.17 -1.03 1.23
-11.46 -2.15 2.29
-11.45 -2.38 2.30
-11.43 -2.62 2.30
-11.41 -2.86 2.31
-11.39 -3.10 2.32
-11.37 -3.34 2.33
-11.33 -3.58 2.34
-11.29 -3.82 2.34
-11.25 -4.06 2.35
-11.24 -4.31 2.37
-11.22 -4.56 2.38
-11.20 -4.82 2.40
-11.18 -5.08 2.42
-11.15 -5.34 2.43
-11.14 -5.61 2.45
-11.16 -5.91 2.48
-11.11 -6.17 2.50
-11.02 -6.41 2.51
-10.93 -6.66 2.52
-10.84 -6.91 2.53
-10.75 -7.15 2.54
-10.65 -7.40 2.55
-10.52 -7.63 2.56
-10.38 -7.85 2.56
-9.55 -7.53 2.39
-9.39 -7.72 2.39
-9.24 -7.91 2.39
-9.08 -8.09 2.39
-8.92 -8.28 2.39
-8.75 -8.46 2.39
-8.58 -8.63 2.39
-8.41 -8.81 2.39
-8.23 -8.98 2.39
-8.05 -9.14 2.39
-7.87 -9.31 2.39
-7.68 -9.47 2.39
-7.50 -9.62 2.39
-7.30 -9.78 2.39
-7.11 -9.92 2.39
-6.91 -10.07 2.39
-6.71 -10.21 2.39
-6.51 -10.35 2.39
-6.30 -10.48 2.39
-6.09 -10.61 2.39
-5.88 -10.74 2.39
-5.67 -10.87 2.39
-5.46 -11.01 2.40
-5.44 -11.53 2.49
-5.22 -11.68 2.49
-4.99 -11.79 2.49
-4.76 -11.90 2.49
-4.52 -12.00 2.49
-4.28 -12.09 2.49
-4.04 -12.18 2.49
-3.80 -12.27 2.49
-3.55 -12.35 2.49
-3.30 -12.43 2.49
-3.06 -12.50 2.49
-2.81 -12.57 2.49
-2.55 -12.63 2.49
-2.30 -12.69 2.49
-2.05 -12.74 2.49
-1.79 -12.79 2.49
-1.54 -12.83 2.49
-1.28 -12.87 2.49
-1.02 -12.91 2.49
-0.76 -12.93 2.49
-0.50 -12.96 2.49
-0.24 -12.98 2.49
0.02 -11.57 2.49
0.25 -11.58 2.49
0.48 -11.58 2.49
0.72 -11.58 2.49
0.95 -11.57 2.49
1.18 -11.56 2.49
1.42 -11.54 2.49
1.65 -11.52 2.49
1.88 -11.49 2.49
2.11 -11.46 2.49
2.35 -11.43 2.49
2.58 -11.39 2.49
2.69 -10.87 2.39
2.91 -10.82 2.39
3.13 -10.77 2.39
3.35 -10.72 2.39
3.57 -10.66 2.39
3.78 -10.59 2.39
4.00 -10.52 2.39
4.21 -10.45 2.39
4.42 -10.37 2.39
4.64 -10.29 2.39
4.84 -10.20 2.39
5.05 -10.11 2.39
5.26 -10.02 2.39
5.46 -9.92 2.39
5.67 -9.81 2.39
5.87 -9.70 2.39
6.07 -9.59 2.39
6.26 -9.48 2.39
6.46 -9.36 2.39
6.66 -9.24 2.39
6.85 -9.12 2.39
7.03 -8.98 2.39
7.22 -8.85 2.39
7.40 -8.71 2.39
7.58 -8.57 2.39
7.76 -8.42 2.39
7.93 -8.27 2.39
8.10 -8.12 2.39
8.27 -7.96 2.39
8.43 -7.80 2.39
8.60 -7.63 2.39
8.75 -7.46 2.39
8.91 -7.29 2.39
9.06 -7.12 2.39
9.21 -6.94 2.39
9.35 -6.76 2.39
9.49 -6.58 2.39
9.63 -6.39 2.39
9.77 -6.20 2.39
9.89 -6.01 2.39
10.02 -5.81 2.39
10.14 -5.61 2.39
10.26 -5.41 2.39
10.37 -5.21 2.39
10.48 -5.00 2.39
10.54 -4.77 2.38
10.54 -4.52 2.36
10.53 -4.27 2.34
10.71 -4.09 2.35
10.97 -3.94 2.39
11.05 -3.72 2.39
11.13 -3.50 2.39
11.21 -3.28 2.39
11.28 -3.06 2.39
11.34 -2.83 2.39
11.40 -2.61 2.39
11.46 -2.38 2.39
11.51 -2.15 2.39
11.56 -1.92 2.39
11.60 -1.69 2.39
11.64 -1.46 2.39
11.67 -1.22 2.39
11.70 -0.99 2.39
11.72 -0.76 2.39
11.25 -0.50 2.29
10.93 -0.27 2.23
10.61 -0.04 2.16
10.54 0.17 2.15
10.43 0.37 2.12
10.45 0.59 2.13
10.45 0.80 2.13
10.44 1.01 2.13
10.44 1.22 2.13
10.42 1.43 2.13
10.52 1.66 2.16
10.81 1.92 2.23
10.90 2.17 2.25
11.52 2.53 2.39
11.47 2.76 2.39
11.42 2.99 2.39
10.87 3.08 2.29
10.02 3.06 2.12
9.28 3.04 1.98
9.18 3.21 1.97
9.93 3.70 2.15
9.93 3.92 2.16
9.86 4.13 2.16
9.77 4.32 2.16
9.73 4.54 2.17
9.27 4.55 2.09
9.14 4.72 2.08
9.14 4.95 2.11
9.70 5.51 2.26
9.69 5.77 2.28
9.65 6.01 2.30
9.53 6.20 2.30
9.24 6.28 2.26
9.10 6.46 2.26
9.49 7.02 2.39
9.35 7.21 2.39
9.20 7.40 2.39
9.05 7.58 2.39
8.89 7.76 2.39
8.73 7.93 2.39
8.57 8.10 2.39
8.41 8.27 2.39
8.24 8.44 2.39
8.06 8.60 2.39
7.89 8.75 2.39
7.71 8.91 2.39
7.52 9.06 2.39
7.34 9.20 2.39
7.15 9.34 2.39
6.96 9.48 2.39
6.77 9.62 2.39
6.57 9.75 2.39
6.37 9.87 2.39
6.17 9.99 2.39
5.96 10.10 2.39
5.75 10.21 2.39
5.54 10.32 2.39
5.33 10.42 2.39
5.12 10.52 2.39
4.90 10.62 2.39
4.69 10.71 2.39
4.47 10.79 2.39
4.25 10.87 2.39
4.03 10.95 2.39
3.81 11.02 2.39
3.58 11.09 2.39
3.36 11.15 2.39
3.13 11.21 2.39
2.90 11.26 2.39
2.68 11.31 2.39
2.45 11.36 2.39
2.22 11.40 2.39
1.99 11.43 2.39
1.83 11.95 2.49
1.59 11.98 2.49
1.35 12.00 2.49
1.11 12.02 2.49
0.86 12.03 2.49
0.62 12.03 2.49
0.38 12.03 2.49
0.14 12.03 2.49
-0.10 12.02 2.49
-0.34 12.01 2.49
-0.58 11.99 2.49
-0.82 11.97 2.49
-1.06 11.94 2.49
-1.30 11.90 2.49
-1.54 11.87 2.49
-1.77 11.82 2.49
-2.01 11.78 2.49
-2.24 11.72 2.49
-2.48 11.67 2.49
-2.71 11.61 2.49
-2.94 11.54 2.49
-3.16 11.47 2.49
-3.39 11.39 2.49
-3.62 11.31 2.49
-3.84 11.23 2.49
-4.06 11.14 2.49
-4.28 11.05 2.49
-4.50 10.95 2.49
-4.71 10.85 2.49
-4.92 10.74 2.49
-5.13 10.63 2.49
-5.34 10.52 2.49
-5.55 10.40 2.49
-5.75 10.28 2.49
-5.95 10.15 2.49
-6.04 9.84 2.45
-6.08 9.48 2.39
-6.26 9.35 2.39
-6.45 9.21 2.39
-6.62 9.07 2.39
-6.80 8.93 2.39
-6.97 8.79 2.39
-7.14 8.64 2.39
-7.31 8.49 2.39
-7.47 8.33 2.39
-7.63 8.17 2.39
-7.78 8.01 2.39
-7.94 7.85 2.39
-8.09 7.68 2.39
-8.23 7.51 2.39
-8.38 7.34 2.39
-8.52 7.16 2.39
-8.65 6.98 2.39
-8.78 6.80 2.39
-8.91 6.62 2.39
-9.04 6.44 2.39
-9.16 6.25 2.39
-9.27 6.06 2.39
-9.39 5.87 2.39
-9.50 5.67 2.39
-9.60 5.48 2.39
-9.70 5.28 2.39
-9.80 5.08 2.39
-9.89 4.88 2.39
-10.40 4.87 2.49
-10.43 4.63 2.48
-10.46 4.40 2.46
-10.48 4.16 2.45
-10.48 3.92 2.43
-10.48 3.68 2.42
-10.52 3.46 2.41
-10.55 3.23 2.40
-10.58 3.01 2.40
-10.60 2.79 2.39
-10.62 2.57 2.38
-10.64 2.35 2.38
-10.66 2.13 2.37
-10.68 1.91 2.37
-10.72 1.69 2.37
-10.76 1.48 2.38
-10.80 1.26 2.38
-10.83 1.05 2.38
-10.85 0.83 2.38
-10.86 0.61 2.38
-10.87 0.39 2.38
-10.87 0.17 2.38
-10.90 -0.05 2.39
-10.89 -0.26 2.39
-10.89 -0.48 2.39
-10.89 -0.70 2.39
-10.88 -0.92 2.40
-10.87 -1.14 2.40
-10.86 -1.36 2.40
-10.85 -1.58 2.41
-6.14 -1.02 1.37
-10.82 -2.03 2.42
-10.81 -2.25 2.43
-10.79 -2.47 2.44
-10.77 -2.70 2.44
-10.75 -2.92 2.45
-10.72 -3.15 2.46
-10.68 -3.37 2.47
-10.65 -3.60 2.47
-10.60 -3.82 2.48
-10.56 -4.05 2.49
-10.52 -4.28 2.50
-10.49 -4.51 2.51
-10.45 -4.75 2.53
-10.40 -4.98 2.54
-10.36 -5.22 2.55
-9.59 -5.08 2.39
-9.49 -5.27 2.39
-9.38 -5.46 2.39
-9.27 -5.65 2.39
-9.15 -5.83 2.39
-9.03 -6.01 2.39
-8.91 -6.20 2.39
-8.79 -6.37 2.39
-8.66 -6.55 2.39
-8.53 -6.72 2.39
-8.39 -6.90 2.39
-8.25 -7.06 2.39
-8.11 -7.23 2.39
-7.96 -7.39 2.39
-7.82 -7.55 2.39
-7.66 -7.71 2.39
-7.51 -7.87 2.39
-7.35 -8.02 2.39
-7.19 -8.17 2.39
-7.03 -8.31 2.39
-6.86 -8.45 2.39
-6.69 -8.59 2.39
-6.52 -8.73 2.39
-6.35 -8.86 2.39
-6.17 -8.99 2.39
-5.99 -9.12 2.39
-5.81 -9.24 2.39
-5.62 -9.36 2.39
-5.50 -9.58 2.42
-5.47 -10.00 2.49
-5.27 -10.11 2.49
-5.07 -10.22 2.49
-4.87 -10.33 2.49
-4.66 -10.43 2.49
-4.45 -10.52 2.49
-4.24 -10.62 2.49
-4.03 -10.71 2.49
-3.82 -10.79 2.49
-3.60 -10.87 2.49
-3.38 -10.95 2.49
-3.17 -11.02 2.49
-2.95 -11.09 2.49
-2.72 -11.15 2.49
-2.50 -11.21 2.49
-2.28 -11.27 2.49
-2.05 -11.32 2.49
-1.82 -11.36 2.49
-1.60 -11.41 2.49
-1.37 -11.44 2.49
-1.14 -11.48 2.49
-0.91 -11.50 2.49
-0.68 -11.53 2.49
-0.45 -11.55 2.49
-0.21 -11.56 2.49
0.02 -10.43 2.49
0.23 -10.43 2.49
0.44 -10.43 2.49
0.65 -10.43 2.49
0.86 -10.42 2.49
1.07 -10.41 2.49
1.28 -10.39 2.49
1.49 -10.37 2.49
1.70 -10.35 2.49
1.91 -10.32 2.49
2.11 -10.29 2.49
2.32 -10.25 2.49
2.53 -10.21 2.49
2.62 -9.74 2.39
2.82 -9.70 2.39
3.02 -9.64 2.39
3.21 -9.59 2.39
3.41 -9.53 2.39
3.60 -9.47 2.39
3.79 -9.40 2.39
3.98 -9.33 2.39
4.17 -9.25 2.39
4.36 -9.17 2.39
4.55 -9.09 2.39
4.73 -9.01 2.39
4.92 -8.92 2.39
5.10 -8.82 2.39
5.28 -8.73 2.39
5.46 -8.62 2.39
5.63 -8.52 2.39
5.81 -8.41 2.39
5.98 -8.30 2.39
6.15 -8.18 2.39
6.32 -8.07 2.39
6.48 -7.94 2.39
6.65 -7.83 2.39
6.81 -7.70 2.39
6.97 -7.56 2.39
7.13 -7.43 2.39
7.28 -7.29 2.39
7.43 -7.15 2.39
7.58 -7.00 2.39
7.72 -6.85 2.39
7.86 -6.70 2.39
8.00 -6.55 2.39
8.14 -6.39 2.39
8.27 -6.23 2.39
8.40 -6.07 2.39
8.52 -5.90 2.39
8.65 -5.73 2.39
8.77 -5.56 2.39
8.88 -5.39 2.39
8.99 -5.21 2.39
9.10 -5.04 2.39
9.21 -4.85 2.39
9.31 -4.67 2.39
9.41 -4.49 2.39
9.50 -4.30 2.39
9.59 -4.11 2.39
9.68 -3.92 2.39
9.76 -3.73 2.39
9.84 -3.53 2.39
9.91 -3.34 2.39
9.98 -3.14 2.39
10.05 -2.94 2.39
10.11 -2.74 2.39
10.17 -2.54 2.39
10.22 -2.34 2.39
10.27 -2.13 2.39
10.32 -1.93 2.39
10.36 -1.72 2.39
10.40 -1.51 2.39
10.43 -1.30 2.39
10.46 -1.10 2.39
10.48 -0.89 2.39
10.50 -0.68 2.39
10.52 -0.47 2.39
10.53 -0.25 2.39
10.54 -0.04 2.39
10.54 0.17 2.39
10.43 0.38 2.37
10.37 0.58 2.36
10.28 0.78 2.34
10.33 1.00 2.35
10.36 1.21 2.36
10.42 1.43 2.38
10.44 1.64 2.39
10.40 1.85 2.39
10.37 2.06 2.39
10.32 2.27 2.39
10.28 2.48 2.39
10.23 2.68 2.39
10.18 2.89 2.39
10.01 3.06 2.37
9.28 3.04 2.21
9.19 3.22 2.20
9.58 3.57 2.31
9.57 3.79 2.33
9.57 4.01 2.35
9.56 4.23 2.36
9.56 4.46 2.38
9.27 4.55 2.33
9.15 4.73 2.33
9.15 4.96 2.35
9.20 5.23 2.39
9.10 5.41 2.39
8.98 5.59 2.39
8.87 5.77 2.39
8.75 5.95 2.39
8.63 6.12 2.39
8.50 6.29 2.39
8.38 6.46 2.39
8.24 6.63 2.39
8.11 6.79 2.39
7.97 6.95 2.39
7.83 7.11 2.39
7.68 7.26 2.39
7.53 7.41 2.39
7.38 7.56 2.39
7.23 7.70 2.39
7.07 7.84 2.39
6.91 7.98 2.39
6.74 8.12 2.39
6.58 8.25 2.39
6.41 8.37 2.39
6.24 8.50 2.39
6.06 8.61 2.39
5.88 8.72 2.39
5.70 8.84 2.39
5.52 8.95 2.39
5.34 9.05 2.39
5.16 9.15 2.39
4.97 9.25 2.39
4.78 9.34 2.39
4.59 9.43 2.39
4.40 9.52 2.39
4.20 9.60 2.39
4.01 9.68 2.39
3.81 9.75 2.39
3.61 9.82 2.39
3.41 9.89 2.39
3.21 9.95 2.39
3.01 10.00 2.39
2.81 10.06 2.39
2.61 10.10 2.39
2.40 10.15 2.39
2.20 10.19 2.39
2.01 10.31 2.41
1.86 10.70 2.49
1.64 10.73 2.49
1.43 10.75 2.49
1.21 10.77 2.49
1.00 10.78 2.49
0.78 10.80 2.49
0.56 10.80 2.49
0.34 10.80 2.49
0.13 10.80 2.49
-0.09 10.79 2.49
-0.31 10.78 2.49
-0.52 10.77 2.49
-0.74 10.75 2.49
-0.95 10.72 2.49
-1.17 10.69 2.49
-1.38 10.66 2.49
-1.59 10.62 2.49
-1.80 10.58 2.49
-2.01 10.53 2.49
-2.22 10.48 2.49
-2.43 10.43 2.49
-2.64 10.37 2.49
-2.84 10.31 2.49
-3.05 10.24 2.49
-3.25 10.17 2.49
-3.45 10.09 2.49
-3.65 10.02 2.49
-3.85 9.93 2.49
-4.04 9.85 2.49
-4.23 9.76 2.49
-4.43 9.66 2.49
-4.62 9.56 2.49
-4.80 9.46 2.49
-4.99 9.36 2.49
-5.17 9.25 2.49
-5.35 9.13 2.49
-5.53 9.02 2.49
-5.71 8.90 2.49
-5.88 8.78 2.49
-6.00 8.58 2.47
-6.00 8.22 2.41
-6.12 8.04 2.39
-6.27 7.91 2.39
-6.43 7.78 2.39
-6.58 7.64 2.39
-6.72 7.50 2.39
-6.87 7.36 2.39
-7.01 7.21 2.39
-7.15 7.07 2.39
-7.28 6.92 2.39
-7.41 6.76 2.39
-7.54 6.61 2.39
-7.67 6.45 2.39
-7.79 6.29 2.39
-7.91 6.13 2.39
-8.03 5.97 2.39
-8.14 5.80 2.39
-8.25 5.63 2.39
-8.35 5.46 2.39
-8.46 5.29 2.39
-8.56 5.11 2.39
-8.65 4.94 2.39
-8.74 4.76 2.39
-8.83 4.58 2.39
-8.92 4.40 2.39
-9.00 4.22 2.39
-9.08 4.03 2.39
-9.15 3.85 2.39
-9.22 3.66 2.39
-9.29 3.47 2.39
-9.35 3.28 2.39
-9.41 3.09 2.39
-9.46 2.90 2.39
-9.52 2.71 2.39
-9.56 2.52 2.39
-9.61 2.32 2.39
-9.65 2.13 2.39
-9.68 1.93 2.39
-9.72 1.74 2.39
-9.74 1.54 2.39
-9.77 1.34 2.39
-9.79 1.15 2.39
-9.81 0.95 2.39
-10.02 0.77 2.44
-10.05 0.57 2.44
-10.07 0.36 2.45
-10.09 0.16 2.45
-10.09 -0.04 2.45
-10.09 -0.24 2.45
-10.09 -0.45 2.46
-10.08 -0.65 2.46
-10.07 -0.85 2.46
-10.06 -1.06 2.46
-9.74 -1.22 2.39
-9.71 -1.42 2.39
-6.14 -1.02 1.52
-9.64 -1.81 2.39
-9.60 -2.00 2.39
-9.56 -2.19 2.39
-9.51 -2.38 2.39
-9.46 -2.57 2.39
-9.40 -2.76 2.39
-9.35 -2.95 2.39
-9.28 -3.14 2.39
-9.22 -3.32 2.39
-9.15 -3.51 2.39
-9.08 -3.69 2.39
-9.00 -3.87 2.39
-8.92 -4.05 2.39
-8.83 -4.23 2.39
-8.75 -4.41 2.39
-8.66 -4.58 2.39
-8.56 -4.76 2.39
-8.47 -4.93 2.39
-8.37 -5.10 2.39
-8.26 -5.26 2.39
-8.16 -5.43 2.39
-8.05 -5.59 2.39
-7.93 -5.75 2.39
-7.82 -5.91 2.39
-7.70 -6.07 2.39
-7.57 -6.22 2.39
-7.45 -6.38 2.39
-7.32 -6.53 2.39
-7.19 -6.67 2.39
-7.05 -6.82 2.39
-6.92 -6.96 2.39
-6.78 -7.10 2.39
-6.63 -7.24 2.39
-6.49 -7.37 2.39
-6.34 -7.50 2.39
-6.19 -7.63 2.39
-6.04 -7.76 2.39
-5.88 -7.88 2.39
-5.75 -8.03 2.40
-5.57 -8.11 2.39
-5.52 -8.41 2.44
-5.47 -8.70 2.49
-5.29 -8.81 2.49
-5.12 -8.92 2.49
-4.94 -9.02 2.49
-4.76 -9.12 2.49
-4.57 -9.22 2.49
-4.39 -9.31 2.49
-4.20 -9.41 2.49
-4.02 -9.49 2.49
-3.83 -9.58 2.49
-3.63 -9.66 2.49
-3.44 -9.73 2.49
-3.25 -9.80 2.49
-3.05 -9.87 2.49
-2.85 -9.94 2.49
-2.65 -10.00 2.49
-2.45 -10.05 2.49
-2.25 -10.11 2.49
-2.05 -10.16 2.49
-1.85 -10.20 2.49
-1.64 -10.24 2.49
-1.44 -10.28 2.49
-1.23 -10.31 2.49
-1.02 -10.34 2.49
-0.82 -10.37 2.49
-0.61 -10.39 2.49
-0.40 -10.41 2.49
-0.19 -10.42 2.49
0.02 -9.48 2.49
0.21 -9.48 2.49
0.40 -9.48 2.49
0.59 -9.48 2.49
0.78 -9.47 2.49
0.97 -9.46 2.49
1.16 -9.44 2.49
1.35 -9.42 2.49
1.54 -9.40 2.49
1.73 -9.37 2.49
1.92 -9.34 2.49
2.11 -9.31 2.49
2.30 -9.27 2.49
2.49 -9.23 2.49
2.56 -8.81 2.39
2.74 -8.76 2.39
2.92 -8.71 2.39
3.09 -8.65 2.39
3.27 -8.59 2.39
3.44 -8.53 2.39
3.62 -8.47 2.39
3.79 -8.40 2.39
3.96 -8.33 2.39
4.13 -8.25 2.39
4.30 -8.17 2.39
4.46 -8.09 2.39
4.63 -8.01 2.39
4.79 -7.92 2.39
4.95 -7.83 2.39
5.11 -7.73 2.39
5.27 -7.63 2.39
5.43 -7.53 2.39
5.58 -7.42 2.39
5.73 -7.32 2.39
5.88 -7.20 2.39
6.03 -7.09 2.39
6.17 -6.97 2.39
6.32 -6.85 2.39
6.46 -6.73 2.39
6.60 -6.61 2.39
6.74 -6.48 2.39
6.87 -6.35 2.39
7.00 -6.21 2.39
7.13 -6.07 2.39
7.26 -5.93 2.39
7.38 -5.79 2.39
7.50 -5.65 2.39
7.61 -5.50 2.39
7.73 -5.35 2.39
7.84 -5.19 2.39
7.95 -5.04 2.39
8.05 -4.88 2.39
8.15 -4.72 2.39
8.25 -4.56 2.39
8.34 -4.40 2.39
8.43 -4.23 2.39
8.52 -4.06 2.39
8.61 -3.89 2.39
8.69 -3.72 2.39
8.77 -3.55 2.39
8.84 -3.38 2.39
8.91 -3.20 2.39
8.98 -3.02 2.39
9.04 -2.84 2.39
9.10 -2.66 2.39
9.16 -2.48 2.39
9.21 -2.30 2.39
9.26 -2.11 2.39
9.30 -1.93 2.39
9.34 -1.74 2.39
9.38 -1.56 2.39
9.41 -1.37 2.39
9.44 -1.18 2.39
9.47 -0.99 2.39
9.49 -0.80 2.39
9.51 -0.61 2.39
9.52 -0.42 2.39
9.53 -0.23 2.39
9.54 -0.04 2.39
9.54 0.15 2.39
9.54 0.34 2.39
9.53 0.54 2.39
9.52 0.73 2.39
9.51 0.92 2.39
9.49 1.11 2.39
9.47 1.30 2.39
9.44 1.49 2.39
9.41 1.68 2.39
9.38 1.87 2.39
9.34 2.05 2.39
9.30 2.24 2.39
9.26 2.43 2.39
9.21 2.61 2.39
9.15 2.80 2.39
9.10 2.98 2.39
9.04 3.16 2.39
8.97 3.34 2.39
8.90 3.52 2.39
8.83 3.70 2.39
8.76 3.88 2.39
8.68 4.05 2.39
8.60 4.22 2.39
8.51 4.39 2.39
8.42 4.56 2.39
8.33 4.73 2.39
8.23 4.90 2.39
8.13 5.06 2.39
8.03 5.22 2.39
7.92 5.38 2.39
7.81 5.54 2.39
7.70 5.69 2.39
7.58 5.85 2.39
7.46 6.00 2.39
7.34 6.14 2.39
7.21 6.29 2.39
7.08 6.43 2.39
6.95 6.57 2.39
6.82 6.71 2.39
6.68 6.84 2.39
6.54 6.97 2.39
6.40 7.10 2.39
6.25 7.22 2.39
6.10 7.34 2.39
5.95 7.45 2.39
5.79 7.57 2.39
5.64 7.68 2.39
5.48 7.79 2.39
5.32 7.90 2.39
5.16 8.00 2.39
5.00 8.10 2.39
4.83 8.19 2.39
4.67 8.28 2.39
4.50 8.37 2.39
4.33 8.46 2.39
4.16 8.54 2.39
3.98 8.62 2.39
3.81 8.69 2.39
3.63 8.76 2.39
3.45 8.83 2.39
3.27 8.89 2.39
3.09 8.95 2.39
2.91 9.01 2.39
2.73 9.06 2.39
2.55 9.11 2.39
2.36 9.15 2.39
2.18 9.19 2.39
2.03 9.40 2.43
1.88 9.66 2.49
1.69 9.69 2.49
1.49 9.72 2.49
1.30 9.74 2.49
1.10 9.76 2.49
0.90 9.77 2.49
0.71 9.78 2.49
0.51 9.79 2.49
0.31 9.79 2.49
0.12 9.79 2.49
-0.08 9.78 2.49
-0.27 9.77 2.49
-0.47 9.76 2.49
-0.67 9.74 2.49
-0.86 9.72 2.49
-1.05 9.69 2.49
-1.25 9.67 2.49
-1.44 9.63 2.49
-1.63 9.59 2.49
-1.82 9.55 2.49
-2.01 9.51 2.49
-2.20 9.46 2.49
-2.39 9.41 2.49
-2.58 9.35 2.49
-2.76 9.29 2.49
-2.95 9.23 2.49
-3.13 9.16 2.49
-3.31 9.09 2.49
-3.49 9.01 2.49
-3.67 8.94 2.49
-3.84 8.85 2.49
-4.02 8.77 2.49
-4.19 8.68 2.49
-4.36 8.59 2.49
-4.53 8.49 2.49
-4.69 8.40 2.49
-4.86 8.29 2.49
-5.02 8.19 2.49
-5.18 8.08 2.49
-5.34 7.97 2.49
-5.49 7.86 2.49
-5.64 7.74 2.49
-5.79 7.62 2.49
-5.94 7.50 2.49
-5.96 7.22 2.44
-5.97 6.94 2.39
-6.11 6.81 2.39
-6.24 6.69 2.39
-6.37 6.56 2.39
-6.49 6.42 2.39
-6.62 6.29 2.39
-6.74 6.15 2.39
-6.85 6.01 2.39
-6.97 5.86 2.39
-7.08 5.72 2.39
-7.19 5.57 2.39
-7.29 5.42 2.39
-7.40 5.27 2.39
-7.50 5.12 2.39
-7.59 4.97 2.39
-7.69 4.81 2.39
-7.78 4.65 2.39
-7.87 4.49 2.39
-7.95 4.33 2.39
-8.03 4.17 2.39
-8.11 4.00 2.39
-8.18 3.84 2.39
-8.25 3.67 2.39
-8.32 3.50 2.39
-8.39 3.33 2.39
-8.45 3.16 2.39
-8.50 2.99 2.39
-8.56 2.81 2.39
-8.61 2.64 2.39
-8.66 2.47 2.39
-8.70 2.29 2.39
-8.74 2.11 2.39
-8.78 1.94 2.39
-8.81 1.76 2.39
-8.84 1.58 2.39
-8.87 1.40 2.39
-8.89 1.22 2.39
-8.91 1.04 2.39
-8.92 0.86 2.39
-8.94 0.68 2.39
-8.95 0.50 2.39
-8.95 0.32 2.39
-8.95 0.14 2.39
-8.95 -0.04 2.39
-8.95 -0.22 2.39
-8.94 -0.40 2.39
-8.92 -0.57 2.39
-8.91 -0.75 2.39
-8.89 -0.93 2.39
-8.87 -1.11 2.39
-8.84 -1.29 2.39
-6.14 -1.02 1.67
-8.78 -1.64 2.39
-8.74 -1.82 2.39
-8.70 -1.99 2.39
-8.66 -2.17 2.39
-8.61 -2.34 2.39
-8.56 -2.51 2.39
-8.51 -2.69 2.39
-8.45 -2.86 2.39
-8.39 -3.03 2.39
-8.33 -3.19 2.39
-8.26 -3.36 2.39
-8.19 -3.53 2.39
-8.12 -3.69 2.39
-8.04 -3.85 2.39
-7.96 -4.01 2.39
-7.88 -4.17 2.39
-7.80 -4.33 2.39
-7.71 -4.49 2.39
-7.62 -4.64 2.39
-7.52 -4.79 2.39
-7.43 -4.94 2.39
-7.32 -5.09 2.39
-7.22 -5.24 2.39
-7.12 -5.38 2.39
-7.01 -5.53 2.39
-6.89 -5.67 2.39
-6.78 -5.81 2.39
-6.66 -5.94 2.39
-6.54 -6.08 2.39
-6.42 -6.21 2.39
-6.30 -6.34 2.39
-6.17 -6.46 2.39
-6.04 -6.59 2.39
-5.91 -6.71 2.39
-5.78 -6.84 2.39
-5.64 -6.95 2.39
-5.57 -7.15 2.42
-5.55 -7.44 2.48
-5.44 -7.59 2.49
-5.28 -7.70 2.49
-5.13 -7.81 2.49
-4.97 -7.92 2.49
-4.81 -8.02 2.49
-4.65 -8.11 2.49
-4.49 -8.21 2.49
-4.33 -8.30 2.49
-4.16 -8.39 2.49
-3.99 -8.48 2.49
-3.82 -8.56 2.49
-3.65 -8.64 2.49
-3.48 -8.71 2.49
-3.31 -8.78 2.49
-3.13 -8.85 2.49
-2.95 -8.92 2.49
-2.77 -8.98 2.49
-2.59 -9.04 2.49
-2.41 -9.09 2.49
-2.23 -9.15 2.49
-2.05 -9.19 2.49
-1.86 -9.24 2.49
-1.68 -9.28 2.49
-1.49 -9.32 2.49
-1.31 -9.35 2.49
-1.12 -9.38 2.49
-0.93 -9.40 2.49
-0.74 -9.43 2.49
-0.55 -9.45 2.49
-0.36 -9.46 2.49
-0.17 -9.47 2.49
0.02 -8.68 2.49
0.19 -8.68 2.49
0.37 -8.68 2.49
0.54 -8.68 2.49
0.72 -8.67 2.49
0.89 -8.66 2.49
1.07 -8.64 2.49
1.24 -8.63 2.49
1.41 -8.61 2.49
1.59 -8.58 2.49
1.76 -8.55 2.49
1.93 -8.52 2.49
2.11 -8.49 2.49
2.28 -8.45 2.49
2.45 -8.40 2.49
2.52 -8.06 2.40
2.67 -7.97 2.39
2.83 -7.92 2.39
2.99 -7.86 2.39
3.15 -7.81 2.39
3.31 -7.75 2.39
3.47 -7.68 2.39
3.62 -7.62 2.39
3.78 -7.55 2.39
3.93 -7.48 2.39
4.08 -7.40 2.39
4.23 -7.32 2.39
4.38 -7.24 2.39
4.53 -7.15 2.39
4.68 -7.07 2.39
4.82 -6.98 2.39
4.96 -6.88 2.39
5.10 -6.79 2.39
5.24 -6.69 2.39
5.38 -6.58 2.39
5.51 -6.48 2.39
5.64 -6.37 2.39
5.77 -6.26 2.39
5.90 -6.15 2.39
6.03 -6.03 2.39
6.15 -5.91 2.39
6.27 -5.79 2.39
6.39 -5.67 2.39
6.52 -5.55 2.39
6.63 -5.42 2.39
6.74 -5.29 2.39
6.85 -5.16 2.39
6.96 -5.02 2.39
7.06 -4.88 2.39
7.16 -4.74 2.39
7.26 -4.60 2.39
7.35 -4.46 2.39
7.44 -4.31 2.39
7.53 -4.16 2.39
7.62 -4.01 2.39
7.70 -3.86 2.39
7.78 -3.71 2.39
7.86 -3.55 2.39
7.93 -3.40 2.39
8.00 -3.24 2.39
8.07 -3.08 2.39
8.14 -2.92 2.39
8.20 -2.76 2.39
8.25 -2.59 2.39
8.31 -2.43 2.39
8.36 -2.26 2.39
8.41 -2.10 2.39
8.45 -1.93 2.39
8.49 -1.76 2.39
8.53 -1.59 2.39
8.56 -1.42 2.39
8.59 -1.25 2.39
8.62 -1.08 2.39
8.64 -0.90 2.39
8.66 -0.73 2.39
8.68 -0.56 2.39
8.69 -0.38 2.39
8.70 -0.21 2.39
8.70 -0.03 2.39
8.70 0.14 2.39
8.70 0.31 2.39
8.70 0.49 2.39
8.69 0.66 2.39
8.67 0.84 2.39
8.66 1.01 2.39
8.64 1.18 2.39
8.61 1.36 2.39
8.59 1.53 2.39
8.56 1.70 2.39
8.52 1.87 2.39
8.48 2.04 2.39
8.44 2.21 2.39
8.40 2.38 2.39
8.35 2.55 2.39
8.30 2.72 2.39
8.24 2.88 2.39
8.18 3.05 2.39
8.12 3.21 2.39
8.06 3.37 2.39
7.99 3.54 2.39
7.92 3.69 2.39
7.84 3.85 2.39
7.76 4.01 2.39
7.68 4.16 2.39
7.59 4.32 2.39
7.51 4.47 2.39
7.42 4.62 2.39
7.32 4.76 2.39
7.22 4.91 2.39
7.12 5.05 2.39
7.02 5.19 2.39
6.91 5.33 2.39
6.80 5.47 2.39
6.69 5.60 2.39
6.58 5.74 2.39
6.46 5.86 2.39
6.34 5.99 2.39
6.22 6.12 2.39
6.09 6.23 2.39
5.96 6.35 2.39
5.83 6.47 2.39
5.70 6.58 2.39
5.56 6.69 2.39
5.43 6.80 2.39
5.29 6.91 2.39
5.15 7.01 2.39
5.00 7.11 2.39
4.86 7.20 2.39
4.71 7.30 2.39
4.56 7.39 2.39
4.41 7.48 2.39
4.26 7.56 2.39
4.11 7.64 2.39
3.95 7.72 2.39
3.79 7.79 2.39
3.64 7.86 2.39
3.48 7.93 2.39
3.32 8.00 2.39
3.15 8.06 2.39
2.99 8.12 2.39
2.83 8.17 2.39
2.66 8.22 2.39
2.49 8.27 2.39
2.33 8.31 2.39
2.16 8.36 2.39
2.05 8.64 2.46
1.90 8.79 2.49
1.72 8.82 2.49
1.54 8.85 2.49
1.36 8.87 2.49
1.19 8.89 2.49
1.01 8.91 2.49
0.83 8.93 2.49
0.65 8.93 2.49
0.47 8.94 2.49
0.29 8.94 2.49
0.11 8.94 2.49
-0.07 8.94 2.49
-0.25 8.93 2.49
-0.43 8.92 2.49
-0.61 8.90 2.49
-0.78 8.88 2.49
-0.96 8.86 2.49
-1.14 8.83 2.49
-1.31 8.80 2.49
-1.49 8.77 2.49
-1.66 8.73 2.49
-1.84 8.69 2.49
-2.01 8.65 2.49
-2.18 8.60 2.49
-2.35 8.55 2.49
-2.52 8.49 2.49
-2.69 8.44 2.49
-2.86 8.37 2.49
-3.02 8.31 2.49
-3.19 8.24 2.49
-3.35 8.17 2.49
-3.51 8.10 2.49
-3.67 8.02 2.49
-3.83 7.94 2.49
-3.98 7.86 2.49
-4.14 7.77 2.49
-4.29 7.68 2.49
-4.44 7.59 2.49
-4.59 7.49 2.49
-4.74 7.39 2.49
-4.88 7.29 2.49
-5.02 7.19 2.49
-5.16 7.08 2.49
-5.30 6.97 2.49
-5.44 6.86 2.49
-5.57 6.74 2.49
-5.70 6.63 2.49
-5.83 6.51 2.49
-5.94 6.37 2.49
-5.93 6.11 2.43
-5.94 5.88 2.39
-6.05 5.76 2.39
-6.16 5.63 2.39
-6.27 5.50 2.39
-6.38 5.37 2.39
-6.48 5.24 2.39
-6.58 5.10 2.39
-6.68 4.97 2.39
-6.77 4.83 2.39
-6.87 4.69 2.39
-6.95 4.55 2.39
-7.04 4.41 2.39
-7.12 4.26 2.39
-7.20 4.11 2.39
-7.28 3.97 2.39
-7.36 3.82 2.39
-7.43 3.67 2.39
-7.50 3.52 2.39
-7.56 3.36 2.39
-7.62 3.21 2.39
-7.68 3.05 2.39
-7.74 2.90 2.39
-7.79 2.74 2.39
-7.84 2.58 2.39
-7.89 2.42 2.39
-7.93 2.26 2.39
-7.97 2.10 2.39
-8.01 1.94 2.39
-8.04 1.78 2.39
-8.07 1.61 2.39
-8.10 1.45 2.39
-8.13 1.29 2.39
-8.15 1.12 2.39
-8.17 0.96 2.39
-8.18 0.79 2.39
-8.19 0.63 2.39
-8.20 0.46 2.39
-8.20 0.30 2.39
-8.21 0.13 2.39
-8.21 -0.03 2.39
-8.20 -0.20 2.39
-8.19 -0.36 2.39
-8.18 -0.53 2.39
-8.17 -0.69 2.39
-8.15 -0.85 2.39
-8.13 -1.02 2.39
-8.11 -1.18 2.39
-6.14 -1.02 1.82
-8.05 -1.51 2.39
-8.01 -1.67 2.39
-7.98 -1.83 2.39
-7.94 -1.99 2.39
-7.90 -2.15 2.39
-7.85 -2.30 2.39
-7.80 -2.46 2.39
-7.75 -2.62 2.39
-7.69 -2.77 2.39
-7.64 -2.93 2.39
-7.58 -3.08 2.39
-7.51 -3.23 2.39
-7.45 -3.38 2.39
-7.38 -3.53 2.39
-7.30 -3.68 2.39
-7.23 -3.83 2.39
-7.15 -3.97 2.39
-7.07 -4.11 2.39
-6.98 -4.25 2.39
-6.90 -4.39 2.39
-6.81 -4.53 2.39
-6.72 -4.67 2.39
-6.62 -4.80 2.39
-6.52 -4.94 2.39
-6.42 -5.07 2.39
-6.32 -5.20 2.39
-6.22 -5.32 2.39
-6.11 -5.45 2.39
-6.00 -5.57 2.39
-5.89 -5.69 2.39
-5.77 -5.81 2.39
-5.66 -5.93 2.39
-5.60 -6.10 2.42
-5.58 -6.34 2.46
-5.52 -6.53 2.49
-5.39 -6.64 2.49
-5.26 -6.75 2.49
-5.12 -6.86 2.49
-4.98 -6.96 2.49
-4.84 -7.06 2.49
-4.70 -7.16 2.49
-4.56 -7.26 2.49
-4.41 -7.35 2.49
-4.26 -7.44 2.49
-4.12 -7.52 2.49
-3.97 -7.61 2.49
-3.81 -7.69 2.49
-3.66 -7.77 2.49
-3.50 -7.84 2.49
-3.35 -7.92 2.49
-3.19 -7.98 2.49
-3.03 -8.05 2.49
-2.87 -8.11 2.49
-2.70 -8.17 2.49
-2.54 -8.23 2.49
-2.38 -8.28 2.49
-2.21 -8.33 2.49
-2.04 -8.38 2.49
-1.87 -8.42 2.49
-1.71 -8.46 2.49
-1.54 -8.50 2.49
-1.37 -8.53 2.49
-1.19 -8.56 2.49
-1.02 -8.59 2.49
-0.85 -8.61 2.49
-0.68 -8.63 2.49
-0.50 -8.65 2.49
-0.33 -8.66 2.49
-0.16 -8.67 2.49
0.02 -8.00 2.49
0.18 -8.00 2.49
0.34 -8.00 2.49
0.50 -7.99 2.49
0.66 -7.99 2.49
0.82 -7.98 2.49
0.98 -7.96 2.49
1.14 -7.95 2.49
1.30 -7.93 2.49
1.46 -7.90 2.49
1.62 -7.88 2.49
1.78 -7.85 2.49
1.94 -7.81 2.49
2.10 -7.78 2.49
2.26 -7.74 2.49
2.41 -7.70 2.49
2.50 -7.45 2.43
2.61 -7.29 2.39
2.76 -7.24 2.39
2.90 -7.19 2.39
3.05 -7.13 2.39
3.19 -7.07 2.39
3.34 -7.01 2.39
3.48 -6.95 2.39
3.62 -6.88 2.39
3.76 -6.81 2.39
3.90 -6.74 2.39
4.03 -6.66 2.39
4.17 -6.58 2.39
4.30 -6.50 2.39
4.44 -6.42 2.39
4.57 -6.33 2.39
4.70 -6.24 2.39
4.82 -6.15 2.39
4.95 -6.06 2.39
5.07 -5.96 2.39
5.19 -5.86 2.39
5.31 -5.76 2.39
5.43 -5.65 2.39
5.55 -5.55 2.39
5.66 -5.44 2.39
5.77 -5.33 2.39
5.88 -5.21 2.39
5.99 -5.10 2.39
6.09 -4.98 2.39
6.19 -4.86 2.39
6.29 -4.73 2.39
6.39 -4.61 2.39
6.49 -4.49 2.39
6.58 -4.36 2.39
6.67 -4.23 2.39
6.76 -4.10 2.39
6.84 -3.96 2.39
6.93 -3.83 2.39
7.01 -3.69 2.39
7.08 -3.55 2.39
7.15 -3.41 2.39
7.22 -3.27 2.39
7.29 -3.12 2.39
7.36 -2.98 2.39
7.42 -2.83 2.39
7.48 -2.68 2.39
7.53 -2.53 2.39
7.59 -2.38 2.39
7.63 -2.23 2.39
7.68 -2.08 2.39
7.72 -1.92 2.39
7.76 -1.77 2.39
7.80 -1.62 2.39
7.84 -1.46 2.39
7.87 -1.30 2.39
7.89 -1.15 2.39
7.92 -0.99 2.39
7.94 -0.83 2.39
7.96 -0.67 2.39
7.97 -0.51 2.39
7.98 -0.35 2.39
7.99 -0.19 2.39
7.99 -0.03 2.39
8.00 0.13 2.39
7.99 0.29 2.39
7.99 0.45 2.39
7.98 0.61 2.39
7.97 0.77 2.39
7.95 0.93 2.39
7.93 1.09 2.39
7.91 1.25 2.39
7.89 1.41 2.39
7.86 1.56 2.39
7.83 1.72 2.39
7.79 1.88 2.39
7.75 2.03 2.39
7.71 2.19 2.39
7.67 2.34 2.39
7.62 2.50 2.39
7.57 2.65 2.39
7.52 2.80 2.39
7.46 2.95 2.39
7.40 3.10 2.39
7.34 3.25 2.39
7.27 3.39 2.39
7.20 3.54 2.39
7.13 3.68 2.39
7.05 3.82 2.39
6.97 3.96 2.39
6.89 4.10 2.39
6.81 4.24 2.39
6.72 4.37 2.39
6.63 4.51 2.39
6.54 4.64 2.39
6.45 4.77 2.39
6.35 4.90 2.39
6.25 5.02 2.39
6.14 5.14 2.39
6.03 5.26 2.39
5.93 5.38 2.39
5.82 5.50 2.39
5.71 5.61 2.39
5.59 5.72 2.39
5.47 5.83 2.39
5.35 5.94 2.39
5.23 6.04 2.39
5.11 6.15 2.39
4.98 6.25 2.39
4.86 6.34 2.39
4.73 6.44 2.39
4.60 6.53 2.39
4.46 6.62 2.39
4.33 6.70 2.39
4.19 6.79 2.39
4.05 6.87 2.39
3.91 6.94 2.39
3.77 7.02 2.39
3.63 7.09 2.39
3.49 7.16 2.39
3.34 7.23 2.39
3.20 7.29 2.39
3.05 7.35 2.39
2.90 7.40 2.39
2.75 7.46 2.39
2.60 7.51 2.39
2.45 7.56 2.39
2.29 7.60 2.39
2.14 7.64 2.39
2.07 7.99 2.49
1.91 8.05 2.49
1.75 8.08 2.49
1.58 8.11 2.49
1.42 8.13 2.49
1.26 8.16 2.49
1.09 8.18 2.49
0.93 8.19 2.49
0.76 8.20 2.49
0.60 8.21 2.49
0.43 8.22 2.49
0.27 8.22 2.49
0.10 8.22 2.49
-0.06 8.22 2.49
-0.23 8.21 2.49
-0.39 8.20 2.49
-0.56 8.19 2.49
-0.72 8.17 2.49
-0.88 8.15 2.49
-1.05 8.12 2.49
-1.21 8.10 2.49
-1.37 8.07 2.49
-1.53 8.03 2.49
-1.69 7.99 2.49
-1.85 7.95 2.49
-2.01 7.91 2.49
-2.16 7.86 2.49
-2.32 7.82 2.49
-2.47 7.76 2.49
-2.63 7.71 2.49
-2.78 7.65 2.49
-2.93 7.59 2.49
-3.08 7.52 2.49
-3.23 7.45 2.49
-3.38 7.38 2.49
-3.52 7.31 2.49
-3.67 7.23 2.49
-3.81 7.15 2.49
-3.95 7.07 2.49
-4.09 6.99 2.49
-4.22 6.90 2.49
-4.36 6.81 2.49
-4.49 6.71 2.49
-4.62 6.62 2.49
-4.75 6.52 2.49
-4.88 6.42 2.49
-5.00 6.32 2.49
-5.13 6.21 2.49
-5.25 6.10 2.49
-5.37 5.99 2.49
-5.48 5.88 2.49
-5.60 5.77 2.49
-5.71 5.65 2.49
-5.82 5.53 2.49
-5.91 5.40 2.49
-5.90 5.18 2.44
-5.91 4.98 2.40
-5.97 4.83 2.39
-6.06 4.70 2.39
-6.15 4.58 2.39
-6.24 4.45 2.39
-6.32 4.32 2.39
-6.41 4.19 2.39
-6.49 4.06 2.39
-6.56 3.93 2.39
-6.64 3.79 2.39
-6.71 3.66 2.39
-6.78 3.52 2.39
-6.84 3.38 2.39
-6.91 3.24 2.39
-6.97 3.10 2.39
-7.03 2.96 2.39
-7.08 2.81 2.39
-7.13 2.67 2.39
-7.18 2.53 2.39
-7.23 2.38 2.39
-7.27 2.23 2.39
-7.31 2.09 2.39
-7.35 1.94 2.39
-7.38 1.79 2.39
-7.41 1.64 2.39
-7.44 1.49 2.39
-7.47 1.34 2.39
-7.49 1.19 2.39
-7.51 1.04 2.39
-7.53 0.88 2.39
-7.54 0.73 2.39
-7.55 0.58 2.39
-7.56 0.43 2.39
-7.57 0.28 2.39
-7.57 0.12 2.39
-7.57 -0.03 2.39
-7.56 -0.18 2.39
-7.56 -0.33 2.39
-7.55 -0.48 2.39
-7.53 -0.64 2.39
-7.52 -0.79 2.39
-7.50 -0.94 2.39
-7.48 -1.09 2.39
-6.14 -1.02 1.97
-7.42 -1.39 2.39
-7.39 -1.54 2.39
-7.36 -1.69 2.39
-7.32 -1.83 2.39
-7.28 -1.98 2.39
-7.24 -2.13 2.39
-7.20 -2.27 2.39
-7.15 -2.41 2.39
-7.10 -2.56 2.39
-7.04 -2.70 2.39
-6.99 -2.84 2.39
-6.93 -2.98 2.39
-6.87 -3.12 2.39
-6.80 -3.26 2.39
-6.74 -3.39 2.39
-6.67 -3.53 2.39
-6.59 -3.66 2.39
-6.52 -3.79 2.39
-6.44 -3.92 2.39
-6.36 -4.05 2.39
-6.28 -4.18 2.39
-6.19 -4.31 2.39
-6.11 -4.43 2.39
-6.02 -4.55 2.39
-5.92 -4.67 2.39
-5.84 -4.80 2.39
-5.73 -4.91 2.39
-5.63 -5.03 2.39
-5.62 -5.22 2.43
-5.61 -5.42 2.47
-5.55 -5.59 2.49
-5.44 -5.70 2.49
-5.33 -5.81 2.49
-5.21 -5.92 2.49
-5.09 -6.02 2.49
-4.97 -6.13 2.49
-4.85 -6.23 2.49
-4.72 -6.32 2.49
-4.59 -6.42 2.49
-4.46 -6.51 2.49
-4.33 -6.60 2.49
-4.20 -6.69 2.49
-4.07 -6.78 2.49
-3.93 -6.86 2.49
-3.79 -6.94 2.49
-3.65 -7.02 2.49
-3.51 -7.09 2.49
-3.37 -7.16 2.49
-3.23 -7.23 2.49
-3.08 -7.30 2.49
-2.94 -7.36 2.49
-2.79 -7.42 2.49
-2.64 -7.48 2.49
-2.49 -7.53 2.49
-2.34 -7.59 2.49
-2.19 -7.63 2.49
-2.04 -7.68 2.49
-1.88 -7.72 2.49
-1.73 -7.76 2.49
-1.57 -7.80 2.49
-1.41 -7.83 2.49
-1.26 -7.86 2.49
-1.10 -7.89 2.49
-0.94 -7.92 2.49
-0.78 -7.94 2.49
-0.62 -7.96 2.49
-0.46 -7.97 2.49
-0.30 -7.98 2.49
-0.14 -7.99 2.49
0.02 -7.41 2.49
0.17 -7.41 2.49
0.32 -7.41 2.49
0.47 -7.40 2.49
0.61 -7.39 2.49
0.76 -7.38 2.49
0.91 -7.37 2.49
1.06 -7.36 2.49
1.21 -7.34 2.49
1.36 -7.32 2.49
1.50 -7.29 2.49
1.65 -7.26 2.49
1.80 -7.23 2.49
1.94 -7.20 2.49
2.09 -7.16 2.49
2.23 -7.12 2.49
2.38 -7.08 2.49
2.48 -6.93 2.46
2.55 -6.70 2.39
2.69 -6.65 2.39
2.82 -6.60 2.39
2.96 -6.54 2.39
3.09 -6.49 2.39
3.22 -6.43 2.39
3.35 -6.36 2.39
3.48 -6.30 2.39
3.61 -6.23 2.39
3.73 -6.16 2.39
3.86 -6.09 2.39
3.98 -6.01 2.39
4.10 -5.94 2.39
4.23 -5.86 2.39
4.34 -5.77 2.39
4.46 -5.69 2.39
4.58 -5.60 2.39
4.69 -5.51 2.39
4.80 -5.42 2.39
4.91 -5.32 2.39
5.02 -5.23 2.39
5.13 -5.13 2.39
5.23 -5.03 2.39
5.34 -4.92 2.39
5.44 -4.82 2.39
5.54 -4.71 2.39
5.63 -4.60 2.39
5.73 -4.49 2.39
5.82 -4.38 2.39
5.91 -4.26 2.39
6.00 -4.14 2.39
6.08 -4.02 2.39
6.16 -3.90 2.39
6.24 -3.78 2.39
6.32 -3.66 2.39
6.40 -3.53 2.39
6.48 -3.41 2.39
6.55 -3.28 2.39
6.61 -3.15 2.39
6.68 -3.02 2.39
6.74 -2.88 2.39
6.80 -2.75 2.39
6.86 -2.61 2.39
6.91 -2.48 2.39
6.96 -2.34 2.39
7.01 -2.20 2.39
7.06 -2.06 2.39
7.10 -1.92 2.39
7.14 -1.78 2.39
7.17 -1.63 2.39
7.21 -1.49 2.39
7.24 -1.35 2.39
7.27 -1.20 2.39
7.29 -1.06 2.39
7.31 -0.91 2.39
7.33 -0.76 2.39
7.35 -0.62 2.39
7.36 -0.47 2.39
7.37 -0.32 2.39
7.38 -0.18 2.39
7.38 -0.03 2.39
7.39 0.12 2.39
7.38 0.27 2.39
7.38 0.42 2.39
7.37 0.56 2.39
7.36 0.71 2.39
7.35 0.86 2.39
7.33 1.01 2.39
7.31 1.15 2.39
7.28 1.30 2.39
7.26 1.44 2.39
7.23 1.59 2.39
7.20 1.73 2.39
7.16 1.88 2.39
7.12 2.02 2.39
7.08 2.16 2.39
7.04 2.31 2.39
6.99 2.45 2.39
6.94 2.59 2.39
6.89 2.72 2.39
6.83 2.86 2.39
6.77 3.00 2.39
6.71 3.13 2.39
6.65 3.27 2.39
6.58 3.40 2.39
6.51 3.53 2.39
6.44 3.66 2.39
6.37 3.79 2.39
6.29 3.91 2.39
6.21 4.04 2.39
6.12 4.16 2.39
6.03 4.28 2.39
5.95 4.40 2.39
5.86 4.52 2.39
5.77 4.63 2.39
5.67 4.75 2.39
5.57 4.86 2.39
5.47 4.97 2.39
5.37 5.08 2.39
5.27 5.18 2.39
5.16 5.29 2.39
5.06 5.39 2.39
4.95 5.49 2.39
4.83 5.58 2.39
4.72 5.68 2.39
4.60 5.77 2.39
4.49 5.86 2.39
4.37 5.95 2.39
4.25 6.03 2.39
4.12 6.11 2.39
4.00 6.19 2.39
3.87 6.27 2.39
3.75 6.34 2.39
3.62 6.42 2.39
3.49 6.48 2.39
3.36 6.55 2.39
3.22 6.61 2.39
3.09 6.68 2.39
2.95 6.73 2.39
2.82 6.79 2.39
2.68 6.84 2.39
2.54 6.89 2.39
2.40 6.94 2.39
2.26 6.98 2.39
2.12 7.02 2.39
2.06 7.36 2.49
1.91 7.40 2.49
1.76 7.44 2.49
1.61 7.47 2.49
1.46 7.49 2.49
1.31 7.52 2.49
1.16 7.54 2.49
1.01 7.56 2.49
0.86 7.57 2.49
0.71 7.58 2.49
0.55 7.59 2.49
0.40 7.60 2.49
0.25 7.60 2.49
0.10 7.60 2.49
-0.06 7.60 2.49
-0.21 7.59 2.49
-0.36 7.58 2.49
-0.51 7.57 2.49
-0.66 7.55 2.49
-0.82 7.53 2.49
-0.97 7.51 2.49
-1.12 7.49 2.49
-1.26 7.46 2.49
-1.41 7.43 2.49
-1.56 7.39 2.49
-1.71 7.36 2.49
-1.85 7.32 2.49
-2.00 7.27 2.49
-2.14 7.23 2.49
-2.29 7.18 2.49
-2.43 7.13 2.49
-2.57 7.08 2.49
-2.71 7.02 2.49
-2.85 6.96 2.49
-2.99 6.90 2.49
-3.12 6.83 2.49
-3.26 6.76 2.49
-3.39 6.69 2.49
-3.52 6.62 2.49
-3.65 6.54 2.49
-3.78 6.47 2.49
-3.91 6.38 2.49
-4.03 6.30 2.49
-4.16 6.22 2.49
-4.28 6.13 2.49
-4.40 6.04 2.49
-4.51 5.94 2.49
-4.63 5.85 2.49
-4.74 5.75 2.49
-4.86 5.65 2.49
-4.97 5.55 2.49
-5.07 5.45 2.49
-5.18 5.34 2.49
-5.28 5.23 2.49
-5.38 5.12 2.49
-5.48 5.01 2.49
-5.58 4.90 2.49
-5.67 4.78 2.49
-5.77 4.66 2.49
-5.86 4.54 2.49
-5.88 4.38 2.47
-5.88 4.20 2.43
-5.88 4.02 2.40
-5.93 3.88 2.39
-6.01 3.76 2.39
-6.08 3.64 2.39
-6.15 3.51 2.39
-6.21 3.39 2.39
-6.28 3.26 2.39
-6.34 3.13 2.39
-6.40 3.00 2.39
-6.45 2.87 2.39
-6.51 2.74 2.39
-6.56 2.61 2.39
-6.61 2.48 2.39
-6.65 2.34 2.39
-6.70 2.21 2.39
-6.74 2.07 2.39
-6.77 1.93 2.39
-6.81 1.80 2.39
-6.84 1.66 2.39
-6.87 1.52 2.39
-6.90 1.38 2.39
-6.92 1.24 2.39
-6.94 1.10 2.39
-6.96 0.96 2.39
-6.98 0.82 2.39
-6.99 0.68 2.39
-7.00 0.54 2.39
-7.01 0.40 2.39
-7.01 0.26 2.39
-7.01 0.12 2.39
-7.01 -0.03 2.39
-7.01 -0.17 2.39
-7.00 -0.31 2.39
-6.99 -0.45 2.39
-6.98 -0.59 2.39
-6.97 -0.73 2.39
-6.95 -0.87 2.39
-6.93 -1.01 2.39
-6.14 -1.02 2.12
-6.88 -1.29 2.39
-6.85 -1.42 2.39
-6.82 -1.56 2.39
-6.79 -1.70 2.39
-6.75 -1.83 2.39
-6.71 -1.97 2.39
-6.67 -2.10 2.39
-6.63 -2.24 2.39
-6.58 -2.37 2.39
-6.53 -2.50 2.39
-6.48 -2.63 2.39
-6.42 -2.76 2.39
-6.37 -2.89 2.39
-6.31 -3.02 2.39
-6.24 -3.15 2.39
-6.18 -3.27 2.39
-6.11 -3.39 2.39
-6.04 -3.52 2.39
-5.97 -3.64 2.39
-5.90 -3.76 2.39
-5.82 -3.88 2.39
-5.74 -3.99 2.39
-5.66 -4.11 2.39
-5.65 -4.27 2.42
-5.64 -4.45 2.45
-5.63 -4.63 2.49
-5.54 -4.75 2.49
-5.45 -4.86 2.49
-5.35 -4.97 2.49
-5.25 -5.08 2.49
-5.15 -5.18 2.49
-5.04 -5.29 2.49
-4.94 -5.39 2.49
-4.83 -5.49 2.49
-4.72 -5.58 2.49
-4.60 -5.68 2.49
-4.49 -5.77 2.49
-4.37 -5.86 2.49
-4.26 -5.95 2.49
-4.14 -6.04 2.49
-4.02 -6.12 2.49
-3.89 -6.20 2.49
-3.77 -6.28 2.49
-3.64 -6.36 2.49
-3.52 -6.43 2.49
-3.39 -6.50 2.49
-3.26 -6.57 2.49
-3.12 -6.64 2.49
-2.99 -6.70 2.49
-2.86 -6.76 2.49
-2.72 -6.82 2.49
-2.58 -6.88 2.49
-2.45 -6.93 2.49
-2.31 -6.98 2.49
-2.17 -7.03 2.49
-2.03 -7.07 2.49
-1.88 -7.12 2.49
-1.74 -7.16 2.49
-1.60 -7.19 2.49
-1.45 -7.23 2.49
-1.31 -7.26 2.49
-1.16 -7.28 2.49
-1.02 -7.31 2.49
-0.87 -7.33 2.49
-0.72 -7.35 2.49
-0.58 -7.37 2.49
-0.43 -7.38 2.49
-0.28 -7.39 2.49
-0.13 -7.40 2.49
0.02 -6.89 2.49
0.16 -6.89 2.49
0.30 -6.89 2.49
0.43 -6.88 2.49
0.57 -6.88 2.49
0.71 -6.87 2.49
0.85 -6.86 2.49
0.99 -6.84 2.49
1.13 -6.82 2.49
1.26 -6.80 2.49
1.40 -6.78 2.49
1.54 -6.75 2.49
1.67 -6.72 2.49
1.81 -6.69 2.49
1.94 -6.66 2.49
2.08 -6.62 2.49
2.21 -6.58 2.49
2.34 -6.54 2.49
2.47 -6.48 2.49
2.50 -6.18 2.39
2.63 -6.13 2.39
2.75 -6.08 2.39
2.87 -6.03 2.39
2.99 -5.97 2.39
3.12 -5.92 2.39
3.24 -5.85 2.39
3.35 -5.79 2.39
3.47 -5.73 2.39
3.59 -5.66 2.39
3.70 -5.59 2.39
3.82 -5.52 2.39
3.93 -5.44 2.39
4.04 -5.36 2.39
4.15 -5.28 2.39
4.26 -5.20 2.39
4.36 -5.12 2.39
4.47 -5.03 2.39
4.57 -4.95 2.39
4.67 -4.86 2.39
4.77 -4.76 2.39
4.86 -4.67 2.39
4.96 -4.57 2.39
5.05 -4.48 2.39
5.14 -4.38 2.39
5.23 -4.27 2.39
5.32 -4.17 2.39
5.41 -4.06 2.39
5.49 -3.96 2.39
5.57 -3.85 2.39
5.65 -3.74 2.39
5.72 -3.63 2.39
5.80 -3.51 2.39
5.87 -3.40 2.39
5.94 -3.28 2.39
6.01 -3.16 2.39
6.07 -3.04 2.39
6.13 -2.92 2.39
6.19 -2.80 2.39
6.25 -2.67 2.39
6.31 -2.55 2.39
6.36 -2.42 2.39
6.42 -2.30 2.39
6.46 -2.17 2.39
6.51 -2.04 2.39
6.55 -1.91 2.39
6.59 -1.78 2.39
6.63 -1.65 2.39
6.66 -1.52 2.39
6.69 -1.38 2.39
6.72 -1.25 2.39
6.75 -1.12 2.39
6.77 -0.98 2.39
6.79 -0.84 2.39
6.81 -0.71 2.39
6.82 -0.57 2.39
6.83 -0.44 2.39
6.84 -0.30 2.39
6.85 -0.16 2.39
6.85 -0.03 2.39
6.86 0.11 2.39
6.85 0.25 2.39
6.85 0.39 2.39
6.84 0.52 2.39
6.83 0.66 2.39
6.82 0.80 2.39
6.80 0.93 2.39
6.78 1.07 2.39
6.76 1.21 2.39
6.74 1.34 2.39
6.71 1.48 2.39
6.68 1.61 2.39
6.65 1.74 2.39
6.61 1.88 2.39
6.57 2.01 2.39
6.53 2.14 2.39
6.49 2.27 2.39
6.44 2.40 2.39
6.39 2.53 2.39
6.34 2.66 2.39
6.29 2.78 2.39
6.22 2.90 2.39
6.16 3.03 2.39
6.10 3.15 2.39
6.04 3.27 2.39
5.97 3.39 2.39
5.90 3.51 2.39
5.83 3.63 2.39
5.76 3.74 2.39
5.68 3.86 2.39
5.60 3.97 2.39
5.52 4.08 2.39
5.44 4.19 2.39
5.35 4.30 2.39
5.26 4.41 2.39
5.17 4.51 2.39
5.08 4.61 2.39
4.99 4.71 2.39
4.89 4.81 2.39
4.79 4.91 2.39
4.69 5.00 2.39
4.59 5.09 2.39
4.49 5.18 2.39
4.38 5.27 2.39
4.27 5.35 2.39
4.17 5.44 2.39
4.05 5.52 2.39
3.94 5.60 2.39
3.83 5.67 2.39
3.71 5.75 2.39
3.60 5.82 2.39
3.48 5.89 2.39
3.36 5.95 2.39
3.24 6.02 2.39
3.12 6.08 2.39
2.99 6.14 2.39
2.87 6.20 2.39
2.74 6.25 2.39
2.62 6.30 2.39
2.49 6.35 2.39
2.36 6.40 2.39
2.23 6.44 2.39
2.11 6.53 2.41
2.05 6.80 2.49
1.92 6.84 2.49
1.78 6.87 2.49
1.64 6.90 2.49
1.50 6.93 2.49
1.36 6.96 2.49
1.22 6.98 2.49
1.08 7.00 2.49
0.94 7.02 2.49
0.80 7.03 2.49
0.66 7.04 2.49
0.51 7.05 2.49
0.37 7.06 2.49
0.23 7.06 2.49
0.09 7.06 2.49
-0.05 7.06 2.49
-0.19 7.05 2.49
-0.33 7.04 2.49
-0.48 7.03 2.49
-0.62 7.02 2.49
-0.76 7.00 2.49
-0.90 6.98 2.49
-1.03 6.96 2.49
-1.17 6.93 2.49
-1.31 6.90 2.49
-1.45 6.87 2.49
-1.59 6.84 2.49
-1.72 6.80 2.49
-1.86 6.76 2.49
-1.99 6.72 2.49
-2.12 6.67 2.49
-2.26 6.63 2.49
-2.39 6.58 2.49
-2.52 6.52 2.49
-2.65 6.47 2.49
-2.77 6.41 2.49
-2.90 6.35 2.49
-3.03 6.29 2.49
-3.15 6.22 2.49
-3.27 6.15 2.49
-3.39 6.08 2.49
-3.51 6.01 2.49
-3.63 5.94 2.49
-3.75 5.86 2.49
-3.86 5.78 2.49
-3.98 5.70 2.49
-4.09 5.61 2.49
-4.20 5.53 2.49
-4.30 5.44 2.49
-4.41 5.35 2.49
-4.51 5.26 2.49
-4.62 5.16 2.49
-4.72 5.07 2.49
-4.82 4.97 2.49
-4.91 4.87 2.49
-5.01 4.76 2.49
-5.10 4.66 2.49
-5.19 4.56 2.49
-5.28 4.45 2.49
-5.36 4.34 2.49
-5.45 4.23 2.49
-5.53 4.12 2.49
-5.61 4.00 2.49
-5.68 3.89 2.49
-5.76 3.77 2.49
-5.83 3.65 2.49
-5.86 3.51 2.48
-5.85 3.35 2.45
-5.85 3.19 2.42
-5.86 3.04 2.40
-5.90 2.92 2.39
-5.95 2.80 2.39
-6.00 2.67 2.39
-6.05 2.55 2.39
-6.10 2.43 2.39
-6.15 2.30 2.39
-6.19 2.18 2.39
-6.23 2.05 2.39
-6.27 1.93 2.39
-6.30 1.80 2.39
-6.34 1.67 2.39
-6.37 1.54 2.39
-6.39 1.41 2.39
-6.42 1.29 2.39
-6.44 1.16 2.39
-6.46 1.03 2.39
-6.48 0.89 2.39
-6.49 0.76 2.39
-6.51 0.63 2.39
-6.51 0.50 2.39
-6.52 0.37 2.39
-6.53 0.24 2.39
-6.53 0.11 2.39
-6.53 -0.02 2.39
-6.52 -0.15 2.39
-6.52 -0.29 2.39
-6.51 -0.42 2.39
-6.50 -0.55 2.39
-6.48 -0.68 2.39
-6.47 -0.81 2.39
-6.45 -0.94 2.39
-6.14 -1.02 2.28
-6.40 -1.20 2.39
-6.38 -1.33 2.39
-6.35 -1.45 2.39
-6.32 -1.58 2.39
-6.28 -1.71 2.39
-6.25 -1.83 2.39
-6.21 -1.96 2.39
-6.17 -2.08 2.39
-6.12 -2.21 2.39
-6.08 -2.33 2.39
-6.03 -2.45 2.39
-5.98 -2.57 2.39
-5.93 -2.69 2.39
-5.89 -2.82 2.40
-5.81 -2.93 2.39
-5.75 -3.04 2.39
-5.69 -3.16 2.39
-5.68 -3.30 2.41
-5.66 -3.45 2.44
-5.66 -3.61 2.46
-5.65 -3.76 2.49
-5.58 -3.88 2.49
-5.50 -3.99 2.49
-5.42 -4.10 2.49
-5.33 -4.21 2.49
-5.25 -4.32 2.49
-5.16 -4.42 2.49
-5.07 -4.52 2.49
-4.98 -4.63 2.49
-4.89 -4.73 2.49
-4.79 -4.82 2.49
-4.69 -4.92 2.49
-4.59 -5.01 2.49
-4.49 -5.11 2.49
-4.39 -5.20 2.49
-4.29 -5.29 2.49
-4.18 -5.37 2.49
-4.07 -5.46 2.49
-3.96 -5.54 2.49
-3.85 -5.62 2.49
-3.74 -5.70 2.49
-3.62 -5.77 2.49
-3.51 -5.85 2.49
-3.39 -5.92 2.49
-3.27 -5.99 2.49
-3.15 -6.05 2.49
-3.03 -6.12 2.49
-2.91 -6.18 2.49
-2.78 -6.24 2.49
-2.66 -6.29 2.49
-2.53 -6.35 2.49
-2.40 -6.40 2.49
-2.28 -6.45 2.49
-2.15 -6.50 2.49
-2.02 -6.54 2.49
-1.88 -6.58 2.49
-1.75 -6.62 2.49
-1.62 -6.66 2.49
-1.49 -6.69 2.49
-1.35 -6.72 2.49
-1.22 -6.75 2.49
-1.08 -6.78 2.49
-0.94 -6.80 2.49
-0.81 -6.82 2.49
-0.67 -6.84 2.49
-0.53 -6.85 2.49
-0.40 -6.87 2.49
-0.26 -6.88 2.49
-0.12 -6.88 2.49
0.02 -6.43 2.49
0.15 -6.43 2.49
0.28 -6.43 2.49
0.41 -6.43 2.49
0.54 -6.42 2.49
0.67 -6.41 2.49
0.79 -6.40 2.49
0.92 -6.39 2.49
1.05 -6.37 2.49
1.18 -6.35 2.49
1.31 -6.33 2.49
1.44 -6.30 2.49
1.56 -6.28 2.49
1.69 -6.25 2.49
1.82 -6.22 2.49
1.94 -6.18 2.49
