ply
format ascii 1.0
element vertex 2850
property float32 x
property float32 y
property float32 z
end_header
-13.44 -22.35 1.40
-13.35 -23.24 1.43
-13.34 -24.35 1.48
-13.52 -25.90 1.55
-13.59 -27.36 1.61
-13.72 -29.07 1.69
-14.05 -31.39 1.80
-13.96 -32.95 1.86
-13.96 -34.88 1.94
-14.27 -37.82 2.08
-14.86 -41.92 2.28
-14.26 -42.95 2.31
-13.75 -44.39 2.36
-13.26 -46.03 2.42
-12.68 -47.61 2.48
-11.36 -46.37 2.39
-10.48 -46.81 2.39
-9.58 -47.23 2.39
-8.67 -47.64 2.39
-7.86 -48.73 2.43
0.03 -35.68 2.49
0.73 -34.85 2.43
1.41 -34.40 2.39
2.11 -34.48 2.39
1.71 -21.07 1.46
3.47 -34.16 2.36
2.96 -24.26 1.68
3.37 -23.72 1.64
3.66 -22.51 1.55
4.07 -22.17 1.53
4.52 -22.14 1.53
4.77 -21.17 1.46
5.57 -22.62 1.57
8.97 -33.50 2.33
11.98 -41.38 2.88
9.27 -29.79 2.08
9.85 -29.55 2.07
10.57 -29.69 2.09
5.33 -14.09 1.00
14.44 -35.93 2.55
15.07 -35.42 2.53
15.69 -34.93 2.51
16.01 -33.81 2.45
16.44 -32.99 2.40
17.10 -32.66 2.40
17.69 -32.19 2.38
18.15 -31.52 2.35
18.64 -30.91 2.33
19.07 -30.24 2.30
19.70 -29.89 2.30
20.31 -29.51 2.30
20.91 -29.11 2.29
21.50 -28.71 2.29
22.02 -28.21 2.28
22.50 -27.65 2.27
23.07 -27.22 2.26
23.71 -26.87 2.27
24.19 -26.33 2.26
24.55 -25.67 2.24
25.09 -25.19 2.24
25.75 -24.84 2.25
25.98 -24.08 2.22
25.99 -23.14 2.18
25.67 -21.94 2.11
24.91 -20.44 2.01
24.48 -19.28 1.94
24.18 -18.27 1.89
24.18 -17.52 1.86
24.17 -16.79 1.83
24.03 -15.98 1.79
23.83 -15.17 1.75
23.62 -14.38 1.71
23.31 -13.56 1.67
22.98 -12.75 1.62
22.68 -12.00 1.58
22.44 -11.30 1.55
22.33 -10.69 1.53
22.27 -10.12 1.51
22.24 -9.57 1.49
22.21 -9.03 1.48
22.17 -8.51 1.46
22.15 -7.99 1.45
22.06 -7.46 1.43
21.94 -6.93 1.42
21.83 -6.42 1.40
21.71 -5.92 1.38
21.60 -5.42 1.37
21.50 -4.94 1.36
21.50 -4.49 1.35
21.49 -4.04 1.35
21.45 -3.59 1.34
21.42 -3.14 1.33
21.40 -2.70 1.33
21.45 -2.27 1.33
21.45 -1.84 1.33
21.39 -1.40 1.33
21.33 -0.97 1.32
21.30 -0.54 1.32
21.49 -0.11 1.33
21.46 0.32 1.33
21.39 0.75 1.33
21.32 1.17 1.33
21.24 1.60 1.33
21.26 2.03 1.33
21.14 2.45 1.33
21.03 2.86 1.33
20.91 3.27 1.33
20.81 3.69 1.33
20.72 4.10 1.33
20.71 4.53 1.34
20.70 4.97 1.34
20.68 5.40 1.35
20.67 5.84 1.36
20.62 6.28 1.37
20.60 6.73 1.38
20.73 7.24 1.40
20.87 7.76 1.42
20.94 8.27 1.44
21.08 8.81 1.47
21.18 9.36 1.49
21.28 9.91 1.51
21.27 10.44 1.53
21.19 10.93 1.55
21.11 11.43 1.56
21.02 11.93 1.58
20.93 12.44 1.59
20.83 12.96 1.61
20.73 13.48 1.62
20.62 14.00 1.64
20.50 14.53 1.66
20.38 15.07 1.68
20.48 15.79 1.72
20.76 16.68 1.78
20.92 17.51 1.82
21.03 18.33 1.87
21.25 19.29 1.93
21.57 20.39 2.00
21.64 21.28 2.05
21.70 22.22 2.11
21.58 23.00 2.15
21.44 23.79 2.19
2.79 4.32 0.36
2.67 4.33 0.36
2.49 4.22 0.35
2.44 4.33 0.35
2.33 4.34 0.35
11.49 24.89 1.97
11.00 25.15 1.97
7.12 17.21 1.34
5.90 15.12 1.18
5.61 15.26 1.18
5.98 17.34 1.34
5.66 17.55 1.35
5.51 18.34 1.40
7.52 26.99 2.06
6.59 27.95 2.13
5.96 27.72 2.11
3.55 18.32 1.39
4.81 31.52 2.39
3.35 25.38 1.93
3.14 28.13 2.14
2.88 31.46 2.39
2.24 31.41 2.39
1.60 31.36 2.39
0.97 31.29 2.39
0.35 31.97 2.45
-0.30 32.46 2.49
-0.95 32.36 2.49
-1.59 32.24 2.50
-2.23 32.12 2.50
-2.80 31.16 2.43
-3.50 31.83 2.50
-4.13 31.67 2.50
-4.75 31.50 2.50
-5.37 31.31 2.50
-5.98 31.11 2.50
-6.59 30.90 2.50
-7.19 30.68 2.50
-7.78 30.44 2.50
-8.37 30.20 2.50
-8.95 29.95 2.50
-9.52 29.68 2.49
-9.67 28.19 2.39
-10.21 27.93 2.39
-10.75 27.65 2.39
-11.27 27.37 2.39
-11.79 27.07 2.39
-12.31 26.77 2.39
-12.82 26.46 2.39
-13.32 26.14 2.39
-13.81 25.82 2.39
-14.30 25.48 2.39
-14.78 25.14 2.39
-22.85 37.16 3.58
-23.86 37.10 3.63
-20.94 31.16 3.10
-21.06 30.02 3.03
-17.28 23.61 2.42
-17.16 22.49 2.35
-16.41 20.63 2.19
-14.61 17.63 1.90
-14.08 16.31 1.79
-13.44 14.95 1.68
-13.20 14.10 1.61
-12.99 13.33 1.56
-12.88 12.70 1.52
-12.70 12.03 1.47
-12.55 11.42 1.43
-12.58 10.99 1.40
-12.60 10.57 1.38
-12.53 10.09 1.36
-12.47 9.63 1.33
-12.45 9.22 1.31
-12.46 8.85 1.29
-12.48 8.49 1.28
-12.54 8.17 1.27
-12.63 7.87 1.26
-12.71 7.57 1.25
-12.77 7.26 1.25
-12.81 6.95 1.24
-12.85 6.64 1.23
-12.93 6.36 1.22
-13.02 6.08 1.22
-13.10 5.80 1.22
-13.19 5.52 1.22
-13.25 5.24 1.21
-13.31 4.96 1.21
-13.47 4.71 1.21
-13.63 4.46 1.22
-13.74 4.19 1.22
-13.85 3.92 1.23
-13.97 3.65 1.23
-13.98 3.36 1.22
-13.98 3.06 1.22
-13.98 2.77 1.21
-13.98 2.48 1.21
-13.97 2.19 1.20
-13.97 1.90 1.20
-13.97 1.62 1.19
-13.98 1.33 1.19
-14.06 1.06 1.20
-6.23 0.34 0.53
-14.24 0.50 1.21
-14.34 0.21 1.21
-14.43 -0.08 1.22
-14.44 -0.37 1.22
-14.46 -0.66 1.22
-14.43 -0.95 1.22
-14.39 -1.24 1.22
-14.35 -1.52 1.22
-14.32 -1.81 1.21
-14.28 -2.10 1.21
-14.24 -2.39 1.21
-14.24 -2.68 1.21
-14.31 -2.99 1.22
-14.39 -3.31 1.23
-14.48 -3.64 1.25
-14.56 -3.98 1.26
-14.61 -4.30 1.27
-14.61 -4.63 1.27
-14.63 -4.96 1.28
-14.66 -5.30 1.29
-14.68 -5.64 1.30
-14.71 -5.99 1.31
-14.72 -6.35 1.32
-14.72 -6.70 1.33
-14.66 -7.03 1.33
-14.57 -7.36 1.34
-14.49 -7.68 1.34
-14.41 -8.01 1.34
-14.32 -8.34 1.35
-14.23 -8.68 1.35
-14.11 -9.00 1.36
-13.95 -9.30 1.36
-13.79 -9.60 1.36
-13.63 -9.90 1.36
-13.47 -10.20 1.36
-13.31 -10.50 1.36
-13.14 -10.81 1.36
-13.08 -11.21 1.37
-13.08 -11.67 1.39
-13.08 -12.15 1.42
-13.06 -12.63 1.44
-13.05 -13.14 1.46
-6.67 -6.99 0.76
-6.51 -7.11 0.76
-13.05 -14.83 1.55
-13.05 -15.44 1.58
-13.06 -16.09 1.61
-14.41 -18.51 1.82
-14.16 -18.96 1.83
-14.02 -19.58 1.86
-13.73 -20.00 1.87
-13.43 -20.44 1.88
-13.12 -20.87 1.89
-12.96 -21.57 1.92
-12.94 -22.55 1.98
-12.89 -23.54 2.03
-12.86 -24.65 2.10
-12.86 -25.91 2.18
-12.83 -27.21 2.26
-12.60 -28.16 2.31
-12.31 -29.08 2.36
-11.95 -29.87 2.39
-11.55 -30.65 2.43
-10.81 -30.51 2.39
-10.22 -30.82 2.39
-9.63 -31.12 2.39
-9.04 -31.41 2.39
-8.43 -31.69 2.39
-7.82 -31.95 2.39
-7.24 -32.39 2.40
-6.86 -33.85 2.49
-6.20 -34.09 2.49
-5.53 -34.32 2.49
-4.86 -34.54 2.49
-4.17 -34.74 2.49
-3.49 -34.93 2.49
-2.80 -35.11 2.49
-2.10 -35.28 2.49
-1.39 -35.43 2.49
-0.68 -35.56 2.49
0.03 -26.95 2.49
0.57 -27.01 2.49
1.07 -26.04 2.40
1.59 -25.97 2.39
1.72 -21.06 1.94
2.65 -26.01 2.39
2.83 -23.20 2.13
3.27 -22.93 2.11
3.62 -22.21 2.04
4.04 -21.97 2.02
4.09 -20.01 1.85
4.42 -19.61 1.81
4.77 -19.34 1.79
4.80 -17.90 1.66
4.38 -15.12 1.41
4.55 -14.62 1.37
4.73 -14.17 1.33
5.01 -14.05 1.33
5.25 -13.85 1.32
5.55 -13.81 1.32
13.39 -31.48 3.02
14.05 -31.26 3.02
14.71 -31.04 3.02
4.98 -9.99 0.98
5.17 -9.88 0.98
16.64 -30.28 3.02
17.28 -29.99 3.02
17.68 -29.32 2.99
18.01 -28.55 2.94
18.80 -28.52 2.97
19.61 -28.49 3.00
19.90 -27.70 2.95
20.10 -26.82 2.90
20.88 -26.73 2.93
21.70 -26.66 2.96
22.08 -26.04 2.94
22.26 -25.22 2.89
22.78 -24.78 2.89
23.46 -24.51 2.91
23.94 -24.04 2.90
24.24 -23.38 2.88
24.41 -22.62 2.84
24.37 -21.68 2.78
24.31 -20.78 2.72
23.62 -19.38 2.60
22.96 -18.08 2.48
22.68 -17.13 2.41
22.57 -16.35 2.36
22.17 -15.39 2.29
21.92 -14.58 2.23
21.88 -13.92 2.19
21.82 -13.28 2.16
21.75 -12.65 2.13
21.70 -12.04 2.10
21.66 -11.46 2.07
21.61 -10.88 2.04
21.55 -10.32 2.01
21.54 -9.79 1.99
21.54 -9.27 1.97
21.51 -8.75 1.96
21.48 -8.24 1.94
21.47 -7.75 1.92
21.46 -7.26 1.91
21.38 -6.76 1.89
21.28 -6.26 1.87
21.17 -5.77 1.85
21.06 -5.29 1.83
20.95 -4.82 1.81
20.85 -4.35 1.79
20.83 -3.91 1.79
20.80 -3.48 1.78
20.77 -3.05 1.77
20.73 -2.62 1.76
20.70 -2.19 1.76
20.61 -1.77 1.75
20.46 -1.34 1.73
20.32 -0.92 1.72
20.17 -0.51 1.71
20.02 -0.11 1.70
19.88 0.29 1.68
19.74 0.69 1.67
19.59 1.08 1.67
19.45 1.46 1.66
19.33 1.84 1.65
19.28 2.23 1.65
19.35 2.63 1.66
19.42 3.04 1.68
19.49 3.45 1.69
19.41 3.84 1.69
19.34 4.23 1.70
19.33 4.64 1.71
19.32 5.04 1.72
19.31 5.46 1.73
19.29 5.87 1.74
19.24 6.28 1.75
19.15 6.68 1.75
19.05 7.08 1.76
18.87 7.44 1.76
18.63 7.79 1.75
18.39 8.12 1.75
18.24 8.50 1.75
18.12 8.89 1.76
17.99 9.28 1.77
17.86 9.67 1.78
17.72 10.06 1.79
17.58 10.45 1.80
17.43 10.84 1.81
17.27 11.22 1.82
17.11 11.62 1.83
16.97 12.03 1.85
16.97 12.55 1.88
16.89 13.02 1.90
16.81 13.50 1.93
16.72 13.99 1.95
16.62 14.49 1.98
16.53 14.99 2.01
16.54 15.63 2.05
16.63 16.35 2.11
16.61 17.00 2.15
16.58 17.67 2.20
16.55 18.35 2.25
16.38 18.92 2.28
16.19 19.47 2.31
16.05 20.12 2.36
16.79 21.92 2.54
16.83 22.92 2.62
18.12 25.75 2.91
2.79 4.32 0.48
2.67 4.33 0.47
2.49 4.22 0.46
2.44 4.33 0.46
2.33 4.34 0.46
2.19 4.28 0.45
5.63 11.58 1.21
5.46 11.82 1.23
5.49 12.54 1.29
5.71 13.79 1.42
5.43 13.90 1.42
5.59 15.20 1.54
5.82 16.87 1.71
5.53 17.13 1.72
5.25 17.44 1.75
6.68 23.93 2.39
6.18 24.00 2.39
5.68 24.06 2.39
5.19 24.11 2.39
3.56 18.32 1.81
4.19 24.18 2.39
3.70 24.20 2.39
3.22 24.33 2.40
2.83 25.25 2.49
2.32 25.25 2.49
1.80 25.23 2.50
1.29 25.21 2.50
0.79 25.18 2.50
0.28 25.13 2.50
-0.22 25.08 2.50
-0.73 25.02 2.50
-1.23 24.95 2.50
-1.72 24.86 2.50
-2.22 24.76 2.50
-2.71 24.65 2.50
-3.19 24.54 2.50
-3.68 24.41 2.50
-4.16 24.28 2.50
-4.63 24.13 2.49
-5.11 23.98 2.49
-5.34 22.84 2.39
-5.79 22.68 2.39
-6.23 22.52 2.39
-6.67 22.34 2.39
-7.10 22.16 2.39
-7.53 21.97 2.39
-7.96 21.78 2.39
-8.38 21.57 2.39
-8.80 21.36 2.39
-9.21 21.14 2.39
-10.44 22.72 2.60
-10.54 21.78 2.52
-10.79 21.19 2.48
-11.07 20.70 2.45
-11.34 20.23 2.42
-11.61 19.77 2.40
-11.89 19.34 2.38
-12.17 18.93 2.36
-12.42 18.49 2.34
-12.65 18.04 2.32
-12.87 17.59 2.30
-12.85 16.84 2.24
-12.62 15.87 2.14
-12.61 15.22 2.09
-12.55 14.54 2.04
-12.26 13.64 1.95
-12.25 13.09 1.91
-12.31 12.64 1.88
-12.24 12.07 1.83
-12.10 11.46 1.78
-12.12 11.03 1.75
-12.16 10.63 1.73
-12.20 10.23 1.70
-12.15 9.78 1.67
-12.10 9.35 1.64
-12.13 8.99 1.62
-12.15 8.63 1.60
-12.16 8.28 1.58
-12.21 7.95 1.56
-12.29 7.66 1.56
-12.37 7.37 1.55
-12.41 7.06 1.54
-12.45 6.75 1.52
-12.49 6.45 1.51
-12.55 6.17 1.51
-12.63 5.90 1.50
-12.71 5.63 1.50
-12.80 5.36 1.50
-12.83 5.07 1.49
-12.86 4.79 1.48
-12.93 4.52 1.48
-13.08 4.28 1.48
-13.23 4.04 1.49
-13.38 3.79 1.50
-13.53 3.54 1.51
-13.65 3.28 1.51
-13.64 2.99 1.51
-13.63 2.70 1.50
-13.62 2.41 1.49
-13.61 2.13 1.48
-13.59 1.85 1.48
-13.58 1.57 1.47
-13.57 1.29 1.47
-13.66 1.03 1.47
-6.23 0.34 0.67
-13.91 0.48 1.50
-14.00 0.21 1.50
-14.08 -0.08 1.51
-14.17 -0.36 1.52
-14.19 -0.65 1.52
-14.16 -0.93 1.52
-14.12 -1.21 1.52
-14.09 -1.50 1.52
-14.05 -1.78 1.51
-14.01 -2.06 1.51
-13.98 -2.34 1.51
-13.94 -2.63 1.51
-13.97 -2.92 1.52
-14.04 -3.24 1.53
-14.12 -3.55 1.55
-14.20 -3.88 1.56
-14.28 -4.21 1.58
-14.33 -4.54 1.59
-14.35 -4.86 1.60
-14.37 -5.20 1.61
-14.39 -5.53 1.62
-14.41 -5.88 1.64
-14.43 -6.23 1.65
-14.44 -6.58 1.67
-14.41 -6.92 1.67
-14.33 -7.23 1.68
-14.24 -7.55 1.68
-14.16 -7.88 1.69
-14.02 -8.17 1.69
-13.84 -8.44 1.68
-13.65 -8.71 1.68
-13.53 -9.02 1.68
-13.50 -9.40 1.70
-13.39 -9.73 1.71
-13.23 -10.02 1.71
-13.07 -10.32 1.71
-12.91 -10.62 1.71
-12.74 -10.92 1.72
-12.73 -11.36 1.74
-12.72 -11.82 1.77
-12.71 -12.30 1.80
-12.70 -12.79 1.83
-6.67 -6.99 0.98
-12.67 -13.83 1.90
-12.66 -14.39 1.94
-12.66 -14.98 1.98
-12.65 -15.60 2.02
-12.64 -16.24 2.06
-13.22 -17.71 2.21
-13.04 -18.22 2.24
-12.84 -18.73 2.26
-12.62 -19.22 2.28
-12.47 -19.85 2.32
-12.21 -20.33 2.35
-11.94 -20.82 2.37
-11.67 -21.32 2.39
-11.39 -21.85 2.42
-10.85 -21.86 2.39
-10.43 -22.13 2.39
-10.01 -22.39 2.39
-9.58 -22.64 2.39
-9.15 -22.88 2.39
-8.71 -23.12 2.39
-8.26 -23.35 2.39
-7.81 -23.56 2.39
-7.35 -23.78 2.39
-6.92 -24.08 2.40
-6.70 -25.21 2.49
-6.21 -25.41 2.49
-5.71 -25.59 2.49
-5.21 -25.76 2.49
-4.71 -25.93 2.49
-4.19 -26.08 2.49
-3.68 -26.23 2.49
-3.16 -26.36 2.49
-2.64 -26.48 2.49
-2.11 -26.60 2.49
-1.58 -26.70 2.49
-1.05 -26.79 2.49
-0.51 -26.88 2.49
0.03 -21.63 2.49
0.46 -21.67 2.49
0.90 -21.69 2.49
1.28 -20.82 2.39
1.70 -20.83 2.39
2.12 -20.83 2.39
2.55 -20.82 2.39
2.97 -20.81 2.39
3.39 -20.78 2.39
3.82 -20.75 2.39
4.03 -19.68 2.27
4.15 -18.40 2.13
4.47 -18.11 2.10
4.06 -15.12 1.76
4.32 -14.91 1.74
4.48 -14.36 1.69
4.70 -14.08 1.66
4.98 -13.99 1.66
5.03 -13.25 1.58
4.37 -10.87 1.30
4.60 -10.80 1.30
4.89 -10.88 1.32
4.76 -10.04 1.23
4.82 -9.66 1.19
4.97 -9.48 1.18
5.16 -9.39 1.18
5.61 -9.73 1.24
6.00 -9.94 1.28
14.70 -23.29 3.02
15.19 -23.03 3.02
15.67 -22.75 3.02
16.14 -22.46 3.02
16.61 -22.16 3.02
17.07 -21.85 3.02
17.53 -21.53 3.02
4.55 -5.36 0.76
4.51 -5.11 0.74
4.62 -5.02 0.74
4.72 -4.93 0.74
4.87 -4.89 0.75
20.12 -19.40 3.02
20.53 -19.01 3.02
20.92 -18.62 3.02
21.31 -18.21 3.02
21.52 -17.65 3.00
20.92 -16.47 2.87
20.94 -15.81 2.82
21.06 -15.25 2.80
20.91 -14.51 2.74
20.89 -13.89 2.69
20.96 -13.34 2.67
20.99 -12.78 2.64
20.95 -12.18 2.60
20.92 -11.61 2.56
20.90 -11.06 2.53
20.87 -10.51 2.50
20.85 -9.98 2.47
20.85 -9.47 2.45
20.86 -8.97 2.43
20.85 -8.48 2.41
20.84 -7.99 2.39
20.83 -7.51 2.37
20.83 -7.04 2.35
20.82 -6.58 2.33
20.75 -6.10 2.31
20.65 -5.63 2.29
20.52 -5.15 2.26
20.21 -4.65 2.22
19.91 -4.16 2.17
19.65 -3.69 2.14
19.40 -3.25 2.10
19.15 -2.81 2.07
18.92 -2.39 2.04
18.69 -1.98 2.01
18.62 -1.60 2.00
18.54 -1.22 1.99
18.46 -0.84 1.98
18.38 -0.47 1.97
18.30 -0.10 1.96
18.21 0.27 1.96
18.13 0.63 1.95
18.01 0.99 1.94
17.88 1.34 1.93
17.74 1.69 1.92
17.61 2.03 1.91
17.48 2.37 1.90
17.36 2.71 1.90
17.24 3.05 1.89
17.11 3.38 1.89
16.98 3.71 1.88
16.86 4.04 1.88
16.73 4.37 1.88
16.65 4.70 1.88
16.57 5.04 1.89
16.48 5.38 1.89
16.39 5.71 1.89
16.29 6.05 1.90
16.19 6.38 1.91
16.10 6.72 1.91
16.00 7.06 1.92
15.90 7.40 1.93
15.81 7.75 1.94
15.71 8.10 1.95
15.61 8.45 1.96
15.52 8.80 1.97
15.42 9.16 1.99
15.31 9.51 2.00
15.20 9.87 2.01
15.08 10.23 2.03
14.99 10.61 2.05
14.89 11.00 2.07
14.79 11.39 2.09
14.68 11.78 2.11
14.57 12.18 2.13
14.46 12.59 2.16
14.35 13.01 2.18
14.33 13.53 2.22
14.76 14.50 2.34
6.16 6.30 1.00
5.99 6.38 0.99
5.82 6.45 0.99
5.56 6.42 0.97
5.38 6.47 0.96
5.22 6.54 0.96
5.11 6.67 0.96
5.03 6.84 0.97
12.88 18.28 2.57
9.16 13.58 1.89
2.79 4.32 0.59
2.67 4.33 0.59
2.49 4.22 0.57
2.44 4.33 0.58
2.33 4.34 0.57
2.22 4.34 0.57
5.58 11.46 1.49
5.42 11.73 1.51
5.29 12.07 1.55
5.16 12.46 1.59
5.35 13.68 1.73
5.59 15.19 1.91
5.40 15.64 1.96
5.37 16.61 2.07
5.05 16.78 2.08
4.78 17.12 2.12
5.00 19.41 2.39
4.60 19.47 2.39
4.20 19.52 2.39
3.56 18.32 2.24
3.40 19.59 2.39
3.00 19.62 2.39
2.72 20.48 2.49
2.30 20.49 2.49
1.88 20.50 2.49
1.47 20.49 2.49
1.06 20.48 2.49
0.64 20.46 2.49
0.23 20.43 2.49
-0.18 20.39 2.49
-0.59 20.34 2.49
-0.99 20.29 2.49
-1.40 20.23 2.49
-1.80 20.16 2.49
-2.20 20.08 2.49
-2.60 20.00 2.49
-2.99 19.91 2.49
-3.39 19.81 2.49
-3.78 19.70 2.49
-4.17 19.59 2.49
-4.55 19.47 2.49
-4.93 19.34 2.49
-5.28 19.09 2.48
-5.45 18.28 2.39
-5.81 18.14 2.39
-6.16 17.99 2.39
-6.51 17.83 2.39
-6.86 17.67 2.39
-7.20 17.51 2.39
-7.54 17.33 2.39
-7.88 17.15 2.39
-8.21 16.97 2.39
-8.54 16.78 2.39
-8.86 16.58 2.39
-9.18 16.38 2.39
-9.88 16.82 2.49
-10.16 16.53 2.48
-10.39 16.17 2.46
-10.61 15.80 2.44
-10.82 15.44 2.42
-11.03 15.08 2.40
-11.22 14.71 2.38
-11.36 14.29 2.35
-11.50 13.88 2.32
-11.48 13.31 2.27
-11.56 12.86 2.23
-11.63 12.43 2.20
-11.70 12.01 2.17
-11.67 11.51 2.12
-11.68 11.07 2.08
-11.73 10.67 2.05
-11.77 10.28 2.03
-11.81 9.91 2.00
-11.79 9.49 1.97
-11.79 9.11 1.94
-11.82 8.76 1.91
-11.84 8.41 1.89
-11.86 8.07 1.87
-11.88 7.74 1.85
-11.97 7.46 1.84
-12.02 7.16 1.82
-12.07 6.86 1.81
-12.11 6.57 1.80
-12.15 6.28 1.78
-12.18 5.99 1.77
-12.26 5.73 1.77
-12.34 5.46 1.76
-12.40 5.19 1.76
-12.44 4.92 1.75
-12.47 4.64 1.74
-12.50 4.37 1.73
-12.58 4.12 1.73
-12.72 3.88 1.74
-12.86 3.64 1.75
-13.00 3.40 1.76
-13.06 3.14 1.76
-13.08 2.87 1.75
-13.09 2.59 1.74
-13.08 2.32 1.74
-13.07 2.05 1.73
-13.06 1.78 1.72
-13.05 1.51 1.72
-13.05 1.24 1.71
-13.06 0.98 1.71
-6.23 0.34 0.81
-13.20 0.46 1.72
-13.41 0.20 1.75
-13.64 -0.07 1.78
-13.84 -0.35 1.80
-13.92 -0.64 1.81
-13.90 -0.92 1.81
-13.86 -1.19 1.81
-13.78 -1.47 1.80
-13.69 -1.73 1.79
-13.59 -2.00 1.78
-13.50 -2.27 1.77
-13.41 -2.53 1.76
-13.32 -2.79 1.76
-13.31 -3.07 1.76
-13.31 -3.35 1.77
-13.53 -3.70 1.81
-13.81 -4.07 1.85
-14.01 -4.44 1.89
-14.07 -4.77 1.91
-14.09 -5.10 1.92
-14.11 -5.43 1.94
-14.12 -5.76 1.95
-14.14 -6.10 1.97
-14.16 -6.45 1.99
-14.17 -6.80 2.01
-14.09 -7.12 2.01
-13.92 -7.38 2.00
-13.74 -7.65 2.00
-13.56 -7.91 1.99
-13.38 -8.17 1.99
-13.20 -8.43 1.98
-13.02 -8.69 1.98
-12.87 -8.96 1.98
-12.83 -9.32 2.00
-12.78 -9.69 2.02
-12.74 -10.06 2.04
-12.68 -10.44 2.06
-12.52 -10.73 2.06
-12.40 -11.07 2.08
-12.39 -11.52 2.11
-12.37 -11.97 2.14
-12.35 -12.45 2.18
-6.66 -6.99 1.20
-12.32 -13.45 2.26
-12.25 -13.93 2.30
-12.10 -14.33 2.32
-11.94 -14.73 2.34
-11.76 -15.12 2.36
-11.57 -15.50 2.38
-11.36 -15.88 2.39
-11.15 -16.27 2.41
-10.94 -16.67 2.44
-10.43 -16.61 2.39
-10.11 -16.85 2.39
-9.79 -17.08 2.39
-9.46 -17.30 2.39
-9.13 -17.52 2.39
-8.80 -17.74 2.39
-8.45 -17.95 2.39
-8.11 -18.15 2.39
-7.76 -18.34 2.39
-7.40 -18.53 2.39
-7.04 -18.72 2.39
-6.73 -19.03 2.41
-6.58 -19.88 2.49
-6.20 -20.05 2.49
-5.80 -20.21 2.49
-5.41 -20.36 2.49
-5.01 -20.51 2.49
-4.60 -20.65 2.49
-4.20 -20.78 2.49
-3.79 -20.90 2.49
-3.37 -21.01 2.49
-2.96 -21.12 2.49
-2.54 -21.22 2.49
-2.12 -21.31 2.49
-1.69 -21.39 2.49
-1.26 -21.46 2.49
-0.84 -21.53 2.49
-0.40 -21.58 2.49
0.03 -18.05 2.49
0.39 -18.07 2.49
0.76 -18.09 2.49
1.12 -18.10 2.49
1.42 -17.36 2.39
1.77 -17.35 2.39
2.13 -17.34 2.39
2.48 -17.32 2.39
2.83 -17.30 2.39
3.18 -17.26 2.39
3.53 -17.22 2.39
3.46 -15.31 2.13
3.68 -14.88 2.08
3.95 -14.69 2.06
4.24 -14.60 2.06
4.47 -14.33 2.03
4.73 -14.14 2.01
4.00 -11.20 1.60
4.14 -10.91 1.57
4.28 -10.64 1.54
4.46 -10.47 1.53
4.61 -10.25 1.50
4.59 -9.68 1.43
4.75 -9.52 1.42
4.94 -9.42 1.42
5.19 -9.42 1.43
5.53 -9.58 1.47
5.84 -9.68 1.50
12.17 -19.28 3.02
5.94 -9.00 1.43
6.06 -8.80 1.41
6.26 -8.71 1.42
8.60 -11.47 1.89
8.62 -11.03 1.85
4.35 -5.34 0.91
4.36 -5.15 0.89
4.48 -5.07 0.89
4.60 -5.00 0.89
4.70 -4.91 0.89
4.89 -4.91 0.91
5.08 -4.90 0.93
16.95 -15.69 3.02
17.27 -15.36 3.02
17.59 -15.03 3.02
17.90 -14.68 3.02
18.20 -14.33 3.02
18.50 -13.97 3.02
18.79 -13.61 3.02
19.07 -13.23 3.02
19.34 -12.86 3.02
19.60 -12.47 3.02
19.86 -12.08 3.02
19.95 -11.60 3.00
19.85 -11.01 2.95
19.75 -10.45 2.90
19.75 -9.95 2.87
19.85 -9.50 2.86
19.85 -9.01 2.83
19.84 -8.54 2.80
19.84 -8.07 2.78
19.92 -7.64 2.77
19.91 -7.18 2.75
19.88 -6.72 2.72
19.85 -6.27 2.70
19.68 -5.79 2.66
19.42 -5.29 2.61
19.17 -4.81 2.56
18.92 -4.35 2.52
18.67 -3.90 2.47
18.43 -3.46 2.43
18.19 -3.04 2.39
17.95 -2.63 2.36
17.71 -2.24 2.32
17.50 -1.86 2.29
17.34 -1.49 2.26
17.18 -1.13 2.24
17.02 -0.78 2.22
16.86 -0.43 2.20
16.70 -0.09 2.17
16.55 0.24 2.16
16.47 0.57 2.15
16.40 0.90 2.14
16.34 1.22 2.14
16.27 1.55 2.13
16.19 1.87 2.13
16.12 2.19 2.13
16.09 2.51 2.13
16.06 2.84 2.14
16.00 3.16 2.14
15.90 3.47 2.14
15.81 3.79 2.14
15.71 4.10 2.13
15.59 4.40 2.13
15.44 4.70 2.13
15.30 4.99 2.12
15.15 5.28 2.12
15.00 5.57 2.11
14.85 5.85 2.11
14.68 6.13 2.11
14.55 6.42 2.11
4.69 2.18 0.69
4.54 2.22 0.67
4.47 2.30 0.67
4.39 2.38 0.67
14.20 8.05 2.18
14.11 8.38 2.19
14.04 8.72 2.21
13.96 9.07 2.23
13.88 9.41 2.25
13.79 9.76 2.27
13.71 10.12 2.29
13.62 10.48 2.32
13.52 10.84 2.34
6.21 5.19 1.09
5.87 5.11 1.05
5.68 5.15 1.04
5.39 5.09 1.01
5.27 5.17 1.00
5.13 5.25 1.00
5.58 5.94 1.11
5.45 6.04 1.11
5.27 6.08 1.10
5.11 6.14 1.09
4.97 6.22 1.09
4.85 6.33 1.10
4.72 6.42 1.10
4.89 6.94 1.17
5.07 7.51 1.25
2.79 4.32 0.71
2.67 4.33 0.70
2.49 4.22 0.68
2.44 4.33 0.69
2.33 4.34 0.69
2.22 4.34 0.68
5.18 10.63 1.65
5.39 11.65 1.80
5.29 12.06 1.85
5.11 12.33 1.88
5.32 13.60 2.06
5.56 15.09 2.27
5.33 15.43 2.31
5.20 16.08 2.39
4.87 16.16 2.39
4.54 16.22 2.39
4.20 16.28 2.39
3.87 16.34 2.39
3.53 16.38 2.39
3.20 16.42 2.39
2.86 16.46 2.39
2.64 17.19 2.49
2.29 17.22 2.49
1.94 17.23 2.49
1.59 17.24 2.49
1.24 17.24 2.49
0.89 17.23 2.49
0.55 17.22 2.49
0.20 17.20 2.49
-0.15 17.17 2.49
-0.49 17.14 2.49
-0.83 17.10 2.49
-1.17 17.05 2.49
-1.51 17.00 2.49
-1.85 16.94 2.49
-2.19 16.87 2.49
-2.52 16.80 2.49
-2.86 16.72 2.49
-3.19 16.64 2.49
-3.51 16.54 2.49
-3.84 16.45 2.49
-4.16 16.34 2.49
-4.49 16.23 2.49
-4.80 16.12 2.49
-5.12 16.00 2.49
-5.40 15.78 2.48
-5.51 15.09 2.39
-5.80 14.95 2.39
-6.09 14.82 2.39
-6.38 14.67 2.39
-6.67 14.52 2.39
-6.95 14.37 2.39
-7.23 14.21 2.39
-7.50 14.05 2.39
-7.78 13.88 2.39
-8.04 13.70 2.39
-8.31 13.52 2.39
-8.57 13.34 2.39
-8.83 13.15 2.39
-9.08 12.96 2.39
-9.33 12.76 2.39
-9.95 13.05 2.49
-10.11 12.72 2.46
-10.25 12.38 2.44
-10.41 12.07 2.42
-10.57 11.77 2.40
-10.73 11.47 2.39
-10.88 11.17 2.37
-11.02 10.87 2.36
-11.15 10.56 2.34
-11.27 10.26 2.33
-11.39 9.96 2.31
-11.44 9.60 2.28
-11.47 9.24 2.25
-11.50 8.89 2.22
-11.52 8.54 2.19
-11.55 8.21 2.17
-11.58 7.88 2.14
-11.60 7.56 2.12
-11.65 7.26 2.10
-11.70 6.97 2.09
-11.74 6.68 2.07
-11.78 6.39 2.06
-11.82 6.11 2.04
-11.86 5.83 2.03
-11.91 5.56 2.02
-11.99 5.31 2.01
-12.03 5.04 2.00
-12.06 4.77 1.99
-12.10 4.50 1.98
-12.13 4.24 1.98
-12.16 3.98 1.97
-12.24 3.73 1.97
-12.38 3.50 1.98
-12.50 3.27 1.99
-12.52 3.01 1.98
-12.54 2.75 1.97
-12.56 2.49 1.97
-12.58 2.23 1.96
-12.58 1.97 1.96
-12.57 1.71 1.95
-12.56 1.45 1.94
-12.56 1.20 1.94
-12.58 0.94 1.93
-6.23 0.34 0.96
-12.61 0.44 1.93
-12.62 0.18 1.93
-12.75 -0.07 1.95
-12.95 -0.33 1.98
-13.15 -0.60 2.01
-13.26 -0.87 2.03
-13.26 -1.14 2.03
-13.23 -1.41 2.03
-13.15 -1.67 2.02
-13.06 -1.92 2.01
-12.97 -2.18 2.01
-12.88 -2.43 2.00
-12.79 -2.68 1.99
-12.75 -2.94 1.99
-12.74 -3.21 2.00
-12.73 -3.48 2.00
-12.72 -3.76 2.01
-12.71 -4.03 2.02
-12.94 -4.39 2.07
-13.19 -4.77 2.12
-13.17 -5.07 2.13
-13.13 -5.36 2.14
-13.09 -5.65 2.15
-13.09 -5.97 2.17
-13.10 -6.29 2.19
-13.12 -6.63 2.21
-13.09 -6.95 2.23
-13.01 -7.24 2.23
-12.92 -7.54 2.24
-12.82 -7.83 2.25
-12.72 -8.13 2.26
-12.60 -8.41 2.26
-12.43 -8.66 2.26
-12.25 -8.91 2.26
-12.20 -9.25 2.28
-12.15 -9.60 2.30
-12.04 -9.91 2.31
-11.91 -10.22 2.33
-11.78 -10.53 2.34
-11.65 -10.84 2.35
-11.52 -11.15 2.37
-11.38 -11.47 2.38
-6.66 -6.99 1.42
-11.10 -12.12 2.41
-10.95 -12.46 2.43
-10.80 -12.79 2.45
-10.29 -12.71 2.39
-10.05 -12.93 2.39
-9.81 -13.15 2.39
-9.56 -13.36 2.39
-9.30 -13.58 2.39
-9.04 -13.78 2.39
-8.77 -13.98 2.39
-8.51 -14.18 2.39
-8.23 -14.37 2.39
-7.96 -14.56 2.39
-7.67 -14.74 2.39
-7.39 -14.91 2.39
-7.10 -15.08 2.39
-6.81 -15.25 2.39
-6.59 -15.60 2.42
-6.48 -16.23 2.49
-6.16 -16.39 2.49
-5.84 -16.53 2.49
-5.52 -16.68 2.49
-5.19 -16.81 2.49
-4.86 -16.94 2.49
-4.53 -17.06 2.49
-4.19 -17.18 2.49
-3.85 -17.29 2.49
-3.51 -17.39 2.49
-3.16 -17.49 2.49
-2.82 -17.58 2.49
-2.47 -17.66 2.49
-2.12 -17.74 2.49
-1.76 -17.81 2.49
-1.41 -17.87 2.49
-1.05 -17.93 2.49
-0.69 -17.97 2.49
-0.33 -18.01 2.49
0.03 -15.47 2.49
0.34 -15.49 2.49
0.65 -15.50 2.49
0.96 -15.51 2.49
1.28 -15.51 2.49
1.52 -14.86 2.39
1.82 -14.84 2.39
2.12 -14.83 2.39
2.42 -14.80 2.39
2.72 -14.77 2.39
3.02 -14.73 2.39
3.32 -14.69 2.39
3.62 -14.64 2.39
3.92 -14.58 2.39
4.22 -14.52 2.39
4.48 -14.35 2.37
3.81 -11.39 1.90
3.91 -10.95 1.83
4.10 -10.79 1.82
4.20 -10.43 1.77
4.33 -10.15 1.73
4.06 -9.02 1.55
4.04 -8.52 1.48
4.20 -8.40 1.47
4.41 -8.40 1.48
4.57 -8.30 1.48
4.79 -8.30 1.50
5.15 -8.52 1.55
5.21 -8.25 1.52
5.34 -8.10 1.51
5.47 -7.94 1.50
5.62 -7.82 1.49
5.77 -7.69 1.49
5.96 -7.63 1.50
4.40 -5.40 1.08
4.34 -5.12 1.04
4.45 -5.04 1.04
4.58 -4.98 1.04
4.68 -4.89 1.04
4.84 -4.85 1.06
5.03 -4.85 1.08
5.25 -4.86 1.10
14.69 -13.07 3.02
8.49 -7.25 1.72
8.67 -7.11 1.72
15.48 -12.18 3.02
15.73 -11.88 3.02
15.97 -11.57 3.02
16.21 -11.25 3.02
16.44 -10.93 3.02
16.66 -10.60 3.02
16.88 -10.27 3.02
17.09 -9.93 3.02
17.29 -9.59 3.02
17.48 -9.25 3.02
17.67 -8.90 3.02
17.85 -8.54 3.02
18.02 -8.18 3.02
18.19 -7.82 3.02
18.34 -7.46 3.02
18.47 -7.08 3.02
18.55 -6.69 3.01
18.62 -6.30 3.00
18.56 -5.86 2.97
18.33 -5.39 2.92
18.11 -4.93 2.87
17.89 -4.49 2.82
17.68 -4.06 2.77
17.46 -3.65 2.72
17.25 -3.24 2.68
17.04 -2.85 2.64
16.83 -2.47 2.60
16.62 -2.10 2.56
16.44 -1.74 2.53
16.31 -1.40 2.50
16.17 -1.06 2.48
16.04 -0.73 2.46
15.90 -0.41 2.44
15.76 -0.09 2.41
15.63 0.23 2.40
15.51 0.54 2.38
15.39 0.84 2.37
15.27 1.14 2.35
15.15 1.44 2.34
15.03 1.73 2.33
14.91 2.02 2.31
14.83 2.31 2.31
14.80 2.61 2.32
14.78 2.92 2.32
14.73 3.22 2.33
14.68 3.51 2.33
14.62 3.81 2.33
14.56 4.11 2.34
14.49 4.40 2.34
14.40 4.69 2.35
14.27 4.97 2.34
14.12 5.24 2.34
13.97 5.50 2.33
13.82 5.76 2.33
4.33 1.91 0.74
4.30 2.00 0.74
4.32 2.12 0.75
4.26 2.20 0.75
4.22 2.28 0.75
13.21 7.48 2.37
13.13 7.79 2.39
13.05 8.10 2.41
12.97 8.42 2.43
12.86 8.72 2.44
12.73 9.01 2.45
12.61 9.31 2.47
12.47 9.60 2.48
12.34 9.89 2.50
5.79 4.83 1.19
5.53 4.81 1.16
5.30 4.80 1.13
5.08 4.80 1.11
4.96 4.87 1.10
4.85 4.95 1.10
4.74 5.04 1.10
4.64 5.14 1.10
4.56 5.26 1.11
4.69 5.63 1.17
4.62 5.79 1.19
4.54 5.92 1.20
4.57 6.21 1.24
4.68 6.64 1.31
4.88 7.22 1.40
4.88 7.56 1.45
2.67 4.32 0.82
2.50 4.22 0.79
2.45 4.33 0.81
2.31 4.29 0.79
5.17 10.09 1.84
5.05 10.35 1.88
5.30 11.46 2.06
5.14 11.72 2.09
5.09 12.26 2.17
5.32 13.59 2.39
5.04 13.68 2.39
4.76 13.76 2.39
4.48 13.83 2.39
4.19 13.90 2.39
3.91 13.96 2.39
3.62 14.01 2.39
3.33 14.06 2.39
3.05 14.10 2.39
2.76 14.14 2.39
2.58 14.78 2.49
2.28 14.81 2.49
1.98 14.83 2.49
1.67 14.85 2.49
1.37 14.86 2.49
1.07 14.86 2.49
0.77 14.86 2.49
0.48 14.85 2.49
0.18 14.84 2.49
-0.12 14.82 2.49
-0.42 14.79 2.49
-0.71 14.76 2.49
-1.01 14.72 2.49
-1.30 14.68 2.49
-1.60 14.63 2.49
-1.89 14.58 2.49
-2.18 14.52 2.49
-2.46 14.45 2.49
-2.75 14.38 2.49
-3.04 14.31 2.49
-3.32 14.22 2.49
-3.60 14.14 2.49
-3.88 14.05 2.49
-4.15 13.95 2.49
-4.43 13.85 2.49
-4.70 13.74 2.49
-4.97 13.62 2.49
-5.24 13.51 2.49
-5.50 13.37 2.49
-5.53 12.73 2.39
-5.77 12.58 2.39
-6.02 12.45 2.39
-6.26 12.31 2.39
-6.50 12.17 2.39
-6.74 12.03 2.39
-6.97 11.88 2.39
-7.20 11.73 2.39
-7.43 11.57 2.39
-7.65 11.41 2.39
-7.87 11.24 2.39
-8.09 11.07 2.39
-8.31 10.90 2.39
-8.52 10.72 2.39
-8.72 10.54 2.39
-8.93 10.35 2.39
-9.13 10.16 2.39
-9.32 9.97 2.39
-9.51 9.77 2.39
-9.90 9.77 2.44
-10.02 9.50 2.42
-10.15 9.24 2.41
-10.28 8.98 2.40
-10.40 8.73 2.39
-10.52 8.48 2.38
-10.61 8.20 2.36
-10.68 7.92 2.34
-10.75 7.64 2.32
-10.81 7.36 2.31
-10.90 7.11 2.29
-10.99 6.86 2.29
-11.10 6.62 2.28
-11.22 6.38 2.28
-11.33 6.15 2.28
-11.44 5.91 2.27
-11.54 5.68 2.27
-11.59 5.41 2.26
-11.64 5.15 2.25
-11.67 4.89 2.24
-11.71 4.63 2.23
-11.75 4.37 2.22
-11.78 4.12 2.21
-11.81 3.86 2.20
-11.84 3.61 2.19
-11.92 3.38 2.19
-11.99 3.14 2.19
-12.02 2.89 2.19
-12.04 2.64 2.18
-12.06 2.39 2.17
-12.08 2.14 2.17
-12.10 1.89 2.16
-12.11 1.65 2.16
-12.11 1.40 2.15
-12.11 1.15 2.15
-12.12 0.91 2.15
-6.23 0.34 1.10
-12.15 0.42 2.15
-12.17 0.18 2.15
-12.18 -0.07 2.15
-12.19 -0.31 2.15
-12.32 -0.57 2.17
-12.46 -0.82 2.20
-12.46 -1.08 2.20
-12.46 -1.33 2.20
-12.45 -1.58 2.21
-12.45 -1.84 2.21
-12.44 -2.09 2.21
-12.40 -2.34 2.21
-12.31 -2.58 2.21
-12.23 -2.82 2.20
-12.22 -3.08 2.21
-12.21 -3.34 2.21
-12.20 -3.60 2.22
-12.18 -3.87 2.23
-12.17 -4.13 2.24
-12.15 -4.40 2.25
-12.13 -4.67 2.27
-12.21 -4.99 2.30
-12.17 -5.26 2.31
-12.12 -5.53 2.32
-12.07 -5.80 2.33
-12.02 -6.08 2.34
-11.94 -6.34 2.34
-11.86 -6.61 2.35
-11.77 -6.87 2.36
-11.70 -7.15 2.37
-11.61 -7.42 2.38
-11.52 -7.69 2.39
-11.42 -7.96 2.40
-11.31 -8.23 2.41
-11.20 -8.50 2.42
-11.09 -8.77 2.43
-10.97 -9.04 2.44
-10.86 -9.32 2.45
-10.74 -9.60 2.46
-10.25 -9.54 2.39
-10.07 -9.75 2.39
-9.88 -9.96 2.39
-6.66 -6.99 1.64
-9.50 -10.38 2.39
-9.30 -10.58 2.39
-9.10 -10.78 2.39
-8.89 -10.98 2.39
-8.68 -11.17 2.39
-8.46 -11.35 2.39
-8.24 -11.54 2.39
-8.02 -11.72 2.39
-7.80 -11.89 2.39
-7.57 -12.06 2.39
-7.33 -12.23 2.39
-7.10 -12.39 2.39
-6.85 -12.55 2.39
-6.61 -12.70 2.39
-6.49 -13.11 2.44
-6.38 -13.56 2.49
-6.11 -13.70 2.49
-5.84 -13.84 2.49
-5.57 -13.98 2.49
-5.30 -14.11 2.49
-5.02 -14.23 2.49
-4.74 -14.35 2.49
-4.46 -14.46 2.49
-4.18 -14.57 2.49
-3.89 -14.67 2.49
-3.60 -14.77 2.49
-3.31 -14.86 2.49
-3.01 -14.95 2.49
-2.71 -15.03 2.49
-2.42 -15.10 2.49
-2.12 -15.17 2.49
-1.81 -15.23 2.49
-1.51 -15.28 2.49
-1.20 -15.33 2.49
-0.90 -15.38 2.49
-0.59 -15.41 2.49
-0.28 -15.45 2.49
0.03 -13.52 2.49
0.30 -13.54 2.49
0.57 -13.55 2.49
0.85 -13.55 2.49
1.12 -13.55 2.49
1.39 -13.54 2.49
1.60 -12.96 2.39
1.86 -12.95 2.39
2.12 -12.92 2.39
2.38 -12.89 2.39
2.64 -12.86 2.39
2.90 -12.82 2.39
3.16 -12.77 2.39
3.42 -12.72 2.39
3.68 -12.66 2.39
3.94 -12.60 2.39
3.75 -11.20 2.14
3.77 -10.56 2.03
3.86 -10.15 1.96
4.01 -9.94 1.93
4.19 -9.81 1.92
3.90 -8.67 1.71
3.98 -8.38 1.67
4.04 -8.08 1.62
4.14 -7.88 1.60
4.29 -7.79 1.59
4.57 -7.92 1.64
4.84 -8.02 1.68
5.14 -8.14 1.72
5.25 -7.96 1.70
5.35 -7.77 1.68
5.48 -7.62 1.67
5.68 -7.57 1.69
5.84 -7.46 1.69
4.44 -5.45 1.25
4.33 -5.10 1.19
4.43 -5.01 1.19
4.55 -4.95 1.19
4.67 -4.87 1.20
4.79 -4.80 1.20
4.96 -4.78 1.22
5.16 -4.78 1.24
7.73 -6.88 1.83
7.94 -6.78 1.85
8.18 -6.70 1.87
8.46 -6.66 1.90
8.80 -6.64 1.95
13.88 -10.05 3.02
14.09 -9.77 3.02
14.28 -9.49 3.02
7.28 -4.63 1.52
7.26 -4.41 1.50
7.30 -4.24 1.49
7.49 -4.15 1.51
7.74 -4.09 1.54
15.35 -7.73 3.02
15.50 -7.42 3.02
15.65 -7.11 3.02
15.79 -6.79 3.02
15.93 -6.48 3.02
16.06 -6.16 3.02
16.18 -5.84 3.02
16.29 -5.51 3.02
16.40 -5.18 3.02
16.50 -4.85 3.02
16.60 -4.52 3.02
16.68 -4.19 3.02
16.58 -3.81 2.99
16.37 -3.42 2.94
16.17 -3.04 2.89
15.97 -2.67 2.85
15.77 -2.32 2.81
15.58 -1.97 2.76
15.44 -1.64 2.73
15.34 -1.32 2.71
15.24 -1.00 2.69
15.13 -0.69 2.67
15.03 -0.39 2.65
14.92 -0.08 2.63
14.80 0.21 2.61
14.69 0.51 2.59
14.56 0.79 2.58
14.43 1.08 2.56
14.30 1.36 2.54
14.17 1.63 2.52
14.03 1.90 2.51
13.90 2.17 2.49
13.78 2.43 2.48
13.68 2.70 2.47
13.57 2.96 2.46
13.46 3.22 2.46
13.35 3.48 2.45
13.24 3.73 2.44
13.13 3.99 2.44
13.05 4.25 2.44
12.97 4.52 2.45
12.89 4.78 2.45
4.43 1.74 0.85
4.27 1.78 0.83
4.21 1.86 0.82
4.17 1.94 0.82
4.17 2.04 0.83
4.14 2.13 0.84
4.10 2.22 0.84
12.21 6.91 2.52
12.07 7.16 2.52
11.94 7.41 2.53
11.83 7.67 2.54
11.72 7.94 2.55
11.60 8.20 2.56
11.48 8.47 2.58
11.35 8.73 2.59
7.66 6.14 1.78
5.55 4.64 1.31
5.40 4.70 1.30
5.21 4.71 1.28
4.97 4.68 1.24
4.83 4.74 1.23
4.72 4.82 1.23
4.62 4.91 1.23
4.51 5.00 1.23
4.42 5.10 1.23
4.36 5.24 1.25
4.33 5.42 1.27
4.44 5.79 1.34
4.41 5.99 1.37
4.61 6.53 1.47
4.76 7.04 1.57
4.72 7.29 1.60
5.42 8.76 1.90
2.50 4.22 0.91
5.20 9.21 1.96
5.35 9.93 2.09
5.20 10.14 2.12
5.02 10.30 2.13
4.88 10.54 2.16
5.10 11.62 2.37
4.91 11.82 2.39
4.67 11.91 2.39
4.42 11.98 2.39
4.17 12.05 2.39
3.93 12.12 2.39
3.68 12.18 2.39
3.43 12.23 2.39
3.18 12.28 2.39
2.93 12.33 2.39
2.67 12.37 2.39
2.53 12.94 2.49
2.26 12.97 2.49
2.00 13.00 2.49
1.74 13.02 2.49
1.47 13.03 2.49
1.21 13.04 2.49
0.95 13.05 2.49
0.68 13.05 2.49
0.42 13.04 2.49
0.16 13.03 2.49
-0.10 13.02 2.49
-0.36 13.00 2.49
-0.62 12.97 2.49
-0.88 12.94 2.49
-1.14 12.91 2.49
-1.40 12.87 2.49
-1.66 12.82 2.49
-1.91 12.77 2.49
-2.16 12.71 2.49
-2.42 12.65 2.49
-2.67 12.59 2.49
-2.92 12.52 2.49
-3.16 12.44 2.49
-3.41 12.37 2.49
-3.65 12.28 2.49
-3.90 12.19 2.49
-4.14 12.10 2.49
-4.37 12.00 2.49
-4.61 11.90 2.49
-4.84 11.79 2.49
-5.07 11.68 2.49
-5.30 11.57 2.49
-5.53 11.45 2.49
-5.57 10.97 2.42
-5.73 10.73 2.39
-5.94 10.61 2.39
-6.14 10.48 2.39
-6.35 10.34 2.39
-6.55 10.20 2.39
-6.75 10.06 2.39
-6.94 9.92 2.39
-7.14 9.77 2.39
-7.33 9.61 2.39
-7.51 9.46 2.39
-7.70 9.30 2.39
-7.88 9.14 2.39
-8.05 8.97 2.39
-8.23 8.80 2.39
-8.40 8.63 2.39
-8.56 8.45 2.39
-8.73 8.27 2.39
-8.89 8.09 2.39
-9.04 7.91 2.39
-9.20 7.72 2.39
-9.34 7.53 2.39
-9.49 7.34 2.39
-9.63 7.14 2.39
-9.89 7.03 2.42
-9.98 6.80 2.41
-10.07 6.57 2.40
-10.16 6.34 2.39
-10.25 6.11 2.38
-10.34 5.89 2.38
-10.45 5.67 2.38
-10.55 5.45 2.37
-10.64 5.23 2.37
-10.72 5.01 2.37
-10.79 4.78 2.36
-10.86 4.55 2.36
-10.95 4.33 2.36
-11.03 4.11 2.35
-11.11 3.88 2.35
-11.18 3.66 2.35
-11.25 3.43 2.36
-11.32 3.21 2.35
-11.37 2.97 2.35
-11.41 2.74 2.35
-11.45 2.51 2.35
-11.48 2.27 2.34
-11.51 2.04 2.34
-11.54 1.81 2.34
-11.57 1.57 2.33
-11.59 1.34 2.33
-11.61 1.10 2.33
-11.63 0.87 2.33
-6.23 0.34 1.25
-11.68 0.40 2.33
-11.69 0.17 2.33
-11.71 -0.07 2.34
-11.71 -0.30 2.34
-11.72 -0.54 2.34
-11.72 -0.78 2.34
-11.71 -1.01 2.34
-11.70 -1.25 2.34
-11.69 -1.49 2.35
-11.67 -1.72 2.35
-11.65 -1.96 2.35
-11.62 -2.20 2.35
-11.60 -2.43 2.35
-11.56 -2.67 2.36
-11.52 -2.91 2.36
-11.46 -3.14 2.36
-11.40 -3.37 2.35
-11.34 -3.60 2.36
-11.29 -3.84 2.36
-11.23 -4.07 2.36
-11.16 -4.30 2.36
-11.10 -4.53 2.37
-11.02 -4.77 2.37
-10.97 -5.00 2.38
-10.92 -5.25 2.39
-10.88 -5.50 2.40
-10.83 -5.75 2.41
-10.77 -6.00 2.42
-10.70 -6.25 2.43
-10.62 -6.49 2.44
-10.53 -6.73 2.45
-10.16 -6.79 2.39
-10.03 -7.00 2.39
-9.90 -7.20 2.39
-9.76 -7.41 2.39
-9.62 -7.61 2.39
-9.48 -7.81 2.39
-9.33 -8.01 2.39
-9.17 -8.20 2.39
-9.02 -8.40 2.39
-8.86 -8.58 2.39
-8.69 -8.77 2.39
-6.66 -6.99 1.87
-8.35 -9.13 2.39
-8.17 -9.31 2.39
-8.00 -9.48 2.39
-7.81 -9.65 2.39
-7.63 -9.82 2.39
-7.44 -9.98 2.39
-7.24 -10.14 2.39
-7.05 -10.30 2.39
-6.85 -10.45 2.39
-6.64 -10.60 2.39
-6.44 -10.74 2.39
-6.42 -11.22 2.46
-6.27 -11.50 2.49
-6.05 -11.63 2.49
-5.82 -11.77 2.49
-5.59 -11.90 2.49
-5.36 -12.02 2.49
-5.12 -12.14 2.49
-4.88 -12.26 2.49
-4.64 -12.37 2.49
-4.40 -12.48 2.49
-4.15 -12.58 2.49
-3.91 -12.68 2.49
-3.66 -12.77 2.49
-3.40 -12.86 2.49
-3.15 -12.94 2.49
-2.89 -13.02 2.49
-2.63 -13.09 2.49
-2.37 -13.16 2.49
-2.11 -13.22 2.49
-1.85 -13.28 2.49
-1.58 -13.33 2.49
-1.32 -13.37 2.49
-1.05 -13.41 2.49
-0.78 -13.45 2.49
-0.51 -13.48 2.49
-0.24 -13.51 2.49
0.03 -12.00 2.49
0.27 -12.01 2.49
0.51 -12.02 2.49
0.75 -12.02 2.49
0.99 -12.02 2.49
1.24 -12.01 2.49
1.48 -11.99 2.49
1.65 -11.48 2.39
1.88 -11.45 2.39
2.11 -11.43 2.39
2.34 -11.39 2.39
2.57 -11.36 2.39
2.80 -11.31 2.39
3.03 -11.27 2.39
3.26 -11.22 2.39
3.49 -11.16 2.39
3.65 -10.89 2.35
3.65 -10.22 2.22
3.77 -9.90 2.16
3.90 -9.68 2.13
3.77 -8.83 1.95
3.82 -8.47 1.89
3.93 -8.27 1.86
4.02 -8.05 1.83
4.12 -7.85 1.80
4.26 -7.73 1.79
4.52 -7.83 1.83
4.77 -7.90 1.87
5.03 -7.96 1.90
5.30 -8.02 1.94
5.30 -7.68 1.88
5.41 -7.52 1.87
5.62 -7.49 1.89
5.81 -7.43 1.90
4.51 -5.54 1.44
4.38 -5.15 1.36
4.41 -4.98 1.34
4.51 -4.90 1.34
4.66 -4.86 1.35
4.76 -4.77 1.35
4.91 -4.73 1.37
5.12 -4.74 1.40
5.28 -4.70 1.42
5.45 -4.65 1.43
8.00 -6.55 2.07
8.25 -6.49 2.10
6.47 -4.89 1.62
6.53 -4.72 1.61
6.58 -4.56 1.60
6.67 -4.43 1.60
6.77 -4.30 1.60
6.87 -4.18 1.60
6.97 -4.05 1.61
7.07 -3.92 1.61
7.20 -3.81 1.62
7.38 -3.71 1.65
13.69 -6.55 3.02
13.82 -6.28 3.02
13.95 -6.00 3.02
14.07 -5.72 3.02
14.18 -5.44 3.02
14.29 -5.15 3.02
14.39 -4.87 3.02
14.48 -4.58 3.02
14.57 -4.29 3.02
14.65 -3.99 3.02
14.70 -3.69 3.02
14.71 -3.38 3.01
14.72 -3.07 2.99
14.72 -2.77 2.98
14.71 -2.46 2.97
14.69 -2.16 2.96
14.65 -1.85 2.94
14.54 -1.54 2.92
14.44 -1.24 2.89
14.33 -0.94 2.86
14.21 -0.65 2.84
5.96 -0.15 1.19
5.84 -0.03 1.17
5.78 0.08 1.15
13.76 0.47 2.75
13.66 0.74 2.73
13.55 1.01 2.72
13.44 1.27 2.70
13.33 1.53 2.69
13.22 1.79 2.67
13.10 2.04 2.66
12.97 2.29 2.64
6.19 1.22 1.27
5.89 1.28 1.21
5.87 1.40 1.21
5.87 1.53 1.22
12.51 3.53 2.61
12.42 3.77 2.61
12.33 4.01 2.61
12.23 4.26 2.61
4.65 1.72 1.00
4.36 1.72 0.95
4.19 1.75 0.92
4.14 1.82 0.91
4.09 1.90 0.91
4.05 1.98 0.91
4.04 2.08 0.92
4.02 2.17 0.93
4.37 2.48 1.02
7.71 4.57 1.82
7.54 4.68 1.80
7.53 4.89 1.83
7.79 5.28 1.92
7.81 5.52 1.95
6.11 4.50 1.55
5.97 4.59 1.54
5.72 4.59 1.50
5.49 4.58 1.46
5.33 4.64 1.45
5.15 4.66 1.42
4.88 4.60 1.38
4.75 4.65 1.37
4.59 4.69 1.35
4.49 4.78 1.35
4.41 4.88 1.36
4.33 4.99 1.36
4.34 5.21 1.40
4.32 5.40 1.43
4.27 5.56 1.45
4.30 5.84 1.50
4.24 6.01 1.53
4.19 6.19 1.55
4.68 7.23 1.79
4.58 7.39 1.81
2.50 4.22 1.02
5.12 9.07 2.17
5.17 9.59 2.28
5.18 10.10 2.37
5.01 10.26 2.39
4.80 10.35 2.39
4.58 10.43 2.39
4.37 10.51 2.39
4.15 10.58 2.39
3.93 10.65 2.39
3.71 10.71 2.39
3.49 10.77 2.39
3.27 10.83 2.39
3.05 10.88 2.39
2.83 10.92 2.39
2.61 10.97 2.39
2.49 11.48 2.49
2.25 11.51 2.49
2.02 11.54 2.49
1.78 11.57 2.49
1.55 11.59 2.49
1.31 11.60 2.49
1.08 11.61 2.49
0.85 11.62 2.49
0.61 11.62 2.49
0.38 11.62 2.49
0.14 11.61 2.49
-0.09 11.60 2.49
-0.32 11.58 2.49
-0.55 11.56 2.49
-0.78 11.54 2.49
-1.02 11.51 2.49
-1.24 11.47 2.49
-1.47 11.43 2.49
-1.70 11.39 2.49
-1.93 11.34 2.49
-2.15 11.29 2.49
-2.38 11.23 2.49
-2.60 11.17 2.49
-2.82 11.10 2.49
-3.04 11.03 2.49
-3.26 10.96 2.49
-3.47 10.88 2.49
-3.69 10.80 2.49
-3.90 10.71 2.49
-4.11 10.62 2.49
-4.32 10.53 2.49
-4.53 10.43 2.49
-4.73 10.33 2.49
-4.94 10.22 2.49
-5.14 10.11 2.49
-5.33 10.00 2.49
-5.53 9.88 2.49
-5.62 9.59 2.45
-5.67 9.24 2.39
-5.85 9.12 2.39
-6.03 8.99 2.39
-6.20 8.86 2.39
-6.38 8.73 2.39
-6.55 8.59 2.39
-6.71 8.46 2.39
-6.88 8.31 2.39
-7.04 8.17 2.39
-7.20 8.02 2.39
-7.35 7.87 2.39
-7.51 7.72 2.39
-7.66 7.56 2.39
-7.80 7.40 2.39
-7.95 7.24 2.39
-8.09 7.07 2.39
-8.22 6.91 2.39
-8.36 6.74 2.39
-8.49 6.56 2.39
-8.61 6.39 2.39
-8.74 6.21 2.39
-8.86 6.03 2.39
-8.97 5.85 2.39
-9.09 5.67 2.39
-9.20 5.48 2.39
-9.30 5.30 2.39
-9.41 5.11 2.39
-9.50 4.91 2.39
-9.60 4.72 2.39
-9.69 4.53 2.39
-9.78 4.33 2.39
-10.05 4.21 2.44
-10.11 4.00 2.43
-10.17 3.79 2.43
-10.25 3.58 2.43
-10.32 3.38 2.43
-10.38 3.17 2.43
-10.43 2.95 2.42
-10.47 2.74 2.42
-10.51 2.53 2.42
-10.55 2.31 2.42
-10.59 2.10 2.41
-10.62 1.88 2.41
-10.65 1.67 2.41
-10.67 1.45 2.41
-10.69 1.23 2.41
-10.71 1.02 2.40
-10.72 0.80 2.40
-6.20 0.34 1.39
-10.74 0.37 2.40
-10.75 0.15 2.40
-10.76 -0.06 2.40
-10.77 -0.28 2.40
-10.77 -0.50 2.41
-10.78 -0.71 2.41
-10.77 -0.93 2.41
-10.75 -1.15 2.41
-10.73 -1.37 2.41
-10.71 -1.58 2.41
-10.69 -1.80 2.41
-10.66 -2.01 2.41
-10.63 -2.23 2.41
-10.60 -2.45 2.42
-10.56 -2.67 2.42
-10.53 -2.88 2.42
-10.47 -3.09 2.42
-10.40 -3.30 2.42
-10.34 -3.51 2.42
-10.27 -3.72 2.42
-10.09 -3.89 2.39
-10.02 -4.10 2.39
-9.94 -4.30 2.39
-9.86 -4.50 2.39
-9.78 -4.70 2.39
-9.69 -4.90 2.39
-9.59 -5.10 2.39
-9.50 -5.30 2.39
-9.40 -5.49 2.39
-9.29 -5.68 2.39
-9.18 -5.87 2.39
-9.07 -6.06 2.39
-8.95 -6.25 2.39
-8.83 -6.43 2.39
-8.71 -6.62 2.39
-8.58 -6.80 2.39
-8.45 -6.97 2.39
-8.32 -7.15 2.39
-8.18 -7.32 2.39
-8.04 -7.49 2.39
-7.90 -7.66 2.39
-7.75 -7.82 2.39
-6.65 -6.99 2.09
-7.44 -8.15 2.39
-7.29 -8.30 2.39
-7.13 -8.46 2.39
-6.96 -8.61 2.39
-6.79 -8.75 2.39
-6.62 -8.90 2.39
-6.45 -9.04 2.39
-6.35 -9.29 2.42
-6.36 -9.71 2.49
-6.17 -9.85 2.49
-5.98 -9.98 2.49
-5.78 -10.11 2.49
-5.58 -10.24 2.49
-5.38 -10.36 2.49
-5.18 -10.48 2.49
-4.97 -10.59 2.49
-4.77 -10.70 2.49
-4.56 -10.81 2.49
-4.34 -10.91 2.49
-4.13 -11.01 2.49
-3.91 -11.10 2.49
-3.69 -11.19 2.49
-3.47 -11.27 2.49
-3.25 -11.35 2.49
-3.02 -11.43 2.49
-2.80 -11.50 2.49
-2.57 -11.57 2.49
-2.34 -11.63 2.49
-2.11 -11.69 2.49
-1.87 -11.74 2.49
-1.64 -11.79 2.49
-1.40 -11.84 2.49
-1.17 -11.88 2.49
-0.93 -11.91 2.49
-0.69 -11.94 2.49
-0.45 -11.97 2.49
-0.21 -11.99 2.49
0.03 -10.78 2.49
0.24 -10.79 2.49
0.46 -10.79 2.49
0.68 -10.79 2.49
0.90 -10.79 2.49
1.11 -10.78 2.49
1.33 -10.76 2.49
1.55 -10.74 2.49
1.69 -10.28 2.39
1.90 -10.25 2.39
2.11 -10.22 2.39
2.31 -10.19 2.39
2.52 -10.15 2.39
2.72 -10.10 2.39
2.93 -10.06 2.39
3.13 -10.01 2.39
3.33 -9.95 2.39
3.54 -9.89 2.39
3.74 -9.82 2.39
3.92 -9.70 2.38
3.70 -8.67 2.14
3.78 -8.38 2.09
3.89 -8.19 2.06
4.00 -8.00 2.03
4.13 -7.85 2.01
4.27 -7.75 2.00
4.49 -7.77 2.03
4.70 -7.77 2.05
4.97 -7.86 2.10
5.13 -7.76 2.10
5.22 -7.56 2.07
5.35 -7.43 2.06
5.50 -7.32 2.06
5.71 -7.29 2.08
4.67 -5.72 1.66
4.48 -5.28 1.56
4.42 -5.00 1.50
4.53 -4.92 1.50
4.66 -4.86 1.51
4.75 -4.77 1.51
4.89 -4.71 1.52
5.09 -4.71 1.55
5.25 -4.66 1.57
5.41 -4.62 1.59
5.58 -4.57 1.61
6.20 -4.88 1.76
6.22 -4.69 1.74
5.86 -4.24 1.62
6.00 -4.16 1.63
5.97 -3.96 1.60
6.59 -4.19 1.74
6.67 -4.05 1.74
6.74 -3.91 1.74
6.84 -3.79 1.74
6.94 -3.67 1.75
7.02 -3.53 1.75
7.00 -3.35 1.73
7.19 -3.26 1.76
12.47 -5.36 3.02
12.58 -5.11 3.02
12.68 -4.86 3.02
12.78 -4.61 3.02
12.87 -4.35 3.02
12.95 -4.09 3.02
13.03 -3.83 3.02
13.10 -3.57 3.02
13.17 -3.31 3.02
13.24 -3.04 3.02
13.29 -2.78 3.02
13.34 -2.51 3.02
13.34 -2.23 3.01
13.33 -1.96 3.00
5.57 -0.71 1.25
5.46 -0.58 1.22
5.49 -0.47 1.23
5.53 -0.36 1.24
5.45 -0.25 1.22
5.44 -0.14 1.21
5.46 -0.03 1.22
5.55 0.08 1.24
5.54 0.19 1.24
5.48 0.30 1.23
5.45 0.41 1.22
5.40 0.51 1.21
5.35 0.61 1.20
5.37 0.73 1.21
5.43 0.85 1.23
5.49 0.97 1.25
5.65 1.11 1.29
5.92 1.29 1.36
5.82 1.39 1.34
5.79 1.51 1.34
5.81 1.64 1.36
11.82 3.59 2.78
11.73 3.82 2.77
4.70 1.63 1.12
4.48 1.66 1.07
4.31 1.69 1.04
4.20 1.75 1.03
4.15 1.83 1.02
4.10 1.91 1.02
4.07 1.99 1.02
4.06 2.09 1.03
4.04 2.18 1.04
4.05 2.29 1.05
4.49 2.66 1.18
4.38 2.72 1.17
4.30 2.79 1.16
5.89 3.99 1.62
5.79 4.09 1.61
5.88 4.34 1.66
5.84 4.49 1.68
5.56 4.45 1.62
5.42 4.52 1.61
5.28 4.59 1.60
5.13 4.64 1.58
4.78 4.50 1.50
4.64 4.55 1.49
4.50 4.60 1.48
4.39 4.67 1.47
4.31 4.77 1.48
4.24 4.88 1.49
4.29 5.15 1.54
4.29 5.36 1.58
4.25 5.53 1.61
4.16 5.65 1.62
4.06 5.75 1.63
4.00 5.91 1.65
3.94 6.09 1.68
4.56 7.37 2.01
2.50 4.22 1.14
5.07 8.96 2.39
4.88 9.05 2.39
4.69 9.14 2.39
4.50 9.22 2.39
4.31 9.30 2.39
4.12 9.37 2.39
3.93 9.44 2.39
3.73 9.51 2.39
3.54 9.57 2.39
3.34 9.63 2.39
3.14 9.69 2.39
2.95 9.74 2.39
2.75 9.78 2.39
2.55 9.83 2.39
2.45 10.29 2.49
2.24 10.33 2.49
2.03 10.36 2.49
1.82 10.39 2.49
1.61 10.41 2.49
1.40 10.43 2.49
1.19 10.45 2.49
0.98 10.46 2.49
0.76 10.46 2.49
0.55 10.47 2.49
0.34 10.46 2.49
0.13 10.46 2.49
-0.08 10.45 2.49
-0.29 10.43 2.49
-0.50 10.42 2.49
-0.70 10.39 2.49
-0.91 10.37 2.49
-1.12 10.34 2.49
-1.33 10.30 2.49
-1.53 10.26 2.49
-1.74 10.22 2.49
-1.94 10.18 2.49
-2.14 10.13 2.49
-2.34 10.07 2.49
-2.54 10.01 2.49
-2.74 9.95 2.49
-2.94 9.89 2.49
-3.13 9.82 2.49
-3.33 9.74 2.49
-3.52 9.67 2.49
-3.71 9.59 2.49
-3.90 9.50 2.49
-4.08 9.41 2.49
-4.27 9.32 2.49
-4.45 9.23 2.49
-4.63 9.13 2.49
-4.81 9.03 2.49
-4.99 8.92 2.49
-5.17 8.81 2.49
-5.34 8.70 2.49
-5.51 8.59 2.49
-5.66 8.45 2.49
-5.68 8.12 2.43
-5.76 7.88 2.39
-5.91 7.76 2.39
-6.06 7.64 2.39
-6.21 7.51 2.39
-6.36 7.38 2.39
-6.50 7.25 2.39
-6.64 7.11 2.39
-6.78 6.97 2.39
-6.92 6.83 2.39
-7.05 6.69 2.39
-7.18 6.54 2.39
-7.31 6.39 2.39
-7.43 6.24 2.39
-7.55 6.09 2.39
-7.67 5.93 2.39
-7.78 5.77 2.39
-7.90 5.62 2.39
-8.00 5.45 2.39
-8.11 5.29 2.39
-8.21 5.12 2.39
-8.31 4.96 2.39
-8.41 4.79 2.39
-8.50 4.62 2.39
-8.59 4.44 2.39
-8.68 4.27 2.39
-8.76 4.09 2.39
-8.84 3.91 2.39
-8.92 3.74 2.39
-8.99 3.55 2.39
-9.06 3.37 2.39
-9.12 3.19 2.39
-9.18 3.01 2.39
-9.24 2.82 2.39
-9.30 2.63 2.39
-9.35 2.45 2.39
-9.40 2.26 2.39
-9.44 2.07 2.39
-9.48 1.88 2.39
-9.52 1.69 2.39
-9.55 1.49 2.39
-9.58 1.30 2.39
-9.61 1.11 2.39
-9.63 0.92 2.39
-9.65 0.72 2.39
-6.20 0.34 1.53
-9.67 0.33 2.39
-9.68 0.14 2.39
-9.69 -0.06 2.39
-9.68 -0.25 2.39
-9.68 -0.45 2.39
-9.67 -0.64 2.39
-9.66 -0.84 2.39
-9.65 -1.03 2.39
-9.63 -1.23 2.39
-9.61 -1.42 2.39
-9.58 -1.61 2.39
-9.55 -1.81 2.39
-9.52 -2.00 2.39
-9.48 -2.19 2.39
-9.44 -2.38 2.39
-9.39 -2.57 2.39
-9.34 -2.76 2.39
-9.29 -2.95 2.39
-9.24 -3.14 2.39
-9.18 -3.33 2.39
-9.11 -3.51 2.39
-9.05 -3.70 2.39
-8.98 -3.88 2.39
-8.90 -4.07 2.39
-8.82 -4.25 2.39
-8.74 -4.43 2.39
-8.66 -4.60 2.39
-8.57 -4.78 2.39
-8.48 -4.96 2.39
-8.38 -5.13 2.39
-8.29 -5.30 2.39
-8.18 -5.47 2.39
-8.08 -5.64 2.39
-7.97 -5.81 2.39
-7.86 -5.97 2.39
-7.74 -6.13 2.39
-7.62 -6.29 2.39
-7.50 -6.45 2.39
-7.38 -6.60 2.39
-7.25 -6.76 2.39
-7.12 -6.91 2.39
-6.99 -7.06 2.39
-6.65 -6.99 2.32
-6.71 -7.34 2.39
-6.57 -7.48 2.39
-6.42 -7.62 2.39
-6.30 -7.79 2.40
-6.30 -8.12 2.46
-6.22 -8.36 2.49
-6.06 -8.50 2.49
-5.89 -8.62 2.49
-5.73 -8.75 2.49
-5.55 -8.87 2.49
-5.38 -8.99 2.49
-5.20 -9.11 2.49
-5.03 -9.22 2.49
-4.84 -9.33 2.49
-4.66 -9.43 2.49
-4.48 -9.53 2.49
-4.29 -9.63 2.49
-4.10 -9.73 2.49
-3.91 -9.82 2.49
-3.71 -9.90 2.49
-3.52 -9.99 2.49
-3.32 -10.07 2.49
-3.12 -10.14 2.49
-2.92 -10.21 2.49
-2.71 -10.28 2.49
-2.51 -10.34 2.49
-2.30 -10.40 2.49
-2.10 -10.46 2.49
-1.89 -10.51 2.49
-1.68 -10.56 2.49
-1.47 -10.60 2.49
-1.26 -10.64 2.49
-1.05 -10.67 2.49
-0.83 -10.70 2.49
-0.62 -10.73 2.49
-0.40 -10.75 2.49
-0.19 -10.77 2.49
0.03 -9.77 2.49
0.22 -9.78 2.49
0.42 -9.78 2.49
0.62 -9.78 2.49
0.81 -9.77 2.49
1.01 -9.76 2.49
1.21 -9.75 2.49
1.40 -9.73 2.49
1.60 -9.71 2.49
1.72 -9.29 2.39
1.92 -9.30 2.40
2.10 -9.23 2.39
2.28 -9.19 2.39
2.47 -9.15 2.39
2.65 -9.11 2.39
2.84 -9.06 2.39
3.02 -9.01 2.39
3.20 -8.95 2.39
3.39 -8.89 2.39
3.57 -8.83 2.39
3.74 -8.76 2.39
3.81 -8.44 2.32
3.88 -8.17 2.27
3.99 -7.97 2.23
4.12 -7.84 2.22
4.28 -7.76 2.22
4.49 -7.76 2.24
4.69 -7.76 2.26
4.96 -7.85 2.32
5.07 -7.68 2.29
5.21 -7.55 2.28
5.35 -7.43 2.28
5.29 -7.04 2.19
5.41 -6.91 2.18
5.65 -6.93 2.22
4.59 -5.41 1.76
4.45 -5.03 1.67
4.55 -4.94 1.67
4.65 -4.85 1.67
4.75 -4.76 1.67
4.88 -4.70 1.68
5.08 -4.70 1.71
5.21 -4.63 1.73
5.37 -4.58 1.75
5.52 -4.53 1.77
5.46 -4.29 1.72
5.52 -4.16 1.71
5.55 -4.02 1.69
5.58 -3.87 1.68
5.61 -3.73 1.66
5.66 -3.60 1.66
5.73 -3.48 1.65
5.77 -3.35 1.65
5.79 -3.21 1.63
5.86 -3.10 1.64
5.97 -3.00 1.65
6.10 -2.92 1.67
6.22 -2.83 1.69
6.38 -2.74 1.71
11.37 -4.62 3.02
11.46 -4.39 3.02
11.54 -4.16 3.02
11.63 -3.93 3.02
11.70 -3.70 3.02
6.02 -1.77 1.55
5.97 -1.63 1.53
6.08 -1.53 1.55
6.21 -1.43 1.57
6.31 -1.32 1.59
12.06 -2.27 3.02
5.43 -0.91 1.36
5.37 -0.79 1.34
5.32 -0.67 1.32
5.30 -0.56 1.31
5.31 -0.46 1.32
5.31 -0.35 1.31
5.31 -0.24 1.31
5.30 -0.14 1.31
5.32 -0.03 1.31
5.35 0.08 1.32
5.36 0.18 1.32
4.21 0.23 1.04
4.29 0.32 1.06
4.43 0.42 1.10
4.54 0.52 1.13
4.57 0.62 1.14
4.59 0.71 1.15
4.51 0.79 1.13
4.45 0.88 1.13
4.53 0.99 1.15
4.84 1.16 1.24
5.71 1.49 1.47
5.69 1.60 1.47
5.73 1.74 1.49
11.13 3.62 2.91
4.60 1.60 1.21
4.42 1.64 1.17
4.32 1.70 1.16
4.21 1.75 1.14
4.16 1.83 1.13
4.11 1.91 1.13
4.09 2.00 1.14
4.08 2.09 1.15
4.05 2.19 1.15
4.03 2.28 1.16
4.25 2.52 1.24
4.23 2.62 1.25
4.17 2.70 1.25
5.90 4.00 1.79
5.66 4.00 1.74
5.55 4.09 1.73
5.47 4.20 1.74
5.41 4.33 1.74
5.32 4.44 1.75
5.20 4.51 1.74
5.09 4.60 1.73
4.67 4.40 1.62
4.56 4.47 1.62
4.43 4.52 1.60
4.32 4.59 1.60
4.22 4.67 1.60
4.14 4.77 1.60
4.20 5.03 1.66
4.22 5.27 1.72
4.15 5.40 1.73
4.04 5.49 1.74
3.93 5.57 1.74
3.83 5.65 1.74
3.75 5.79 1.76
3.69 5.96 1.79
2.50 4.22 1.26
4.60 8.12 2.39
4.43 8.21 2.39
4.26 8.29 2.39
4.09 8.36 2.39
3.91 8.43 2.39
3.74 8.50 2.39
3.57 8.57 2.39
3.39 8.63 2.39
3.21 8.69 2.39
3.04 8.74 2.39
2.86 8.79 2.39
2.68 8.84 2.39
2.50 8.88 2.39
2.42 9.31 2.49
2.23 9.34 2.49
2.04 9.38 2.49
1.85 9.41 2.49
1.65 9.43 2.49
1.46 9.46 2.49
1.27 9.47 2.49
1.08 9.49 2.49
0.89 9.50 2.49
0.70 9.51 2.49
0.51 9.51 2.49
0.31 9.51 2.49
0.12 9.50 2.49
-0.07 9.50 2.49
-0.26 9.48 2.49
-0.45 9.47 2.49
-0.64 9.45 2.49
-0.83 9.43 2.49
-1.02 9.40 2.49
-1.20 9.37 2.49
-1.39 9.33 2.49
-1.58 9.30 2.49
-1.76 9.26 2.49
-1.94 9.21 2.49
-2.13 9.16 2.49
-2.31 9.11 2.49
-2.49 9.05 2.49
-2.67 9.00 2.49
-2.85 8.93 2.49
-3.02 8.87 2.49
-3.20 8.80 2.49
-3.37 8.72 2.49
-3.55 8.65 2.49
-3.72 8.57 2.49
-3.89 8.49 2.49
-4.05 8.40 2.49
-4.22 8.31 2.49
-4.38 8.22 2.49
-4.54 8.13 2.49
-4.70 8.03 2.49
-4.86 7.93 2.49
-5.01 7.82 2.49
-5.17 7.71 2.49
-5.32 7.60 2.49
-5.47 7.49 2.49
-5.61 7.38 2.49
-5.71 7.20 2.47
-5.73 6.93 2.42
-5.79 6.72 2.39
-5.93 6.61 2.39
-6.05 6.48 2.39
-6.18 6.35 2.39
-6.30 6.22 2.39
-6.42 6.09 2.39
-6.54 5.96 2.39
-6.66 5.82 2.39
-6.77 5.69 2.39
-6.88 5.55 2.39
-6.99 5.41 2.39
-7.09 5.26 2.39
-7.19 5.12 2.39
-7.29 4.97 2.39
-7.39 4.82 2.39
-7.48 4.67 2.39
-7.58 4.52 2.39
-7.66 4.36 2.39
-7.75 4.21 2.39
-7.83 4.05 2.39
-7.91 3.89 2.39
-7.98 3.73 2.39
-8.06 3.57 2.39
-8.13 3.40 2.39
-8.19 3.24 2.39
-8.25 3.07 2.39
-8.31 2.91 2.39
-8.37 2.74 2.39
-8.42 2.57 2.39
-8.47 2.40 2.39
-8.52 2.23 2.39
-8.57 2.06 2.39
-8.61 1.88 2.39
-8.64 1.71 2.39
-8.68 1.54 2.39
-8.71 1.36 2.39
-8.73 1.19 2.39
-8.76 1.01 2.39
-8.78 0.83 2.39
-8.79 0.66 2.39
-6.20 0.34 1.68
-8.82 0.30 2.39
-8.82 0.13 2.39
-8.83 -0.05 2.39
-8.83 -0.23 2.39
-8.82 -0.41 2.39
-8.81 -0.59 2.39
-8.80 -0.76 2.39
-8.79 -0.94 2.39
-8.77 -1.12 2.39
-8.75 -1.29 2.39
-8.73 -1.47 2.39
-8.70 -1.65 2.39
-8.67 -1.82 2.39
-8.63 -2.00 2.39
-8.60 -2.17 2.39
-8.56 -2.35 2.39
-8.51 -2.52 2.39
-8.46 -2.69 2.39
-8.41 -2.86 2.39
-8.36 -3.03 2.39
-8.30 -3.20 2.39
-8.24 -3.37 2.39
-8.17 -3.54 2.39
-8.10 -3.70 2.39
-8.03 -3.87 2.39
-7.96 -4.03 2.39
-7.88 -4.19 2.39
-7.80 -4.35 2.39
-7.72 -4.51 2.39
-7.63 -4.67 2.39
-7.54 -4.83 2.39
-7.45 -4.98 2.39
-7.35 -5.13 2.39
-7.25 -5.28 2.39
-7.15 -5.43 2.39
-7.04 -5.58 2.39
-6.94 -5.73 2.39
-6.82 -5.87 2.39
-6.71 -6.01 2.39
-6.59 -6.15 2.39
-6.47 -6.28 2.39
-6.35 -6.42 2.39
-6.25 -6.58 2.40
-6.25 -6.85 2.45
-6.23 -7.10 2.49
-6.09 -7.23 2.49
-5.95 -7.36 2.49
-5.80 -7.48 2.49
-5.66 -7.60 2.49
-5.51 -7.72 2.49
-5.36 -7.84 2.49
-5.20 -7.95 2.49
-5.05 -8.06 2.49
-4.89 -8.17 2.49
-4.73 -8.28 2.49
-4.56 -8.38 2.49
-4.40 -8.47 2.49
-4.23 -8.57 2.49
-4.06 -8.66 2.49
-3.89 -8.75 2.49
-3.72 -8.83 2.49
-3.54 -8.92 2.49
-3.37 -8.99 2.49
-3.19 -9.07 2.49
-3.01 -9.14 2.49
-2.83 -9.21 2.49
-2.65 -9.27 2.49
-2.46 -9.33 2.49
-2.28 -9.39 2.49
-2.09 -9.44 2.49
-1.90 -9.49 2.49
-1.71 -9.53 2.49
-1.52 -9.58 2.49
-1.33 -9.61 2.49
-1.14 -9.65 2.49
-0.95 -9.68 2.49
-0.75 -9.71 2.49
-0.56 -9.73 2.49
-0.36 -9.75 2.49
-0.17 -9.76 2.49
0.03 -8.93 2.49
0.21 -8.93 2.49
0.39 -8.93 2.49
0.57 -8.93 2.49
0.75 -8.93 2.49
0.93 -8.92 2.49
1.11 -8.91 2.49
1.28 -8.89 2.49
1.46 -8.87 2.49
1.64 -8.84 2.49
1.75 -8.47 2.40
1.92 -8.42 2.39
2.09 -8.39 2.39
2.26 -8.35 2.39
2.42 -8.31 2.39
2.59 -8.27 2.39
2.76 -8.22 2.39
2.93 -8.17 2.39
3.09 -8.11 2.39
3.26 -8.06 2.39
3.42 -8.00 2.39
3.58 -7.93 2.39
3.74 -7.86 2.39
3.90 -7.79 2.39
4.06 -7.72 2.39
