ply
format ascii 1.0
element vertex 2971
property float32 x
property float32 y
property float32 z
end_header
11.21 0.62 2.17
11.20 0.84 2.17
11.55 1.10 2.24
11.52 1.33 2.24
9.73 1.32 1.90
9.72 1.52 1.90
9.72 1.72 1.91
10.09 2.00 1.99
8.87 1.94 1.76
8.01 1.92 1.59
7.31 1.91 1.46
6.72 1.90 1.35
6.41 1.96 1.30
6.30 2.06 1.28
6.29 2.20 1.29
6.28 2.34 1.30
6.27 2.48 1.30
6.26 2.62 1.31
6.25 2.76 1.32
6.23 2.91 1.33
6.22 3.06 1.34
6.21 3.21 1.35
6.20 3.36 1.36
6.18 3.52 1.38
6.17 3.67 1.39
6.16 3.84 1.40
6.15 4.00 1.42
6.14 4.18 1.44
6.13 4.35 1.45
6.12 4.54 1.47
6.11 4.72 1.49
6.11 4.91 1.52
6.10 5.11 1.54
6.09 5.32 1.56
6.08 5.53 1.59
6.07 5.75 1.61
6.06 5.97 1.64
6.05 6.21 1.67
6.04 6.45 1.71
6.03 6.70 1.74
6.01 6.97 1.78
6.00 7.24 1.81
5.99 7.53 1.86
5.97 7.83 1.90
5.96 8.14 1.95
5.95 8.48 2.00
5.93 8.83 2.05
5.91 9.19 2.11
5.90 9.58 2.17
5.88 10.00 2.23
5.86 10.44 2.30
5.86 10.96 2.39
5.64 11.08 2.39
5.42 11.19 2.39
5.20 11.30 2.39
4.97 11.41 2.39
4.74 11.51 2.39
4.51 11.61 2.39
4.28 11.70 2.39
4.05 11.79 2.39
3.81 11.88 2.39
3.57 11.96 2.39
3.33 12.03 2.39
3.09 12.10 2.39
2.85 12.17 2.39
2.61 12.23 2.39
2.36 12.28 2.39
2.12 12.37 2.40
1.90 12.60 2.43
1.69 12.96 2.49
1.43 13.00 2.49
1.17 13.03 2.49
0.91 13.06 2.49
0.64 13.08 2.49
0.38 13.10 2.49
0.12 13.11 2.49
-0.14 13.11 2.49
-0.41 13.12 2.49
-0.67 13.11 2.49
-0.93 13.10 2.49
-1.20 13.09 2.49
-1.46 13.07 2.49
-1.72 13.05 2.49
-1.99 13.02 2.49
-2.25 12.98 2.49
-2.51 12.94 2.49
-2.77 12.90 2.49
-3.03 12.84 2.49
-3.29 12.79 2.49
-3.55 12.73 2.49
-3.81 12.66 2.49
-4.06 12.59 2.49
-4.32 12.51 2.49
-4.57 12.43 2.49
-4.82 12.34 2.49
-5.07 12.25 2.49
-5.32 12.16 2.49
-5.57 12.05 2.49
-5.81 11.95 2.49
-6.05 11.83 2.49
-6.11 11.37 2.42
-6.28 11.16 2.40
-6.44 10.91 2.37
-6.41 10.39 2.29
-6.82 10.56 2.35
-7.00 10.39 2.34
-6.99 9.94 2.27
-7.58 10.32 2.39
-7.79 10.17 2.39
-8.00 10.02 2.39
-8.20 9.86 2.39
-6.18 7.13 1.76
-8.60 9.54 2.39
-8.79 9.37 2.39
-8.98 9.20 2.39
-9.17 9.02 2.39
-9.36 8.84 2.39
-9.54 8.65 2.39
-9.71 8.46 2.39
-9.89 8.27 2.39
-9.98 8.02 2.37
-28.65 21.17 6.60
-9.95 7.05 2.26
-30.08 20.42 6.72
-33.81 21.02 7.36
-34.06 20.24 7.32
-38.89 21.05 8.16
-38.87 20.04 8.06
-43.85 20.42 8.91
-44.75 19.76 9.01
-9.82 4.10 1.96
-9.80 3.42 1.91
-9.77 2.76 1.86
-9.71 1.92 1.82
-9.67 0.92 1.78
-9.63 -0.05 1.76
-9.60 -0.63 1.76
-9.56 -1.60 1.77
-9.51 -2.59 1.80
-9.49 -3.21 1.83
-9.48 -3.42 1.84
-18.80 -7.21 3.67
-18.11 -7.37 3.56
-17.51 -7.54 3.48
-16.96 -7.71 3.40
-16.41 -7.86 3.32
-16.03 -8.08 3.27
-9.41 -4.98 1.94
-15.40 -8.55 3.21
-15.10 -8.79 3.19
-9.37 -5.70 2.00
-14.58 -9.28 3.15
-14.22 -9.46 3.12
-13.83 -9.60 3.07
-13.51 -9.79 3.04
-13.20 -9.97 3.02
-12.90 -10.16 3.00
-12.64 -10.38 2.99
-12.46 -10.65 2.99
-9.26 -8.25 2.26
-10.33 -9.58 2.57
-10.11 -9.75 2.57
-9.80 -9.84 2.54
-9.04 -9.45 2.39
-8.85 -9.63 2.39
-8.65 -9.80 2.39
-8.45 -9.97 2.39
-8.25 -10.14 2.39
-8.04 -10.30 2.39
-7.83 -10.45 2.39
-7.62 -10.61 2.39
-7.40 -10.75 2.39
-7.18 -10.90 2.39
-6.96 -11.03 2.39
-6.73 -11.17 2.39
-6.51 -11.30 2.39
-6.28 -11.42 2.39
-6.04 -11.54 2.39
-5.81 -11.65 2.39
-5.57 -11.76 2.39
-5.33 -11.87 2.39
-5.09 -11.97 2.39
-5.03 -12.52 2.48
-4.80 -12.68 2.49
-4.54 -12.76 2.49
-4.28 -12.85 2.49
-4.02 -12.92 2.49
-3.76 -13.00 2.49
-3.50 -13.06 2.49
-3.24 -13.12 2.49
-2.97 -13.18 2.49
-2.70 -13.23 2.49
-2.44 -13.27 2.49
-2.17 -13.31 2.49
-1.90 -13.35 2.49
-1.63 -13.38 2.49
-1.36 -13.40 2.49
-1.09 -13.42 2.49
-0.82 -13.43 2.49
-0.55 -13.44 2.49
-0.28 -13.44 2.49
-0.01 -11.93 2.49
0.23 -11.92 2.49
0.47 -11.91 2.49
0.70 -11.89 2.49
0.94 -11.87 2.49
1.18 -11.84 2.49
1.42 -11.81 2.49
1.65 -11.77 2.49
1.89 -11.73 2.49
2.12 -11.68 2.49
2.35 -11.63 2.49
2.58 -11.58 2.49
2.82 -11.52 2.49
2.97 -11.16 2.43
3.14 -10.91 2.39
3.35 -10.84 2.39
3.57 -10.76 2.39
3.78 -10.68 2.39
3.99 -10.60 2.39
4.20 -10.51 2.39
3.00 -7.10 1.63
4.62 -10.32 2.39
4.82 -10.22 2.39
5.02 -10.12 2.39
5.22 -10.01 2.39
5.42 -9.90 2.39
5.61 -9.78 2.39
5.80 -9.66 2.39
5.99 -9.54 2.39
6.18 -9.41 2.39
6.37 -9.28 2.39
6.55 -9.15 2.39
6.73 -9.01 2.39
6.95 -8.93 2.41
7.12 -8.78 2.41
7.29 -8.63 2.41
7.46 -8.48 2.41
7.63 -8.32 2.41
7.79 -8.17 2.41
7.95 -8.00 2.41
8.10 -7.84 2.41
8.25 -7.67 2.41
8.40 -7.50 2.41
8.55 -7.33 2.41
8.16 -6.71 2.26
8.26 -6.52 2.25
8.36 -6.33 2.25
8.45 -6.14 2.24
8.54 -5.95 2.23
6.79 -4.53 1.75
6.83 -4.36 1.74
7.12 -4.35 1.79
7.38 -4.30 1.83
7.76 -4.32 1.91
8.11 -4.30 1.97
8.43 -4.26 2.03
8.89 -4.27 2.12
9.33 -4.25 2.21
9.73 -4.20 2.28
10.19 -4.16 2.37
10.25 -3.94 2.37
10.30 -3.73 2.36
10.35 -3.51 2.36
10.39 -3.29 2.35
10.44 -3.08 2.35
10.47 -2.86 2.34
10.51 -2.65 2.34
10.54 -2.43 2.34
10.57 -2.21 2.33
10.60 -2.00 2.33
10.62 -1.78 2.33
10.64 -1.57 2.32
10.66 -1.35 2.32
10.17 -1.08 2.21
10.18 -0.88 2.21
10.19 -0.67 2.21
10.20 -0.47 2.21
10.20 -0.26 2.21
10.20 -0.06 2.21
10.20 0.15 2.21
10.19 0.35 2.21
10.18 0.56 2.21
10.17 0.76 2.21
10.15 0.97 2.21
10.62 1.23 2.32
9.73 1.32 2.13
9.73 1.52 2.13
9.72 1.72 2.14
10.09 2.00 2.23
8.88 1.94 1.97
8.01 1.92 1.79
7.31 1.91 1.64
6.72 1.90 1.52
6.41 1.96 1.45
6.30 2.06 1.44
6.29 2.20 1.45
6.28 2.34 1.45
6.27 2.48 1.46
6.26 2.62 1.47
6.25 2.76 1.48
6.23 2.91 1.49
6.22 3.06 1.50
6.21 3.21 1.52
6.20 3.36 1.53
6.18 3.52 1.54
6.17 3.67 1.56
6.16 3.84 1.57
6.15 4.00 1.59
6.14 4.18 1.61
6.13 4.35 1.63
6.12 4.54 1.65
6.11 4.72 1.68
6.11 4.91 1.70
6.10 5.11 1.73
6.09 5.32 1.75
6.08 5.53 1.78
6.07 5.75 1.81
6.06 5.97 1.84
6.05 6.21 1.88
6.04 6.45 1.91
6.03 6.70 1.95
6.01 6.97 1.99
6.00 7.24 2.04
5.99 7.53 2.08
5.97 7.83 2.13
5.96 8.14 2.18
5.95 8.48 2.24
5.93 8.83 2.30
5.91 9.20 2.36
5.80 9.43 2.39
5.61 9.54 2.39
5.42 9.66 2.39
5.22 9.77 2.39
5.03 9.87 2.39
4.83 9.98 2.39
4.63 10.08 2.39
4.43 10.17 2.39
4.23 10.26 2.39
4.02 10.35 2.39
3.81 10.43 2.39
3.60 10.51 2.39
3.39 10.58 2.39
3.18 10.65 2.39
2.97 10.72 2.39
2.75 10.78 2.39
2.54 10.84 2.39
2.32 10.89 2.39
2.10 10.94 2.39
1.95 11.39 2.48
1.73 11.50 2.49
1.50 11.54 2.49
1.27 11.57 2.49
1.04 11.60 2.49
0.81 11.63 2.49
0.57 11.65 2.49
0.34 11.66 2.49
0.10 11.67 2.49
-0.13 11.68 2.49
-0.36 11.68 2.49
-0.60 11.67 2.49
-0.83 11.66 2.49
-1.07 11.65 2.49
-1.30 11.63 2.49
-1.54 11.61 2.49
-1.77 11.58 2.49
-2.00 11.55 2.49
-2.24 11.51 2.49
-2.47 11.47 2.49
-2.70 11.43 2.49
-2.93 11.38 2.49
-3.16 11.32 2.49
-3.39 11.26 2.49
-3.62 11.20 2.49
-3.84 11.13 2.49
-4.07 11.06 2.49
-4.29 10.98 2.49
-4.51 10.90 2.49
-4.73 10.81 2.49
-4.95 10.72 2.49
-5.17 10.62 2.49
-5.38 10.52 2.49
-5.60 10.42 2.49
-5.81 10.31 2.49
-6.02 10.19 2.49
-6.03 9.77 2.42
-6.16 9.54 2.39
-6.35 9.42 2.39
-6.35 9.03 2.32
-6.39 8.70 2.27
-6.81 8.89 2.35
-6.93 8.68 2.33
-6.92 8.32 2.27
-6.18 7.13 1.98
-7.64 8.47 2.39
-7.81 8.32 2.39
-7.98 8.17 2.39
-8.15 8.01 2.39
-8.31 7.85 2.39
-8.47 7.68 2.39
-8.63 7.52 2.39
-8.78 7.34 2.39
-8.93 7.17 2.39
-9.08 6.99 2.39
-9.22 6.81 2.39
-9.36 6.63 2.39
-9.50 6.44 2.39
-9.63 6.25 2.39
-9.75 6.06 2.39
-34.06 20.24 8.24
-38.89 21.04 9.19
-38.87 20.03 9.09
-9.85 4.83 2.28
-9.84 4.58 2.25
-44.75 19.76 10.15
-9.81 3.64 2.17
-9.80 3.42 2.15
-9.78 3.19 2.13
-9.74 2.33 2.07
-9.71 1.92 2.05
-46.88 4.46 9.72
-46.37 3.47 9.60
-48.25 2.64 9.97
-48.04 1.66 9.91
-47.78 0.70 9.85
-47.80 -0.26 9.86
-47.81 -1.22 9.86
-48.52 -2.21 10.01
-21.95 -5.51 4.66
-9.51 -2.59 2.03
-19.45 -5.72 4.17
-18.74 -5.93 4.04
-18.01 -6.10 3.91
-17.38 -6.27 3.80
-16.80 -6.45 3.70
-9.46 -3.85 2.10
-15.71 -6.76 3.52
-15.27 -6.94 3.45
-14.95 -7.16 3.41
-14.62 -7.37 3.37
-14.06 -7.44 3.27
-13.64 -7.57 3.21
-13.24 -7.70 3.15
-9.37 -5.70 2.26
-12.49 -7.95 3.05
-10.47 -6.96 2.59
-10.39 -7.21 2.60
-10.30 -7.47 2.62
-9.27 -7.00 2.39
-9.12 -7.19 2.39
-8.98 -7.37 2.39
-8.83 -7.54 2.39
-8.67 -7.72 2.39
-8.51 -7.89 2.39
-8.35 -8.06 2.39
-8.19 -8.22 2.39
-8.02 -8.38 2.39
-7.85 -8.54 2.39
-7.67 -8.69 2.39
-7.49 -8.84 2.39
-7.31 -8.99 2.39
-7.13 -9.13 2.39
-6.94 -9.27 2.39
-6.76 -9.40 2.39
-6.23 -9.05 2.27
-6.12 -9.29 2.30
-6.07 -9.62 2.35
-5.87 -9.74 2.35
-5.52 -9.58 2.29
-5.50 -10.01 2.36
-5.36 -10.24 2.39
-5.15 -10.34 2.39
-5.11 -10.78 2.47
-4.93 -10.98 2.49
-4.71 -11.07 2.49
-4.49 -11.16 2.49
-4.26 -11.25 2.49
-4.03 -11.32 2.49
-3.80 -11.40 2.49
-3.57 -11.47 2.49
-3.34 -11.53 2.49
-3.11 -11.59 2.49
-2.87 -11.65 2.49
-2.64 -11.70 2.49
-2.40 -11.74 2.49
-2.16 -11.78 2.49
-1.93 -11.82 2.49
-1.69 -11.85 2.49
-1.45 -11.88 2.49
-1.21 -11.90 2.49
-0.97 -11.91 2.49
-0.73 -11.92 2.49
-0.49 -11.93 2.49
-0.25 -11.93 2.49
-0.01 -10.72 2.49
0.20 -10.71 2.49
0.42 -10.70 2.49
0.63 -10.68 2.49
0.85 -10.67 2.49
1.06 -10.64 2.49
1.27 -10.61 2.49
1.48 -10.58 2.49
1.69 -10.54 2.49
1.90 -10.50 2.49
2.11 -10.46 2.49
2.32 -10.41 2.49
2.53 -10.35 2.49
2.74 -10.30 2.49
2.92 -10.16 2.48
3.01 -9.75 2.39
3.21 -9.68 2.39
3.40 -9.61 2.39
3.59 -9.53 2.39
3.78 -9.46 2.39
3.00 -7.10 1.81
4.15 -9.29 2.39
4.33 -9.20 2.39
4.52 -9.10 2.39
4.69 -9.01 2.39
4.87 -8.91 2.39
5.05 -8.80 2.39
5.22 -8.70 2.39
5.39 -8.58 2.39
5.56 -8.47 2.39
5.73 -8.35 2.39
5.89 -8.23 2.39
6.05 -8.11 2.39
6.21 -7.98 2.39
6.37 -7.85 2.39
6.52 -7.72 2.39
6.67 -7.58 2.39
6.82 -7.44 2.39
7.01 -7.35 2.41
7.15 -7.21 2.41
7.29 -7.06 2.41
7.23 -6.72 2.34
7.33 -6.55 2.33
7.43 -6.37 2.32
7.52 -6.19 2.31
7.61 -6.01 2.31
7.70 -5.83 2.30
7.78 -5.66 2.29
7.86 -5.48 2.28
6.79 -4.53 1.94
6.83 -4.36 1.93
7.12 -4.35 1.99
7.38 -4.30 2.04
7.76 -4.32 2.12
8.11 -4.30 2.19
8.43 -4.26 2.25
8.89 -4.27 2.35
9.17 -4.18 2.41
9.25 -3.99 2.41
9.32 -3.80 2.41
9.40 -3.61 2.41
9.46 -3.42 2.41
9.53 -3.23 2.41
9.59 -3.04 2.41
9.64 -2.85 2.41
9.69 -2.65 2.41
9.72 -2.45 2.40
9.75 -2.25 2.40
9.78 -2.05 2.40
9.81 -1.85 2.39
9.83 -1.65 2.39
9.85 -1.45 2.39
9.87 -1.25 2.39
9.34 -0.99 2.25
9.35 -0.81 2.25
9.36 -0.62 2.25
9.37 -0.43 2.25
9.37 -0.24 2.25
9.37 -0.05 2.25
9.37 0.14 2.25
9.36 0.32 2.25
9.35 0.51 2.25
9.34 0.70 2.25
9.32 0.89 2.25
9.83 1.14 2.38
9.81 1.33 2.38
9.79 1.53 2.38
9.76 1.73 2.38
9.73 1.93 2.39
8.88 1.94 2.19
8.01 1.92 1.98
7.31 1.91 1.82
6.72 1.90 1.68
6.41 1.96 1.61
6.30 2.06 1.60
6.29 2.20 1.60
6.28 2.34 1.61
6.27 2.48 1.62
6.26 2.62 1.63
6.25 2.76 1.64
6.23 2.91 1.66
6.22 3.06 1.67
6.21 3.21 1.68
6.20 3.36 1.70
6.18 3.52 1.71
6.17 3.67 1.73
6.16 3.84 1.75
6.15 4.00 1.77
6.14 4.18 1.79
6.13 4.35 1.81
6.12 4.54 1.83
6.11 4.72 1.86
6.11 4.92 1.89
6.10 5.11 1.91
6.09 5.32 1.94
6.08 5.53 1.98
6.07 5.75 2.01
6.06 5.97 2.04
6.05 6.21 2.08
6.04 6.45 2.12
6.02 6.70 2.17
6.01 6.97 2.21
6.00 7.24 2.26
5.99 7.53 2.31
5.97 7.83 2.36
5.88 8.04 2.39
5.72 8.16 2.39
5.56 8.27 2.39
5.39 8.39 2.39
5.22 8.50 2.39
5.05 8.60 2.39
4.88 8.70 2.39
4.71 8.80 2.39
4.53 8.90 2.39
4.35 8.99 2.39
4.17 9.08 2.39
3.99 9.16 2.39
3.81 9.24 2.39
3.62 9.32 2.39
3.43 9.40 2.39
3.25 9.47 2.39
3.06 9.53 2.39
2.86 9.60 2.39
2.67 9.66 2.39
2.48 9.71 2.39
2.28 9.76 2.39
2.09 9.81 2.39
1.97 10.28 2.49
1.77 10.32 2.49
1.56 10.36 2.49
1.35 10.39 2.49
1.14 10.42 2.49
0.93 10.45 2.49
0.72 10.47 2.49
0.51 10.49 2.49
0.30 10.50 2.49
0.09 10.51 2.49
-0.12 10.51 2.49
-0.33 10.51 2.49
-0.54 10.51 2.49
-0.75 10.50 2.49
-0.96 10.49 2.49
-1.17 10.47 2.49
-1.38 10.45 2.49
-1.59 10.42 2.49
-1.80 10.40 2.49
-2.01 10.36 2.49
-2.22 10.32 2.49
-2.43 10.28 2.49
-2.64 10.24 2.49
-2.84 10.19 2.49
-3.05 10.13 2.49
-3.25 10.07 2.49
-3.46 10.01 2.49
-3.66 9.94 2.49
-3.86 9.87 2.49
-4.06 9.80 2.49
-4.26 9.72 2.49
-4.45 9.64 2.49
-4.65 9.55 2.49
-4.84 9.46 2.49
-5.03 9.37 2.49
-5.22 9.27 2.49
-5.41 9.17 2.49
-5.60 9.06 2.49
-5.78 8.95 2.49
-5.96 8.84 2.49
-5.98 8.49 2.43
-6.06 8.24 2.39
-6.22 8.12 2.39
-6.30 7.90 2.36
-6.29 7.56 2.30
-6.18 7.13 2.20
-6.67 7.39 2.32
-6.93 7.38 2.36
-7.17 7.34 2.39
-7.32 7.20 2.39
-7.47 7.05 2.39
-7.61 6.90 2.39
-7.75 6.75 2.39
-7.89 6.60 2.39
-8.02 6.44 2.39
-8.16 6.28 2.39
-8.28 6.12 2.39
-8.41 5.95 2.39
-8.53 5.79 2.39
-8.65 5.62 2.39
-8.76 5.44 2.39
-8.87 5.27 2.39
-8.98 5.09 2.39
-9.08 4.91 2.39
-9.18 4.73 2.39
-9.28 4.55 2.39
-9.37 4.36 2.39
-9.46 4.18 2.39
-9.55 3.99 2.39
-9.63 3.80 2.39
-9.71 3.60 2.39
-9.71 1.92 2.28
-9.71 1.72 2.27
-9.70 1.51 2.26
-9.70 1.32 2.25
-46.38 5.35 10.74
-45.62 4.34 10.54
-45.72 3.42 10.54
-9.66 0.53 2.22
-9.65 0.33 2.22
-46.60 0.68 10.71
-46.59 -0.26 10.71
-46.71 -1.19 10.73
-46.96 -2.14 10.80
-47.22 -3.10 10.87
-47.81 -4.11 11.02
-9.59 -1.02 2.21
-9.58 -1.21 2.22
-21.56 -4.06 5.03
-20.43 -4.27 4.79
-19.66 -4.52 4.63
-9.53 -2.39 2.25
-9.51 -2.59 2.26
-9.51 -2.80 2.27
-16.84 -5.32 4.05
-16.10 -5.45 3.90
-15.57 -5.62 3.80
-15.06 -5.78 3.70
-14.57 -5.93 3.61
-13.96 -6.01 3.49
-10.53 -4.78 2.65
-9.41 -4.50 2.39
-9.31 -4.69 2.39
-9.22 -4.88 2.39
-9.12 -5.06 2.39
-9.01 -5.24 2.39
-8.91 -5.42 2.39
-8.79 -5.60 2.39
-8.68 -5.77 2.39
-8.56 -5.95 2.39
-8.44 -6.12 2.39
-8.31 -6.28 2.39
-8.19 -6.45 2.39
-8.05 -6.61 2.39
-7.92 -6.77 2.39
-7.78 -6.92 2.39
-7.64 -7.08 2.39
-7.49 -7.23 2.39
-7.35 -7.38 2.39
-7.20 -7.52 2.39
-7.04 -7.66 2.39
-6.89 -7.80 2.39
-6.73 -7.93 2.39
-6.23 -7.66 2.27
-6.18 -7.92 2.31
-6.13 -8.18 2.35
-5.96 -8.30 2.35
-5.60 -8.13 2.27
-5.57 -8.45 2.33
-5.54 -8.78 2.39
-5.36 -8.89 2.39
-5.20 -9.02 2.40
-5.17 -9.40 2.47
-5.02 -9.58 2.49
-4.83 -9.68 2.49
-4.63 -9.77 2.49
-4.43 -9.86 2.49
-4.23 -9.94 2.49
-4.03 -10.02 2.49
-3.83 -10.10 2.49
-3.62 -10.17 2.49
-3.42 -10.23 2.49
-3.21 -10.30 2.49
-3.00 -10.36 2.49
-2.79 -10.41 2.49
-2.58 -10.46 2.49
-2.37 -10.50 2.49
-2.16 -10.55 2.49
-1.94 -10.58 2.49
-1.73 -10.62 2.49
-1.52 -10.64 2.49
-1.30 -10.67 2.49
-1.09 -10.69 2.49
-0.87 -10.70 2.49
-0.66 -10.71 2.49
-0.44 -10.72 2.49
-0.23 -10.72 2.49
-0.01 -9.72 2.49
0.18 -9.72 2.49
0.38 -9.71 2.49
0.57 -9.69 2.49
0.77 -9.67 2.49
0.96 -9.65 2.49
1.15 -9.63 2.49
1.34 -9.60 2.49
1.54 -9.57 2.49
1.73 -9.53 2.49
1.92 -9.49 2.49
2.11 -9.44 2.49
2.29 -9.39 2.49
2.48 -9.34 2.49
2.67 -9.29 2.49
2.85 -9.23 2.49
2.91 -8.79 2.39
3.08 -8.72 2.39
3.26 -8.65 2.39
3.43 -8.58 2.39
3.00 -7.10 1.99
3.77 -8.43 2.39
3.93 -8.35 2.39
4.10 -8.27 2.39
4.26 -8.18 2.39
4.42 -8.09 2.39
4.58 -7.99 2.39
4.74 -7.90 2.39
4.89 -7.80 2.39
5.05 -7.69 2.39
5.20 -7.59 2.39
5.35 -7.48 2.39
5.49 -7.36 2.39
5.64 -7.25 2.39
5.78 -7.13 2.39
5.92 -7.01 2.39
6.06 -6.89 2.39
6.19 -6.76 2.39
6.32 -6.63 2.39
6.45 -6.50 2.39
6.58 -6.37 2.39
6.68 -6.22 2.38
6.78 -6.06 2.38
6.88 -5.90 2.37
6.97 -5.74 2.36
7.05 -5.57 2.35
7.14 -5.41 2.34
7.22 -5.25 2.34
7.30 -5.09 2.33
6.79 -4.53 2.14
6.83 -4.36 2.12
7.12 -4.35 2.19
7.38 -4.30 2.24
7.76 -4.32 2.33
8.10 -4.30 2.41
8.18 -4.13 2.41
8.26 -3.97 2.41
8.34 -3.80 2.41
8.41 -3.63 2.41
8.48 -3.46 2.41
8.54 -3.29 2.41
8.60 -3.11 2.41
8.66 -2.94 2.41
8.72 -2.76 2.41
8.77 -2.59 2.41
8.81 -2.41 2.41
8.86 -2.23 2.41
8.90 -2.05 2.41
8.94 -1.87 2.41
8.97 -1.69 2.41
9.00 -1.51 2.41
9.03 -1.33 2.41
8.61 -1.09 2.29
8.63 -0.92 2.29
8.64 -0.74 2.29
8.65 -0.57 2.29
8.65 -0.40 2.29
8.65 -0.22 2.29
8.65 -0.05 2.29
8.65 0.13 2.29
8.65 0.30 2.29
8.64 0.47 2.29
8.63 0.65 2.29
8.61 0.82 2.29
9.04 1.04 2.41
9.02 1.23 2.41
8.99 1.41 2.41
8.96 1.59 2.41
8.92 1.77 2.41
8.89 1.95 2.41
8.01 1.92 2.18
7.31 1.91 2.00
6.72 1.90 1.85
6.41 1.95 1.77
6.30 2.06 1.76
6.29 2.20 1.76
6.28 2.34 1.77
6.27 2.48 1.78
6.26 2.62 1.80
6.25 2.76 1.81
6.23 2.91 1.82
6.22 3.06 1.83
6.21 3.21 1.85
6.20 3.36 1.87
6.18 3.52 1.88
6.17 3.67 1.90
6.16 3.84 1.92
6.15 4.00 1.94
6.14 4.18 1.96
6.13 4.35 1.99
6.12 4.54 2.02
6.11 4.72 2.04
6.11 4.92 2.07
6.10 5.11 2.10
6.09 5.32 2.14
6.08 5.53 2.17
6.07 5.75 2.21
6.06 5.97 2.25
6.05 6.21 2.29
6.04 6.45 2.33
6.05 6.73 2.39
5.91 6.85 2.39
5.78 6.97 2.39
5.64 7.09 2.39
5.49 7.20 2.39
5.35 7.31 2.39
5.20 7.42 2.39
5.05 7.52 2.39
4.90 7.63 2.39
4.75 7.72 2.39
4.59 7.82 2.39
4.44 7.91 2.39
4.28 8.00 2.39
4.12 8.09 2.39
3.96 8.17 2.39
3.79 8.25 2.39
3.63 8.33 2.39
3.46 8.40 2.39
3.29 8.47 2.39
3.12 8.54 2.39
2.95 8.61 2.39
2.78 8.67 2.39
2.60 8.72 2.39
2.43 8.78 2.39
2.25 8.83 2.39
2.08 8.88 2.39
1.98 9.30 2.49
1.79 9.34 2.49
1.60 9.38 2.49
1.42 9.41 2.49
1.23 9.44 2.49
1.04 9.47 2.49
0.85 9.49 2.49
0.66 9.51 2.49
0.47 9.53 2.49
0.28 9.54 2.49
0.08 9.54 2.49
-0.11 9.55 2.49
-0.30 9.55 2.49
-0.49 9.54 2.49
-0.68 9.54 2.49
-0.88 9.53 2.49
-1.07 9.51 2.49
-1.26 9.49 2.49
-1.45 9.47 2.49
-1.64 9.44 2.49
-1.83 9.41 2.49
-2.02 9.37 2.49
-2.21 9.34 2.49
-2.40 9.29 2.49
-2.58 9.25 2.49
-2.77 9.20 2.49
-2.96 9.15 2.49
-3.14 9.09 2.49
-3.32 9.03 2.49
-3.51 8.96 2.49
-3.69 8.89 2.49
-3.87 8.82 2.49
-4.04 8.75 2.49
-4.22 8.67 2.49
-4.40 8.59 2.49
-4.57 8.50 2.49
-4.74 8.41 2.49
-4.91 8.32 2.49
-5.08 8.22 2.49
-5.25 8.12 2.49
-5.41 8.02 2.49
-5.57 7.91 2.49
-5.73 7.80 2.49
-5.89 7.69 2.49
-5.92 7.42 2.44
-5.94 7.14 2.39
-6.10 7.04 2.40
-6.23 6.91 2.39
-6.37 6.78 2.39
-6.51 6.66 2.39
-6.64 6.53 2.39
-6.77 6.39 2.39
-6.90 6.26 2.39
-7.03 6.12 2.39
-7.16 5.98 2.39
-7.28 5.84 2.39
-7.40 5.70 2.39
-7.51 5.55 2.39
-7.62 5.40 2.39
-7.73 5.25 2.39
-7.84 5.09 2.39
-7.94 4.94 2.39
-8.05 4.78 2.39
-8.14 4.62 2.39
-8.24 4.45 2.39
-8.33 4.29 2.39
-8.41 4.12 2.39
-8.50 3.95 2.39
-8.58 3.78 2.39
-8.66 3.61 2.39
-8.73 3.44 2.39
-8.80 3.27 2.39
-8.87 3.09 2.39
-8.93 2.91 2.39
-8.99 2.73 2.39
-9.04 2.55 2.39
-9.10 2.37 2.39
-9.14 2.19 2.39
-9.19 2.01 2.39
-9.23 1.82 2.39
-9.27 1.64 2.39
-9.30 1.45 2.39
-9.33 1.27 2.39
-9.35 1.08 2.39
-9.38 0.89 2.39
-9.39 0.70 2.39
-9.41 0.51 2.39
-9.42 0.33 2.39
-9.43 0.14 2.39
-9.43 -0.05 2.39
-9.43 -0.24 2.39
-9.42 -0.43 2.39
-9.41 -0.62 2.39
-9.40 -0.81 2.39
-9.38 -1.00 2.39
-9.36 -1.18 2.39
-9.34 -1.37 2.39
-9.31 -1.56 2.39
-9.28 -1.75 2.39
-9.24 -1.93 2.39
-9.20 -2.12 2.39
-9.16 -2.30 2.39
-9.11 -2.48 2.39
-9.06 -2.67 2.39
-9.01 -2.85 2.39
-8.95 -3.03 2.39
-8.88 -3.21 2.39
-8.82 -3.38 2.39
-8.75 -3.56 2.39
-8.68 -3.74 2.39
-8.60 -3.91 2.39
-8.52 -4.08 2.39
-8.44 -4.25 2.39
-8.35 -4.42 2.39
-8.26 -4.58 2.39
-8.16 -4.75 2.39
-8.07 -4.91 2.39
-7.97 -5.07 2.39
-7.86 -5.23 2.39
-7.76 -5.39 2.39
-7.65 -5.54 2.39
-7.53 -5.69 2.39
-7.42 -5.84 2.39
-7.30 -5.99 2.39
-7.17 -6.13 2.39
-7.05 -6.27 2.39
-6.92 -6.41 2.39
-6.79 -6.55 2.39
-6.32 -6.34 2.27
-6.24 -6.53 2.29
-6.23 -6.78 2.34
-6.14 -6.95 2.35
-5.99 -7.07 2.35
-5.65 -6.94 2.27
-5.63 -7.20 2.32
-5.61 -7.49 2.38
-5.49 -7.65 2.39
-5.34 -7.75 2.39
-5.24 -7.95 2.42
-5.22 -8.27 2.49
-5.07 -8.40 2.49
-4.90 -8.50 2.49
-4.73 -8.59 2.49
-4.55 -8.68 2.49
-4.37 -8.77 2.49
-4.20 -8.85 2.49
-4.02 -8.93 2.49
-3.84 -9.01 2.49
-3.65 -9.08 2.49
-3.47 -9.15 2.49
-3.28 -9.22 2.49
-3.10 -9.28 2.49
-2.91 -9.33 2.49
-2.72 -9.39 2.49
-2.53 -9.44 2.49
-2.34 -9.48 2.49
-2.15 -9.52 2.49
-1.96 -9.56 2.49
-1.76 -9.60 2.49
-1.57 -9.62 2.49
-1.38 -9.65 2.49
-1.18 -9.67 2.49
-0.99 -9.69 2.49
-0.79 -9.70 2.49
-0.60 -9.71 2.49
-0.40 -9.72 2.49
-0.21 -9.72 2.49
-0.01 -8.89 2.49
0.17 -8.88 2.49
0.34 -8.87 2.49
0.52 -8.86 2.49
0.70 -8.84 2.49
0.88 -8.82 2.49
1.05 -8.80 2.49
1.23 -8.78 2.49
1.40 -8.75 2.49
1.58 -8.71 2.49
1.75 -8.67 2.49
1.92 -8.63 2.49
2.10 -8.59 2.49
2.27 -8.54 2.49
2.44 -8.49 2.49
2.61 -8.44 2.49
2.77 -8.38 2.49
2.83 -8.01 2.40
2.98 -7.91 2.39
3.13 -7.85 2.39
3.00 -7.10 2.18
3.44 -7.71 2.39
3.60 -7.64 2.39
3.75 -7.56 2.39
3.90 -7.48 2.39
4.04 -7.40 2.39
4.19 -7.31 2.39
4.33 -7.22 2.39
4.48 -7.13 2.39
4.62 -7.04 2.39
4.76 -6.94 2.39
4.89 -6.84 2.39
5.03 -6.74 2.39
5.16 -6.63 2.39
5.29 -6.53 2.39
5.42 -6.42 2.39
5.54 -6.30 2.39
5.67 -6.19 2.39
5.79 -6.07 2.39
5.90 -5.95 2.39
6.02 -5.83 2.39
6.13 -5.71 2.39
6.25 -5.58 2.39
6.35 -5.45 2.39
6.46 -5.32 2.39
6.56 -5.19 2.39
6.64 -5.04 2.38
6.72 -4.89 2.38
6.90 -4.81 2.41
6.79 -4.53 2.34
6.83 -4.36 2.32
7.12 -4.35 2.39
7.26 -4.23 2.41
7.34 -4.09 2.41
7.41 -3.94 2.41
7.49 -3.79 2.41
7.56 -3.63 2.41
7.63 -3.48 2.41
7.70 -3.32 2.41
7.76 -3.17 2.41
7.82 -3.01 2.41
7.88 -2.85 2.41
7.93 -2.69 2.41
7.98 -2.53 2.41
8.03 -2.37 2.41
8.07 -2.21 2.41
8.11 -2.04 2.41
8.15 -1.88 2.41
8.18 -1.72 2.41
8.21 -1.55 2.41
8.24 -1.38 2.41
8.27 -1.22 2.41
7.99 -1.01 2.32
8.01 -0.85 2.32
8.02 -0.69 2.32
8.03 -0.53 2.32
8.03 -0.37 2.32
8.04 -0.21 2.32
8.04 -0.05 2.32
8.03 0.12 2.32
8.03 0.28 2.32
8.02 0.44 2.32
8.01 0.60 2.32
8.00 0.76 2.32
8.28 0.96 2.41
8.26 1.12 2.41
8.24 1.29 2.41
8.21 1.45 2.41
8.18 1.62 2.41
8.14 1.78 2.41
8.10 1.94 2.41
7.31 1.91 2.18
6.72 1.90 2.02
6.41 1.95 1.94
6.30 2.06 1.92
6.29 2.20 1.93
6.28 2.34 1.94
6.27 2.48 1.95
6.26 2.62 1.96
6.25 2.76 1.97
6.23 2.91 1.99
6.22 3.06 2.00
6.21 3.21 2.02
6.20 3.36 2.04
6.18 3.52 2.06
6.17 3.67 2.08
6.16 3.84 2.10
6.15 4.00 2.12
6.14 4.18 2.14
6.13 4.35 2.17
6.12 4.54 2.20
6.11 4.72 2.23
6.11 4.92 2.26
6.10 5.11 2.30
6.09 5.32 2.33
6.08 5.53 2.37
6.01 5.70 2.39
5.90 5.82 2.39
5.78 5.94 2.39
5.66 6.05 2.39
5.54 6.17 2.39
5.42 6.28 2.39
5.29 6.39 2.39
5.16 6.49 2.39
5.03 6.60 2.39
4.90 6.70 2.39
4.76 6.80 2.39
4.63 6.89 2.39
4.49 6.98 2.39
4.35 7.07 2.39
4.21 7.16 2.39
4.06 7.25 2.39
3.92 7.33 2.39
3.77 7.41 2.39
3.62 7.48 2.39
3.47 7.56 2.39
3.32 7.63 2.39
3.17 7.70 2.39
3.01 7.76 2.39
2.86 7.82 2.39
2.70 7.88 2.39
2.54 7.93 2.39
2.38 7.99 2.39
2.22 8.03 2.39
2.10 8.22 2.43
1.98 8.47 2.49
1.81 8.51 2.49
1.64 8.55 2.49
1.47 8.59 2.49
1.30 8.62 2.49
1.12 8.64 2.49
0.95 8.67 2.49
0.78 8.69 2.49
0.60 8.71 2.49
0.43 8.72 2.49
0.25 8.73 2.49
0.08 8.74 2.49
-0.10 8.74 2.49
-0.28 8.74 2.49
-0.45 8.73 2.49
-0.63 8.73 2.49
-0.80 8.72 2.49
-0.98 8.70 2.49
-1.15 8.68 2.49
-1.33 8.66 2.49
-1.50 8.64 2.49
-1.68 8.61 2.49
-1.85 8.58 2.49
-2.02 8.54 2.49
-2.19 8.50 2.49
-2.36 8.46 2.49
-2.53 8.41 2.49
-2.70 8.37 2.49
-2.87 8.31 2.49
-3.04 8.26 2.49
-3.21 8.20 2.49
-3.37 8.14 2.49
-3.54 8.07 2.49
-3.70 8.00 2.49
-3.86 7.93 2.49
-4.02 7.85 2.49
-4.18 7.77 2.49
-4.34 7.69 2.49
-4.49 7.60 2.49
-4.65 7.52 2.49
-4.80 7.42 2.49
-4.95 7.33 2.49
-5.10 7.23 2.49
-5.24 7.13 2.49
-5.39 7.03 2.49
-5.53 6.92 2.49
-5.67 6.81 2.49
-5.81 6.70 2.49
-5.88 6.52 2.47
-5.88 6.26 2.41
-5.95 6.08 2.39
-6.07 5.96 2.39
-6.19 5.84 2.39
-6.31 5.72 2.39
-6.43 5.59 2.39
-6.54 5.47 2.39
-6.65 5.34 2.39
-6.76 5.20 2.39
-6.87 5.07 2.39
-6.97 4.93 2.39
-7.07 4.79 2.39
-7.17 4.65 2.39
-7.26 4.51 2.39
-7.35 4.36 2.39
-7.44 4.22 2.39
-7.53 4.07 2.39
-7.61 3.92 2.39
-7.69 3.77 2.39
-7.76 3.61 2.39
-7.84 3.46 2.39
-7.91 3.30 2.39
-7.97 3.14 2.39
-8.04 2.98 2.39
-8.10 2.82 2.39
-8.16 2.66 2.39
-8.21 2.50 2.39
-8.26 2.33 2.39
-8.31 2.17 2.39
-8.35 2.00 2.39
-8.39 1.83 2.39
-8.43 1.66 2.39
-8.46 1.49 2.39
-8.49 1.33 2.39
-8.52 1.15 2.39
-8.54 0.98 2.39
-8.56 0.81 2.39
-8.58 0.64 2.39
-8.59 0.47 2.39
-8.60 0.30 2.39
-8.61 0.12 2.39
-8.61 -0.05 2.39
-8.61 -0.22 2.39
-8.60 -0.39 2.39
-8.60 -0.57 2.39
-8.58 -0.74 2.39
-8.57 -0.91 2.39
-8.55 -1.08 2.39
-8.53 -1.25 2.39
-8.50 -1.42 2.39
-8.47 -1.59 2.39
-8.44 -1.76 2.39
-8.40 -1.93 2.39
-8.36 -2.10 2.39
-8.32 -2.27 2.39
-8.27 -2.43 2.39
-8.22 -2.60 2.39
-8.17 -2.76 2.39
-8.11 -2.93 2.39
-8.05 -3.09 2.39
-7.99 -3.25 2.39
-7.92 -3.41 2.39
-7.85 -3.57 2.39
-7.78 -3.73 2.39
-7.70 -3.88 2.39
-7.62 -4.03 2.39
-7.54 -4.19 2.39
-7.45 -4.34 2.39
-7.37 -4.48 2.39
-7.27 -4.63 2.39
-7.18 -4.77 2.39
-7.08 -4.92 2.39
-6.98 -5.06 2.39
-6.88 -5.20 2.39
-6.77 -5.33 2.39
-6.66 -5.47 2.39
-6.25 -5.34 2.28
-6.11 -5.44 2.27
-6.00 -5.56 2.27
-6.10 -5.88 2.35
-5.77 -5.79 2.27
-5.68 -5.94 2.28
-5.67 -6.17 2.33
-5.66 -6.41 2.38
-5.57 -6.56 2.39
-5.43 -6.67 2.39
-5.30 -6.78 2.39
-5.28 -7.04 2.45
-5.23 -7.28 2.49
-5.09 -7.39 2.49
-4.94 -7.49 2.49
-4.78 -7.58 2.49
-4.63 -7.67 2.49
-4.47 -7.76 2.49
-4.32 -7.85 2.49
-4.16 -7.93 2.49
-4.00 -8.01 2.49
-3.83 -8.09 2.49
-3.67 -8.16 2.49
-3.50 -8.23 2.49
-3.34 -8.30 2.49
-3.17 -8.36 2.49
-3.00 -8.42 2.49
-2.83 -8.47 2.49
-2.66 -8.53 2.49
-2.49 -8.58 2.49
-2.31 -8.62 2.49
-2.14 -8.66 2.49
-1.96 -8.70 2.49
-1.79 -8.74 2.49
-1.61 -8.77 2.49
-1.44 -8.79 2.49
-1.26 -8.82 2.49
-1.08 -8.84 2.49
-0.90 -8.86 2.49
-0.73 -8.87 2.49
-0.55 -8.88 2.49
-0.37 -8.88 2.49
-0.19 -8.89 2.49
-0.01 -8.17 2.49
0.15 -8.17 2.49
0.32 -8.16 2.49
0.48 -8.15 2.49
0.64 -8.14 2.49
0.80 -8.12 2.49
0.97 -8.10 2.49
1.13 -8.07 2.49
1.29 -8.05 2.49
1.45 -8.02 2.49
1.61 -7.98 2.49
1.77 -7.95 2.49
1.93 -7.90 2.49
2.09 -7.86 2.49
2.24 -7.82 2.49
2.40 -7.77 2.49
2.55 -7.71 2.49
2.71 -7.66 2.49
2.80 -7.44 2.44
2.88 -7.22 2.39
3.00 -7.10 2.37
3.17 -7.10 2.39
3.31 -7.03 2.39
3.45 -6.96 2.39
3.59 -6.89 2.39
3.72 -6.81 2.39
3.86 -6.73 2.39
3.99 -6.65 2.39
4.12 -6.57 2.39
4.25 -6.48 2.39
4.38 -6.39 2.39
4.50 -6.30 2.39
4.63 -6.20 2.39
4.75 -6.11 2.39
4.87 -6.01 2.39
4.99 -5.91 2.39
5.10 -5.80 2.39
5.22 -5.70 2.39
5.33 -5.59 2.39
5.44 -5.48 2.39
5.54 -5.37 2.39
5.65 -5.25 2.39
5.75 -5.14 2.39
5.85 -5.02 2.39
5.95 -4.90 2.39
6.04 -4.78 2.39
6.14 -4.65 2.39
6.23 -4.53 2.39
6.31 -4.40 2.39
6.40 -4.27 2.39
6.48 -4.14 2.39
6.56 -4.01 2.39
6.64 -3.87 2.39
6.76 -3.76 2.41
6.83 -3.63 2.41
6.90 -3.49 2.41
6.97 -3.35 2.41
7.03 -3.21 2.41
7.09 -3.06 2.41
7.15 -2.92 2.41
7.20 -2.77 2.41
7.26 -2.63 2.41
7.31 -2.48 2.41
7.35 -2.33 2.41
7.40 -2.18 2.41
7.44 -2.03 2.41
7.47 -1.88 2.41
7.51 -1.73 2.41
7.54 -1.58 2.41
7.57 -1.43 2.41
7.59 -1.28 2.41
7.44 -1.10 2.35
7.45 -0.95 2.35
7.47 -0.80 2.35
7.48 -0.65 2.35
7.48 -0.49 2.35
7.49 -0.34 2.35
7.49 -0.19 2.35
7.49 -0.04 2.35
7.49 0.11 2.35
7.49 0.26 2.35
7.48 0.41 2.35
7.47 0.56 2.35
7.46 0.71 2.35
7.44 0.86 2.35
7.61 1.03 2.41
7.59 1.19 2.41
7.56 1.34 2.41
7.53 1.49 2.41
7.50 1.64 2.41
7.47 1.79 2.41
7.31 1.91 2.37
6.72 1.90 2.19
6.41 1.95 2.10
6.30 2.06 2.08
6.29 2.20 2.09
6.28 2.34 2.10
6.27 2.48 2.11
6.26 2.62 2.13
6.25 2.76 2.14
6.23 2.91 2.16
6.22 3.06 2.17
6.21 3.21 2.19
6.20 3.36 2.21
6.18 3.52 2.23
6.17 3.68 2.25
6.16 3.84 2.27
6.15 4.00 2.30
6.14 4.18 2.33
6.13 4.35 2.36
6.13 4.54 2.39
6.04 4.67 2.39
5.94 4.79 2.39
5.85 4.91 2.39
5.75 5.02 2.39
5.65 5.14 2.39
5.54 5.25 2.39
5.44 5.36 2.39
5.33 5.47 2.39
5.22 5.58 2.39
5.11 5.68 2.39
4.99 5.78 2.39
4.87 5.88 2.39
4.76 5.98 2.39
4.64 6.08 2.39
4.51 6.17 2.39
4.39 6.26 2.39
4.26 6.35 2.39
4.14 6.44 2.39
4.01 6.52 2.39
3.88 6.60 2.39
3.74 6.68 2.39
3.61 6.75 2.39
3.47 6.83 2.39
3.34 6.90 2.39
3.20 6.96 2.39
3.06 7.03 2.39
2.92 7.09 2.39
2.77 7.15 2.39
2.63 7.21 2.39
2.49 7.26 2.39
2.35 7.33 2.40
2.19 7.36 2.39
2.12 7.66 2.48
1.98 7.77 2.49
1.82 7.81 2.49
1.67 7.84 2.49
1.51 7.88 2.49
1.35 7.91 2.49
1.19 7.94 2.49
1.03 7.96 2.49
0.87 7.98 2.49
0.71 8.00 2.49
0.55 8.02 2.49
0.39 8.03 2.49
0.23 8.04 2.49
0.07 8.04 2.49
-0.09 8.05 2.49
-0.25 8.05 2.49
-0.42 8.04 2.49
-0.58 8.04 2.49
-0.74 8.03 2.49
-0.90 8.01 2.49
-1.06 8.00 2.49
-1.22 7.98 2.49
-1.38 7.95 2.49
-1.54 7.93 2.49
-1.70 7.90 2.49
-1.86 7.86 2.49
-2.02 7.83 2.49
-2.18 7.79 2.49
-2.33 7.75 2.49
-2.49 7.70 2.49
-2.65 7.65 2.49
-2.80 7.60 2.49
-2.95 7.55 2.49
-3.10 7.49 2.49
-3.26 7.43 2.49
-3.41 7.36 2.49
-3.55 7.30 2.49
-3.70 7.23 2.49
-3.85 7.15 2.49
-3.99 7.08 2.49
-4.13 7.00 2.49
-4.28 6.92 2.49
-4.42 6.83 2.49
-4.55 6.74 2.49
-4.69 6.65 2.49
-4.82 6.56 2.49
-4.96 6.47 2.49
-5.09 6.37 2.49
-5.22 6.27 2.49
-5.34 6.16 2.49
-5.47 6.06 2.49
-5.59 5.95 2.49
-5.71 5.84 2.49
-5.83 5.72 2.49
-5.84 5.51 2.45
-5.84 5.29 2.40
-5.91 5.15 2.39
-6.02 5.03 2.39
-6.12 4.91 2.39
-6.22 4.79 2.39
-6.31 4.66 2.39
-6.41 4.54 2.39
-6.50 4.41 2.39
-6.59 4.28 2.39
-6.68 4.15 2.39
-6.76 4.01 2.39
-6.84 3.88 2.39
-6.92 3.74 2.39
-7.00 3.60 2.39
-7.07 3.46 2.39
-7.14 3.32 2.39
-7.21 3.18 2.39
-7.27 3.03 2.39
-7.33 2.89 2.39
-7.39 2.74 2.39
-7.45 2.59 2.39
-7.50 2.44 2.39
-7.55 2.29 2.39
-7.60 2.14 2.39
-7.64 1.99 2.39
-7.68 1.84 2.39
-7.72 1.68 2.39
-7.75 1.53 2.39
-7.78 1.37 2.39
-7.81 1.22 2.39
-7.83 1.06 2.39
-7.85 0.90 2.39
-7.87 0.75 2.39
-7.89 0.59 2.39
-7.90 0.43 2.39
-7.91 0.27 2.39
-7.91 0.11 2.39
-7.91 -0.04 2.39
-7.91 -0.20 2.39
-7.91 -0.36 2.39
-7.90 -0.52 2.39
-7.89 -0.68 2.39
-7.88 -0.84 2.39
-7.86 -0.99 2.39
-7.84 -1.15 2.39
-7.81 -1.31 2.39
-7.79 -1.47 2.39
-7.76 -1.62 2.39
-7.72 -1.78 2.39
-7.69 -1.93 2.39
-7.65 -2.09 2.39
-7.60 -2.24 2.39
-7.56 -2.39 2.39
-7.51 -2.54 2.39
-7.46 -2.69 2.39
-7.40 -2.84 2.39
-7.34 -2.99 2.39
-7.28 -3.13 2.39
-7.22 -3.28 2.39
-7.15 -3.42 2.39
-7.08 -3.57 2.39
-7.01 -3.71 2.39
-6.93 -3.85 2.39
-6.85 -3.98 2.39
-6.77 -4.12 2.39
-6.69 -4.26 2.39
-6.60 -4.39 2.39
-6.51 -4.52 2.39
-6.42 -4.65 2.39
-6.32 -4.78 2.39
-6.22 -4.90 2.39
-6.12 -5.02 2.39
-6.02 -5.15 2.39
-5.92 -5.26 2.39
-5.74 -5.32 2.36
-5.70 -5.50 2.39
-5.59 -5.61 2.39
-5.47 -5.72 2.39
-5.36 -5.83 2.39
-5.32 -6.03 2.43
-5.31 -6.26 2.48
-5.21 -6.40 2.49
-5.08 -6.50 2.49
-4.95 -6.60 2.49
-4.81 -6.70 2.49
-4.68 -6.79 2.49
-4.54 -6.88 2.49
-4.40 -6.97 2.49
-4.26 -7.05 2.49
-4.11 -7.14 2.49
-3.97 -7.22 2.49
-3.82 -7.29 2.49
-3.67 -7.37 2.49
-3.53 -7.44 2.49
-3.37 -7.50 2.49
-3.22 -7.57 2.49
-3.07 -7.63 2.49
-2.92 -7.69 2.49
-2.76 -7.74 2.49
-2.60 -7.79 2.49
-2.45 -7.84 2.49
-2.29 -7.89 2.49
-2.13 -7.93 2.49
-1.97 -7.97 2.49
-1.81 -8.00 2.49
-1.65 -8.03 2.49
-1.48 -8.06 2.49
-1.32 -8.09 2.49
-1.16 -8.11 2.49
-1.00 -8.13 2.49
-0.83 -8.14 2.49
-0.67 -8.16 2.49
-0.50 -8.17 2.49
-0.34 -8.17 2.49
-0.18 -8.17 2.49
-0.01 -7.56 2.49
0.14 -7.56 2.49
0.29 -7.55 2.49
0.44 -7.54 2.49
0.59 -7.53 2.49
0.74 -7.51 2.49
0.89 -7.49 2.49
1.04 -7.47 2.49
1.19 -7.44 2.49
1.34 -7.42 2.49
1.49 -7.38 2.49
1.64 -7.35 2.49
1.78 -7.31 2.49
1.93 -7.27 2.49
2.07 -7.23 2.49
2.22 -7.18 2.49
2.36 -7.14 2.49
2.50 -7.09 2.49
2.64 -7.03 2.49
2.77 -6.95 2.49
2.80 -6.63 2.39
2.93 -6.57 2.39
3.06 -6.51 2.39
3.19 -6.44 2.39
3.32 -6.37 2.39
3.44 -6.30 2.39
3.57 -6.23 2.39
3.69 -6.15 2.39
3.81 -6.08 2.39
3.93 -6.00 2.39
4.05 -5.92 2.39
4.17 -5.83 2.39
4.28 -5.74 2.39
4.39 -5.65 2.39
4.51 -5.56 2.39
4.61 -5.47 2.39
4.72 -5.37 2.39
4.83 -5.28 2.39
4.93 -5.18 2.39
5.03 -5.07 2.39
5.13 -4.97 2.39
5.23 -4.87 2.39
5.32 -4.76 2.39
5.42 -4.65 2.39
5.51 -4.54 2.39
5.59 -4.42 2.39
5.68 -4.31 2.39
5.76 -4.19 2.39
5.85 -4.08 2.39
5.92 -3.96 2.39
6.00 -3.83 2.39
6.07 -3.71 2.39
6.15 -3.59 2.39
6.22 -3.46 2.39
6.28 -3.34 2.39
6.35 -3.21 2.39
6.41 -3.08 2.39
6.47 -2.95 2.39
6.52 -2.82 2.39
6.58 -2.69 2.39
6.67 -2.57 2.41
6.72 -2.43 2.41
6.77 -2.30 2.41
6.81 -2.16 2.41
6.85 -2.02 2.41
6.89 -1.88 2.41
6.92 -1.75 2.41
6.95 -1.61 2.41
6.98 -1.47 2.41
7.01 -1.32 2.41
6.94 -1.17 2.38
6.96 -1.03 2.37
6.97 -0.89 2.37
6.99 -0.75 2.37
7.00 -0.60 2.37
7.00 -0.46 2.37
7.01 -0.32 2.37
7.01 -0.18 2.37
7.01 -0.04 2.37
7.01 0.10 2.37
7.01 0.24 2.37
7.00 0.38 2.37
6.99 0.52 2.37
6.98 0.66 2.37
6.97 0.80 2.37
7.05 0.96 2.41
7.03 1.10 2.41
7.01 1.24 2.41
6.98 1.38 2.41
6.95 1.52 2.41
6.92 1.66 2.41
6.88 1.80 2.41
6.72 1.90 2.36
6.41 1.95 2.27
6.30 2.06 2.24
6.29 2.20 2.26
6.28 2.34 2.27
6.27 2.48 2.28
6.26 2.62 2.30
6.25 2.76 2.31
6.23 2.91 2.33
6.22 3.06 2.35
6.21 3.21 2.37
6.21 3.37 2.39
6.14 3.49 2.39
6.07 3.62 2.39
6.00 3.74 2.39
5.92 3.86 2.39
5.84 3.98 2.39
5.76 4.09 2.39
5.68 4.21 2.39
5.59 4.32 2.39
5.51 4.43 2.39
5.42 4.54 2.39
5.32 4.65 2.39
5.23 4.76 2.39
5.13 4.86 2.39
5.04 4.97 2.39
4.94 5.07 2.39
4.83 5.17 2.39
4.73 5.26 2.39
4.62 5.36 2.39
4.51 5.45 2.39
4.41 5.54 2.39
4.29 5.63 2.39
4.18 5.72 2.39
4.07 5.80 2.39
3.95 5.88 2.39
3.83 5.96 2.39
3.71 6.04 2.39
3.59 6.11 2.39
3.47 6.19 2.39
3.34 6.25 2.39
3.22 6.32 2.39
3.09 6.39 2.39
2.96 6.45 2.39
2.83 6.51 2.39
2.70 6.57 2.39
2.57 6.62 2.39
2.44 6.67 2.39
2.30 6.72 2.39
2.17 6.78 2.39
2.12 7.11 2.49
1.98 7.15 2.49
1.83 7.19 2.49
1.69 7.23 2.49
1.54 7.26 2.49
1.40 7.29 2.49
1.25 7.32 2.49
1.10 7.35 2.49
0.96 7.37 2.49
0.81 7.39 2.49
0.66 7.41 2.49
0.51 7.42 2.49
0.36 7.43 2.49
0.21 7.44 2.49
0.06 7.45 2.49
-0.09 7.45 2.49
-0.24 7.45 2.49
-0.39 7.45 2.49
-0.54 7.44 2.49
-0.69 7.43 2.49
-0.84 7.42 2.49
-0.98 7.40 2.49
-1.13 7.38 2.49
-1.28 7.36 2.49
-1.43 7.34 2.49
-1.58 7.31 2.49
-1.72 7.28 2.49
-1.87 7.24 2.49
-2.02 7.21 2.49
-2.16 7.17 2.49
-2.31 7.13 2.49
-2.45 7.08 2.49
-2.59 7.03 2.49
-2.73 6.98 2.49
-2.87 6.93 2.49
-3.01 6.87 2.49
-3.15 6.81 2.49
-3.29 6.75 2.49
-3.43 6.68 2.49
-3.56 6.62 2.49
-3.69 6.55 2.49
-3.83 6.47 2.49
-3.96 6.40 2.49
-4.09 6.32 2.49
-4.21 6.24 2.49
-4.34 6.15 2.49
-4.46 6.07 2.49
-4.59 5.98 2.49
-4.71 5.89 2.49
-4.83 5.80 2.49
-4.94 5.70 2.49
-5.06 5.60 2.49
-5.17 5.50 2.49
-5.28 5.40 2.49
-5.39 5.29 2.49
-5.50 5.18 2.49
-5.60 5.08 2.49
-5.70 4.96 2.49
-5.81 4.85 2.49
-5.80 4.65 2.45
-5.80 4.46 2.41
-5.84 4.31 2.39
-5.93 4.19 2.39
-6.01 4.08 2.39
-6.09 3.96 2.39
-6.17 3.83 2.39
-6.25 3.71 2.39
-6.33 3.58 2.39
-6.40 3.46 2.39
-6.47 3.33 2.39
-6.54 3.20 2.39
-6.60 3.07 2.39
-6.66 2.94 2.39
-6.38 2.66 2.27
-6.43 2.53 2.27
-6.58 2.44 2.30
-6.64 2.31 2.31
-6.63 2.16 2.29
-6.63 2.02 2.27
-6.66 1.88 2.27
-6.70 1.75 2.27
-6.74 1.61 2.27
-7.13 1.56 2.39
-7.16 1.41 2.39
-7.19 1.27 2.39
-7.22 1.12 2.39
-7.24 0.98 2.39
-7.26 0.84 2.39
-7.28 0.69 2.39
-7.29 0.54 2.39
-7.30 0.40 2.39
-7.31 0.25 2.39
-7.31 0.10 2.39
-7.31 -0.04 2.39
-7.31 -0.19 2.39
-7.31 -0.34 2.39
-7.30 -0.48 2.39
-7.29 -0.63 2.39
-7.28 -0.77 2.39
-7.26 -0.92 2.39
-7.24 -1.07 2.39
-7.22 -1.21 2.39
-7.20 -1.35 2.39
-7.17 -1.50 2.39
-7.14 -1.64 2.39
-7.10 -1.79 2.39
-7.07 -1.93 2.39
-7.03 -2.07 2.39
-6.98 -2.21 2.39
-6.94 -2.35 2.39
-6.89 -2.49 2.39
-6.84 -2.62 2.39
-6.79 -2.76 2.39
-6.73 -2.90 2.39
-6.67 -3.03 2.39
-6.61 -3.16 2.39
-6.54 -3.30 2.39
-6.48 -3.43 2.39
-6.41 -3.56 2.39
-6.33 -3.68 2.39
-6.26 -3.81 2.39
-6.18 -3.93 2.39
-6.10 -4.06 2.39
-6.02 -4.18 2.39
-5.93 -4.30 2.39
-5.84 -4.41 2.39
-5.75 -4.53 2.39
-5.66 -4.64 2.39
-5.57 -4.76 2.39
-5.47 -4.87 2.39
-5.38 -4.98 2.40
-5.36 -5.17 2.43
-5.35 -5.37 2.48
-5.28 -5.51 2.49
-5.16 -5.62 2.49
-5.05 -5.72 2.49
-4.93 -5.82 2.49
-4.82 -5.91 2.49
-4.70 -6.01 2.49
-4.57 -6.10 2.49
-4.45 -6.19 2.49
-4.32 -6.28 2.49
-4.20 -6.36 2.49
-4.07 -6.44 2.49
-3.94 -6.52 2.49
-3.80 -6.60 2.49
-3.67 -6.67 2.49
-3.53 -6.74 2.49
-3.40 -6.81 2.49
-3.26 -6.87 2.49
-3.12 -6.94 2.49
-2.98 -7.00 2.49
-2.84 -7.05 2.49
-2.70 -7.11 2.49
-2.55 -7.16 2.49
-2.41 -7.20 2.49
-2.26 -7.25 2.49
-2.12 -7.29 2.49
-1.97 -7.33 2.49
-1.82 -7.37 2.49
-1.67 -7.40 2.49
-1.52 -7.43 2.49
-1.37 -7.46 2.49
-1.22 -7.48 2.49
-1.07 -7.50 2.49
-0.92 -7.52 2.49
-0.77 -7.53 2.49
-0.62 -7.54 2.49
-0.47 -7.55 2.49
-0.32 -7.56 2.49
-0.16 -7.56 2.49
-0.01 -7.02 2.49
0.13 -7.02 2.49
0.27 -7.01 2.49
0.41 -7.00 2.49
0.55 -6.99 2.49
0.69 -6.98 2.49
0.83 -6.96 2.49
0.97 -6.94 2.49
1.11 -6.92 2.49
1.25 -6.89 2.49
1.38 -6.86 2.49
1.52 -6.83 2.49
1.66 -6.80 2.49
1.79 -6.76 2.49
1.93 -6.72 2.49
2.06 -6.68 2.49
2.19 -6.63 2.49
2.32 -6.59 2.49
2.46 -6.54 2.49
2.59 -6.48 2.49
2.71 -6.43 2.49
2.75 -6.16 2.41
2.84 -6.05 2.39
2.96 -5.99 2.39
3.08 -5.92 2.39
3.20 -5.86 2.39
3.32 -5.79 2.39
3.43 -5.72 2.39
3.54 -5.65 2.39
3.66 -5.58 2.39
3.77 -5.50 2.39
3.87 -5.42 2.39
3.98 -5.34 2.39
4.09 -5.26 2.39
4.19 -5.17 2.39
4.29 -5.09 2.39
4.39 -5.00 2.39
4.49 -4.91 2.39
4.58 -4.81 2.39
4.68 -4.72 2.39
4.77 -4.62 2.39
4.86 -4.52 2.39
4.95 -4.42 2.39
5.04 -4.32 2.39
5.12 -4.22 2.39
5.20 -4.11 2.39
5.28 -4.01 2.39
5.36 -3.90 2.39
5.44 -3.79 2.39
5.51 -3.68 2.39
5.58 -3.57 2.39
5.65 -3.45 2.39
5.72 -3.34 2.39
5.78 -3.22 2.39
5.84 -3.10 2.39
5.90 -2.99 2.39
5.96 -2.87 2.39
6.01 -2.74 2.39
6.07 -2.62 2.39
6.12 -2.50 2.39
6.16 -2.37 2.39
6.21 -2.25 2.39
6.25 -2.12 2.39
6.29 -2.00 2.39
6.33 -1.87 2.39
6.36 -1.74 2.39
6.40 -1.61 2.39
6.43 -1.48 2.39
6.45 -1.35 2.39
6.48 -1.22 2.39
6.50 -1.09 2.39
6.52 -0.96 2.39
6.55 -0.83 2.39
6.56 -0.70 2.39
6.57 -0.57 2.39
6.58 -0.44 2.39
6.58 -0.30 2.39
6.58 -0.17 2.39
6.59 -0.04 2.39
6.58 0.09 2.39
6.58 0.23 2.39
6.57 0.36 2.39
6.56 0.49 2.39
6.55 0.62 2.39
6.54 0.75 2.39
6.56 0.89 2.41
6.54 1.02 2.41
6.52 1.15 2.41
6.49 1.28 2.41
6.47 1.41 2.41
6.39 1.53 2.39
6.36 1.66 2.39
6.33 1.79 2.39
6.29 1.92 2.39
6.25 2.04 2.39
6.21 2.17 2.39
6.16 2.29 2.39
6.11 2.42 2.39
6.06 2.54 2.39
6.01 2.66 2.39
5.96 2.78 2.39
5.90 2.90 2.39
5.84 3.02 2.39
5.78 3.13 2.39
5.71 3.25 2.39
5.65 3.36 2.39
5.58 3.48 2.39
5.51 3.59 2.39
5.44 3.70 2.39
5.36 3.81 2.39
5.28 3.92 2.39
5.20 4.02 2.39
5.12 4.13 2.39
5.04 4.23 2.39
4.95 4.33 2.39
4.87 4.43 2.39
4.78 4.53 2.39
4.68 4.62 2.39
4.59 4.72 2.39
4.50 4.81 2.39
4.40 4.90 2.39
4.30 4.99 2.39
4.20 5.07 2.39
4.10 5.16 2.39
3.99 5.24 2.39
3.89 5.32 2.39
3.78 5.40 2.39
3.67 5.47 2.39
3.56 5.55 2.39
3.45 5.62 2.39
3.34 5.69 2.39
3.22 5.75 2.39
3.11 5.82 2.39
2.99 5.88 2.39
2.87 5.94 2.39
2.75 6.00 2.39
2.63 6.06 2.39
2.51 6.11 2.39
2.40 6.18 2.40
2.27 6.21 2.39
2.18 6.37 2.43
2.10 6.57 2.49
1.97 6.61 2.49
1.84 6.65 2.49
1.70 6.69 2.49
1.57 6.72 2.49
1.43 6.76 2.49
1.30 6.78 2.49
1.16 6.81 2.49
1.03 6.83 2.49
0.89 6.86 2.49
0.75 6.87 2.49
0.61 6.89 2.49
0.47 6.90 2.49
0.34 6.91 2.49
0.20 6.92 2.49
0.06 6.93 2.49
-0.08 6.93 2.49
-0.22 6.93 2.49
-0.36 6.92 2.49
-0.50 6.92 2.49
-0.64 6.91 2.49
-0.78 6.90 2.49
-0.92 6.88 2.49
-1.05 6.86 2.49
-1.19 6.84 2.49
-1.33 6.82 2.49
-1.47 6.79 2.49
-1.60 6.77 2.49
-1.74 6.73 2.49
-1.88 6.70 2.49
-2.01 6.66 2.49
-2.14 6.62 2.49
-2.28 6.58 2.49
-2.41 6.54 2.49
-2.54 6.49 2.49
-2.67 6.44 2.49
-2.80 6.39 2.49
-2.93 6.33 2.49
-3.06 6.27 2.49
-3.18 6.21 2.49
-3.31 6.15 2.49
-3.43 6.08 2.49
-3.56 6.02 2.49
-3.68 5.95 2.49
-3.80 5.87 2.49
-3.92 5.80 2.49
-4.03 5.72 2.49
-4.15 5.64 2.49
-4.26 5.56 2.49
-4.37 5.47 2.49
-4.48 5.38 2.49
-4.59 5.30 2.49
-4.70 5.20 2.49
-4.81 5.11 2.49
-4.91 5.01 2.49
-5.01 4.92 2.49
-5.11 4.82 2.49
-5.21 4.71 2.49
-5.30 4.61 2.49
-5.39 4.51 2.49
-5.49 4.40 2.49
-5.57 4.29 2.49
-5.66 4.18 2.49
-5.74 4.06 2.49
-5.77 3.91 2.47
-5.76 3.74 2.43
-5.76 3.58 2.40
-5.81 3.45 2.39
-5.88 3.33 2.39
-5.95 3.21 2.39
-6.01 3.09 2.39
-6.07 2.97 2.39
-6.13 2.85 2.39
-6.07 2.67 2.34
-6.06 2.53 2.32
-6.06 2.38 2.30
-6.05 2.24 2.28
-6.07 2.11 2.27
-6.11 1.99 2.27
-6.15 1.87 2.27
-6.41 1.81 2.35
-6.45 1.68 2.35
-6.48 1.55 2.35
-6.52 1.42 2.35
-6.54 1.29 2.35
-6.57 1.16 2.35
-6.58 1.02 2.35
-6.58 0.89 2.34
-6.57 0.76 2.33
-6.56 0.62 2.32
-6.56 0.49 2.32
-6.55 0.36 2.31
-6.55 0.22 2.31
-6.54 0.09 2.30
-6.54 -0.04 2.30
-6.53 -0.17 2.30
-6.52 -0.30 2.30
-6.52 -0.43 2.30
-6.51 -0.56 2.30
-6.51 -0.69 2.30
-6.50 -0.82 2.30
-6.49 -0.96 2.31
-6.49 -1.09 2.31
-6.48 -1.22 2.32
-6.48 -1.35 2.33
-6.47 -1.49 2.33
-6.46 -1.62 2.34
-6.45 -1.76 2.35
-6.42 -1.89 2.35
-6.37 -2.01 2.35
-6.12 -2.07 2.27
-6.07 -2.19 2.27
-6.35 -2.44 2.39
-6.30 -2.56 2.39
-6.25 -2.69 2.39
-6.19 -2.81 2.39
-6.14 -2.94 2.39
-6.08 -3.06 2.39
-6.01 -3.18 2.39
-5.95 -3.30 2.39
-5.88 -3.42 2.39
-5.81 -3.54 2.39
-5.74 -3.65 2.39
-5.66 -3.77 2.39
-5.59 -3.88 2.39
-5.51 -3.99 2.39
-5.43 -4.10 2.39
-5.41 -4.26 2.42
-5.39 -4.42 2.45
-5.39 -4.60 2.49
-5.30 -4.71 2.49
-5.20 -4.82 2.49
-5.10 -4.92 2.49
-5.00 -5.02 2.49
-4.90 -5.12 2.49
-4.80 -5.22 2.49
-4.69 -5.31 2.49
-4.58 -5.40 2.49
-4.47 -5.49 2.49
-4.36 -5.58 2.49
-4.25 -5.66 2.49
-4.13 -5.75 2.49
-4.02 -5.83 2.49
-3.90 -5.91 2.49
-3.78 -5.98 2.49
-3.66 -6.06 2.49
-3.53 -6.13 2.49
-3.41 -6.19 2.49
-3.28 -6.26 2.49
-3.16 -6.32 2.49
-3.03 -6.38 2.49
-2.90 -6.44 2.49
-2.77 -6.50 2.49
-2.64 -6.55 2.49
-2.50 -6.60 2.49
-2.37 -6.65 2.49
-2.24 -6.69 2.49
-2.10 -6.73 2.49
-1.97 -6.77 2.49
-1.83 -6.81 2.49
-1.69 -6.84 2.49
-1.55 -6.87 2.49
-1.42 -6.90 2.49
-1.28 -6.93 2.49
-1.14 -6.95 2.49
-1.00 -6.97 2.49
-0.86 -6.98 2.49
-0.72 -7.00 2.49
-0.58 -7.01 2.49
-0.44 -7.02 2.49
-0.29 -7.02 2.49
-0.15 -7.02 2.49
-0.01 -6.55 2.49
0.12 -6.55 2.49
0.25 -6.54 2.49
0.38 -6.53 2.49
0.51 -6.52 2.49
0.64 -6.51 2.49
0.77 -6.49 2.49
0.90 -6.47 2.49
1.03 -6.45 2.49
1.16 -6.43 2.49
1.29 -6.40 2.49
1.42 -6.37 2.49
1.54 -6.34 2.49
1.67 -6.31 2.49
1.80 -6.27 2.49
1.92 -6.23 2.49
2.05 -6.19 2.49
2.17 -6.15 2.49
2.29 -6.10 2.49
2.41 -6.05 2.49
2.53 -6.00 2.49
2.65 -5.94 2.49
2.72 -5.79 2.45
2.77 -5.59 2.39
2.88 -5.53 2.39
2.99 -5.47 2.39
3.09 -5.41 2.39
3.20 -5.34 2.39
3.31 -5.27 2.39
3.41 -5.20 2.39
3.51 -5.13 2.39
3.61 -5.06 2.39
3.71 -4.99 2.39
3.81 -4.91 2.39
3.91 -4.83 2.39
4.00 -4.75 2.39
4.10 -4.67 2.39
4.19 -4.58 2.39
4.28 -4.49 2.39
4.37 -4.41 2.39
4.45 -4.32 2.39
4.54 -4.22 2.39
4.62 -4.13 2.39
4.70 -4.04 2.39
4.78 -3.94 2.39
4.86 -3.84 2.39
4.93 -3.74 2.39
5.00 -3.64 2.39
5.07 -3.54 2.39
5.14 -3.44 2.39
5.21 -3.33 2.39
5.27 -3.22 2.39
5.34 -3.12 2.39
5.40 -3.01 2.39
5.45 -2.90 2.39
5.51 -2.79 2.39
5.56 -2.68 2.39
5.62 -2.56 2.39
5.66 -2.45 2.39
5.71 -2.33 2.39
5.76 -2.22 2.39
5.80 -2.10 2.39
5.84 -1.98 2.39
5.87 -1.87 2.39
5.91 -1.75 2.39
5.94 -1.63 2.39
5.97 -1.51 2.39
6.00 -1.39 2.39
6.03 -1.27 2.39
6.05 -1.14 2.39
6.07 -1.02 2.39
6.09 -0.90 2.39
6.10 -0.78 2.39
6.12 -0.65 2.39
6.13 -0.53 2.39
6.14 -0.41 2.39
6.14 -0.28 2.39
6.15 -0.16 2.39
6.15 -0.04 2.39
6.15 0.09 2.39
6.14 0.21 2.39
6.14 0.33 2.39
6.13 0.46 2.39
6.12 0.58 2.39
6.10 0.70 2.39
6.09 0.83 2.39
6.07 0.95 2.39
6.05 1.07 2.39
6.03 1.19 2.39
6.00 1.31 2.39
5.97 1.43 2.39
5.94 1.55 2.39
5.91 1.67 2.39
5.87 1.79 2.39
5.84 1.91 2.39
5.80 2.02 2.39
5.75 2.14 2.39
5.71 2.26 2.39
5.66 2.37 2.39
5.61 2.48 2.39
5.56 2.60 2.39
5.51 2.71 2.39
5.45 2.82 2.39
5.40 2.93 2.39
5.34 3.04 2.39
5.28 3.14 2.39
5.21 3.25 2.39
5.14 3.35 2.39
5.08 3.46 2.39
5.01 3.56 2.39
4.93 3.66 2.39
4.86 3.76 2.39
4.78 3.85 2.39
4.71 3.95 2.39
4.63 4.04 2.39
4.54 4.14 2.39
4.46 4.23 2.39
4.38 4.32 2.39
4.29 4.40 2.39
4.20 4.49 2.39
4.11 4.57 2.39
4.02 4.66 2.39
3.92 4.74 2.39
3.83 4.82 2.39
3.73 4.89 2.39
3.63 4.97 2.39
3.53 5.04 2.39
3.43 5.11 2.39
3.33 5.18 2.39
3.22 5.25 2.39
3.12 5.31 2.39
3.01 5.37 2.39
2.90 5.43 2.39
2.79 5.49 2.39
2.68 5.55 2.39
2.57 5.60 2.39
2.46 5.65 2.39
2.34 5.70 2.39
2.23 5.75 2.39
2.19 6.01 2.48
2.08 6.09 2.49
1.96 6.13 2.49
1.84 6.17 2.49
1.71 6.21 2.49
1.59 6.24 2.49
1.46 6.28 2.49
1.34 6.31 2.49
1.21 6.33 2.49
1.08 6.36 2.49
0.96 6.38 2.49
0.83 6.40 2.49
0.70 6.42 2.49
0.57 6.43 2.49
0.44 6.44 2.49
0.31 6.45 2.49
0.18 6.46 2.49
0.05 6.47 2.49
-0.08 6.47 2.49
-0.21 6.47 2.49
-0.34 6.46 2.49
-0.47 6.46 2.49
-0.60 6.45 2.49
-0.73 6.44 2.49
-0.86 6.42 2.49
-0.98 6.41 2.49
-1.11 6.39 2.49
-1.24 6.37 2.49
-1.37 6.34 2.49
-1.50 6.31 2.49
-1.62 6.28 2.49
-1.75 6.25 2.49
-1.88 6.22 2.49
-2.00 6.18 2.49
-2.13 6.14 2.49
-2.25 6.10 2.49
-2.37 6.06 2.49
-2.49 6.01 2.49
-2.62 5.96 2.49
-2.74 5.91 2.49
-2.85 5.85 2.49
-2.97 5.80 2.49
-3.09 5.74 2.49
-3.20 5.68 2.49
-3.32 5.61 2.49
-3.43 5.55 2.49
-3.54 5.48 2.49
-3.65 5.41 2.49
-3.76 5.34 2.49
-3.87 5.26 2.49
-3.98 5.18 2.49
-4.08 5.10 2.49
-4.18 5.02 2.49
-4.29 4.94 2.49
-4.39 4.85 2.49
-4.48 4.77 2.49
-4.58 4.68 2.49
-4.67 4.59 2.49
-4.77 4.49 2.49
-4.86 4.40 2.49
-4.95 4.30 2.49
-5.03 4.20 2.49
-5.12 4.10 2.49
-5.20 4.00 2.49
-5.28 3.90 2.49
-5.36 3.79 2.49
-5.44 3.68 2.49
-5.51 3.57 2.49
-5.58 3.46 2.49
-5.65 3.35 2.49
-5.72 3.24 2.49
-5.73 3.09 2.47
-5.72 2.94 2.44
-5.72 2.80 2.42
-5.72 2.66 2.39
-5.77 2.54 2.39
-5.82 2.43 2.39
-5.89 2.32 2.40
-5.92 2.19 2.39
-5.96 2.08 2.39
-6.01 1.96 2.39
-6.03 1.83 2.39
-6.03 1.70 2.37
-6.02 1.57 2.35
-6.01 1.44 2.34
-6.01 1.31 2.33
-6.00 1.18 2.31
-6.00 1.06 2.30
-5.99 0.93 2.29
-5.99 0.81 2.28
-5.98 0.69 2.28
-5.98 0.57 2.27
-5.99 0.45 2.27
-6.00 0.33 2.27
-6.01 0.21 2.27
-6.01 0.09 2.27
-6.01 -0.04 2.27
-6.01 -0.16 2.27
-6.01 -0.28 2.27
-6.00 -0.40 2.27
-5.99 -0.52 2.27
-5.98 -0.64 2.27
-5.97 -0.76 2.27
-5.95 -0.88 2.27
-5.93 -0.99 2.27
-5.91 -1.11 2.27
-5.90 -1.23 2.27
-5.89 -1.36 2.28
-5.88 -1.48 2.29
-5.88 -1.60 2.30
-5.87 -1.73 2.31
-5.87 -1.86 2.32
-5.86 -1.98 2.33
-5.85 -2.11 2.35
-5.86 -2.25 2.37
-5.87 -2.39 2.39
-5.83 -2.51 2.39
-5.77 -2.62 2.39
-5.72 -2.74 2.39
-5.66 -2.85 2.39
-5.61 -2.97 2.39
-5.55 -3.08 2.39
-5.48 -3.19 2.39
-5.45 -3.32 2.41
-5.44 -3.46 2.43
-5.43 -3.61 2.46
-5.42 -3.76 2.49
-5.36 -3.88 2.49
-5.28 -3.99 2.49
-5.20 -4.09 2.49
-5.11 -4.19 2.49
-5.03 -4.29 2.49
-4.94 -4.39 2.49
-4.85 -4.49 2.49
-4.76 -4.59 2.49
-4.66 -4.68 2.49
-4.57 -4.77 2.49
-4.47 -4.86 2.49
-4.37 -4.95 2.49
-4.27 -5.04 2.49
-4.17 -5.12 2.49
-4.07 -5.20 2.49
-3.96 -5.28 2.49
-3.85 -5.36 2.49
-3.74 -5.43 2.49
-3.63 -5.51 2.49
-3.52 -5.58 2.49
-3.41 -5.65 2.49
-3.29 -5.71 2.49
-3.18 -5.78 2.49
-3.06 -5.84 2.49
-2.94 -5.90 2.49
-2.82 -5.95 2.49
-2.70 -6.01 2.49
-2.58 -6.06 2.49
-2.46 -6.11 2.49
-2.34 -6.16 2.49
-2.21 -6.20 2.49
-2.09 -6.24 2.49
-1.96 -6.28 2.49
-1.83 -6.32 2.49
-1.71 -6.35 2.49
-1.58 -6.38 2.49
-1.45 -6.41 2.49
-1.32 -6.44 2.49
-1.19 -6.46 2.49
-1.06 -6.48 2.49
-0.93 -6.50 2.49
-0.80 -6.51 2.49
-0.67 -6.53 2.49
-0.54 -6.54 2.49
-0.41 -6.54 2.49
-0.28 -6.55 2.49
-0.14 -6.55 2.49
-0.01 -6.13 2.49
0.11 -6.13 2.49
0.23 -6.12 2.49
0.36 -6.12 2.49
0.48 -6.11 2.49
0.60 -6.09 2.49
0.72 -6.08 2.49
0.84 -6.06 2.49
0.97 -6.04 2.49
1.09 -6.02 2.49
1.21 -5.99 2.49
1.33 -5.97 2.49
1.44 -5.94 2.49
1.56 -5.91 2.49
1.68 -5.87 2.49
1.80 -5.83 2.49
1.91 -5.80 2.49
2.03 -5.75 2.49
2.14 -5.71 2.49
2.26 -5.66 2.49
2.37 -5.62 2.49
2.48 -5.57 2.49
2.59 -5.51 2.49
2.70 -5.46 2.49
2.71 -5.20 2.40
2.80 -5.12 2.39
2.90 -5.07 2.40
3.00 -5.00 2.39
3.10 -4.94 2.39
3.19 -4.87 2.39
3.29 -4.81 2.39
3.38 -4.74 2.39
3.48 -4.67 2.39
3.57 -4.60 2.39
3.66 -4.52 2.39
3.75 -4.45 2.39
3.84 -4.37 2.39
3.92 -4.29 2.39
4.01 -4.21 2.39
4.09 -4.13 2.39
4.17 -4.04 2.39
4.25 -3.96 2.39
4.33 -3.87 2.39
4.40 -3.78 2.39
4.48 -3.69 2.39
4.55 -3.60 2.39
4.62 -3.51 2.39
4.69 -3.41 2.39
4.75 -3.32 2.39
4.82 -3.22 2.39
4.88 -3.12 2.39
4.94 -3.02 2.39
5.00 -2.92 2.39
5.06 -2.82 2.39
5.11 -2.72 2.39
5.16 -2.61 2.39
5.21 -2.51 2.39
5.26 -2.40 2.39
5.31 -2.29 2.39
5.35 -2.19 2.39
5.39 -2.08 2.39
5.43 -1.97 2.39
5.47 -1.86 2.39
5.50 -1.75 2.39
5.54 -1.64 2.39
5.57 -1.53 2.39
5.60 -1.41 2.39
5.62 -1.30 2.39
5.65 -1.19 2.39
5.67 -1.07 2.39
5.69 -0.96 2.39
5.70 -0.84 2.39
5.72 -0.73 2.39
5.73 -0.61 2.39
5.74 -0.50 2.39
5.75 -0.38 2.39
5.76 -0.27 2.39
5.76 -0.15 2.39
5.76 -0.03 2.39
5.76 0.08 2.39
5.76 0.20 2.39
5.75 0.31 2.39
5.74 0.43 2.39
5.73 0.54 2.39
5.72 0.66 2.39
5.70 0.77 2.39
5.69 0.89 2.39
5.67 1.00 2.39
5.65 1.12 2.39
5.62 1.23 2.39
5.60 1.34 2.39
5.57 1.45 2.39
5.54 1.57 2.39
5.50 1.68 2.39
5.47 1.79 2.39
5.43 1.90 2.39
5.39 2.01 2.39
5.35 2.11 2.39
5.31 2.22 2.39
5.26 2.33 2.39
5.21 2.43 2.39
5.16 2.54 2.39
5.11 2.64 2.39
5.06 2.74 2.39
5.00 2.84 2.39
4.94 2.94 2.39
4.88 3.04 2.39
4.82 3.14 2.39
4.76 3.24 2.39
4.69 3.33 2.39
4.62 3.43 2.39
4.55 3.52 2.39
4.48 3.61 2.39
4.41 3.70 2.39
4.33 3.79 2.39
4.26 3.88 2.39
4.18 3.96 2.39
4.10 4.04 2.39
4.02 4.13 2.39
3.93 4.21 2.39
3.85 4.29 2.39
3.76 4.36 2.39
3.67 4.44 2.39
3.59 4.51 2.39
3.49 4.58 2.39
3.40 4.65 2.39
3.31 4.72 2.39
3.21 4.79 2.39
3.12 4.85 2.39
3.02 4.92 2.39
2.92 4.98 2.39
2.82 5.03 2.39
2.72 5.09 2.39
2.62 5.15 2.39
2.51 5.20 2.39
2.41 5.25 2.39
2.30 5.30 2.39
2.22 5.41 2.42
2.18 5.62 2.49
2.07 5.66 2.49
1.95 5.71 2.49
1.84 5.75 2.49
1.72 5.78 2.49
1.61 5.82 2.49
1.49 5.85 2.49
1.37 5.88 2.49
1.25 5.91 2.49
1.13 5.93 2.49
1.02 5.96 2.49
0.90 5.98 2.49
0.78 6.00 2.49
0.65 6.01 2.49
0.53 6.03 2.49
0.41 6.04 2.49
0.29 6.05 2.49
0.17 6.05 2.49
0.05 6.06 2.49
-0.07 6.06 2.49
-0.19 6.06 2.49
-0.32 6.05 2.49
-0.44 6.05 2.49
-0.56 6.04 2.49
-0.68 6.03 2.49
-0.80 6.01 2.49
-0.92 6.00 2.49
-1.04 5.98 2.49
-1.16 5.96 2.49
-1.28 5.94 2.49
-1.40 5.91 2.49
-1.52 5.89 2.49
-1.64 5.86 2.49
-1.76 5.82 2.49
-1.88 5.79 2.49
-1.99 5.75 2.49
-2.11 5.71 2.49
-2.22 5.67 2.49
-2.34 5.63 2.49
-2.45 5.58 2.49
-2.56 5.53 2.49
-2.67 5.48 2.49
-2.78 5.43 2.49
-2.89 5.37 2.49
-3.00 5.31 2.49
-3.11 5.25 2.49
-3.21 5.19 2.49
-3.32 5.13 2.49
-3.42 5.06 2.49
-3.52 4.99 2.49
-3.62 4.92 2.49
-3.72 4.85 2.49
-3.82 4.78 2.49
-3.92 4.70 2.49
-4.01 4.62 2.49
-4.11 4.54 2.49
-4.20 4.46 2.49
-4.29 4.38 2.49
-4.38 4.29 2.49
-4.46 4.21 2.49
-4.55 4.12 2.49
-4.63 4.02 2.49
-4.71 3.93 2.49
-4.79 3.84 2.49
-4.87 3.74 2.49
-4.94 3.65 2.49
-5.02 3.55 2.49
-5.09 3.45 2.49
-5.16 3.34 2.49
-5.22 3.24 2.49
-5.29 3.14 2.49
-5.35 3.03 2.49
-5.41 2.92 2.49
-5.47 2.81 2.49
-5.53 2.71 2.49
-5.58 2.59 2.49
-5.64 2.48 2.49
-5.69 2.37 2.49
-5.69 2.24 2.48
-5.69 2.11 2.45
-5.68 1.98 2.43
-5.68 1.85 2.42
-5.68 1.72 2.40
-5.69 1.60 2.39
-5.72 1.49 2.39
-5.75 1.37 2.39
-5.78 1.26 2.39
-5.81 1.14 2.39
-5.83 1.03 2.39
-5.85 0.91 2.39
-5.87 0.79 2.39
-5.88 0.68 2.39
-5.90 0.56 2.39
-5.91 0.44 2.39
-5.92 0.32 2.39
-5.92 0.20 2.39
-5.93 0.08 2.39
-5.93 -0.03 2.39
-5.93 -0.15 2.39
-5.92 -0.27 2.39
-5.92 -0.39 2.39
-5.91 -0.51 2.39
-5.90 -0.63 2.39
-5.88 -0.75 2.39
-5.87 -0.86 2.39
-5.85 -0.98 2.39
-5.83 -1.10 2.39
-5.81 -1.21 2.39
-5.78 -1.33 2.39
-5.75 -1.45 2.39
-5.72 -1.56 2.39
-5.71 -1.68 2.40
-5.66 -1.79 2.39
-5.62 -1.90 2.39
-5.58 -2.01 2.39
-5.54 -2.13 2.39
-5.50 -2.24 2.39
-5.49 -2.36 2.41
-5.48 -2.49 2.43
-5.47 -2.62 2.45
-5.47 -2.75 2.47
-5.46 -2.89 2.49
-5.41 -3.00 2.49
-5.35 -3.11 2.49
-5.29 -3.22 2.49
-5.22 -3.32 2.49
-5.15 -3.43 2.49
-5.08 -3.53 2.49
-5.01 -3.63 2.49
-4.94 -3.73 2.49
-4.86 -3.83 2.49
-4.78 -3.92 2.49
-4.70 -4.02 2.49
-4.62 -4.11 2.49
-4.54 -4.20 2.49
-4.45 -4.29 2.49
-4.36 -4.38 2.49
-4.28 -4.47 2.49
-4.18 -4.55 2.49
-4.09 -4.63 2.49
-4.00 -4.71 2.49
-3.90 -4.79 2.49
-3.81 -4.87 2.49
-3.71 -4.94 2.49
-3.61 -5.01 2.49
-3.50 -5.09 2.49
-3.40 -5.15 2.49
-3.30 -5.22 2.49
-3.19 -5.28 2.49
-3.08 -5.35 2.49
-2.98 -5.41 2.49
-2.87 -5.46 2.49
-2.76 -5.52 2.49
-2.64 -5.57 2.49
-2.53 -5.62 2.49
-2.42 -5.67 2.49
-2.30 -5.72 2.49
