ply
format ascii 1.0
element vertex 2854
property float32 x
property float32 y
property float32 z
end_header
-13.29 8.29 1.25
-13.30 7.93 1.24
-13.33 7.58 1.23
-13.36 7.25 1.22
-13.39 6.92 1.21
-13.42 6.60 1.20
-13.46 6.29 1.20
-13.49 5.98 1.19
-13.50 5.66 1.18
-13.50 5.34 1.17
-13.51 5.03 1.17
-13.51 4.73 1.16
-13.55 4.44 1.16
-13.60 4.15 1.15
-13.63 3.86 1.15
-13.63 3.57 1.15
-13.64 3.28 1.14
-13.64 2.99 1.14
-13.65 2.71 1.13
-13.65 2.43 1.13
-13.65 2.14 1.13
-13.66 1.87 1.13
-13.69 1.59 1.13
-13.71 1.31 1.13
-13.74 1.04 1.13
-13.77 0.76 1.13
-13.76 0.49 1.13
-13.75 0.21 1.13
-13.74 -0.07 1.13
-13.73 -0.34 1.13
-13.72 -0.62 1.13
-13.71 -0.89 1.13
-13.71 -1.17 1.13
-13.69 -1.45 1.13
-13.65 -1.72 1.13
-13.62 -2.00 1.13
-13.58 -2.27 1.13
-13.54 -2.54 1.13
-13.50 -2.82 1.13
-13.45 -3.09 1.14
-13.41 -3.37 1.14
-13.31 -3.63 1.13
-13.20 -3.88 1.13
-13.10 -4.14 1.13
-12.99 -4.40 1.13
-12.89 -4.65 1.13
-12.78 -4.91 1.12
-12.68 -5.16 1.12
-12.57 -5.42 1.12
-12.49 -5.68 1.13
-12.41 -5.94 1.13
-12.32 -6.21 1.13
-12.24 -6.48 1.13
-12.15 -6.75 1.14
-12.06 -7.02 1.14
-11.98 -7.30 1.15
-11.90 -7.58 1.15
-11.85 -7.89 1.16
-11.80 -8.20 1.17
-11.73 -8.51 1.18
-11.65 -8.82 1.19
-11.58 -9.13 1.20
-11.49 -9.45 1.21
-11.45 -9.80 1.22
-11.41 -10.17 1.24
-11.36 -10.55 1.25
-11.33 -10.94 1.27
-5.95 -5.99 0.68
-11.25 -11.78 1.31
-11.18 -12.19 1.33
-11.10 -12.60 1.35
-11.03 -13.03 1.37
-10.95 -13.48 1.39
-10.90 -13.99 1.42
-10.86 -14.52 1.45
-10.81 -15.08 1.48
-10.76 -15.66 1.52
-10.73 -16.31 1.55
-10.69 -16.99 1.60
-10.63 -17.67 1.64
-10.57 -18.39 1.68
-10.50 -19.16 1.73
-10.43 -19.96 1.78
-10.35 -20.82 1.83
-10.26 -21.74 1.89
-10.55 -23.56 2.03
-10.58 -24.95 2.12
-10.49 -26.20 2.21
-10.24 -27.14 2.26
-9.99 -28.19 2.33
-9.69 -29.17 2.39
-9.12 -29.42 2.39
-8.54 -29.66 2.39
-7.96 -29.89 2.39
-7.38 -30.10 2.39
-6.78 -30.31 2.39
-6.19 -30.50 2.39
-5.83 -32.01 2.49
-5.19 -32.19 2.49
-4.56 -32.36 2.49
-3.92 -32.52 2.49
-3.27 -32.67 2.49
-2.62 -32.80 2.49
-1.96 -32.92 2.49
-1.31 -33.03 2.49
-0.64 -33.13 2.49
0.02 -25.50 2.49
0.53 -25.54 2.49
1.05 -25.57 2.49
1.56 -25.60 2.49
2.08 -25.61 2.49
2.49 -24.55 2.39
2.99 -24.54 2.39
3.49 -24.52 2.39
3.99 -24.49 2.39
4.49 -24.45 2.39
4.99 -24.40 2.39
5.49 -24.34 2.39
5.98 -24.27 2.39
6.49 -24.22 2.39
6.99 -24.13 2.39
7.49 -24.03 2.39
7.98 -23.92 2.39
8.48 -23.80 2.39
8.97 -23.67 2.39
9.46 -23.53 2.39
9.95 -23.38 2.39
10.44 -23.22 2.39
10.92 -23.05 2.39
11.40 -22.87 2.39
11.88 -22.68 2.39
12.36 -22.47 2.39
12.83 -22.26 2.39
13.30 -22.04 2.39
13.76 -21.81 2.39
14.22 -21.57 2.39
14.68 -21.32 2.39
15.13 -21.06 2.39
15.58 -20.78 2.39
15.58 -19.94 2.33
15.85 -19.47 2.31
16.13 -19.02 2.29
16.40 -18.57 2.27
16.66 -18.12 2.25
16.93 -17.68 2.23
17.19 -17.25 2.22
17.45 -16.82 2.20
17.70 -16.39 2.19
17.96 -15.97 2.18
18.21 -15.55 2.17
18.46 -15.14 2.16
18.71 -14.72 2.15
18.95 -14.31 2.14
19.20 -13.90 2.13
19.44 -13.49 2.13
19.69 -13.09 2.12
19.93 -12.68 2.12
20.18 -12.27 2.11
23.17 -13.46 2.39
23.47 -13.01 2.39
23.75 -12.56 2.39
24.03 -12.09 2.39
24.30 -11.62 2.39
24.56 -11.15 2.39
24.80 -10.66 2.39
25.04 -10.18 2.39
25.27 -9.68 2.39
25.48 -9.18 2.39
25.69 -8.68 2.39
25.88 -8.17 2.39
26.07 -7.66 2.39
26.24 -7.14 2.39
26.40 -6.62 2.39
26.55 -6.09 2.39
26.69 -5.56 2.39
26.82 -5.03 2.39
26.93 -4.49 2.39
27.04 -3.96 2.39
27.13 -3.41 2.39
27.21 -2.87 2.39
27.28 -2.33 2.39
27.34 -1.78 2.39
27.38 -1.23 2.39
27.41 -0.68 2.39
27.43 -0.13 2.39
27.44 0.42 2.39
27.44 0.97 2.39
27.42 1.52 2.39
23.98 1.81 2.10
23.99 2.30 2.10
24.00 2.78 2.10
23.70 3.23 2.08
24.01 3.77 2.12
23.99 4.26 2.12
23.99 4.76 2.13
24.00 5.26 2.14
24.05 5.78 2.15
24.03 6.29 2.16
24.04 6.81 2.18
24.07 7.34 2.19
24.08 7.88 2.21
24.09 8.42 2.22
25.20 9.38 2.34
25.28 9.99 2.37
23.91 10.01 2.26
22.32 9.87 2.13
21.94 10.23 2.11
21.90 10.75 2.13
22.21 11.46 2.18
22.17 12.01 2.21
21.80 12.39 2.19
23.49 13.98 2.39
23.19 14.43 2.39
22.88 14.89 2.39
22.56 15.33 2.39
22.23 15.77 2.39
21.89 16.20 2.39
21.54 16.62 2.39
21.18 17.03 2.39
20.82 17.43 2.39
20.44 17.83 2.39
20.06 18.22 2.39
19.67 18.60 2.39
19.27 18.97 2.39
18.87 19.33 2.39
18.45 19.68 2.39
18.03 20.02 2.39
17.61 20.36 2.39
14.61 17.59 2.04
14.03 17.60 2.01
16.29 21.30 2.39
15.84 21.59 2.39
14.97 21.29 2.33
14.35 21.30 2.30
14.45 22.41 2.39
13.98 22.66 2.39
13.50 22.90 2.39
13.02 23.13 2.39
12.53 23.36 2.39
12.04 23.57 2.39
9.28 19.09 1.92
11.05 23.95 2.39
10.55 24.13 2.39
10.05 24.30 2.39
9.54 24.46 2.39
9.04 24.60 2.39
8.53 24.74 2.39
8.02 24.86 2.39
7.50 24.97 2.39
6.98 25.05 2.39
6.46 25.14 2.39
5.95 25.22 2.39
5.43 25.29 2.39
4.91 25.35 2.39
4.40 25.39 2.39
3.88 25.43 2.39
3.36 25.46 2.39
2.97 26.57 2.49
2.43 26.58 2.49
1.89 26.57 2.49
1.36 26.55 2.49
0.82 26.53 2.49
0.29 26.49 2.49
-0.24 26.44 2.49
-0.77 26.38 2.49
-1.30 26.31 2.49
-1.82 26.23 2.49
-2.35 26.14 2.49
-2.86 26.04 2.49
-3.38 25.92 2.49
-3.89 25.80 2.49
-4.40 25.67 2.49
-4.91 25.53 2.49
-5.18 24.33 2.39
-5.66 24.17 2.39
-6.13 24.01 2.39
-6.60 23.84 2.39
-7.07 23.66 2.39
-7.52 23.47 2.39
-7.98 23.27 2.39
-8.43 23.06 2.39
-8.87 22.85 2.39
-9.50 23.07 2.44
-9.88 22.70 2.42
-10.18 22.15 2.39
-10.38 21.45 2.34
-10.52 20.67 2.28
-10.65 19.91 2.23
-10.79 19.24 2.18
-10.91 18.58 2.13
-10.99 17.88 2.08
-11.05 17.19 2.03
-11.11 16.54 1.98
-11.17 15.93 1.94
-11.29 15.44 1.91
-11.41 14.96 1.88
-11.47 14.43 1.84
-11.55 13.94 1.81
-11.66 13.52 1.79
-11.77 13.11 1.77
-11.87 12.69 1.75
-12.05 12.37 1.74
-12.27 12.11 1.74
-12.38 11.73 1.73
-12.48 11.36 1.71
-12.58 11.00 1.70
-12.64 10.61 1.68
-12.68 10.21 1.66
-12.71 9.83 1.64
-12.75 9.45 1.62
-12.81 9.10 1.60
-12.87 8.76 1.59
-12.89 8.40 1.58
-12.90 8.05 1.56
-12.91 7.70 1.54
-12.93 7.36 1.53
-12.96 7.04 1.52
-13.00 6.72 1.51
-13.04 6.41 1.50
-13.07 6.11 1.49
-13.11 5.81 1.48
-13.14 5.51 1.47
-13.15 5.20 1.46
-13.15 4.90 1.45
-13.17 4.61 1.45
-13.22 4.33 1.44
-13.26 4.05 1.44
-13.30 3.77 1.44
-13.32 3.49 1.43
-13.33 3.21 1.43
-13.34 2.93 1.42
-13.34 2.65 1.42
-13.34 2.37 1.41
-13.35 2.10 1.41
-13.35 1.82 1.41
-13.35 1.55 1.41
-13.38 1.28 1.41
-13.41 1.01 1.41
-13.43 0.75 1.41
-13.43 0.47 1.41
-13.42 0.20 1.41
-13.40 -0.06 1.40
-13.39 -0.33 1.40
-13.38 -0.60 1.40
-13.37 -0.87 1.41
-13.36 -1.14 1.41
-13.35 -1.41 1.41
-13.32 -1.68 1.41
-13.28 -1.95 1.41
-13.25 -2.21 1.41
-13.21 -2.48 1.41
-13.17 -2.75 1.41
-13.13 -3.02 1.41
-13.09 -3.29 1.42
-13.01 -3.54 1.41
-12.90 -3.80 1.41
-12.80 -4.05 1.41
-12.70 -4.30 1.41
-12.60 -4.55 1.40
-12.49 -4.79 1.40
-12.36 -5.03 1.40
-12.24 -5.27 1.40
-12.15 -5.52 1.40
-12.10 -5.80 1.40
-12.03 -6.06 1.41
-11.94 -6.32 1.41
-11.86 -6.59 1.42
-11.77 -6.85 1.42
-11.68 -7.12 1.43
-11.59 -7.39 1.44
-11.53 -7.68 1.45
-11.48 -7.98 1.46
-11.43 -8.29 1.47
-11.37 -8.60 1.48
-11.30 -8.91 1.50
-11.22 -9.22 1.51
-11.14 -9.54 1.52
-11.09 -9.89 1.54
-11.05 -10.26 1.56
-11.00 -10.63 1.58
-5.95 -5.99 0.87
-10.91 -11.42 1.63
-10.84 -11.82 1.66
-10.77 -12.22 1.68
-10.68 -12.63 1.70
-10.58 -13.03 1.73
-10.46 -13.43 1.75
-10.38 -13.89 1.78
-10.31 -14.39 1.82
-10.23 -14.90 1.85
-10.15 -15.44 1.89
-10.05 -15.98 1.93
-9.96 -16.56 1.97
-9.88 -17.21 2.02
-9.79 -17.88 2.07
-9.68 -18.54 2.13
-9.58 -19.28 2.18
-9.47 -20.07 2.25
-9.35 -20.90 2.32
-9.23 -21.78 2.39
-8.80 -21.99 2.39
-8.37 -22.20 2.39
-7.93 -22.39 2.39
-7.49 -22.58 2.39
-7.05 -22.76 2.39
-6.60 -22.94 2.39
-6.15 -23.10 2.39
-5.77 -23.56 2.42
-5.46 -24.42 2.49
-4.98 -24.56 2.49
-4.49 -24.70 2.49
-4.00 -24.83 2.49
-3.51 -24.95 2.49
-3.01 -25.05 2.49
-2.51 -25.15 2.49
-2.01 -25.24 2.49
-1.51 -25.32 2.49
-1.00 -25.39 2.49
-0.49 -25.45 2.49
0.02 -20.68 2.49
0.44 -20.71 2.49
0.85 -20.73 2.49
1.27 -20.74 2.49
1.69 -20.74 2.49
2.11 -20.73 2.49
2.42 -19.86 2.39
2.83 -19.84 2.39
3.23 -19.81 2.39
3.63 -19.77 2.39
4.03 -19.72 2.39
4.44 -19.66 2.39
4.84 -19.60 2.39
5.24 -19.53 2.39
5.64 -19.45 2.39
6.04 -19.36 2.39
6.44 -19.29 2.39
6.84 -19.19 2.39
7.23 -19.08 2.39
7.63 -18.96 2.39
8.02 -18.83 2.39
8.40 -18.69 2.39
8.79 -18.55 2.39
9.18 -18.39 2.39
9.56 -18.23 2.39
9.94 -18.07 2.39
10.31 -17.89 2.39
10.68 -17.70 2.39
11.05 -17.51 2.39
11.42 -17.31 2.39
11.78 -17.10 2.39
12.14 -16.89 2.39
12.49 -16.67 2.39
12.84 -16.43 2.39
13.19 -16.20 2.39
13.53 -15.95 2.39
13.86 -15.69 2.39
14.20 -15.43 2.39
14.52 -15.17 2.39
14.84 -14.89 2.39
15.16 -14.61 2.39
15.47 -14.32 2.39
15.77 -14.03 2.39
16.07 -13.72 2.39
16.36 -13.42 2.39
16.65 -13.10 2.39
16.93 -12.78 2.39
17.20 -12.45 2.39
17.47 -12.12 2.39
17.73 -11.78 2.39
17.98 -11.43 2.39
18.23 -11.08 2.39
18.47 -10.73 2.39
18.70 -10.37 2.39
18.92 -10.00 2.39
19.14 -9.63 2.39
19.35 -9.25 2.39
19.55 -8.87 2.39
19.74 -8.48 2.39
19.92 -8.09 2.39
20.10 -7.70 2.39
20.27 -7.30 2.39
20.43 -6.90 2.39
20.58 -6.49 2.39
20.72 -6.08 2.39
20.85 -5.67 2.39
20.98 -5.26 2.39
21.09 -4.84 2.39
21.20 -4.42 2.39
21.30 -3.99 2.39
21.39 -3.57 2.39
21.47 -3.14 2.39
21.54 -2.71 2.39
21.60 -2.28 2.39
21.65 -1.85 2.39
21.69 -1.41 2.39
21.72 -0.98 2.39
21.75 -0.54 2.39
21.76 -0.10 2.39
21.77 0.33 2.39
21.76 0.77 2.39
21.75 1.20 2.39
21.72 1.64 2.39
21.69 2.08 2.39
21.65 2.51 2.39
21.59 2.95 2.39
21.53 3.38 2.39
21.46 3.81 2.39
21.38 4.24 2.39
21.29 4.67 2.39
21.19 5.09 2.39
21.09 5.52 2.39
20.97 5.94 2.39
20.84 6.36 2.39
20.71 6.77 2.39
20.56 7.18 2.39
20.41 7.59 2.39
20.25 8.00 2.39
20.08 8.40 2.39
19.90 8.80 2.39
19.71 9.19 2.39
19.51 9.58 2.39
19.31 9.97 2.39
19.10 10.35 2.39
18.88 10.72 2.39
18.65 11.09 2.39
18.41 11.46 2.39
18.17 11.82 2.39
17.92 12.17 2.39
17.66 12.52 2.39
14.49 10.72 1.99
13.91 10.73 1.95
16.84 13.53 2.39
16.55 13.86 2.39
16.25 14.17 2.39
15.95 14.49 2.39
14.90 14.08 2.28
14.30 14.07 2.23
13.97 14.31 2.23
14.69 15.66 2.39
14.36 15.94 2.39
14.02 16.21 2.39
13.68 16.47 2.39
13.33 16.72 2.39
12.98 16.97 2.39
12.63 17.21 2.39
12.27 17.44 2.39
11.90 17.66 2.39
11.53 17.88 2.39
11.16 18.08 2.39
10.78 18.28 2.39
10.40 18.47 2.39
10.01 18.65 2.39
9.62 18.83 2.39
9.23 18.99 2.39
8.84 19.15 2.39
8.44 19.30 2.39
8.04 19.44 2.39
7.64 19.57 2.39
7.24 19.69 2.39
6.82 19.78 2.39
6.42 19.89 2.39
6.01 19.99 2.39
5.60 20.08 2.39
3.52 13.69 1.62
3.22 13.66 1.61
4.36 20.29 2.39
3.95 20.34 2.39
3.53 20.39 2.39
3.12 20.43 2.39
2.82 21.34 2.49
2.39 21.36 2.49
1.96 21.37 2.49
1.53 21.37 2.49
1.10 21.37 2.49
0.67 21.35 2.49
0.24 21.33 2.49
-0.19 21.30 2.49
-0.62 21.26 2.49
-1.04 21.21 2.49
-1.47 21.15 2.49
-1.89 21.08 2.49
-2.31 21.01 2.49
-2.72 20.93 2.49
-3.14 20.84 2.49
-3.55 20.74 2.49
-3.96 20.63 2.49
-4.37 20.52 2.49
-4.77 20.39 2.49
-5.03 19.70 2.42
-5.34 19.29 2.39
-5.72 19.15 2.39
-6.09 19.00 2.39
-6.46 18.85 2.39
-6.83 18.69 2.39
-7.19 18.52 2.39
-7.55 18.35 2.39
-7.90 18.16 2.39
-8.26 17.97 2.39
-8.60 17.78 2.39
-8.94 17.58 2.39
-9.90 18.53 2.55
-10.12 18.05 2.51
-10.21 17.39 2.46
-10.30 16.76 2.40
-10.38 16.16 2.34
-10.46 15.58 2.29
-10.55 15.06 2.25
-10.65 14.56 2.21
-10.70 14.04 2.17
-10.76 13.54 2.12
-10.86 13.12 2.10
-10.97 12.72 2.07
-11.05 12.31 2.04
-11.13 11.90 2.01
-11.30 11.61 2.00
-11.54 11.39 2.01
-11.78 11.16 2.01
-12.01 10.94 2.02
-12.18 10.65 2.01
-12.29 10.32 2.00
-12.33 9.94 1.97
-12.37 9.57 1.95
-12.41 9.21 1.93
-12.46 8.86 1.91
-12.49 8.51 1.89
-12.51 8.16 1.87
-12.53 7.82 1.85
-12.54 7.48 1.83
-12.56 7.15 1.82
-12.59 6.84 1.80
-12.63 6.53 1.79
-12.67 6.23 1.78
-12.71 5.94 1.77
-12.75 5.65 1.76
-12.78 5.36 1.75
-12.81 5.07 1.74
-12.81 4.78 1.73
-12.85 4.50 1.72
-12.90 4.23 1.72
-12.94 3.95 1.71
-12.98 3.68 1.71
-13.02 3.41 1.71
-13.03 3.14 1.70
-13.04 2.86 1.70
-13.05 2.59 1.69
-13.05 2.32 1.69
-13.05 2.05 1.68
-13.05 1.78 1.68
-13.06 1.52 1.67
-13.06 1.25 1.67
-13.09 0.99 1.67
-13.12 0.73 1.67
-13.11 0.46 1.67
-13.10 0.20 1.67
-13.09 -0.06 1.67
-13.07 -0.33 1.67
-13.06 -0.59 1.67
-13.05 -0.85 1.67
-13.04 -1.11 1.67
-13.03 -1.38 1.67
-12.99 -1.64 1.67
-12.96 -1.90 1.67
-12.93 -2.16 1.67
-12.89 -2.42 1.68
-12.86 -2.68 1.68
-12.82 -2.95 1.68
-12.78 -3.21 1.68
-12.72 -3.47 1.68
-12.62 -3.71 1.68
-12.52 -3.96 1.68
-12.40 -4.20 1.67
-12.28 -4.43 1.67
-12.16 -4.67 1.66
-12.04 -4.90 1.66
-11.92 -5.14 1.66
-11.80 -5.37 1.65
-11.73 -5.62 1.66
-11.68 -5.89 1.67
-11.63 -6.16 1.68
-11.58 -6.43 1.69
-11.49 -6.69 1.69
-11.40 -6.95 1.70
-11.32 -7.21 1.71
-11.23 -7.48 1.71
-11.17 -7.77 1.73
-11.12 -8.07 1.74
-11.06 -8.37 1.76
-11.00 -8.68 1.78
-10.94 -8.99 1.80
-10.87 -9.31 1.81
-10.80 -9.63 1.83
-10.75 -9.98 1.85
-10.70 -10.34 1.88
-5.95 -5.99 1.07
-10.57 -11.07 1.93
-10.47 -11.42 1.95
-10.39 -11.79 1.98
-10.27 -12.15 2.00
-10.16 -12.51 2.03
-10.04 -12.88 2.05
-9.91 -13.27 2.08
-9.79 -13.67 2.11
-9.72 -14.16 2.15
-9.65 -14.68 2.20
-9.55 -15.19 2.24
-9.45 -15.73 2.29
-9.33 -16.26 2.34
-9.21 -16.82 2.39
-8.89 -17.03 2.39
-8.55 -17.22 2.39
-8.21 -17.41 2.39
-7.87 -17.59 2.39
-7.53 -17.77 2.39
-7.18 -17.94 2.39
-6.82 -18.10 2.39
-6.47 -18.26 2.39
-6.11 -18.41 2.39
-5.74 -18.55 2.39
-5.61 -19.49 2.49
-5.22 -19.63 2.49
-4.83 -19.75 2.49
-4.44 -19.87 2.49
-4.05 -19.99 2.49
-3.65 -20.09 2.49
-3.25 -20.19 2.49
-2.85 -20.28 2.49
-2.44 -20.36 2.49
-2.04 -20.43 2.49
-1.63 -20.50 2.49
-1.22 -20.56 2.49
-0.81 -20.61 2.49
-0.39 -20.65 2.49
0.02 -17.38 2.49
0.37 -17.40 2.49
0.72 -17.41 2.49
1.07 -17.41 2.49
1.42 -17.41 2.49
1.77 -17.40 2.49
2.13 -17.38 2.49
2.40 -16.84 2.42
2.71 -16.61 2.39
3.05 -16.57 2.39
3.39 -16.53 2.39
3.72 -16.48 2.39
4.06 -16.42 2.39
4.39 -16.36 2.39
4.72 -16.29 2.39
5.06 -16.21 2.39
5.39 -16.13 2.39
5.72 -16.04 2.39
6.05 -15.94 2.39
6.37 -15.84 2.39
6.71 -15.75 2.39
7.03 -15.62 2.39
7.35 -15.50 2.39
7.67 -15.37 2.39
7.99 -15.23 2.39
8.30 -15.09 2.39
8.61 -14.93 2.39
8.92 -14.78 2.39
9.23 -14.61 2.39
9.53 -14.44 2.39
9.83 -14.27 2.39
10.13 -14.08 2.39
10.42 -13.89 2.39
10.71 -13.70 2.39
10.99 -13.50 2.39
11.28 -13.29 2.39
11.55 -13.07 2.39
11.83 -12.85 2.39
12.10 -12.63 2.39
12.36 -12.40 2.39
12.62 -12.16 2.39
12.88 -11.92 2.39
13.13 -11.67 2.39
13.37 -11.42 2.39
13.61 -11.16 2.39
13.85 -10.89 2.39
14.08 -10.62 2.39
14.30 -10.35 2.39
14.52 -10.07 2.39
14.73 -9.79 2.39
14.94 -9.50 2.39
15.14 -9.21 2.39
15.34 -8.91 2.39
15.53 -8.61 2.39
15.71 -8.30 2.39
15.89 -7.99 2.39
16.06 -7.68 2.39
16.22 -7.36 2.39
16.38 -7.04 2.39
16.53 -6.71 2.39
16.67 -6.38 2.39
16.81 -6.05 2.39
16.94 -5.72 2.39
17.06 -5.38 2.39
17.18 -5.04 2.39
17.29 -4.70 2.39
17.39 -4.35 2.39
17.48 -4.01 2.39
17.57 -3.66 2.39
17.65 -3.31 2.39
17.72 -2.95 2.39
17.78 -2.60 2.39
17.84 -2.24 2.39
17.89 -1.89 2.39
17.93 -1.53 2.39
17.96 -1.17 2.39
17.99 -0.81 2.39
18.01 -0.45 2.39
18.02 -0.09 2.39
18.02 0.28 2.39
18.01 0.64 2.39
18.00 1.00 2.39
17.98 1.36 2.39
17.95 1.72 2.39
17.92 2.08 2.39
17.87 2.44 2.39
17.82 2.80 2.39
17.76 3.15 2.39
17.70 3.51 2.39
14.74 3.23 2.00
14.80 3.56 2.02
13.92 3.64 1.91
17.36 4.91 2.39
17.25 5.26 2.39
17.14 5.60 2.39
17.02 5.95 2.39
16.90 6.29 2.39
16.76 6.62 2.39
16.62 6.95 2.39
16.48 7.28 2.39
16.32 7.61 2.39
14.38 7.06 2.13
13.85 7.15 2.07
15.82 8.57 2.39
15.64 8.88 2.39
15.45 9.19 2.39
15.25 9.49 2.39
15.05 9.79 2.39
14.85 10.09 2.39
14.63 10.38 2.39
14.41 10.66 2.39
13.94 10.75 2.35
13.96 11.22 2.39
13.72 11.49 2.39
13.48 11.75 2.39
13.23 12.01 2.39
12.98 12.27 2.39
12.72 12.51 2.39
12.46 12.76 2.39
12.19 12.99 2.39
11.92 13.23 2.39
11.64 13.45 2.39
8.95 10.77 1.88
8.72 10.94 1.89
8.49 11.10 1.88
10.49 14.29 2.39
10.19 14.49 2.39
9.89 14.67 2.39
9.58 14.85 2.39
9.28 15.03 2.39
8.96 15.20 2.39
8.65 15.36 2.39
8.33 15.51 2.39
8.01 15.66 2.39
7.69 15.80 2.39
7.36 15.94 2.39
7.03 16.06 2.39
6.69 16.16 2.39
6.36 16.28 2.39
6.02 16.38 2.39
5.69 16.48 2.39
5.35 16.57 2.39
5.01 16.66 2.39
4.67 16.74 2.39
3.51 13.63 1.94
3.22 13.61 1.93
3.64 16.93 2.39
3.30 16.98 2.39
2.99 17.21 2.42
2.72 17.79 2.49
2.36 17.82 2.49
2.00 17.84 2.49
1.64 17.85 2.49
1.28 17.86 2.49
0.92 17.86 2.49
0.56 17.85 2.49
0.20 17.84 2.49
-0.16 17.81 2.49
-0.51 17.78 2.49
-0.87 17.75 2.49
-1.22 17.70 2.49
-1.58 17.65 2.49
-1.93 17.60 2.49
-2.28 17.53 2.49
-2.63 17.46 2.49
-2.97 17.38 2.49
-3.32 17.30 2.49
-3.66 17.20 2.49
-4.00 17.10 2.49
-4.33 17.00 2.49
-4.67 16.89 2.49
-5.00 16.77 2.49
-5.11 15.95 2.39
-5.42 15.83 2.39
-5.73 15.70 2.39
-6.04 15.56 2.39
-6.34 15.42 2.39
-6.64 15.27 2.39
-6.94 15.11 2.39
-7.23 14.95 2.39
-7.52 14.78 2.39
-7.81 14.61 2.39
-8.09 14.44 2.39
-8.37 14.25 2.39
-8.64 14.07 2.39
-8.91 13.87 2.39
-9.51 14.18 2.48
-9.66 13.78 2.45
-9.79 13.40 2.41
-9.92 13.02 2.38
-10.05 12.65 2.35
-10.22 12.34 2.34
-10.31 11.95 2.31
-10.39 11.57 2.28
-10.47 11.20 2.25
-10.64 10.94 2.24
-10.83 10.69 2.23
-10.95 10.39 2.22
-11.08 10.09 2.20
-11.19 9.79 2.19
-11.31 9.50 2.18
-11.43 9.22 2.17
-11.55 8.93 2.16
-11.65 8.64 2.14
-11.73 8.34 2.13
-11.80 8.04 2.11
-11.85 7.73 2.10
-11.90 7.43 2.08
-11.95 7.13 2.06
-11.99 6.83 2.05
-12.11 6.58 2.05
-12.20 6.32 2.04
-12.28 6.05 2.04
-12.36 5.78 2.03
-12.40 5.50 2.02
-12.44 5.22 2.01
-12.47 4.94 2.00
-12.50 4.66 1.99
-12.54 4.39 1.99
-12.59 4.13 1.98
-12.63 3.86 1.98
-12.67 3.60 1.97
-12.71 3.33 1.97
-12.75 3.07 1.97
-12.76 2.80 1.96
-12.76 2.54 1.95
-12.77 2.27 1.95
-12.77 2.01 1.94
-12.77 1.75 1.94
-12.78 1.49 1.93
-12.78 1.23 1.93
-12.78 0.97 1.93
-12.81 0.71 1.93
-12.80 0.45 1.93
-12.79 0.20 1.93
-12.78 -0.06 1.92
-12.77 -0.32 1.92
-12.75 -0.57 1.92
-12.74 -0.83 1.92
-12.73 -1.09 1.92
-12.72 -1.34 1.93
-12.68 -1.60 1.93
-12.65 -1.85 1.93
-12.62 -2.11 1.93
-12.58 -2.36 1.93
-12.55 -2.62 1.93
-12.51 -2.88 1.94
-12.45 -3.13 1.94
-12.38 -3.37 1.93
-12.31 -3.62 1.93
-12.20 -3.86 1.93
-12.08 -4.09 1.92
-11.97 -4.32 1.92
-11.85 -4.55 1.91
-11.73 -4.78 1.91
-11.62 -5.00 1.90
-11.50 -5.23 1.90
-11.39 -5.46 1.90
-11.34 -5.72 1.91
-11.29 -5.98 1.92
-11.23 -6.24 1.93
-11.18 -6.51 1.94
-11.12 -6.78 1.96
-11.05 -7.04 1.97
-10.96 -7.30 1.98
-10.88 -7.57 1.99
-10.82 -7.86 2.01
-10.77 -8.15 2.02
-10.71 -8.45 2.04
-10.64 -8.75 2.06
-10.58 -9.06 2.08
-10.47 -9.33 2.10
-10.37 -9.63 2.11
-10.28 -9.94 2.14
-5.95 -5.99 1.26
-10.09 -10.57 2.18
-9.99 -10.89 2.20
-9.88 -11.22 2.23
-9.77 -11.56 2.25
-9.69 -11.94 2.29
-9.61 -12.34 2.32
-9.51 -12.74 2.36
-9.38 -13.10 2.39
-9.13 -13.30 2.39
-8.86 -13.49 2.39
-8.60 -13.68 2.39
-8.33 -13.86 2.39
-8.06 -14.04 2.39
-7.78 -14.21 2.39
-7.50 -14.38 2.39
-7.22 -14.54 2.39
-6.93 -14.70 2.39
-6.64 -14.85 2.39
-6.35 -14.99 2.39
-6.05 -15.13 2.39
-5.75 -15.27 2.39
-5.63 -15.92 2.47
-5.37 -16.19 2.49
-5.05 -16.31 2.49
-4.72 -16.43 2.49
-4.40 -16.54 2.49
-4.07 -16.64 2.49
-3.74 -16.74 2.49
-3.40 -16.83 2.49
-3.07 -16.92 2.49
-2.73 -16.99 2.49
-2.39 -17.07 2.49
-2.05 -17.13 2.49
-1.71 -17.19 2.49
-1.37 -17.24 2.49
-1.02 -17.29 2.49
-0.67 -17.32 2.49
-0.33 -17.36 2.49
0.02 -14.97 2.49
0.32 -14.99 2.49
0.62 -14.99 2.49
0.93 -14.99 2.49
1.23 -14.99 2.49
1.53 -14.98 2.49
1.83 -14.96 2.49
2.13 -14.94 2.49
2.43 -14.87 2.49
2.63 -14.30 2.40
2.91 -14.22 2.39
3.20 -14.17 2.39
3.49 -14.12 2.39
3.78 -14.06 2.39
4.06 -14.00 2.39
4.35 -13.93 2.39
4.63 -13.86 2.39
4.91 -13.78 2.39
5.20 -13.69 2.39
5.48 -13.60 2.39
5.75 -13.50 2.39
6.03 -13.40 2.39
6.30 -13.29 2.39
6.58 -13.19 2.39
6.86 -13.07 2.39
7.12 -12.94 2.39
7.39 -12.81 2.39
7.65 -12.67 2.39
7.91 -12.53 2.39
8.17 -12.38 2.39
8.43 -12.23 2.39
8.68 -12.07 2.39
8.93 -11.90 2.39
9.18 -11.73 2.39
9.42 -11.56 2.39
9.66 -11.38 2.39
9.90 -11.19 2.39
10.13 -11.00 2.39
10.36 -10.81 2.39
10.58 -10.61 2.39
10.80 -10.41 2.39
11.02 -10.20 2.39
11.23 -9.98 2.39
11.44 -9.76 2.39
11.64 -9.54 2.39
11.84 -9.31 2.39
12.04 -9.08 2.39
12.23 -8.85 2.39
12.41 -8.61 2.39
12.59 -8.36 2.39
12.77 -8.12 2.39
12.94 -7.86 2.39
13.11 -7.61 2.39
13.27 -7.35 2.39
13.42 -7.09 2.39
13.57 -6.82 2.39
13.71 -6.55 2.39
13.85 -6.28 2.39
13.98 -6.01 2.39
14.11 -5.73 2.39
14.23 -5.45 2.39
14.35 -5.16 2.39
14.46 -4.88 2.39
14.56 -4.59 2.39
14.66 -4.30 2.39
14.75 -4.01 2.39
14.83 -3.71 2.39
14.91 -3.42 2.39
14.98 -3.12 2.39
15.05 -2.82 2.39
15.11 -2.52 2.39
15.16 -2.22 2.39
15.21 -1.91 2.39
15.25 -1.61 2.39
15.29 -1.30 2.39
15.31 -0.99 2.39
15.34 -0.69 2.39
15.35 -0.38 2.39
15.36 -0.07 2.39
15.36 0.24 2.39
15.36 0.54 2.39
15.34 0.85 2.39
15.33 1.16 2.39
15.30 1.47 2.39
15.27 1.77 2.39
15.23 2.08 2.39
15.19 2.38 2.39
15.14 2.69 2.39
15.08 2.99 2.39
15.02 3.29 2.39
13.79 3.31 2.21
13.79 3.61 2.22
14.79 4.19 2.39
14.71 4.48 2.39
14.61 4.78 2.39
14.51 5.07 2.39
14.40 5.36 2.39
14.29 5.64 2.39
14.17 5.93 2.39
14.05 6.21 2.39
13.91 6.49 2.39
13.78 6.76 2.39
13.64 7.04 2.39
13.49 7.31 2.39
13.33 7.57 2.39
13.17 7.83 2.39
13.01 8.09 2.39
12.84 8.35 2.39
12.66 8.60 2.39
12.48 8.85 2.39
12.30 9.09 2.39
12.11 9.33 2.39
11.91 9.57 2.39
11.71 9.80 2.39
11.50 10.03 2.39
11.29 10.25 2.39
11.08 10.47 2.39
10.86 10.68 2.39
10.64 10.89 2.39
10.41 11.09 2.39
10.18 11.29 2.39
9.94 11.49 2.39
9.70 11.67 2.39
9.46 11.86 2.39
9.21 12.04 2.39
8.96 12.21 2.39
8.71 12.38 2.39
8.45 12.54 2.39
8.19 12.70 2.39
7.93 12.85 2.39
7.67 12.99 2.39
7.40 13.13 2.39
7.13 13.27 2.39
6.84 13.38 2.39
6.57 13.50 2.39
6.29 13.62 2.39
6.01 13.73 2.39
5.73 13.83 2.39
5.45 13.93 2.39
5.16 14.03 2.39
4.87 14.11 2.39
4.58 14.19 2.39
4.29 14.27 2.39
4.00 14.34 2.39
3.55 13.78 2.29
3.42 14.46 2.39
3.13 14.52 2.39
2.95 15.15 2.49
2.64 15.22 2.49
2.34 15.25 2.49
2.03 15.28 2.49
1.72 15.30 2.49
1.41 15.32 2.49
1.10 15.32 2.49
0.79 15.33 2.49
0.48 15.32 2.49
0.18 15.31 2.49
-0.13 15.30 2.49
-0.44 15.27 2.49
-0.74 15.25 2.49
-1.05 15.21 2.49
-1.35 15.17 2.49
-1.65 15.12 2.49
-1.96 15.07 2.49
-2.25 15.01 2.49
-2.55 14.95 2.49
-2.85 14.87 2.49
-3.14 14.80 2.49
-3.44 14.72 2.49
-3.73 14.63 2.49
-4.01 14.53 2.49
-4.30 14.43 2.49
-4.59 14.33 2.49
-4.87 14.22 2.49
-5.12 14.04 2.48
-5.20 13.40 2.39
-5.46 13.28 2.39
-5.72 13.15 2.39
-5.98 13.02 2.39
-6.23 12.89 2.39
-6.48 12.75 2.39
-6.73 12.60 2.39
-6.97 12.45 2.39
-7.21 12.29 2.39
-7.45 12.13 2.39
-7.68 11.97 2.39
-7.92 11.80 2.39
-8.14 11.63 2.39
-8.37 11.45 2.39
-8.59 11.27 2.39
-8.80 11.08 2.39
-9.01 10.89 2.39
-9.27 10.76 2.40
-9.44 10.52 2.39
-9.61 10.29 2.39
-9.77 10.05 2.38
-9.93 9.81 2.37
-10.08 9.56 2.36
-10.23 9.32 2.35
-10.35 9.06 2.34
-10.46 8.79 2.33
-10.56 8.52 2.31
-10.65 8.24 2.30
-10.74 7.97 2.29
-10.82 7.70 2.27
-10.91 7.43 2.26
-10.97 7.16 2.24
-11.02 6.88 2.23
-11.12 6.63 2.22
-11.25 6.41 2.22
-11.39 6.19 2.23
-11.52 5.97 2.23
-11.61 5.72 2.22
-11.68 5.46 2.22
-11.76 5.21 2.21
-11.83 4.96 2.21
-11.90 4.71 2.21
-11.96 4.46 2.20
-12.05 4.22 2.20
-12.15 3.98 2.21
-12.24 3.74 2.21
-12.34 3.50 2.22
-12.41 3.26 2.22
-12.45 3.00 2.22
-12.48 2.74 2.21
-12.49 2.48 2.21
-12.50 2.22 2.20
-12.50 1.97 2.19
-12.50 1.71 2.19
-12.51 1.46 2.18
-12.51 1.20 2.18
-12.51 0.95 2.18
-12.51 0.70 2.18
-12.51 0.44 2.17
-12.50 0.19 2.17
-12.49 -0.06 2.17
-12.47 -0.31 2.17
-12.46 -0.56 2.17
-12.42 -0.81 2.16
-12.39 -1.06 2.16
-12.35 -1.30 2.16
-12.31 -1.55 2.16
-12.25 -1.79 2.15
-12.19 -2.04 2.15
-12.13 -2.28 2.15
-12.07 -2.52 2.14
-12.00 -2.76 2.14
-11.94 -3.00 2.14
-11.87 -3.23 2.14
-11.81 -3.47 2.14
-11.75 -3.72 2.14
-11.70 -3.96 2.15
-11.64 -4.20 2.15
-11.55 -4.44 2.15
-11.44 -4.66 2.15
-11.33 -4.88 2.14
-11.21 -5.10 2.14
-11.10 -5.32 2.14
-11.01 -5.55 2.14
-10.96 -5.81 2.15
-10.91 -6.06 2.16
-10.85 -6.32 2.18
-10.79 -6.58 2.19
-10.73 -6.84 2.21
-10.67 -7.11 2.22
-10.61 -7.38 2.24
-10.54 -7.65 2.25
-10.44 -7.90 2.26
-10.33 -8.15 2.28
-10.23 -8.41 2.29
-10.12 -8.67 2.30
-10.00 -8.92 2.31
-9.89 -9.19 2.33
-9.77 -9.45 2.34
-5.93 -5.97 1.45
-9.61 -10.07 2.40
-9.38 -10.24 2.39
-9.18 -10.43 2.39
-8.98 -10.62 2.39
-8.77 -10.81 2.39
-8.55 -10.99 2.39
-8.34 -11.17 2.39
-8.12 -11.34 2.39
-7.89 -11.51 2.39
-7.67 -11.67 2.39
-7.44 -11.83 2.39
-7.20 -11.99 2.39
-6.97 -12.14 2.39
-6.73 -12.29 2.39
-6.48 -12.43 2.39
-6.24 -12.57 2.39
-5.99 -12.70 2.39
-5.74 -12.83 2.39
-5.59 -13.21 2.44
-5.45 -13.64 2.49
-5.18 -13.76 2.49
-4.91 -13.88 2.49
-4.63 -13.98 2.49
-4.36 -14.09 2.49
-4.08 -14.19 2.49
-3.79 -14.28 2.49
-3.51 -14.37 2.49
-3.22 -14.45 2.49
-2.93 -14.52 2.49
-2.65 -14.59 2.49
-2.35 -14.66 2.49
-2.06 -14.72 2.49
-1.77 -14.77 2.49
-1.47 -14.82 2.49
-1.17 -14.86 2.49
-0.88 -14.90 2.49
-0.58 -14.93 2.49
-0.28 -14.95 2.49
0.02 -13.14 2.49
0.29 -13.15 2.49
0.55 -13.15 2.49
0.81 -13.15 2.49
1.08 -13.15 2.49
1.34 -13.13 2.49
1.61 -13.12 2.49
1.87 -13.10 2.49
2.14 -13.07 2.49
2.40 -13.04 2.49
2.56 -12.46 2.39
2.81 -12.42 2.39
3.06 -12.37 2.39
3.31 -12.32 2.39
3.56 -12.26 2.39
3.81 -12.20 2.39
4.06 -12.13 2.39
4.31 -12.06 2.39
4.55 -11.98 2.39
4.80 -11.90 2.39
5.04 -11.82 2.39
5.28 -11.72 2.39
5.52 -11.63 2.39
5.76 -11.52 2.39
5.99 -11.42 2.39
6.23 -11.31 2.39
6.46 -11.19 2.39
6.70 -11.08 2.39
6.92 -10.95 2.39
7.15 -10.82 2.39
7.37 -10.69 2.39
7.59 -10.55 2.39
7.81 -10.40 2.39
8.02 -10.25 2.39
8.23 -10.10 2.39
8.44 -9.94 2.39
8.65 -9.78 2.39
8.85 -9.61 2.39
9.05 -9.44 2.39
9.24 -9.26 2.39
9.43 -9.08 2.39
9.62 -8.90 2.39
9.81 -8.71 2.39
9.99 -8.52 2.39
10.16 -8.33 2.39
10.34 -8.13 2.39
10.51 -7.92 2.39
10.67 -7.72 2.39
10.83 -7.51 2.39
10.99 -7.29 2.39
11.14 -7.08 2.39
11.29 -6.86 2.39
11.43 -6.63 2.39
11.57 -6.41 2.39
11.70 -6.18 2.39
11.83 -5.95 2.39
11.96 -5.71 2.39
12.07 -5.47 2.39
12.19 -5.23 2.39
12.30 -4.99 2.39
12.40 -4.75 2.39
12.50 -4.50 2.39
12.60 -4.25 2.39
12.69 -4.00 2.39
12.77 -3.75 2.39
12.85 -3.49 2.39
12.92 -3.23 2.39
12.99 -2.98 2.39
13.05 -2.72 2.39
13.11 -2.45 2.39
13.16 -2.19 2.39
13.21 -1.93 2.39
13.25 -1.66 2.39
13.28 -1.40 2.39
13.31 -1.13 2.39
13.33 -0.87 2.39
13.35 -0.60 2.39
13.37 -0.33 2.39
13.37 -0.06 2.39
13.37 0.21 2.39
13.37 0.47 2.39
13.36 0.74 2.39
13.34 1.01 2.39
13.32 1.28 2.39
13.29 1.54 2.39
13.26 1.81 2.39
13.22 2.07 2.39
13.18 2.34 2.39
13.13 2.60 2.39
13.08 2.87 2.39
13.02 3.13 2.39
12.95 3.39 2.39
12.88 3.65 2.39
12.80 3.90 2.39
12.72 4.16 2.39
12.63 4.41 2.39
12.54 4.66 2.39
12.44 4.91 2.39
12.34 5.16 2.39
12.23 5.41 2.39
12.12 5.65 2.39
12.00 5.89 2.39
11.87 6.13 2.39
11.74 6.36 2.39
9.14 5.19 1.88
9.03 5.37 1.88
8.92 5.55 1.88
8.81 5.73 1.88
8.69 5.90 1.88
8.58 6.08 1.89
8.45 6.24 1.89
8.31 6.41 1.89
10.38 8.34 2.39
10.20 8.54 2.39
10.02 8.74 2.39
9.84 8.93 2.39
9.66 9.12 2.39
9.47 9.31 2.39
9.27 9.49 2.39
9.08 9.67 2.39
8.87 9.84 2.39
8.67 10.01 2.39
8.46 10.18 2.39
8.25 10.34 2.39
8.04 10.50 2.39
6.28 8.56 1.92
7.60 10.79 2.39
7.38 10.94 2.39
7.15 11.07 2.39
6.92 11.21 2.39
6.68 11.32 2.39
6.45 11.45 2.39
6.21 11.56 2.39
5.98 11.68 2.39
5.74 11.79 2.39
5.49 11.89 2.39
5.25 11.99 2.39
5.00 12.08 2.39
4.76 12.17 2.39
4.51 12.25 2.39
4.26 12.33 2.39
4.01 12.40 2.39
3.75 12.47 2.39
3.50 12.53 2.39
3.25 12.58 2.39
2.99 12.63 2.39
2.85 13.23 2.49
2.58 13.27 2.49
2.31 13.31 2.49
2.04 13.34 2.49
1.78 13.36 2.49
1.51 13.38 2.49
1.24 13.40 2.49
0.97 13.41 2.49
0.70 13.41 2.49
0.43 13.41 2.49
0.16 13.40 2.49
-0.11 13.39 2.49
-0.38 13.37 2.49
-0.65 13.35 2.49
-0.92 13.32 2.49
-1.18 13.29 2.49
-1.45 13.25 2.49
-1.71 13.20 2.49
-1.97 13.15 2.49
-2.23 13.10 2.49
-2.49 13.04 2.49
-2.75 12.97 2.49
-3.01 12.90 2.49
-3.26 12.83 2.49
-3.52 12.74 2.49
-3.77 12.66 2.49
-4.02 12.57 2.49
-4.27 12.47 2.49
-4.51 12.37 2.49
-4.75 12.27 2.49
-5.00 12.16 2.49
-5.16 11.87 2.46
-5.24 11.43 2.39
-5.47 11.31 2.39
-5.69 11.19 2.39
-5.90 11.06 2.39
-6.12 10.93 2.39
-6.33 10.80 2.39
-6.54 10.66 2.39
-6.75 10.52 2.39
-6.95 10.37 2.39
-7.15 10.22 2.39
-7.35 10.06 2.39
-7.54 9.91 2.39
-7.74 9.74 2.39
-7.92 9.58 2.39
-8.11 9.41 2.39
-8.29 9.24 2.39
-8.46 9.06 2.39
-8.64 8.88 2.39
-8.81 8.70 2.39
-8.97 8.51 2.39
-9.13 8.33 2.39
-9.50 8.32 2.44
-9.65 8.11 2.44
-9.75 7.87 2.43
-9.85 7.62 2.42
-9.94 7.38 2.40
-10.03 7.14 2.39
-10.11 6.89 2.38
-10.21 6.66 2.37
-10.36 6.47 2.38
-10.49 6.26 2.38
-10.62 6.05 2.38
-10.74 5.84 2.38
-10.87 5.63 2.39
-10.99 5.41 2.39
-11.07 5.18 2.39
-11.14 4.94 2.38
-11.21 4.71 2.38
-11.28 4.47 2.37
-11.34 4.23 2.37
-11.40 4.00 2.37
-11.46 3.76 2.36
-11.55 3.54 2.37
-11.64 3.31 2.37
-11.73 3.08 2.38
-11.81 2.85 2.39
-11.88 2.61 2.39
-11.92 2.37 2.39
-11.94 2.13 2.38
-11.95 1.88 2.38
-11.95 1.64 2.37
-11.95 1.39 2.37
-11.95 1.15 2.36
-11.95 0.91 2.36
-11.95 0.67 2.36
-11.96 0.43 2.36
-11.97 0.18 2.36
-11.94 -0.06 2.35
-11.92 -0.30 2.35
-11.89 -0.53 2.35
-11.86 -0.77 2.34
-11.83 -1.01 2.34
-11.79 -1.25 2.34
-11.76 -1.48 2.34
-11.72 -1.72 2.34
-11.68 -1.95 2.34
-11.64 -2.19 2.34
-11.58 -2.42 2.33
-11.52 -2.65 2.33
-11.46 -2.88 2.33
-11.40 -3.11 2.33
-11.33 -3.33 2.33
-11.27 -3.56 2.33
-11.22 -3.80 2.33
-11.16 -4.03 2.34
-11.10 -4.26 2.34
-11.04 -4.50 2.35
-10.98 -4.73 2.36
-10.92 -4.97 2.36
-10.83 -5.19 2.36
-10.71 -5.40 2.36
-10.65 -5.64 2.37
-10.60 -5.89 2.38
-10.54 -6.14 2.40
-10.45 -6.37 2.41
-10.35 -6.60 2.41
-10.24 -6.83 2.42
-10.14 -7.05 2.43
-10.03 -7.28 2.43
-9.92 -7.51 2.44
-9.84 -7.77 2.46
-9.41 -7.74 2.39
-9.26 -7.94 2.39
-9.10 -8.12 2.39
-8.94 -8.31 2.39
-8.78 -8.49 2.39
-5.93 -5.97 1.65
-8.44 -8.85 2.39
-8.26 -9.02 2.39
-8.09 -9.19 2.39
-7.90 -9.36 2.39
-7.72 -9.52 2.39
-7.53 -9.68 2.39
-7.34 -9.83 2.39
-7.15 -9.98 2.39
-6.95 -10.13 2.39
-6.75 -10.28 2.39
-6.54 -10.42 2.39
-6.34 -10.55 2.39
-6.13 -10.69 2.39
-5.92 -10.82 2.39
-5.70 -10.94 2.39
-5.56 -11.21 2.42
-5.49 -11.66 2.49
-5.26 -11.78 2.49
-5.03 -11.89 2.49
-4.79 -12.00 2.49
-4.55 -12.10 2.49
-4.31 -12.20 2.49
-4.07 -12.30 2.49
-3.83 -12.39 2.49
-3.58 -12.47 2.49
-3.33 -12.55 2.49
-3.08 -12.63 2.49
-2.83 -12.70 2.49
-2.58 -12.76 2.49
-2.32 -12.82 2.49
-2.07 -12.88 2.49
-1.81 -12.93 2.49
-1.55 -12.97 2.49
-1.29 -13.01 2.49
-1.03 -13.05 2.49
-0.77 -13.08 2.49
-0.51 -13.11 2.49
-0.24 -13.13 2.49
0.02 -11.70 2.49
0.26 -11.70 2.49
0.49 -11.71 2.49
0.73 -11.70 2.49
0.96 -11.70 2.49
1.20 -11.69 2.49
1.43 -11.67 2.49
1.67 -11.65 2.49
1.90 -11.62 2.49
2.14 -11.59 2.49
2.37 -11.56 2.49
2.51 -11.07 2.40
2.72 -11.00 2.39
2.95 -10.95 2.39
3.17 -10.90 2.39
3.39 -10.84 2.39
3.61 -10.78 2.39
3.83 -10.72 2.39
4.05 -10.65 2.39
4.26 -10.57 2.39
4.48 -10.49 2.39
4.69 -10.41 2.39
4.90 -10.32 2.39
5.11 -10.23 2.39
5.32 -10.14 2.39
5.53 -10.04 2.39
5.74 -9.93 2.39
5.94 -9.82 2.39
6.14 -9.71 2.39
6.34 -9.59 2.39
6.53 -9.47 2.39
6.74 -9.36 2.39
6.93 -9.23 2.39
7.12 -9.09 2.39
7.30 -8.96 2.39
7.49 -8.82 2.39
7.67 -8.67 2.39
7.85 -8.52 2.39
8.02 -8.37 2.39
8.20 -8.21 2.39
8.37 -8.05 2.39
8.53 -7.89 2.39
8.69 -7.72 2.39
8.85 -7.55 2.39
9.01 -7.38 2.39
9.16 -7.20 2.39
9.31 -7.02 2.39
9.46 -6.84 2.39
9.60 -6.65 2.39
9.74 -6.46 2.39
9.87 -6.27 2.39
10.00 -6.07 2.39
10.12 -5.87 2.39
10.25 -5.67 2.39
10.36 -5.47 2.39
10.48 -5.26 2.39
10.59 -5.06 2.39
10.69 -4.85 2.39
10.79 -4.63 2.39
10.89 -4.42 2.39
10.98 -4.20 2.39
11.07 -3.98 2.39
11.15 -3.76 2.39
11.23 -3.54 2.39
11.30 -3.31 2.39
11.37 -3.09 2.39
11.44 -2.86 2.39
11.50 -2.63 2.39
11.55 -2.40 2.39
11.60 -2.17 2.39
11.64 -1.94 2.39
11.69 -1.71 2.39
11.72 -1.47 2.39
11.75 -1.24 2.39
11.78 -1.00 2.39
11.80 -0.77 2.39
11.81 -0.53 2.39
11.82 -0.29 2.39
11.83 -0.06 2.39
11.83 0.18 2.39
11.83 0.42 2.39
11.82 0.66 2.39
11.80 0.89 2.39
11.78 1.13 2.39
11.76 1.37 2.39
11.73 1.60 2.39
11.70 1.84 2.39
11.66 2.07 2.39
11.61 2.30 2.39
11.57 2.53 2.39
11.51 2.77 2.39
11.45 3.00 2.39
11.39 3.22 2.39
11.32 3.45 2.39
11.25 3.68 2.39
11.17 3.90 2.39
11.09 4.12 2.39
11.01 4.35 2.39
10.91 4.56 2.39
10.82 4.78 2.39
10.72 5.00 2.39
10.61 5.21 2.39
10.50 5.42 2.39
10.39 5.63 2.39
10.27 5.83 2.39
9.20 5.47 2.17
10.03 6.24 2.39
9.90 6.43 2.39
9.76 6.63 2.39
9.62 6.82 2.39
9.48 7.01 2.39
9.33 7.19 2.39
9.18 7.38 2.39
9.03 7.56 2.39
8.87 7.73 2.39
8.71 7.90 2.39
8.55 8.07 2.39
8.38 8.24 2.39
8.21 8.40 2.39
8.04 8.56 2.39
7.86 8.71 2.39
7.68 8.87 2.39
7.50 9.01 2.39
7.31 9.16 2.39
7.12 9.30 2.39
6.93 9.43 2.39
6.73 9.55 2.39
6.53 9.68 2.39
6.33 9.80 2.39
6.13 9.92 2.39
5.92 10.03 2.39
5.72 10.14 2.39
5.51 10.25 2.39
5.30 10.35 2.39
5.09 10.45 2.39
4.87 10.54 2.39
4.66 10.63 2.39
4.44 10.71 2.39
4.22 10.79 2.39
4.00 10.86 2.39
3.78 10.93 2.39
3.56 11.00 2.39
3.33 11.06 2.39
3.11 11.11 2.39
2.89 11.19 2.40
2.77 11.69 2.49
2.53 11.74 2.49
2.29 11.78 2.49
2.06 11.81 2.49
1.82 11.84 2.49
1.58 11.86 2.49
1.34 11.88 2.49
1.10 11.90 2.49
0.86 11.91 2.49
0.62 11.91 2.49
0.38 11.91 2.49
0.14 11.91 2.49
-0.10 11.90 2.49
-0.34 11.88 2.49
-0.57 11.86 2.49
-0.81 11.84 2.49
-1.05 11.81 2.49
-1.28 11.77 2.49
-1.52 11.74 2.49
-1.75 11.69 2.49
-1.98 11.64 2.49
-2.22 11.59 2.49
-2.45 11.54 2.49
-2.67 11.47 2.49
-2.90 11.41 2.49
-3.13 11.34 2.49
-3.35 11.26 2.49
-3.57 11.18 2.49
-3.79 11.10 2.49
-4.01 11.01 2.49
-4.23 10.92 2.49
-4.44 10.82 2.49
-4.66 10.72 2.49
-4.87 10.62 2.49
-5.07 10.51 2.49
-5.19 10.21 2.45
-5.26 9.85 2.39
-5.45 9.74 2.39
-5.64 9.62 2.39
-5.83 9.50 2.39
-6.01 9.37 2.39
-6.19 9.24 2.39
-6.37 9.11 2.39
-6.55 8.97 2.39
-6.72 8.83 2.39
-6.89 8.69 2.39
-7.06 8.54 2.39
-7.22 8.39 2.39
-7.39 8.24 2.39
-7.54 8.08 2.39
-7.70 7.92 2.39
-7.85 7.76 2.39
-8.00 7.59 2.39
-8.15 7.43 2.39
-8.29 7.26 2.39
-8.43 7.08 2.39
-8.56 6.91 2.39
-8.69 6.73 2.39
-8.82 6.55 2.39
-8.94 6.37 2.39
-9.06 6.18 2.39
-9.18 6.00 2.39
-9.67 6.04 2.49
-9.82 5.87 2.50
-9.97 5.69 2.51
-10.12 5.50 2.52
-10.26 5.32 2.53
-10.39 5.12 2.53
-10.51 4.92 2.54
-10.58 4.70 2.54
-10.65 4.47 2.53
-10.71 4.25 2.53
-10.77 4.02 2.52
-10.83 3.80 2.52
-10.89 3.57 2.52
-10.94 3.35 2.51
-11.02 3.13 2.52
-11.10 2.91 2.52
-11.18 2.70 2.53
-11.22 2.47 2.53
-11.25 2.24 2.52
-11.28 2.01 2.52
-11.32 1.78 2.52
-11.34 1.55 2.52
-11.34 1.32 2.51
-11.34 1.09 2.51
-11.34 0.86 2.51
-11.34 0.63 2.50
-11.35 0.40 2.50
-11.36 0.18 2.50
-11.37 -0.05 2.51
-11.37 -0.28 2.51
-11.37 -0.51 2.51
-11.34 -0.74 2.51
-11.31 -0.96 2.50
-11.28 -1.19 2.50
-11.24 -1.42 2.50
-11.21 -1.64 2.50
-11.17 -1.87 2.50
-11.13 -2.09 2.50
-11.09 -2.32 2.50
-11.05 -2.54 2.50
-11.01 -2.76 2.50
-10.95 -2.99 2.51
-10.89 -3.21 2.50
-10.83 -3.42 2.51
-10.77 -3.65 2.51
-10.72 -3.87 2.51
-10.66 -4.09 2.52
-10.60 -4.32 2.52
-10.54 -4.54 2.53
-10.47 -4.76 2.54
-10.38 -4.98 2.54
-10.29 -5.19 2.54
-10.19 -5.40 2.54
-10.12 -5.63 2.55
-9.38 -5.47 2.39
-9.27 -5.65 2.39
-9.16 -5.84 2.39
-9.04 -6.03 2.39
-8.92 -6.21 2.39
-8.80 -6.39 2.39
-8.67 -6.57 2.39
-8.54 -6.74 2.39
-8.41 -6.92 2.39
-8.27 -7.09 2.39
-8.13 -7.25 2.39
-7.98 -7.42 2.39
-7.84 -7.58 2.39
-5.93 -5.97 1.84
-7.53 -7.90 2.39
-7.38 -8.05 2.39
-7.22 -8.20 2.39
-7.05 -8.35 2.39
-6.89 -8.50 2.39
-6.72 -8.64 2.39
-6.55 -8.78 2.39
-6.37 -8.91 2.39
-6.20 -9.04 2.39
-6.02 -9.17 2.39
-5.84 -9.30 2.39
-5.65 -9.42 2.39
-5.53 -9.65 2.42
-5.50 -10.07 2.49
-5.30 -10.18 2.49
-5.10 -10.29 2.49
-4.90 -10.40 2.49
-4.69 -10.50 2.49
-4.48 -10.60 2.49
-4.27 -10.70 2.49
-4.06 -10.79 2.49
-3.84 -10.88 2.49
-3.63 -10.96 2.49
-3.41 -11.04 2.49
-3.19 -11.11 2.49
-2.97 -11.18 2.49
-2.74 -11.25 2.49
-2.52 -11.31 2.49
-2.29 -11.37 2.49
-2.07 -11.42 2.49
-1.84 -11.47 2.49
-1.61 -11.52 2.49
-1.38 -11.56 2.49
-1.15 -11.59 2.49
-0.91 -11.62 2.49
-0.68 -11.65 2.49
-0.45 -11.67 2.49
-0.21 -11.68 2.49
0.02 -10.53 2.49
0.23 -10.53 2.49
0.44 -10.53 2.49
0.66 -10.53 2.49
0.87 -10.52 2.49
1.08 -10.51 2.49
1.29 -10.50 2.49
1.50 -10.48 2.49
1.72 -10.45 2.49
1.93 -10.43 2.49
2.14 -10.39 2.49
2.35 -10.36 2.49
2.51 -10.14 2.45
2.65 -9.85 2.39
2.85 -9.80 2.39
3.05 -9.75 2.39
3.25 -9.69 2.39
3.44 -9.63 2.39
3.64 -9.57 2.39
3.83 -9.50 2.39
4.03 -9.43 2.39
4.22 -9.36 2.39
4.41 -9.28 2.39
4.60 -9.19 2.39
4.78 -9.11 2.39
4.97 -9.02 2.39
5.15 -8.92 2.39
5.34 -8.82 2.39
5.52 -8.72 2.39
5.69 -8.61 2.39
5.87 -8.50 2.39
6.04 -8.39 2.39
6.22 -8.27 2.39
6.38 -8.15 2.39
6.55 -8.03 2.39
6.72 -7.91 2.39
6.89 -7.78 2.39
7.05 -7.65 2.39
7.20 -7.51 2.39
7.36 -7.37 2.39
7.51 -7.22 2.39
7.66 -7.08 2.39
7.80 -6.93 2.39
7.94 -6.77 2.39
8.08 -6.62 2.39
8.22 -6.46 2.39
8.35 -6.30 2.39
8.48 -6.13 2.39
8.61 -5.96 2.39
8.73 -5.79 2.39
8.85 -5.62 2.39
8.97 -5.44 2.39
9.08 -5.27 2.39
9.19 -5.09 2.39
9.29 -4.90 2.39
9.39 -4.72 2.39
9.49 -4.53 2.39
9.58 -4.34 2.39
9.67 -4.15 2.39
9.76 -3.96 2.39
9.84 -3.76 2.39
9.92 -3.57 2.39
9.99 -3.37 2.39
10.06 -3.17 2.39
10.13 -2.97 2.39
10.19 -2.77 2.39
10.25 -2.56 2.39
10.30 -2.36 2.39
10.35 -2.15 2.39
10.39 -1.94 2.39
10.43 -1.74 2.39
10.47 -1.53 2.39
10.50 -1.32 2.39
10.53 -1.11 2.39
10.55 -0.90 2.39
10.57 -0.68 2.39
10.58 -0.47 2.39
10.59 -0.26 2.39
10.60 -0.05 2.39
10.60 0.16 2.39
10.59 0.38 2.39
10.58 0.59 2.39
10.57 0.80 2.39
10.55 1.01 2.39
10.53 1.22 2.39
10.51 1.43 2.39
10.48 1.64 2.39
10.44 1.85 2.39
10.40 2.06 2.39
10.36 2.27 2.39
10.31 2.48 2.39
10.26 2.68 2.39
10.20 2.89 2.39
10.14 3.09 2.39
10.08 3.29 2.39
10.01 3.49 2.39
9.94 3.69 2.39
9.86 3.89 2.39
9.78 4.09 2.39
9.69 4.28 2.39
9.60 4.47 2.39
9.51 4.67 2.39
9.41 4.85 2.39
9.31 5.04 2.39
9.20 5.22 2.39
8.99 5.34 2.36
8.98 5.59 2.39
8.87 5.76 2.39
8.75 5.94 2.39
8.62 6.11 2.39
8.50 6.28 2.39
8.36 6.45 2.39
8.23 6.61 2.39
8.09 6.77 2.39
7.95 6.93 2.39
7.81 7.08 2.39
7.66 7.24 2.39
7.51 7.38 2.39
7.36 7.53 2.39
7.20 7.67 2.39
7.05 7.81 2.39
6.88 7.95 2.39
6.71 8.07 2.39
6.55 8.20 2.39
6.38 8.32 2.39
6.21 8.45 2.39
6.03 8.56 2.39
5.86 8.68 2.39
5.68 8.79 2.39
5.50 8.89 2.39
5.31 9.00 2.39
5.13 9.10 2.39
4.94 9.19 2.39
4.75 9.28 2.39
4.56 9.37 2.39
4.37 9.45 2.39
4.18 9.53 2.39
3.99 9.61 2.39
3.79 9.68 2.39
3.59 9.75 2.39
3.39 9.81 2.39
3.19 9.87 2.39
2.99 9.93 2.39
2.86 10.22 2.45
2.70 10.45 2.49
2.49 10.50 2.49
2.28 10.54 2.49
2.06 10.57 2.49
1.85 10.61 2.49
1.63 10.63 2.49
1.42 10.66 2.49
1.20 10.67 2.49
0.99 10.69 2.49
0.77 10.70 2.49
0.56 10.70 2.49
0.34 10.70 2.49
0.13 10.70 2.49
-0.09 10.69 2.49
-0.30 10.68 2.49
-0.51 10.66 2.49
-0.73 10.64 2.49
-0.94 10.62 2.49
-1.15 10.59 2.49
-1.36 10.55 2.49
-1.57 10.51 2.49
-1.78 10.47 2.49
-1.99 10.43 2.49
-2.20 10.38 2.49
-2.40 10.32 2.49
-2.61 10.26 2.49
-2.81 10.20 2.49
-3.01 10.13 2.49
-3.21 10.06 2.49
-3.41 9.99 2.49
-3.61 9.91 2.49
-3.80 9.83 2.49
-4.00 9.74 2.49
-4.19 9.65 2.49
-4.38 9.56 2.49
-4.57 9.46 2.49
-4.75 9.36 2.49
-4.94 9.26 2.49
-5.12 9.15 2.49
-5.21 8.89 2.45
-5.24 8.55 2.39
-5.43 8.47 2.40
-5.58 8.32 2.39
-5.74 8.20 2.39
-5.90 8.08 2.39
-6.05 7.96 2.39
-6.21 7.83 2.39
-6.36 7.69 2.39
-6.51 7.56 2.39
-6.65 7.42 2.39
-6.80 7.28 2.39
-6.94 7.14 2.39
-7.08 6.99 2.39
-7.21 6.85 2.39
-7.34 6.70 2.39
-7.47 6.54 2.39
-7.60 6.39 2.39
-7.72 6.23 2.39
-7.84 6.07 2.39
-7.95 5.91 2.39
-8.06 5.74 2.39
-8.17 5.58 2.39
-8.28 5.41 2.39
-8.38 5.24 2.39
-8.48 5.07 2.39
-8.58 4.89 2.39
-8.67 4.72 2.39
-8.76 4.54 2.39
-8.84 4.36 2.39
-8.92 4.18 2.39
-9.00 4.00 2.39
-9.08 3.81 2.39
-9.15 3.63 2.39
-9.22 3.44 2.39
-9.28 3.25 2.39
-10.37 3.40 2.65
-10.42 3.19 2.65
-10.47 2.98 2.65
-10.53 2.77 2.65
-10.58 2.55 2.65
-10.62 2.34 2.65
-10.65 2.12 2.65
-10.68 1.90 2.64
-10.71 1.69 2.64
-10.74 1.47 2.64
-10.76 1.26 2.64
-10.78 1.04 2.64
-10.79 0.82 2.64
-10.79 0.60 2.64
-10.80 0.38 2.64
-10.81 0.17 2.64
-10.81 -0.05 2.64
-10.82 -0.27 2.64
-10.82 -0.49 2.65
-10.82 -0.70 2.65
-10.82 -0.92 2.65
-10.80 -1.14 2.65
-10.77 -1.36 2.65
-10.73 -1.57 2.65
-10.70 -1.79 2.65
-10.66 -2.00 2.65
-10.62 -2.22 2.65
-10.58 -2.43 2.65
-10.54 -2.65 2.66
-10.49 -2.86 2.66
-9.38 -2.76 2.39
-9.33 -2.95 2.39
-9.27 -3.14 2.39
-9.20 -3.32 2.39
-9.14 -3.51 2.39
-9.06 -3.69 2.39
-8.99 -3.87 2.39
-8.91 -4.05 2.39
-8.83 -4.23 2.39
-8.74 -4.41 2.39
-8.66 -4.59 2.39
-8.56 -4.76 2.39
-8.47 -4.93 2.39
-8.37 -5.10 2.39
-8.27 -5.27 2.39
-8.16 -5.44 2.39
-8.05 -5.61 2.39
-7.94 -5.77 2.39
-7.83 -5.93 2.39
-7.71 -6.09 2.39
-7.59 -6.24 2.39
-7.46 -6.40 2.39
-7.33 -6.55 2.39
-7.20 -6.70 2.39
-7.07 -6.84 2.39
-5.92 -5.97 2.04
-6.80 -7.13 2.39
-6.65 -7.27 2.39
-6.51 -7.40 2.39
-6.36 -7.53 2.39
-6.21 -7.67 2.39
-6.06 -7.79 2.39
-5.91 -7.92 2.39
-5.75 -8.04 2.39
-5.59 -8.16 2.39
-5.51 -8.40 2.43
-5.49 -8.75 2.49
-5.32 -8.86 2.49
-5.14 -8.97 2.49
-4.96 -9.08 2.49
-4.78 -9.18 2.49
-4.60 -9.28 2.49
-4.41 -9.38 2.49
-4.23 -9.47 2.49
-4.04 -9.56 2.49
-3.85 -9.64 2.49
-3.66 -9.73 2.49
-3.46 -9.80 2.49
-3.27 -9.88 2.49
-3.07 -9.95 2.49
-2.87 -10.02 2.49
-2.67 -10.08 2.49
-2.47 -10.14 2.49
-2.27 -10.19 2.49
-2.06 -10.24 2.49
-1.86 -10.29 2.49
-1.65 -10.33 2.49
-1.45 -10.37 2.49
-1.24 -10.41 2.49
-1.03 -10.44 2.49
-0.82 -10.46 2.49
-0.61 -10.49 2.49
-0.40 -10.50 2.49
-0.19 -10.52 2.49
0.02 -9.56 2.49
0.21 -9.57 2.49
0.41 -9.57 2.49
0.60 -9.56 2.49
0.79 -9.56 2.49
0.98 -9.55 2.49
1.18 -9.53 2.49
1.37 -9.51 2.49
1.56 -9.49 2.49
1.75 -9.46 2.49
1.94 -9.43 2.49
2.13 -9.40 2.49
2.32 -9.36 2.49
2.51 -9.32 2.49
2.59 -8.89 2.39
2.77 -8.84 2.39
2.95 -8.79 2.39
3.13 -8.74 2.39
3.30 -8.68 2.39
3.48 -8.62 2.39
3.65 -8.55 2.39
3.83 -8.48 2.39
4.00 -8.41 2.39
4.17 -8.34 2.39
4.34 -8.26 2.39
4.51 -8.17 2.39
4.67 -8.09 2.39
4.84 -8.00 2.39
5.00 -7.90 2.39
5.16 -7.81 2.39
5.32 -7.71 2.39
5.48 -7.61 2.39
5.64 -7.50 2.39
5.79 -7.39 2.39
5.94 -7.28 2.39
6.09 -7.16 2.39
6.23 -7.04 2.39
6.38 -6.92 2.39
6.52 -6.80 2.39
6.67 -6.67 2.39
6.80 -6.54 2.39
6.94 -6.41 2.39
7.07 -6.27 2.39
7.20 -6.13 2.39
7.32 -5.99 2.39
7.45 -5.85 2.39
7.57 -5.70 2.39
7.68 -5.55 2.39
7.80 -5.40 2.39
7.91 -5.24 2.39
8.02 -5.09 2.39
8.12 -4.93 2.39
8.22 -4.77 2.39
8.32 -4.60 2.39
8.41 -4.44 2.39
8.50 -4.27 2.39
8.59 -4.10 2.39
8.68 -3.93 2.39
8.76 -3.76 2.39
8.83 -3.58 2.39
8.91 -3.41 2.39
8.98 -3.23 2.39
9.05 -3.05 2.39
9.11 -2.87 2.39
9.17 -2.69 2.39
9.22 -2.50 2.39
9.27 -2.32 2.39
9.32 -2.13 2.39
9.36 -1.95 2.39
9.40 -1.76 2.39
9.44 -1.57 2.39
9.47 -1.38 2.39
9.50 -1.19 2.39
9.52 -1.00 2.39
9.54 -0.81 2.39
9.56 -0.62 2.39
9.57 -0.43 2.39
9.58 -0.24 2.39
9.59 -0.04 2.39
9.59 0.15 2.39
9.58 0.34 2.39
9.58 0.53 2.39
9.56 0.72 2.39
9.55 0.92 2.39
9.53 1.11 2.39
9.50 1.30 2.39
9.48 1.49 2.39
9.45 1.68 2.39
9.41 1.87 2.39
9.37 2.05 2.39
9.33 2.24 2.39
9.28 2.43 2.39
9.23 2.61 2.39
9.18 2.80 2.39
9.12 2.98 2.39
9.05 3.16 2.39
8.99 3.34 2.39
8.92 3.52 2.39
8.84 3.70 2.39
8.77 3.87 2.39
8.69 4.05 2.39
8.60 4.22 2.39
8.51 4.39 2.39
8.42 4.56 2.39
8.33 4.73 2.39
8.23 4.89 2.39
8.13 5.05 2.39
6.32 4.11 1.89
6.23 4.23 1.88
6.14 4.35 1.88
6.05 4.47 1.88
5.96 4.59 1.88
5.87 4.71 1.88
5.77 4.82 1.88
5.67 4.94 1.88
5.57 5.05 1.88
5.47 5.16 1.89
5.37 5.28 1.89
6.66 6.81 2.39
6.52 6.94 2.39
6.37 7.06 2.39
6.23 7.19 2.39
6.08 7.31 2.39
5.93 7.42 2.39
5.78 7.54 2.39
5.62 7.65 2.39
5.46 7.75 2.39
5.30 7.86 2.39
5.14 7.96 2.39
4.98 8.05 2.39
4.81 8.15 2.39
4.65 8.24 2.39
4.48 8.33 2.39
4.31 8.41 2.39
4.14 8.49 2.39
3.96 8.56 2.39
3.79 8.64 2.39
3.61 8.71 2.39
3.44 8.77 2.39
3.26 8.83 2.39
3.08 8.89 2.39
2.90 8.94 2.39
2.83 9.38 2.49
2.64 9.43 2.49
2.45 9.48 2.49
2.26 9.52 2.49
2.06 9.55 2.49
1.87 9.59 2.49
1.68 9.62 2.49
1.48 9.64 2.49
1.29 9.66 2.49
1.09 9.68 2.49
0.90 9.69 2.49
0.70 9.70 2.49
0.51 9.71 2.49
0.31 9.71 2.49
0.12 9.70 2.49
-0.08 9.70 2.49
-0.27 9.69 2.49
-0.46 9.67 2.49
-0.66 9.65 2.49
-0.85 9.63 2.49
-1.04 9.61 2.49
-1.23 9.58 2.49
-1.43 9.54 2.49
-1.62 9.51 2.49
-1.80 9.46 2.49
-1.99 9.42 2.49
-2.18 9.37 2.49
-2.37 9.32 2.49
-2.55 9.26 2.49
-2.73 9.20 2.49
-2.92 9.14 2.49
-3.10 9.07 2.49
-3.28 9.00 2.49
-3.45 8.93 2.49
-3.63 8.85 2.49
-3.80 8.77 2.49
-3.98 8.68 2.49
-4.15 8.60 2.49
-4.32 8.51 2.49
-4.48 8.41 2.49
-4.65 8.31 2.49
-4.81 8.21 2.49
-4.97 8.11 2.49
-5.13 8.00 2.49
-5.23 7.81 2.47
-5.24 7.50 2.40
-5.36 7.35 2.39
-5.50 7.23 2.39
-5.64 7.12 2.39
-5.78 7.00 2.39
-5.92 6.87 2.39
-6.05 6.75 2.39
-6.18 6.62 2.39
-6.31 6.49 2.39
-6.43 6.36 2.39
-6.56 6.23 2.39
-6.68 6.09 2.39
-6.79 5.95 2.39
-6.91 5.81 2.39
-7.02 5.67 2.39
-7.13 5.52 2.39
-7.23 5.38 2.39
-7.34 5.23 2.39
-7.44 5.07 2.39
-7.53 4.92 2.39
-7.63 4.77 2.39
-7.72 4.61 2.39
-7.80 4.45 2.39
-7.89 4.29 2.39
-7.97 4.13 2.39
-8.05 3.97 2.39
-8.12 3.80 2.39
-8.19 3.64 2.39
-8.26 3.47 2.39
-8.33 3.30 2.39
-8.39 3.13 2.39
-8.45 2.96 2.39
-8.50 2.79 2.39
-8.55 2.62 2.39
-8.60 2.45 2.39
-8.64 2.27 2.39
-8.69 2.10 2.39
-8.72 1.92 2.39
-8.76 1.74 2.39
-8.79 1.57 2.39
-8.82 1.39 2.39
-8.84 1.21 2.39
-8.86 1.03 2.39
-8.88 0.86 2.39
-8.89 0.68 2.39
-8.90 0.50 2.39
-8.91 0.32 2.39
-8.91 0.14 2.39
-8.91 -0.04 2.39
-8.91 -0.22 2.39
-8.90 -0.40 2.39
-8.89 -0.58 2.39
-8.88 -0.76 2.39
-8.86 -0.93 2.39
-8.84 -1.11 2.39
-8.81 -1.29 2.39
-8.78 -1.47 2.39
-8.75 -1.64 2.39
-8.72 -1.82 2.39
-8.68 -1.99 2.39
-8.64 -2.17 2.39
-8.59 -2.34 2.39
-8.54 -2.51 2.39
-8.49 -2.69 2.39
-8.44 -2.86 2.39
-8.38 -3.03 2.39
-8.32 -3.19 2.39
-8.25 -3.36 2.39
-8.18 -3.53 2.39
-8.11 -3.69 2.39
-8.04 -3.86 2.39
-7.96 -4.02 2.39
-7.88 -4.18 2.39
-7.80 -4.34 2.39
-7.71 -4.49 2.39
-7.62 -4.65 2.39
-7.53 -4.80 2.39
-7.43 -4.95 2.39
-7.33 -5.10 2.39
-7.23 -5.25 2.39
-7.12 -5.40 2.39
-7.02 -5.54 2.39
-6.90 -5.68 2.39
-6.79 -5.82 2.39
-6.68 -5.96 2.39
-6.56 -6.10 2.39
-6.44 -6.23 2.39
-5.92 -5.97 2.24
-6.18 -6.49 2.39
-6.06 -6.61 2.39
-5.92 -6.74 2.39
-5.79 -6.86 2.39
-5.65 -6.98 2.39
-5.51 -7.09 2.39
-5.49 -7.36 2.44
-5.46 -7.63 2.49
-5.30 -7.74 2.49
-5.15 -7.85 2.49
-4.99 -7.96 2.49
-4.83 -8.06 2.49
-4.67 -8.16 2.49
-4.51 -8.26 2.49
-4.35 -8.35 2.49
-4.18 -8.44 2.49
-4.01 -8.53 2.49
-3.84 -8.61 2.49
-3.67 -8.69 2.49
-3.50 -8.77 2.49
-3.32 -8.84 2.49
-3.15 -8.91 2.49
-2.97 -8.98 2.49
-2.79 -9.04 2.49
-2.61 -9.10 2.49
-2.43 -9.16 2.49
-2.24 -9.21 2.49
-2.06 -9.26 2.49
-1.87 -9.31 2.49
-1.69 -9.35 2.49
-1.50 -9.39 2.49
-1.31 -9.42 2.49
-1.12 -9.46 2.49
-0.93 -9.48 2.49
-0.74 -9.51 2.49
-0.55 -9.53 2.49
-0.36 -9.54 2.49
-0.17 -9.55 2.49
0.02 -8.75 2.49
0.20 -8.75 2.49
0.37 -8.75 2.49
0.55 -8.75 2.49
0.73 -8.74 2.49
0.90 -8.73 2.49
1.08 -8.72 2.49
1.25 -8.70 2.49
1.43 -8.68 2.49
1.60 -8.66 2.49
1.78 -8.63 2.49
1.95 -8.60 2.49
2.13 -8.56 2.49
2.30 -8.52 2.49
2.47 -8.48 2.49
2.55 -8.15 2.41
2.70 -8.04 2.39
2.86 -7.99 2.39
3.02 -7.94 2.39
3.18 -7.88 2.39
3.34 -7.82 2.39
3.50 -7.75 2.39
3.66 -7.69 2.39
3.81 -7.62 2.39
3.97 -7.55 2.39
4.12 -7.47 2.39
4.27 -7.39 2.39
4.42 -7.31 2.39
4.57 -7.22 2.39
4.72 -7.13 2.39
4.86 -7.04 2.39
5.01 -6.95 2.39
5.15 -6.85 2.39
5.29 -6.75 2.39
5.43 -6.65 2.39
5.56 -6.54 2.39
5.70 -6.43 2.39
5.83 -6.32 2.39
5.96 -6.20 2.39
6.08 -6.09 2.39
6.21 -5.97 2.39
6.33 -5.85 2.39
6.45 -5.72 2.39
6.56 -5.59 2.39
6.69 -5.47 2.39
6.80 -5.34 2.39
6.91 -5.20 2.39
7.01 -5.07 2.39
7.12 -4.93 2.39
7.22 -4.79 2.39
7.32 -4.64 2.39
7.41 -4.50 2.39
7.50 -4.35 2.39
7.59 -4.20 2.39
7.68 -4.05 2.39
7.76 -3.90 2.39
7.84 -3.74 2.39
7.92 -3.59 2.39
7.99 -3.43 2.39
8.06 -3.27 2.39
8.13 -3.11 2.39
8.19 -2.94 2.39
8.25 -2.78 2.39
8.31 -2.62 2.39
8.36 -2.45 2.39
8.41 -2.28 2.39
8.46 -2.11 2.39
8.50 -1.94 2.39
8.54 -1.77 2.39
8.58 -1.60 2.39
8.61 -1.43 2.39
8.64 -1.26 2.39
8.67 -1.09 2.39
8.69 -0.91 2.39
8.71 -0.74 2.39
8.72 -0.56 2.39
8.73 -0.39 2.39
8.74 -0.21 2.39
8.74 -0.04 2.39
8.74 0.14 2.39
8.74 0.31 2.39
8.73 0.49 2.39
8.72 0.66 2.39
8.71 0.84 2.39
8.69 1.01 2.39
8.67 1.18 2.39
8.64 1.36 2.39
8.61 1.53 2.39
8.58 1.70 2.39
8.55 1.87 2.39
8.51 2.04 2.39
8.46 2.21 2.39
8.42 2.38 2.39
8.37 2.55 2.39
8.31 2.72 2.39
8.26 2.88 2.39
8.20 3.05 2.39
8.13 3.21 2.39
8.07 3.37 2.39
8.00 3.53 2.39
7.92 3.69 2.39
7.85 3.85 2.39
7.77 4.00 2.39
7.68 4.16 2.39
7.60 4.31 2.39
7.51 4.46 2.39
7.41 4.61 2.39
7.32 4.76 2.39
6.31 4.28 2.09
7.12 5.04 2.39
7.01 5.18 2.39
6.91 5.32 2.39
6.79 5.45 2.39
6.68 5.58 2.39
6.56 5.71 2.39
6.44 5.84 2.39
6.32 5.97 2.39
6.20 6.09 2.39
6.07 6.21 2.39
5.95 6.33 2.39
5.82 6.44 2.39
5.68 6.56 2.39
5.55 6.67 2.39
5.41 6.77 2.39
5.27 6.88 2.39
5.13 6.98 2.39
4.99 7.08 2.39
4.84 7.17 2.39
4.70 7.26 2.39
4.55 7.35 2.39
4.40 7.44 2.39
4.24 7.52 2.39
4.09 7.60 2.39
3.94 7.68 2.39
3.78 7.75 2.39
3.62 7.82 2.39
3.46 7.89 2.39
3.30 7.95 2.39
3.14 8.01 2.39
2.98 8.07 2.39
2.83 8.18 2.41
2.76 8.52 2.49
2.59 8.57 2.49
2.41 8.61 2.49
2.24 8.66 2.49
2.06 8.69 2.49
1.89 8.73 2.49
1.71 8.76 2.49
1.53 8.79 2.49
1.36 8.81 2.49
1.18 8.83 2.49
1.00 8.84 2.49
0.82 8.86 2.49
0.65 8.87 2.49
0.47 8.87 2.49
0.29 8.87 2.49
0.11 8.87 2.49
-0.07 8.87 2.49
-0.24 8.86 2.49
-0.42 8.84 2.49
-0.60 8.83 2.49
-0.78 8.81 2.49
-0.95 8.78 2.49
-1.13 8.76 2.49
-1.30 8.73 2.49
-1.48 8.69 2.49
-1.65 8.66 2.49
-1.82 8.62 2.49
-1.99 8.57 2.49
-2.16 8.52 2.49
-2.33 8.47 2.49
-2.50 8.42 2.49
-2.67 8.36 2.49
-2.83 8.30 2.49
-3.00 8.24 2.49
-3.16 8.17 2.49
-3.32 8.10 2.49
-3.48 8.03 2.49
-3.64 7.95 2.49
-3.79 7.87 2.49
-3.95 7.79 2.49
-4.10 7.70 2.49
-4.25 7.61 2.49
-4.40 7.52 2.49
-4.55 7.42 2.49
-4.69 7.33 2.49
-4.84 7.23 2.49
-4.98 7.12 2.49
-5.12 7.02 2.49
-5.24 6.90 2.49
-5.25 6.62 2.43
-5.29 6.41 2.39
-5.42 6.30 2.39
-5.54 6.18 2.39
-5.66 6.07 2.39
-5.78 5.95 2.39
-5.89 5.83 2.39
-6.00 5.71 2.39
-6.11 5.58 2.39
-6.22 5.45 2.39
-6.33 5.32 2.39
-6.43 5.19 2.39
-6.53 5.06 2.39
-6.63 4.93 2.39
-6.72 4.79 2.39
-6.81 4.65 2.39
-6.90 4.51 2.39
-6.99 4.37 2.39
-7.07 4.23 2.39
-7.15 4.08 2.39
-7.23 3.93 2.39
-7.30 3.79 2.39
-7.37 3.64 2.39
-7.44 3.49 2.39
-7.51 3.34 2.39
-7.57 3.18 2.39
-7.63 3.03 2.39
-7.69 2.87 2.39
-7.74 2.72 2.39
-7.79 2.56 2.39
-7.84 2.40 2.39
-7.88 2.24 2.39
-7.92 2.08 2.39
-7.96 1.92 2.39
-8.00 1.76 2.39
-8.03 1.60 2.39
-8.06 1.44 2.39
-8.08 1.28 2.39
-8.11 1.11 2.39
-8.12 0.95 2.39
-8.14 0.78 2.39
-8.15 0.62 2.39
-8.16 0.46 2.39
-8.17 0.29 2.39
-8.17 0.13 2.39
-8.17 -0.04 2.39
-8.17 -0.20 2.39
-8.16 -0.37 2.39
-8.15 -0.53 2.39
-8.14 -0.69 2.39
-8.12 -0.86 2.39
-8.10 -1.02 2.39
-8.08 -1.18 2.39
-8.06 -1.35 2.39
