ply
format ascii 1.0
element vertex 2897
property float32 x
property float32 y
property float32 z
end_header
-10.59 -0.49 0.92
-10.58 -0.70 0.92
-10.58 -0.91 0.92
-10.57 -1.13 0.92
-10.56 -1.34 0.92
-10.56 -1.56 0.92
-10.55 -1.77 0.92
-10.55 -1.99 0.92
-10.55 -2.21 0.92
-10.54 -2.43 0.92
-10.54 -2.65 0.92
-10.59 -2.89 0.93
-10.63 -3.14 0.94
-10.68 -3.38 0.95
-10.71 -3.63 0.95
-10.67 -3.86 0.96
-10.64 -4.09 0.96
-10.60 -4.32 0.96
-10.57 -4.56 0.96
-10.54 -4.80 0.97
-10.52 -5.04 0.98
-10.50 -5.29 0.98
-10.47 -5.55 0.99
-10.47 -5.82 1.00
-10.46 -6.09 1.01
-10.46 -6.38 1.02
-10.46 -6.66 1.03
-10.49 -6.98 1.05
-10.52 -7.31 1.06
-10.55 -7.65 1.08
-10.53 -7.97 1.09
-10.52 -8.29 1.11
-10.50 -8.63 1.12
-10.45 -8.95 1.14
-10.40 -9.27 1.15
-10.35 -9.60 1.17
-10.33 -9.97 1.19
-10.31 -10.36 1.21
-10.29 -10.77 1.23
-10.27 -11.18 1.25
-10.25 -11.62 1.28
-10.22 -12.07 1.30
-10.19 -12.54 1.33
-10.18 -13.05 1.36
-10.22 -13.66 1.41
-10.20 -14.21 1.44
-10.16 -14.78 1.48
-10.72 -16.28 1.61
-5.97 -9.48 0.93
-11.57 -19.20 1.85
-11.60 -20.16 1.92
-11.54 -21.02 1.99
-11.49 -21.97 2.05
-11.39 -22.87 2.12
-11.28 -23.83 2.19
-10.26 -22.86 2.08
-9.81 -23.08 2.08
-11.22 -27.95 2.51
-11.20 -29.59 2.64
-11.13 -31.29 2.77
-9.06 -27.19 2.39
-8.50 -27.33 2.39
-7.94 -27.46 2.39
-7.38 -27.57 2.39
-6.82 -27.68 2.39
-6.25 -27.76 2.39
-5.68 -27.84 2.39
-5.34 -29.11 2.50
-4.74 -29.16 2.50
-4.15 -29.20 2.50
-3.56 -29.23 2.50
-2.97 -29.24 2.50
-2.38 -29.24 2.50
-1.79 -29.22 2.50
-1.20 -29.20 2.50
-0.61 -29.16 2.50
-0.02 -23.00 2.50
0.44 -22.96 2.50
0.90 -22.91 2.50
1.35 -22.85 2.50
1.81 -22.78 2.50
2.26 -22.70 2.50
2.60 -21.67 2.39
3.03 -21.57 2.39
3.45 -21.47 2.39
3.87 -21.35 2.39
4.29 -21.23 2.39
4.71 -21.10 2.39
5.12 -20.96 2.39
5.53 -20.81 2.39
5.93 -20.65 2.39
6.33 -20.49 2.39
7.39 -22.32 2.63
8.16 -23.07 2.74
8.91 -23.68 2.84
7.52 -18.82 2.28
9.47 -22.40 2.74
9.66 -21.62 2.68
9.89 -21.00 2.63
10.08 -20.33 2.57
10.03 -19.25 2.47
10.14 -18.54 2.41
10.38 -18.11 2.38
10.61 -17.68 2.36
10.80 -17.20 2.33
10.99 -16.75 2.30
11.06 -16.14 2.26
11.13 -15.56 2.21
11.10 -14.88 2.15
7.28 -9.36 1.38
7.53 -9.29 1.39
7.78 -9.22 1.41
11.04 -12.56 1.96
11.07 -12.09 1.92
11.09 -11.64 1.89
11.26 -11.36 1.88
11.36 -11.01 1.87
11.42 -10.63 1.84
11.47 -10.25 1.82
11.53 -9.89 1.80
11.63 -9.58 1.79
11.73 -9.27 1.78
11.83 -8.97 1.78
11.93 -8.68 1.77
12.00 -8.37 1.76
11.77 -7.86 1.70
11.56 -7.39 1.66
11.43 -6.99 1.62
11.35 -6.63 1.59
11.27 -6.28 1.57
11.20 -5.95 1.54
11.12 -5.63 1.52
11.17 -5.37 1.52
11.27 -5.14 1.52
11.33 -4.90 1.52
11.39 -4.66 1.51
11.45 -4.41 1.51
11.51 -4.17 1.51
11.56 -3.93 1.51
11.58 -3.68 1.51
11.61 -3.43 1.51
11.63 -3.19 1.50
11.63 -2.94 1.50
11.63 -2.69 1.49
11.64 -2.45 1.49
11.64 -2.20 1.49
11.69 -1.97 1.49
11.83 -1.75 1.51
11.98 -1.53 1.53
12.13 -1.30 1.54
12.24 -1.06 1.56
12.23 -0.82 1.56
12.22 -0.57 1.56
12.22 -0.32 1.56
12.21 -0.08 1.56
12.21 0.17 1.56
12.20 0.41 1.56
12.19 0.66 1.56
12.18 0.90 1.57
12.09 1.14 1.56
12.00 1.38 1.56
11.91 1.61 1.55
11.82 1.84 1.54
11.73 2.07 1.54
11.64 2.29 1.54
11.55 2.52 1.53
11.45 2.74 1.53
11.36 2.96 1.53
11.27 3.18 1.52
11.17 3.40 1.52
11.08 3.61 1.52
10.98 3.83 1.52
10.89 4.04 1.52
10.79 4.25 1.52
10.69 4.47 1.52
10.59 4.67 1.52
10.47 4.88 1.52
6.90 3.38 1.01
6.71 3.46 0.99
6.53 3.54 0.98
6.36 3.61 0.96
6.19 3.68 0.95
9.74 6.06 1.51
9.61 6.25 1.51
9.49 6.45 1.51
9.36 6.64 1.51
9.23 6.83 1.52
9.10 7.02 1.52
8.98 7.22 1.52
8.85 7.41 1.53
8.72 7.61 1.53
8.59 7.80 1.54
8.48 8.02 1.54
8.39 8.26 1.56
8.30 8.51 1.57
8.20 8.75 1.59
8.11 9.01 1.61
8.06 9.33 1.63
8.04 9.69 1.67
8.02 10.07 1.70
8.00 10.47 1.75
7.98 10.89 1.79
6.63 9.45 1.53
6.28 9.34 1.49
6.21 9.64 1.52
6.13 9.95 1.55
8.26 14.04 2.15
8.24 14.67 2.22
8.15 15.22 2.28
7.95 15.59 2.31
7.74 15.97 2.34
7.52 16.35 2.37
7.30 16.74 2.41
7.09 17.20 2.45
6.99 17.98 2.54
6.10 16.68 2.34
6.00 17.48 2.43
5.56 17.34 2.39
5.22 17.46 2.39
4.87 17.58 2.39
4.52 17.69 2.39
4.17 17.79 2.39
3.81 17.89 2.39
3.46 17.98 2.39
3.10 18.07 2.39
2.74 18.15 2.39
2.37 18.22 2.39
2.01 18.28 2.39
1.72 19.13 2.50
1.33 19.19 2.50
0.95 19.24 2.50
0.56 19.28 2.50
0.17 19.31 2.50
-0.21 19.34 2.50
-0.60 19.36 2.50
-0.99 19.37 2.50
-1.39 19.37 2.50
-1.78 19.37 2.50
-2.17 19.36 2.50
-2.56 19.34 2.50
-2.95 19.32 2.50
-3.35 19.29 2.50
-3.74 19.25 2.50
-4.13 19.20 2.50
-4.53 19.15 2.50
-4.92 19.09 2.50
-5.31 19.02 2.50
-5.70 18.94 2.50
-6.09 18.86 2.50
-6.21 17.99 2.39
-6.59 17.90 2.39
-6.96 17.80 2.39
-7.33 17.69 2.39
-7.70 17.57 2.39
-8.07 17.45 2.39
-8.43 17.32 2.39
-8.80 17.18 2.39
-9.16 17.03 2.39
-9.52 16.88 2.39
-9.87 16.72 2.39
-10.13 16.39 2.37
-12.09 18.71 2.73
-11.85 17.56 2.59
-11.60 16.47 2.46
-10.74 14.61 2.21
-10.86 14.17 2.17
-10.95 13.70 2.13
-10.70 12.85 2.02
-10.70 12.35 1.97
-10.77 11.93 1.94
-10.77 11.46 1.89
-10.61 10.85 1.82
-10.57 10.38 1.77
-10.59 9.99 1.74
-10.60 9.61 1.70
-10.59 9.21 1.67
-10.55 8.81 1.63
-10.54 8.45 1.60
-10.54 8.11 1.57
-10.55 7.79 1.54
-10.56 7.47 1.52
-10.60 7.19 1.50
-10.66 6.92 1.49
-10.71 6.65 1.47
-10.73 6.37 1.45
-10.74 6.08 1.43
-10.75 5.81 1.42
-10.74 5.53 1.40
-10.68 5.23 1.37
-10.62 4.94 1.35
-10.56 4.66 1.33
-10.55 4.40 1.31
-10.55 4.15 1.30
-10.55 3.91 1.28
-10.55 3.67 1.27
-10.55 3.44 1.26
-10.61 3.22 1.26
-10.67 3.01 1.25
-10.74 2.80 1.25
-10.81 2.58 1.25
-10.82 2.36 1.24
-10.82 2.13 1.24
-10.83 1.91 1.23
-10.83 1.68 1.22
-10.77 1.45 1.21
-10.70 1.23 1.20
-10.64 1.00 1.19
-10.58 0.79 1.17
-10.52 0.57 1.16
-10.49 0.36 1.16
-10.49 0.15 1.16
-10.49 -0.06 1.15
-10.49 -0.27 1.15
-10.48 -0.49 1.15
-10.48 -0.70 1.15
-10.47 -0.91 1.15
-10.47 -1.12 1.15
-10.46 -1.33 1.15
-10.45 -1.54 1.15
-10.45 -1.76 1.15
-10.44 -1.97 1.15
-10.44 -2.19 1.15
-10.43 -2.41 1.15
-10.43 -2.63 1.16
-10.45 -2.86 1.17
-10.50 -3.10 1.18
-10.54 -3.34 1.19
-10.58 -3.59 1.20
-10.54 -3.81 1.20
-10.51 -4.04 1.20
-10.47 -4.27 1.21
-10.44 -4.50 1.21
-10.40 -4.74 1.22
-10.38 -4.98 1.22
-10.35 -5.22 1.23
-10.33 -5.47 1.24
-10.31 -5.73 1.25
-10.31 -6.00 1.26
-10.31 -6.28 1.28
-10.30 -6.57 1.29
-10.30 -6.86 1.31
-10.33 -7.18 1.33
-10.35 -7.51 1.35
-10.35 -7.83 1.37
-10.34 -8.15 1.39
-10.32 -8.48 1.41
-10.30 -8.81 1.43
-10.25 -9.13 1.45
-10.20 -9.46 1.46
-10.15 -9.81 1.49
-10.13 -10.19 1.51
-10.11 -10.58 1.54
-10.09 -10.99 1.57
-10.06 -11.41 1.60
-10.03 -11.85 1.63
-10.00 -12.30 1.67
-9.97 -12.78 1.71
-9.95 -13.30 1.75
-9.96 -13.88 1.80
-9.93 -14.43 1.84
-9.88 -15.01 1.89
-5.97 -9.48 1.18
-10.16 -16.87 2.08
-11.33 -19.69 2.40
-11.18 -20.36 2.45
-10.90 -20.83 2.48
-10.61 -21.30 2.51
-10.31 -21.78 2.55
-9.27 -20.64 2.39
-8.84 -20.80 2.39
-8.42 -20.96 2.39
-7.99 -21.10 2.39
-7.56 -21.24 2.39
-7.12 -21.37 2.39
-6.69 -21.49 2.39
-6.25 -21.59 2.39
-5.81 -21.69 2.39
-5.48 -22.25 2.44
-5.14 -22.80 2.50
-4.67 -22.87 2.50
-4.21 -22.93 2.50
-3.74 -22.98 2.50
-3.28 -23.02 2.50
-2.81 -23.05 2.50
-2.34 -23.06 2.50
-1.88 -23.07 2.50
-1.41 -23.07 2.50
-0.95 -23.06 2.50
-0.49 -23.04 2.50
-0.02 -19.00 2.50
0.36 -18.97 2.50
0.74 -18.94 2.50
1.11 -18.89 2.50
1.49 -18.84 2.50
1.86 -18.77 2.50
2.24 -18.71 2.50
2.50 -17.86 2.39
2.85 -17.78 2.39
3.20 -17.69 2.39
3.55 -17.59 2.39
3.90 -17.49 2.39
4.24 -17.38 2.39
4.58 -17.26 2.39
4.92 -17.13 2.39
5.25 -17.00 2.39
5.58 -16.87 2.39
5.91 -16.72 2.39
6.23 -16.57 2.39
7.28 -18.23 2.66
8.16 -19.32 2.84
8.90 -19.94 2.97
9.18 -19.52 2.94
9.30 -18.78 2.86
9.42 -18.10 2.79
9.63 -17.62 2.75
9.81 -17.12 2.71
9.93 -16.56 2.65
10.11 -16.12 2.62
10.30 -15.71 2.59
10.48 -15.30 2.56
10.53 -14.74 2.51
10.44 -14.01 2.42
7.27 -9.36 1.65
7.52 -9.29 1.66
7.78 -9.22 1.68
10.58 -12.04 2.24
10.64 -11.63 2.21
10.70 -11.24 2.18
10.77 -10.86 2.15
10.83 -10.50 2.12
10.89 -10.14 2.10
10.95 -9.79 2.08
11.00 -9.45 2.06
11.10 -9.15 2.04
11.21 -8.87 2.03
11.31 -8.58 2.02
11.40 -8.30 2.01
11.50 -8.02 2.01
11.39 -7.61 1.96
11.21 -7.17 1.91
11.14 -6.81 1.88
11.07 -6.47 1.85
10.99 -6.13 1.82
10.92 -5.81 1.79
10.86 -5.50 1.76
10.81 -5.20 1.74
10.87 -4.97 1.74
10.93 -4.73 1.74
10.99 -4.50 1.73
11.05 -4.26 1.73
11.11 -4.03 1.73
11.16 -3.80 1.73
11.21 -3.57 1.73
11.23 -3.33 1.73
11.25 -3.09 1.72
11.25 -2.85 1.72
11.26 -2.61 1.71
11.26 -2.37 1.71
11.26 -2.14 1.70
11.26 -1.90 1.70
11.27 -1.67 1.70
11.41 -1.46 1.72
11.54 -1.24 1.74
11.61 -1.01 1.74
11.60 -0.78 1.74
11.59 -0.54 1.74
11.58 -0.31 1.74
11.57 -0.08 1.74
11.56 0.16 1.74
11.55 0.39 1.75
11.54 0.62 1.75
11.53 0.85 1.75
11.46 1.08 1.75
11.38 1.30 1.74
11.30 1.53 1.73
11.22 1.74 1.73
11.14 1.96 1.72
11.05 2.18 1.72
10.97 2.39 1.71
10.88 2.60 1.71
10.79 2.81 1.71
10.71 3.02 1.70
10.62 3.23 1.70
10.52 3.43 1.70
10.41 3.63 1.69
10.31 3.83 1.69
10.21 4.02 1.69
10.10 4.22 1.69
10.00 4.41 1.68
9.89 4.61 1.68
6.91 3.39 1.19
6.72 3.46 1.17
6.54 3.54 1.15
6.37 3.61 1.13
6.20 3.68 1.12
9.21 5.73 1.68
9.09 5.91 1.68
8.97 6.09 1.68
8.85 6.28 1.68
8.73 6.46 1.68
8.60 6.64 1.69
8.49 6.83 1.69
8.42 7.05 1.70
8.33 7.27 1.72
8.25 7.49 1.73
8.16 7.72 1.75
8.07 7.95 1.76
7.98 8.18 1.78
7.89 8.42 1.79
7.79 8.66 1.81
7.69 8.90 1.83
7.62 9.19 1.86
7.56 9.50 1.89
7.50 9.82 1.92
7.45 10.17 1.96
6.63 9.45 1.79
6.28 9.33 1.75
6.20 9.64 1.78
6.12 9.95 1.81
7.63 12.98 2.34
7.53 13.42 2.39
7.41 13.85 2.44
7.33 14.37 2.50
7.27 15.00 2.58
7.07 15.38 2.62
6.86 15.75 2.66
5.89 14.29 2.39
5.60 14.42 2.39
5.32 14.54 2.39
5.03 14.65 2.39
4.73 14.76 2.39
4.44 14.86 2.39
4.14 14.96 2.39
3.84 15.05 2.39
3.54 15.14 2.39
3.24 15.22 2.39
2.94 15.29 2.39
2.63 15.36 2.39
2.32 15.43 2.39
2.02 15.49 2.39
1.78 16.21 2.50
1.45 16.26 2.50
1.13 16.30 2.50
0.80 16.34 2.50
0.47 16.37 2.50
0.14 16.40 2.50
-0.19 16.41 2.50
-0.52 16.43 2.50
-0.85 16.43 2.50
-1.18 16.43 2.50
-1.51 16.43 2.50
-1.84 16.42 2.50
-2.18 16.40 2.50
-2.51 16.37 2.50
-2.84 16.34 2.50
-3.17 16.31 2.50
-3.51 16.26 2.50
-3.84 16.21 2.50
-4.17 16.16 2.50
-4.50 16.09 2.50
-4.83 16.03 2.50
-5.16 15.95 2.50
-5.49 15.87 2.50
-5.81 15.78 2.50
-6.14 15.69 2.50
-6.20 14.94 2.39
-6.51 14.84 2.39
-6.81 14.73 2.39
-7.12 14.62 2.39
-7.43 14.49 2.39
-7.73 14.37 2.39
-8.03 14.23 2.39
-8.33 14.09 2.39
-8.63 13.95 2.39
-8.92 13.80 2.39
-9.21 13.64 2.39
-9.50 13.48 2.39
-9.79 13.31 2.39
-10.07 13.13 2.39
-10.40 13.02 2.40
-10.36 12.44 2.33
-10.43 12.02 2.29
-10.50 11.62 2.25
-10.49 11.15 2.19
-10.37 10.60 2.12
-10.39 10.20 2.08
-10.41 9.81 2.04
-10.42 9.44 2.00
-10.41 9.06 1.96
-10.38 8.67 1.91
-10.39 8.32 1.88
-10.40 8.00 1.85
-10.41 7.68 1.82
-10.42 7.36 1.79
-10.46 7.08 1.77
-10.51 6.82 1.75
-10.56 6.55 1.73
-10.57 6.27 1.71
-10.58 5.99 1.69
-10.59 5.71 1.67
-10.59 5.45 1.65
-10.54 5.16 1.62
-10.48 4.87 1.60
-10.43 4.59 1.57
-10.43 4.34 1.55
-10.43 4.10 1.54
-10.43 3.86 1.52
-10.44 3.63 1.51
-10.44 3.40 1.50
-10.47 3.18 1.49
-10.54 2.97 1.49
-10.60 2.76 1.49
-10.67 2.55 1.49
-10.67 2.32 1.48
-10.68 2.10 1.47
-10.68 1.88 1.46
-10.68 1.66 1.45
-10.66 1.44 1.44
-10.59 1.21 1.43
-10.53 0.99 1.42
-10.47 0.77 1.40
-10.41 0.56 1.39
-10.39 0.35 1.38
-10.39 0.14 1.38
-10.39 -0.07 1.38
-10.38 -0.27 1.38
-10.38 -0.48 1.37
-10.38 -0.69 1.37
-10.37 -0.90 1.37
-10.36 -1.11 1.37
-10.36 -1.32 1.37
-10.35 -1.53 1.37
-10.35 -1.74 1.38
-10.34 -1.95 1.38
-10.34 -2.17 1.38
-10.33 -2.38 1.39
-10.33 -2.60 1.39
-10.32 -2.82 1.39
-10.36 -3.06 1.41
-10.40 -3.30 1.42
-10.45 -3.54 1.43
-10.42 -3.77 1.44
-10.38 -3.99 1.44
-10.35 -4.22 1.45
-10.31 -4.45 1.45
-10.28 -4.68 1.46
-10.24 -4.91 1.47
-10.21 -5.15 1.48
-10.19 -5.40 1.49
-10.17 -5.65 1.50
-10.16 -5.92 1.51
-10.15 -6.19 1.53
-10.15 -6.47 1.55
-10.14 -6.75 1.57
-10.14 -7.05 1.59
-10.16 -7.37 1.61
-10.18 -7.70 1.64
-10.16 -8.01 1.66
-10.14 -8.33 1.68
-10.12 -8.66 1.71
-10.09 -8.99 1.73
-10.04 -9.32 1.75
-9.99 -9.64 1.78
-9.96 -10.01 1.81
-9.94 -10.40 1.84
-9.91 -10.79 1.88
-9.88 -11.20 1.91
-9.85 -11.63 1.95
-9.82 -12.07 1.99
-9.78 -12.54 2.04
-9.74 -13.02 2.08
-9.72 -13.55 2.14
-9.70 -14.10 2.19
-9.65 -14.66 2.25
-5.96 -9.45 1.43
-9.70 -16.10 2.41
-9.30 -16.16 2.39
-8.97 -16.34 2.39
-8.64 -16.51 2.39
-8.31 -16.67 2.39
-7.97 -16.82 2.39
-7.62 -16.97 2.39
-7.28 -17.11 2.39
-6.93 -17.24 2.39
-6.58 -17.36 2.39
-6.22 -17.48 2.39
-5.87 -17.59 2.39
-5.57 -17.88 2.42
-5.37 -18.54 2.50
-4.99 -18.63 2.50
-4.61 -18.71 2.50
-4.23 -18.78 2.50
-3.85 -18.84 2.50
-3.47 -18.90 2.50
-3.09 -18.94 2.50
-2.70 -18.98 2.50
-2.32 -19.01 2.50
-1.94 -19.03 2.50
-1.55 -19.04 2.50
-1.17 -19.04 2.50
-0.79 -19.04 2.50
-0.40 -19.02 2.50
-0.02 -16.17 2.50
0.30 -16.15 2.50
0.62 -16.12 2.50
0.95 -16.09 2.50
1.27 -16.04 2.50
1.59 -16.00 2.50
1.90 -15.94 2.50
2.22 -15.88 2.50
2.45 -15.27 2.41
2.73 -15.08 2.39
3.03 -15.00 2.39
3.32 -14.92 2.39
3.61 -14.83 2.39
3.91 -14.73 2.39
4.19 -14.63 2.39
4.48 -14.52 2.39
4.76 -14.41 2.39
5.04 -14.29 2.39
5.32 -14.16 2.39
5.59 -14.03 2.39
5.87 -13.89 2.39
6.13 -13.75 2.39
6.40 -13.60 2.39
7.68 -15.52 2.76
8.43 -16.20 2.92
9.01 -16.50 3.01
9.15 -15.98 2.95
9.31 -15.53 2.90
9.47 -15.10 2.86
9.60 -14.66 2.82
9.74 -14.23 2.78
9.69 -13.58 2.69
9.74 -13.07 2.64
7.27 -9.37 1.92
7.52 -9.30 1.94
7.78 -9.23 1.96
10.05 -11.45 2.48
10.12 -11.07 2.45
10.18 -10.70 2.41
10.25 -10.35 2.38
10.32 -10.01 2.36
10.39 -9.68 2.33
10.45 -9.35 2.31
10.50 -9.03 2.28
10.60 -8.75 2.27
10.71 -8.48 2.26
10.82 -8.22 2.25
10.92 -7.96 2.24
11.01 -7.69 2.23
11.03 -7.38 2.21
10.93 -6.99 2.16
10.86 -6.65 2.13
10.77 -6.30 2.09
10.63 -5.94 2.04
10.50 -5.59 2.00
10.37 -5.25 1.95
10.32 -4.97 1.93
10.29 -4.70 1.91
10.39 -4.50 1.91
10.50 -4.30 1.92
10.60 -4.09 1.92
10.70 -3.89 1.93
10.78 -3.67 1.94
10.84 -3.45 1.93
10.88 -3.22 1.93
10.89 -2.99 1.93
10.90 -2.76 1.92
10.90 -2.53 1.92
10.91 -2.30 1.91
10.91 -2.07 1.91
10.91 -1.85 1.90
10.91 -1.62 1.90
10.91 -1.40 1.90
11.01 -1.19 1.91
11.03 -0.96 1.91
11.03 -0.74 1.91
11.02 -0.52 1.91
11.01 -0.30 1.91
11.00 -0.07 1.91
10.99 0.15 1.91
10.98 0.37 1.91
10.96 0.59 1.91
10.95 0.81 1.92
10.90 1.02 1.91
10.82 1.24 1.91
10.75 1.45 1.90
10.67 1.66 1.89
10.57 1.86 1.88
10.46 2.06 1.87
10.34 2.25 1.86
10.23 2.44 1.85
10.12 2.63 1.84
10.00 2.82 1.83
9.92 3.01 1.83
9.86 3.21 1.83
9.79 3.41 1.83
9.72 3.61 1.83
9.65 3.80 1.84
9.57 3.99 1.84
9.47 4.18 1.83
9.37 4.36 1.83
6.92 3.39 1.37
6.73 3.47 1.34
6.55 3.54 1.32
6.37 3.62 1.30
6.20 3.69 1.28
8.73 5.43 1.83
8.62 5.60 1.83
8.52 5.78 1.83
8.43 5.98 1.84
8.34 6.17 1.85
8.25 6.36 1.86
8.15 6.55 1.87
8.06 6.75 1.87
7.96 6.95 1.89
7.90 7.18 1.91
7.84 7.42 1.93
7.78 7.66 1.95
7.69 7.88 1.97
7.59 8.10 1.98
7.50 8.33 2.00
7.40 8.56 2.02
7.30 8.80 2.04
7.21 9.06 2.07
7.14 9.35 2.10
7.07 9.66 2.14
6.64 9.45 2.06
6.27 9.33 2.01
6.20 9.63 2.04
6.12 9.95 2.08
6.87 11.69 2.42
6.94 12.36 2.53
6.98 13.04 2.64
6.85 13.44 2.69
5.86 12.09 2.39
5.61 12.21 2.39
5.37 12.32 2.39
5.12 12.43 2.39
4.87 12.54 2.39
4.62 12.64 2.39
4.37 12.74 2.39
4.12 12.83 2.39
3.86 12.92 2.39
3.60 13.01 2.39
3.34 13.08 2.39
3.08 13.16 2.39
2.82 13.23 2.39
2.55 13.29 2.39
2.28 13.35 2.39
2.02 13.41 2.39
1.82 14.04 2.50
1.54 14.08 2.50
1.26 14.12 2.50
0.98 14.16 2.50
0.69 14.19 2.50
0.41 14.21 2.50
0.12 14.23 2.50
-0.16 14.25 2.50
-0.45 14.26 2.50
-0.74 14.26 2.50
-1.03 14.26 2.50
-1.31 14.25 2.50
-1.60 14.24 2.50
-1.89 14.22 2.50
-2.18 14.20 2.50
-2.47 14.17 2.50
-2.75 14.13 2.50
-3.04 14.09 2.50
-3.33 14.05 2.50
-3.61 13.99 2.50
-3.90 13.94 2.50
-4.18 13.87 2.50
-4.47 13.81 2.50
-4.75 13.73 2.50
-5.03 13.65 2.50
-5.31 13.57 2.50
-5.59 13.48 2.50
-5.87 13.38 2.50
-6.12 13.21 2.48
-6.16 12.63 2.39
-6.42 12.52 2.39
-6.68 12.41 2.39
-6.94 12.29 2.39
-7.20 12.17 2.39
-7.45 12.04 2.39
-7.70 11.91 2.39
-7.95 11.77 2.39
-8.20 11.63 2.39
-8.45 11.48 2.39
-8.69 11.32 2.39
-8.93 11.17 2.39
-9.17 11.00 2.39
-9.40 10.83 2.39
-9.63 10.66 2.39
-9.86 10.48 2.39
-10.19 10.40 2.42
-10.21 10.01 2.37
-10.23 9.64 2.32
-10.25 9.28 2.28
-10.24 8.90 2.24
-10.23 8.53 2.19
-10.24 8.20 2.16
-10.25 7.88 2.12
-10.26 7.57 2.09
-10.27 7.26 2.06
-10.31 6.98 2.03
-10.37 6.72 2.01
-10.40 6.45 1.99
-10.41 6.17 1.96
-10.42 5.89 1.94
-10.43 5.63 1.92
-10.44 5.36 1.90
-10.40 5.08 1.87
-10.35 4.80 1.84
-10.31 4.53 1.81
-10.31 4.29 1.79
-10.31 4.05 1.78
-10.32 3.82 1.76
-10.32 3.58 1.74
-10.32 3.35 1.73
-10.34 3.13 1.72
-10.40 2.93 1.72
-10.47 2.72 1.72
-10.52 2.51 1.71
-10.53 2.29 1.70
-10.53 2.07 1.69
-10.53 1.85 1.69
-10.53 1.63 1.68
-10.53 1.42 1.67
-10.48 1.20 1.66
-10.42 0.98 1.64
-10.36 0.76 1.63
-10.30 0.55 1.61
-10.29 0.34 1.61
-10.29 0.14 1.60
-10.28 -0.07 1.60
-10.28 -0.27 1.60
-10.28 -0.48 1.60
-10.27 -0.69 1.60
-10.27 -0.89 1.60
-10.26 -1.10 1.60
-10.26 -1.31 1.60
-10.25 -1.52 1.60
-10.25 -1.73 1.60
-10.24 -1.94 1.60
-10.23 -2.15 1.61
-10.23 -2.36 1.61
-10.22 -2.58 1.62
-10.22 -2.80 1.62
-10.23 -3.02 1.63
-10.27 -3.26 1.65
-10.31 -3.50 1.66
-10.29 -3.73 1.67
-10.26 -3.95 1.68
-10.22 -4.17 1.68
-10.19 -4.40 1.69
-10.15 -4.62 1.70
-10.11 -4.85 1.71
-10.08 -5.09 1.72
-10.05 -5.33 1.73
-10.02 -5.57 1.74
-10.01 -5.84 1.76
-10.01 -6.10 1.78
-10.00 -6.38 1.80
-9.99 -6.65 1.82
-9.98 -6.94 1.84
-9.98 -7.24 1.87
-10.00 -7.57 1.90
-9.99 -7.88 1.92
-9.96 -8.19 1.95
-9.94 -8.51 1.98
-9.91 -8.83 2.01
-9.89 -9.17 2.04
-9.83 -9.50 2.07
-9.79 -9.84 2.10
-9.77 -10.22 2.13
-9.74 -10.60 2.17
-9.71 -11.01 2.22
-9.67 -11.42 2.26
-9.64 -11.85 2.31
-9.60 -12.30 2.36
-9.49 -12.68 2.39
-9.24 -12.87 2.39
-8.97 -13.05 2.39
-8.71 -13.22 2.39
-5.96 -9.45 1.69
-8.17 -13.55 2.39
-7.89 -13.71 2.39
-7.61 -13.86 2.39
-7.33 -14.00 2.39
-7.05 -14.14 2.39
-6.76 -14.27 2.39
-6.47 -14.40 2.39
-6.18 -14.52 2.39
-5.88 -14.63 2.39
-5.62 -14.84 2.41
-5.51 -15.48 2.50
-5.20 -15.57 2.50
-4.88 -15.66 2.50
-4.56 -15.74 2.50
-4.24 -15.82 2.50
-3.92 -15.89 2.50
-3.60 -15.95 2.50
-3.28 -16.01 2.50
-2.95 -16.06 2.50
-2.63 -16.10 2.50
-2.30 -16.13 2.50
-1.98 -16.16 2.50
-1.65 -16.18 2.50
-1.32 -16.19 2.50
-1.00 -16.20 2.50
-0.67 -16.20 2.50
-0.35 -16.19 2.50
-0.02 -14.06 2.50
0.26 -14.05 2.50
0.54 -14.02 2.50
0.82 -13.99 2.50
1.10 -13.96 2.50
1.38 -13.92 2.50
1.65 -13.87 2.50
1.93 -13.82 2.50
2.20 -13.76 2.50
2.41 -13.33 2.43
2.63 -13.07 2.39
2.89 -13.00 2.39
3.15 -12.92 2.39
3.40 -12.84 2.39
3.65 -12.75 2.39
3.90 -12.66 2.39
4.15 -12.56 2.39
4.39 -12.46 2.39
4.64 -12.35 2.39
4.88 -12.24 2.39
5.11 -12.12 2.39
5.35 -12.00 2.39
5.58 -11.88 2.39
5.81 -11.75 2.39
6.04 -11.61 2.39
6.26 -11.47 2.39
7.26 -12.70 2.68
7.85 -13.10 2.80
8.48 -13.53 2.94
8.96 -13.68 3.01
9.05 -13.23 2.96
9.15 -12.81 2.91
9.24 -12.41 2.86
7.27 -9.37 2.20
7.52 -9.30 2.22
7.78 -9.23 2.24
9.56 -10.90 2.70
9.64 -10.55 2.66
9.70 -10.21 2.63
9.78 -9.88 2.60
9.85 -9.56 2.57
9.92 -9.25 2.54
9.98 -8.93 2.51
10.03 -8.63 2.49
10.12 -8.35 2.47
10.23 -8.10 2.46
10.34 -7.86 2.45
10.44 -7.61 2.44
10.54 -7.36 2.43
10.56 -7.07 2.41
10.45 -6.69 2.36
10.32 -6.32 2.30
10.20 -5.97 2.25
10.08 -5.63 2.20
9.97 -5.31 2.16
9.91 -5.02 2.13
9.87 -4.76 2.10
9.83 -4.50 2.07
9.80 -4.25 2.05
9.90 -4.06 2.06
9.99 -3.86 2.06
10.09 -3.67 2.07
10.18 -3.47 2.08
10.27 -3.27 2.09
10.25 -3.04 2.07
10.16 -2.79 2.04
10.06 -2.55 2.02
10.07 -2.34 2.01
10.10 -2.13 2.01
10.13 -1.93 2.01
10.15 -1.72 2.01
10.17 -1.51 2.01
10.19 -1.31 2.01
10.20 -1.10 2.01
10.21 -0.90 2.01
10.21 -0.69 2.01
10.21 -0.48 2.01
10.19 -0.28 2.01
10.18 -0.07 2.01
10.16 0.13 2.00
10.14 0.34 2.00
10.11 0.54 2.00
10.08 0.74 2.00
10.05 0.94 2.00
10.02 1.14 2.00
9.99 1.34 2.00
9.95 1.54 2.00
9.87 1.73 1.99
9.77 1.92 1.98
9.67 2.10 1.97
9.57 2.28 1.96
9.46 2.46 1.95
9.36 2.64 1.94
9.26 2.81 1.93
9.18 2.99 1.93
9.12 3.17 1.93
9.05 3.36 1.93
8.99 3.54 1.93
8.92 3.72 1.94
8.85 3.90 1.94
8.78 4.08 1.94
6.92 3.39 1.55
6.74 3.47 1.52
6.56 3.55 1.50
6.38 3.62 1.48
6.21 3.69 1.45
8.36 5.20 1.98
8.28 5.38 1.99
8.19 5.56 1.99
8.10 5.74 2.00
8.02 5.93 2.01
7.93 6.11 2.02
7.84 6.30 2.03
7.74 6.48 2.04
7.65 6.67 2.05
7.55 6.86 2.06
7.47 7.07 2.08
7.41 7.29 2.10
7.34 7.53 2.12
7.27 7.76 2.15
7.20 8.00 2.17
7.12 8.24 2.20
7.03 8.47 2.22
6.93 8.70 2.24
6.82 8.93 2.27
6.75 9.21 2.30
6.64 9.45 2.33
6.27 9.32 2.27
6.19 9.63 2.31
6.12 9.94 2.35
6.27 10.67 2.50
5.81 10.35 2.39
5.60 10.46 2.39
5.39 10.58 2.39
5.18 10.69 2.39
4.96 10.79 2.39
4.75 10.90 2.39
4.53 10.99 2.39
4.31 11.09 2.39
4.09 11.18 2.39
3.86 11.26 2.39
3.64 11.34 2.39
3.41 11.42 2.39
3.18 11.49 2.39
2.95 11.56 2.39
2.72 11.63 2.39
2.49 11.69 2.39
2.25 11.74 2.39
2.02 11.79 2.39
1.86 12.35 2.50
1.61 12.40 2.50
1.36 12.44 2.50
1.11 12.47 2.50
0.86 12.50 2.50
0.61 12.53 2.50
0.36 12.55 2.50
0.11 12.56 2.50
-0.15 12.57 2.50
-0.40 12.58 2.50
-0.65 12.58 2.50
-0.91 12.58 2.50
-1.16 12.57 2.50
-1.42 12.56 2.50
-1.67 12.54 2.50
-1.92 12.52 2.50
-2.18 12.49 2.50
-2.43 12.46 2.50
-2.68 12.42 2.50
-2.94 12.38 2.50
-3.19 12.33 2.50
-3.44 12.28 2.50
-3.69 12.22 2.50
-3.94 12.16 2.50
-4.19 12.09 2.50
-4.44 12.02 2.50
-4.68 11.94 2.50
-4.93 11.86 2.50
-5.17 11.78 2.50
-5.41 11.69 2.50
-5.66 11.59 2.50
-5.89 11.49 2.50
-6.08 11.29 2.47
-6.11 10.81 2.39
-6.33 10.70 2.39
-6.55 10.58 2.39
-6.77 10.46 2.39
-6.99 10.34 2.39
-7.21 10.21 2.39
-7.42 10.08 2.39
-7.63 9.94 2.39
-7.84 9.80 2.39
-8.05 9.66 2.39
-8.26 9.51 2.39
-8.46 9.35 2.39
-8.66 9.19 2.39
-8.85 9.03 2.39
-9.04 8.86 2.39
-9.23 8.69 2.39
-9.42 8.52 2.39
-9.60 8.34 2.39
-9.78 8.16 2.39
-9.96 7.97 2.39
-10.11 7.77 2.39
-10.12 7.46 2.35
-10.14 7.16 2.32
-10.17 6.88 2.29
-10.23 6.62 2.27
-10.24 6.34 2.24
-10.25 6.07 2.21
-10.27 5.80 2.18
-10.28 5.54 2.16
-10.29 5.28 2.14
-10.27 5.02 2.11
-10.22 4.74 2.07
-10.19 4.48 2.05
-10.20 4.24 2.03
-10.20 4.00 2.01
-10.20 3.77 1.99
-10.21 3.54 1.98
-10.21 3.32 1.96
-10.21 3.09 1.95
-10.27 2.88 1.94
-10.33 2.68 1.94
-10.38 2.47 1.94
-10.38 2.25 1.93
-10.39 2.04 1.92
-10.39 1.82 1.91
-10.39 1.61 1.90
-10.39 1.40 1.89
-10.38 1.18 1.88
-10.32 0.97 1.86
-10.26 0.75 1.85
-10.20 0.54 1.83
-10.19 0.34 1.83
-10.19 0.13 1.82
-10.18 -0.07 1.82
-10.18 -0.27 1.82
-10.18 -0.48 1.82
-10.17 -0.68 1.82
-10.17 -0.89 1.82
-10.16 -1.09 1.82
-10.16 -1.30 1.82
-10.15 -1.50 1.82
-10.14 -1.71 1.82
-10.14 -1.92 1.83
-10.13 -2.13 1.83
-10.13 -2.34 1.84
-10.12 -2.55 1.84
-10.11 -2.77 1.85
-10.11 -2.99 1.86
-10.14 -3.22 1.87
-10.18 -3.46 1.89
-10.17 -3.68 1.90
-10.14 -3.90 1.91
-10.10 -4.12 1.92
-10.07 -4.35 1.92
-10.03 -4.57 1.93
-9.99 -4.80 1.94
-9.95 -5.03 1.95
-9.92 -5.26 1.96
-9.89 -5.50 1.98
-9.87 -5.75 2.00
-9.86 -6.02 2.02
-9.85 -6.28 2.04
-9.84 -6.56 2.06
-9.83 -6.84 2.09
-9.82 -7.13 2.12
-9.82 -7.43 2.15
-9.82 -7.74 2.18
-9.79 -8.05 2.21
-9.77 -8.36 2.24
-9.74 -8.68 2.27
-9.71 -9.01 2.31
-9.68 -9.35 2.34
-9.63 -9.68 2.38
-9.49 -9.93 2.39
-9.29 -10.12 2.39
-9.09 -10.31 2.39
-8.88 -10.49 2.39
-8.67 -10.66 2.39
-8.45 -10.83 2.39
-8.23 -11.00 2.39
-8.01 -11.16 2.39
-7.78 -11.32 2.39
-7.55 -11.47 2.39
-5.96 -9.45 1.95
-7.09 -11.75 2.39
-6.85 -11.89 2.39
-6.61 -12.02 2.39
-6.36 -12.15 2.39
-6.11 -12.27 2.39
-5.86 -12.38 2.39
-5.66 -12.60 2.41
-5.59 -13.14 2.50
-5.32 -13.24 2.50
-5.05 -13.34 2.50
-4.78 -13.43 2.50
-4.51 -13.52 2.50
-4.24 -13.59 2.50
-3.96 -13.67 2.50
-3.68 -13.74 2.50
-3.41 -13.80 2.50
-3.13 -13.85 2.50
-2.85 -13.90 2.50
-2.57 -13.94 2.50
-2.28 -13.98 2.50
-2.00 -14.01 2.50
-1.72 -14.04 2.50
-1.44 -14.06 2.50
-1.15 -14.07 2.50
-0.87 -14.08 2.50
-0.59 -14.08 2.50
-0.31 -14.07 2.50
-0.02 -12.43 2.50
0.23 -12.42 2.50
0.47 -12.40 2.50
0.72 -12.37 2.50
0.97 -12.34 2.50
1.21 -12.31 2.50
1.46 -12.27 2.50
1.70 -12.23 2.50
1.95 -12.18 2.50
2.19 -12.12 2.50
2.38 -11.82 2.45
2.55 -11.50 2.39
2.78 -11.44 2.39
3.01 -11.37 2.39
3.23 -11.29 2.39
3.45 -11.21 2.39
3.67 -11.13 2.39
3.89 -11.04 2.39
4.10 -10.94 2.39
4.32 -10.85 2.39
4.53 -10.74 2.39
4.74 -10.64 2.39
4.94 -10.53 2.39
5.15 -10.41 2.39
5.35 -10.30 2.39
5.55 -10.17 2.39
5.74 -10.05 2.39
5.94 -9.92 2.39
6.12 -9.78 2.39
6.31 -9.65 2.39
7.36 -10.76 2.71
7.85 -11.00 2.81
8.37 -11.25 2.92
7.27 -9.37 2.47
7.52 -9.30 2.50
7.77 -9.23 2.52
9.12 -10.40 2.90
9.20 -10.07 2.86
9.27 -9.75 2.83
9.35 -9.45 2.79
9.42 -9.14 2.76
9.48 -8.84 2.73
9.54 -8.55 2.70
9.60 -8.26 2.68
9.68 -7.99 2.66
9.78 -7.76 2.65
9.89 -7.52 2.64
9.99 -7.28 2.63
9.96 -6.97 2.59
9.93 -6.65 2.55
9.89 -6.34 2.51
9.78 -6.00 2.45
9.68 -5.67 2.40
9.58 -5.35 2.35
9.52 -5.07 2.31
9.49 -4.81 2.28
9.46 -4.56 2.26
9.42 -4.32 2.23
9.39 -4.07 2.21
9.36 -3.84 2.18
9.45 -3.66 2.19
9.54 -3.47 2.20
9.62 -3.29 2.20
9.62 -3.07 2.19
9.54 -2.83 2.16
9.46 -2.60 2.13
9.38 -2.38 2.11
9.30 -2.16 2.08
9.21 -1.95 2.05
9.13 -1.74 2.03
9.06 -1.54 2.01
9.08 -1.35 2.01
9.10 -1.17 2.01
9.11 -0.99 2.01
9.12 -0.80 2.01
9.12 -0.62 2.01
9.12 -0.43 2.01
9.12 -0.25 2.01
9.11 -0.07 2.01
9.11 0.12 2.01
9.09 0.30 2.01
9.07 0.48 2.01
9.05 0.66 2.01
9.02 0.84 2.01
8.99 1.02 2.01
8.96 1.20 2.01
8.93 1.38 2.01
8.90 1.56 2.01
8.86 1.74 2.01
8.82 1.92 2.01
8.77 2.09 2.01
8.72 2.27 2.01
8.67 2.44 2.01
8.61 2.61 2.01
8.58 2.79 2.02
8.54 2.97 2.02
8.49 3.15 2.03
8.44 3.32 2.03
8.39 3.50 2.04
8.34 3.68 2.04
8.28 3.85 2.05
6.93 3.40 1.73
6.75 3.47 1.70
6.56 3.55 1.68
6.39 3.62 1.65
6.22 3.69 1.63
7.91 4.92 2.09
7.86 5.11 2.11
7.81 5.30 2.12
7.76 5.50 2.14
7.71 5.70 2.16
7.63 5.88 2.17
7.54 6.06 2.18
7.45 6.24 2.19
7.36 6.41 2.20
7.26 6.59 2.21
7.16 6.77 2.22
7.07 6.96 2.24
7.00 7.18 2.26
6.93 7.40 2.29
6.86 7.62 2.31
6.78 7.85 2.34
6.70 8.08 2.37
6.62 8.31 2.40
6.53 8.55 2.43
6.44 8.79 2.46
6.32 9.01 2.48
5.92 8.81 2.39
5.74 8.93 2.39
5.56 9.04 2.39
5.38 9.16 2.39
5.20 9.26 2.39
5.01 9.37 2.39
4.82 9.47 2.39
4.63 9.57 2.39
4.44 9.66 2.39
4.25 9.75 2.39
4.05 9.84 2.39
3.85 9.93 2.39
3.66 10.01 2.39
3.46 10.08 2.39
3.25 10.15 2.39
3.05 10.22 2.39
2.84 10.29 2.39
2.64 10.35 2.39
2.43 10.40 2.39
2.22 10.46 2.39
2.01 10.51 2.39
1.88 11.01 2.50
1.66 11.05 2.50
1.44 11.09 2.50
1.22 11.12 2.50
0.99 11.15 2.50
0.77 11.18 2.50
0.54 11.20 2.50
0.32 11.22 2.50
0.09 11.23 2.50
-0.13 11.24 2.50
-0.36 11.25 2.50
-0.59 11.25 2.50
-0.81 11.24 2.50
-1.04 11.23 2.50
-1.27 11.22 2.50
-1.49 11.20 2.50
-1.72 11.18 2.50
-1.95 11.16 2.50
-2.17 11.13 2.50
-2.40 11.09 2.50
-2.62 11.05 2.50
-2.85 11.01 2.50
-3.07 10.96 2.50
-3.30 10.91 2.50
-3.52 10.85 2.50
-3.74 10.79 2.50
-3.96 10.73 2.50
-4.18 10.66 2.50
-4.40 10.58 2.50
-4.62 10.50 2.50
-4.83 10.42 2.50
-5.05 10.33 2.50
-5.26 10.24 2.50
-5.47 10.15 2.50
-5.68 10.05 2.50
-5.89 9.94 2.50
-6.05 9.77 2.48
-6.06 9.35 2.40
-6.24 9.22 2.39
-6.42 9.10 2.39
-6.61 8.98 2.39
-6.80 8.85 2.39
-6.99 8.73 2.39
-7.17 8.59 2.39
-7.35 8.46 2.39
-7.53 8.32 2.39
-7.71 8.18 2.39
-7.88 8.03 2.39
-8.05 7.88 2.39
-8.22 7.73 2.39
-8.38 7.57 2.39
-8.54 7.41 2.39
-8.70 7.25 2.39
-8.86 7.08 2.39
-9.01 6.91 2.39
-9.16 6.74 2.39
-9.30 6.57 2.39
-9.45 6.39 2.39
-9.59 6.20 2.39
-9.72 6.02 2.39
-9.85 5.83 2.39
-9.98 5.64 2.39
-10.13 5.46 2.40
-10.14 5.20 2.37
-10.14 4.95 2.34
-10.09 4.68 2.31
-10.08 4.43 2.28
-10.08 4.19 2.26
-10.09 3.96 2.24
-10.09 3.73 2.22
-10.10 3.50 2.20
-10.10 3.28 2.19
-10.10 3.05 2.17
-10.14 2.85 2.16
-10.20 2.64 2.16
-10.24 2.43 2.16
-10.24 2.22 2.15
-10.25 2.01 2.13
-10.25 1.79 2.12
-10.25 1.58 2.12
-10.25 1.37 2.11
-10.25 1.17 2.10
-10.21 0.95 2.09
-10.16 0.74 2.07
-10.10 0.54 2.05
-10.09 0.33 2.05
-10.09 0.13 2.04
-10.08 -0.07 2.04
-10.08 -0.27 2.04
-10.08 -0.48 2.04
-10.07 -0.68 2.04
-10.07 -0.88 2.04
-10.07 -1.08 2.04
-10.06 -1.29 2.04
-10.05 -1.49 2.04
-10.05 -1.70 2.04
-10.04 -1.90 2.05
-10.03 -2.11 2.05
-10.03 -2.32 2.06
-10.02 -2.53 2.07
-10.01 -2.74 2.07
-10.01 -2.96 2.08
-10.01 -3.18 2.09
-10.04 -3.41 2.11
-10.05 -3.64 2.13
-10.02 -3.86 2.14
-9.98 -4.08 2.14
-9.95 -4.30 2.15
-9.91 -4.52 2.16
-9.87 -4.74 2.17
-9.83 -4.97 2.19
-9.79 -5.19 2.20
-9.75 -5.43 2.21
-9.73 -5.67 2.23
-9.72 -5.93 2.26
-9.71 -6.19 2.28
-9.70 -6.46 2.31
-9.68 -6.74 2.33
-9.67 -7.02 2.36
-9.65 -7.30 2.39
-9.50 -7.50 2.39
-9.35 -7.69 2.39
-9.20 -7.87 2.39
-9.04 -8.06 2.39
-8.88 -8.24 2.39
-8.71 -8.42 2.39
-8.54 -8.59 2.39
-8.37 -8.76 2.39
-8.20 -8.93 2.39
-8.02 -9.09 2.39
-7.83 -9.25 2.39
-7.64 -9.40 2.39
-7.45 -9.55 2.39
-7.26 -9.70 2.39
-7.06 -9.84 2.39
-6.87 -9.98 2.39
-6.66 -10.11 2.39
-5.96 -9.45 2.21
-6.25 -10.37 2.39
-6.04 -10.49 2.39
-5.83 -10.60 2.39
-5.69 -10.86 2.43
-5.63 -11.29 2.50
-5.40 -11.40 2.50
-5.17 -11.50 2.50
-4.93 -11.59 2.50
-4.70 -11.68 2.50
-4.46 -11.77 2.50
-4.22 -11.85 2.50
-3.98 -11.93 2.50
-3.74 -12.00 2.50
-3.50 -12.06 2.50
-3.25 -12.12 2.50
-3.01 -12.18 2.50
-2.76 -12.23 2.50
-2.52 -12.27 2.50
-2.27 -12.31 2.50
-2.02 -12.35 2.50
-1.77 -12.38 2.50
-1.52 -12.40 2.50
-1.27 -12.42 2.50
-1.02 -12.43 2.50
-0.77 -12.44 2.50
-0.52 -12.44 2.50
-0.27 -12.44 2.50
-0.02 -11.12 2.50
0.20 -11.11 2.50
0.42 -11.10 2.50
0.64 -11.08 2.50
0.86 -11.05 2.50
1.08 -11.02 2.50
1.30 -10.99 2.50
1.52 -10.95 2.50
1.74 -10.91 2.50
1.96 -10.86 2.50
2.17 -10.81 2.50
2.36 -10.62 2.47
2.49 -10.25 2.39
2.69 -10.19 2.39
2.89 -10.12 2.39
3.09 -10.05 2.39
3.29 -9.98 2.39
3.48 -9.90 2.39
3.68 -9.81 2.39
3.87 -9.73 2.39
4.06 -9.64 2.39
4.25 -9.54 2.39
4.43 -9.45 2.39
4.62 -9.34 2.39
4.80 -9.24 2.39
4.98 -9.13 2.39
5.15 -9.02 2.39
5.32 -8.90 2.39
5.50 -8.78 2.39
5.66 -8.66 2.39
5.83 -8.54 2.39
5.99 -8.41 2.39
6.15 -8.28 2.39
6.31 -8.14 2.39
7.32 -9.06 2.71
7.72 -9.18 2.79
8.15 -9.30 2.88
8.60 -9.42 2.98
8.87 -9.33 3.01
8.94 -9.04 2.97
9.01 -8.75 2.94
9.07 -8.47 2.91
9.13 -8.19 2.88
9.19 -7.92 2.85
9.26 -7.66 2.83
9.37 -7.43 2.82
9.43 -7.18 2.80
9.41 -6.87 2.75
9.39 -6.57 2.71
9.36 -6.27 2.67
9.34 -5.99 2.63
9.29 -5.70 2.59
9.20 -5.39 2.53
9.15 -5.12 2.49
9.12 -4.87 2.46
9.10 -4.62 2.43
9.07 -4.38 2.40
9.05 -4.15 2.38
9.02 -3.92 2.35
8.99 -3.69 2.33
8.96 -3.47 2.30
9.04 -3.29 2.31
9.04 -3.09 2.30
8.97 -2.87 2.27
8.91 -2.65 2.24
8.84 -2.44 2.21
8.77 -2.23 2.18
8.70 -2.03 2.16
8.64 -1.83 2.14
8.58 -1.64 2.11
8.52 -1.45 2.09
8.45 -1.26 2.07
8.43 -1.09 2.06
8.44 -0.92 2.06
8.44 -0.74 2.06
8.44 -0.57 2.06
8.44 -0.40 2.06
8.44 -0.23 2.06
8.44 -0.06 2.06
8.43 0.11 2.06
8.42 0.28 2.06
8.42 0.45 2.06
8.40 0.61 2.07
8.39 0.78 2.07
8.37 0.95 2.07
8.34 1.12 2.07
8.32 1.29 2.07
8.30 1.46 2.07
8.28 1.62 2.08
8.26 1.79 2.08
8.23 1.96 2.09
8.20 2.13 2.09
8.17 2.30 2.10
8.14 2.47 2.10
8.11 2.64 2.11
8.07 2.81 2.11
8.03 2.98 2.12
8.00 3.15 2.13
7.96 3.32 2.14
7.91 3.49 2.14
7.86 3.66 2.15
6.94 3.40 1.92
6.75 3.48 1.89
6.57 3.55 1.86
6.40 3.63 1.83
6.23 3.70 1.80
7.50 4.66 2.20
7.43 4.83 2.20
7.38 5.01 2.22
7.33 5.19 2.23
7.27 5.38 2.25
7.22 5.56 2.27
7.16 5.75 2.29
7.09 5.94 2.30
7.03 6.13 2.32
6.96 6.32 2.34
6.89 6.52 2.36
6.80 6.69 2.38
6.70 6.87 2.39
6.62 7.07 2.41
6.55 7.28 2.44
6.47 7.48 2.46
6.37 7.67 2.48
5.98 7.51 2.39
5.83 7.63 2.39
5.67 7.74 2.39
5.51 7.86 2.39
5.36 7.97 2.39
5.20 8.08 2.39
5.03 8.18 2.39
4.87 8.28 2.39
4.70 8.38 2.39
4.53 8.47 2.39
4.36 8.57 2.39
4.19 8.65 2.39
4.02 8.74 2.39
3.84 8.82 2.39
3.66 8.90 2.39
3.48 8.98 2.39
3.30 9.05 2.39
3.12 9.12 2.39
2.94 9.18 2.39
2.76 9.24 2.39
2.57 9.30 2.39
2.38 9.36 2.39
2.21 9.46 2.41
2.01 9.47 2.40
1.90 9.91 2.50
1.70 9.95 2.50
1.50 9.99 2.50
1.30 10.02 2.50
1.10 10.05 2.50
0.89 10.08 2.50
0.69 10.10 2.50
0.49 10.12 2.50
0.29 10.14 2.50
0.08 10.15 2.50
-0.12 10.15 2.50
-0.33 10.16 2.50
-0.53 10.16 2.50
-0.74 10.15 2.50
-0.94 10.14 2.50
-1.15 10.13 2.50
-1.35 10.12 2.50
-1.56 10.10 2.50
-1.76 10.07 2.50
-1.96 10.04 2.50
-2.17 10.01 2.50
-2.37 9.97 2.50
-2.57 9.93 2.50
-2.78 9.89 2.50
-2.98 9.84 2.50
-3.18 9.79 2.50
-3.38 9.73 2.50
-3.58 9.67 2.50
-3.77 9.61 2.50
-3.97 9.54 2.50
-4.17 9.47 2.50
-4.36 9.40 2.50
-4.55 9.32 2.50
-4.74 9.23 2.50
-4.93 9.15 2.50
-5.12 9.05 2.50
-5.31 8.96 2.50
-5.49 8.86 2.50
-5.68 8.76 2.50
-5.86 8.65 2.50
-6.03 8.53 2.49
-6.03 8.18 2.42
-6.13 7.97 2.39
-6.29 7.85 2.39
-6.46 7.74 2.39
-6.62 7.61 2.39
-6.78 7.49 2.39
-6.94 7.36 2.39
-7.09 7.23 2.39
-7.24 7.09 2.39
-7.39 6.95 2.39
-7.54 6.81 2.39
-7.69 6.67 2.39
-7.83 6.52 2.39
-7.97 6.37 2.39
-8.10 6.21 2.39
-8.24 6.06 2.39
-8.37 5.90 2.39
-8.49 5.74 2.39
-8.62 5.57 2.39
-8.74 5.40 2.39
-8.85 5.23 2.39
-8.97 5.06 2.39
-9.08 4.89 2.39
-9.19 4.71 2.39
-9.29 4.53 2.39
-9.39 4.35 2.39
-9.49 4.16 2.39
-9.58 3.98 2.39
-9.67 3.79 2.39
-9.75 3.60 2.39
-9.83 3.41 2.39
-9.91 3.21 2.39
-10.00 3.02 2.39
-10.01 2.81 2.38
-10.08 2.61 2.38
-10.10 2.40 2.37
-10.10 2.19 2.36
-10.11 1.98 2.35
-10.11 1.77 2.34
-10.11 1.56 2.33
-10.12 1.35 2.32
-10.12 1.15 2.31
-10.11 0.94 2.30
-10.05 0.73 2.28
-10.00 0.53 2.27
-9.99 0.33 2.26
-9.99 0.13 2.26
-9.99 -0.07 2.25
-9.98 -0.27 2.25
-9.98 -0.47 2.25
-9.98 -0.67 2.25
-9.97 -0.87 2.25
-9.97 -1.08 2.25
-9.96 -1.28 2.25
-9.95 -1.48 2.26
-9.95 -1.68 2.26
-9.94 -1.89 2.27
-9.94 -2.09 2.27
-9.93 -2.30 2.28
-9.92 -2.51 2.29
-9.91 -2.72 2.30
-9.91 -2.93 2.31
-9.90 -3.15 2.32
-9.91 -3.37 2.33
-9.93 -3.60 2.35
-9.90 -3.81 2.36
-9.86 -4.03 2.37
-9.83 -4.25 2.38
-9.79 -4.46 2.39
-9.71 -4.66 2.39
-9.62 -4.86 2.39
-9.52 -5.05 2.39
-9.42 -5.25 2.39
-9.32 -5.44 2.39
-9.21 -5.62 2.39
-9.10 -5.81 2.39
-8.99 -5.99 2.39
-8.87 -6.17 2.39
-8.75 -6.35 2.39
-8.62 -6.53 2.39
-8.49 -6.70 2.39
-8.36 -6.87 2.39
-8.22 -7.04 2.39
-8.08 -7.20 2.39
-7.93 -7.36 2.39
-7.79 -7.52 2.39
-7.64 -7.68 2.39
-7.48 -7.83 2.39
-7.32 -7.98 2.39
-7.16 -8.12 2.39
-7.00 -8.26 2.39
-6.83 -8.40 2.39
-6.66 -8.54 2.39
-6.49 -8.67 2.39
-6.31 -8.79 2.39
-6.14 -8.92 2.39
-5.95 -9.04 2.39
-5.77 -9.15 2.39
-5.71 -9.47 2.45
-5.63 -9.78 2.50
-5.43 -9.89 2.50
-5.23 -9.99 2.50
-5.03 -10.09 2.50
-4.83 -10.18 2.50
-4.62 -10.28 2.50
-4.41 -10.36 2.50
-4.20 -10.44 2.50
-3.99 -10.52 2.50
-3.78 -10.59 2.50
-3.56 -10.66 2.50
-3.35 -10.73 2.50
-3.13 -10.79 2.50
-2.91 -10.84 2.50
-2.69 -10.89 2.50
-2.47 -10.94 2.50
-2.25 -10.98 2.50
-2.03 -11.01 2.50
-1.81 -11.04 2.50
-1.59 -11.07 2.50
-1.36 -11.09 2.50
-1.14 -11.11 2.50
-0.92 -11.12 2.50
-0.69 -11.13 2.50
-0.47 -11.13 2.50
-0.25 -11.13 2.50
-0.02 -10.06 2.50
0.18 -10.05 2.50
0.38 -10.04 2.50
0.58 -10.02 2.50
0.78 -10.00 2.50
0.98 -9.97 2.50
1.18 -9.94 2.50
1.38 -9.91 2.50
1.57 -9.87 2.50
1.77 -9.83 2.50
1.96 -9.78 2.50
2.16 -9.73 2.50
2.34 -9.64 2.49
2.43 -9.22 2.39
2.62 -9.16 2.39
2.80 -9.10 2.39
2.97 -9.03 2.39
3.15 -8.96 2.39
3.33 -8.89 2.39
3.50 -8.81 2.39
3.67 -8.73 2.39
3.84 -8.65 2.39
4.01 -8.56 2.39
4.18 -8.47 2.39
4.34 -8.37 2.39
4.51 -8.28 2.39
4.67 -8.17 2.39
4.82 -8.07 2.39
4.98 -7.96 2.39
5.13 -7.85 2.39
5.28 -7.74 2.39
5.43 -7.63 2.39
5.58 -7.51 2.39
5.72 -7.39 2.39
5.86 -7.26 2.39
6.00 -7.13 2.39
6.13 -7.00 2.39
6.27 -6.87 2.39
7.17 -7.55 2.68
7.50 -7.59 2.75
7.85 -7.63 2.82
8.20 -7.66 2.90
8.57 -7.68 2.98
8.82 -7.60 3.01
8.88 -7.35 2.99
8.91 -7.07 2.95
8.90 -6.78 2.91
8.88 -6.49 2.86
8.87 -6.21 2.82
8.85 -5.94 2.78
8.84 -5.67 2.74
8.82 -5.41 2.70
8.79 -5.15 2.66
8.77 -4.91 2.63
8.75 -4.67 2.60
8.73 -4.44 2.57
8.69 -4.20 2.53
8.64 -3.96 2.50
8.59 -3.73 2.47
8.54 -3.51 2.43
8.49 -3.29 2.40
8.50 -3.10 2.39
8.48 -2.90 2.37
8.43 -2.70 2.34
8.38 -2.50 2.32
8.33 -2.30 2.29
8.28 -2.11 2.27
8.23 -1.92 2.24
8.17 -1.73 2.22
8.12 -1.55 2.20
8.07 -1.37 2.18
8.01 -1.20 2.16
8.02 -1.04 2.16
8.03 -0.87 2.16
8.03 -0.71 2.15
8.03 -0.55 2.15
8.03 -0.39 2.15
8.03 -0.22 2.15
8.03 -0.06 2.15
8.02 0.10 2.15
8.02 0.26 2.15
8.01 0.42 2.16
8.00 0.58 2.16
7.99 0.74 2.16
7.97 0.90 2.16
7.94 1.06 2.16
7.91 1.22 2.16
7.88 1.38 2.16
7.85 1.54 2.16
7.82 1.70 2.16
7.80 1.86 2.17
7.77 2.02 2.17
7.74 2.18 2.18
7.71 2.34 2.18
7.68 2.50 2.19
7.64 2.66 2.20
7.61 2.82 2.20
7.57 2.98 2.21
7.53 3.14 2.22
7.49 3.30 2.23
7.45 3.46 2.23
6.95 3.40 2.11
6.76 3.48 2.07
6.58 3.56 2.04
6.40 3.63 2.01
6.23 3.70 1.98
7.13 4.43 2.29
7.07 4.59 2.30
7.00 4.75 2.31
6.93 4.91 2.32
6.88 5.08 2.33
6.82 5.26 2.35
6.76 5.43 2.37
6.70 5.61 2.39
6.64 5.79 2.41
6.57 5.97 2.43
6.50 6.15 2.45
6.43 6.33 2.47
6.35 6.51 2.49
5.99 6.39 2.39
5.86 6.51 2.39
5.72 6.62 2.39
5.59 6.74 2.39
5.45 6.85 2.39
5.31 6.96 2.39
5.17 7.06 2.39
5.03 7.17 2.39
4.88 7.27 2.39
4.74 7.36 2.39
4.59 7.46 2.39
4.44 7.55 2.39
4.29 7.64 2.39
4.13 7.73 2.39
3.98 7.81 2.39
3.82 7.89 2.39
3.66 7.97 2.39
3.50 8.04 2.39
3.34 8.12 2.39
3.18 8.18 2.39
3.01 8.25 2.39
2.85 8.31 2.39
2.68 8.37 2.39
2.51 8.43 2.39
2.34 8.48 2.39
2.17 8.53 2.39
2.02 8.66 2.41
1.91 8.99 2.50
1.73 9.03 2.50
1.55 9.07 2.50
1.36 9.10 2.50
1.18 9.13 2.50
1.00 9.16 2.50
0.81 9.18 2.50
0.63 9.21 2.50
0.44 9.22 2.50
0.26 9.24 2.50
0.07 9.24 2.50
-0.11 9.25 2.50
-0.30 9.25 2.50
-0.49 9.25 2.50
-0.67 9.25 2.50
-0.86 9.24 2.50
-1.05 9.23 2.50
-1.23 9.21 2.50
-1.42 9.19 2.50
-1.61 9.17 2.50
-1.79 9.14 2.50
-1.98 9.11 2.50
-2.16 9.08 2.50
-2.35 9.04 2.50
-2.53 9.00 2.50
-2.71 8.96 2.50
-2.89 8.91 2.50
-3.08 8.86 2.50
-3.26 8.80 2.50
-3.44 8.74 2.50
-3.61 8.68 2.50
-3.79 8.61 2.50
-3.97 8.54 2.50
-4.14 8.47 2.50
-4.32 8.39 2.50
-4.49 8.31 2.50
-4.66 8.23 2.50
-4.83 8.14 2.50
-5.00 8.05 2.50
-5.16 7.96 2.50
-5.33 7.86 2.50
-5.49 7.76 2.50
-5.65 7.66 2.50
-5.81 7.55 2.50
-5.97 7.44 2.50
-6.01 7.19 2.45
-6.02 6.91 2.39
-6.16 6.80 2.39
-6.30 6.68 2.39
-6.44 6.56 2.39
-6.58 6.44 2.39
-6.72 6.31 2.39
-6.85 6.18 2.39
-6.98 6.05 2.39
-7.11 5.91 2.39
-7.23 5.78 2.39
-7.35 5.64 2.39
-7.47 5.49 2.39
-7.59 5.35 2.39
-7.71 5.20 2.39
-7.82 5.05 2.39
-7.93 4.90 2.39
-8.03 4.74 2.39
-8.13 4.59 2.39
-8.23 4.43 2.39
-8.33 4.27 2.39
-8.42 4.10 2.39
-8.51 3.94 2.39
-8.60 3.77 2.39
-8.68 3.60 2.39
-8.76 3.43 2.39
-8.84 3.26 2.39
-8.91 3.08 2.39
-8.98 2.91 2.39
-9.05 2.73 2.39
-9.11 2.55 2.39
-9.17 2.37 2.39
-9.22 2.19 2.39
-9.27 2.00 2.39
-9.32 1.82 2.39
-9.37 1.63 2.39
-9.41 1.45 2.39
-9.44 1.26 2.39
-9.47 1.07 2.39
-9.50 0.88 2.39
-9.53 0.69 2.39
-9.55 0.50 2.39
-9.56 0.31 2.39
-9.58 0.12 2.39
-9.59 -0.07 2.39
-9.59 -0.26 2.39
-9.59 -0.46 2.39
-9.59 -0.65 2.39
-9.58 -0.84 2.39
-9.57 -1.03 2.39
-9.55 -1.23 2.39
-9.54 -1.42 2.39
-9.51 -1.61 2.39
-9.49 -1.80 2.39
-9.45 -1.99 2.39
-9.42 -2.18 2.39
-9.38 -2.37 2.39
-9.34 -2.56 2.39
-9.29 -2.75 2.39
-9.24 -2.94 2.39
-9.18 -3.12 2.39
-9.12 -3.31 2.39
-9.06 -3.49 2.39
-8.99 -3.68 2.39
-8.92 -3.86 2.39
-8.85 -4.04 2.39
-8.77 -4.21 2.39
-8.69 -4.39 2.39
-8.60 -4.57 2.39
-8.51 -4.74 2.39
-8.42 -4.91 2.39
-8.32 -5.08 2.39
-8.22 -5.25 2.39
-8.12 -5.41 2.39
-8.01 -5.58 2.39
-7.90 -5.74 2.39
-7.79 -5.89 2.39
-7.67 -6.05 2.39
-7.55 -6.20 2.39
-7.42 -6.36 2.39
-7.30 -6.50 2.39
-7.16 -6.65 2.39
-7.03 -6.79 2.39
-6.89 -6.93 2.39
-6.75 -7.07 2.39
-6.61 -7.20 2.39
-6.47 -7.33 2.39
-6.32 -7.46 2.39
-6.17 -7.59 2.39
-6.02 -7.71 2.39
-5.86 -7.83 2.39
-5.74 -8.00 2.41
-5.73 -8.33 2.47
-5.61 -8.51 2.50
-5.44 -8.62 2.50
-5.26 -8.73 2.50
-5.09 -8.83 2.50
-4.91 -8.93 2.50
-4.73 -9.02 2.50
-4.54 -9.11 2.50
-4.36 -9.20 2.50
-4.17 -9.28 2.50
-3.98 -9.36 2.50
-3.80 -9.43 2.50
-3.60 -9.50 2.50
-3.41 -9.57 2.50
-3.22 -9.63 2.50
-3.02 -9.69 2.50
-2.83 -9.74 2.50
-2.63 -9.79 2.50
-2.43 -9.84 2.50
-2.24 -9.88 2.50
-2.04 -9.92 2.50
-1.84 -9.95 2.50
-1.64 -9.98 2.50
-1.43 -10.00 2.50
-1.23 -10.03 2.50
-1.03 -10.04 2.50
-0.83 -10.05 2.50
-0.63 -10.06 2.50
-0.43 -10.06 2.50
-0.22 -10.06 2.50
-0.02 -9.17 2.50
0.16 -9.16 2.50
0.34 -9.15 2.50
0.53 -9.14 2.50
0.71 -9.12 2.50
0.89 -9.09 2.50
1.07 -9.07 2.50
1.25 -9.04 2.50
1.43 -9.00 2.50
1.61 -8.96 2.50
1.79 -8.92 2.50
1.96 -8.88 2.50
2.14 -8.83 2.50
2.31 -8.78 2.50
2.38 -8.36 2.39
2.55 -8.30 2.39
2.71 -8.24 2.39
2.87 -8.18 2.39
3.04 -8.11 2.39
3.19 -8.04 2.39
3.35 -7.97 2.39
3.51 -7.89 2.39
3.66 -7.81 2.39
3.81 -7.73 2.39
3.96 -7.65 2.39
4.11 -7.56 2.39
4.26 -7.47 2.39
4.40 -7.37 2.39
4.55 -7.28 2.39
4.69 -7.18 2.39
4.82 -7.07 2.39
4.96 -6.97 2.39
5.09 -6.86 2.39
5.23 -6.75 2.39
5.35 -6.64 2.39
5.48 -6.52 2.39
5.60 -6.40 2.39
5.73 -6.28 2.39
5.84 -6.16 2.39
5.96 -6.04 2.39
6.07 -5.91 2.39
6.19 -5.78 2.39
6.97 -6.25 2.65
7.24 -6.24 2.70
7.51 -6.22 2.76
7.67 -6.09 2.78
7.67 -5.85 2.74
7.67 -5.61 2.70
7.66 -5.37 2.66
7.71 -5.17 2.64
7.79 -5.00 2.64
7.87 -4.84 2.64
7.95 -4.66 2.63
8.00 -4.48 2.62
7.97 -4.26 2.59
7.95 -4.04 2.56
7.92 -3.83 2.52
7.89 -3.62 2.49
7.85 -3.42 2.46
7.83 -3.22 2.43
7.86 -3.05 2.43
7.89 -2.88 2.42
7.92 -2.71 2.42
7.95 -2.54 2.41
7.93 -2.36 2.39
7.89 -2.18 2.37
7.84 -2.00 2.34
7.80 -1.82 2.32
7.75 -1.65 2.30
7.70 -1.47 2.28
7.66 -1.31 2.26
7.63 -1.14 2.24
7.64 -0.99 2.24
7.65 -0.83 2.24
7.65 -0.68 2.24
7.65 -0.52 2.24
7.66 -0.37 2.24
7.66 -0.22 2.24
7.65 -0.06 2.24
7.65 0.09 2.24
7.64 0.25 2.24
7.63 0.40 2.24
7.62 0.55 2.24
7.61 0.71 2.24
7.60 0.86 2.25
7.57 1.01 2.25
7.55 1.16 2.25
7.52 1.31 2.25
7.49 1.47 2.25
7.46 1.62 2.25
7.42 1.77 2.25
7.39 1.92 2.25
7.35 2.07 2.25
7.32 2.22 2.26
7.29 2.37 2.26
7.26 2.52 2.27
7.22 2.67 2.28
7.18 2.82 2.28
7.14 2.98 2.29
7.10 3.13 2.30
7.06 3.28 2.31
6.96 3.41 2.30
6.77 3.48 2.26
6.59 3.56 2.22
6.41 3.63 2.19
6.24 3.70 2.15
6.76 4.20 2.36
6.71 4.36 2.38
6.65 4.51 2.39
6.59 4.67 2.40
6.52 4.82 2.41
6.47 4.98 2.43
6.41 5.15 2.44
6.34 5.31 2.46
6.06 5.28 2.39
5.95 5.40 2.39
5.84 5.52 2.39
5.73 5.64 2.39
5.61 5.75 2.39
5.50 5.86 2.39
5.38 5.97 2.39
5.25 6.08 2.39
5.13 6.18 2.39
5.01 6.29 2.39
4.88 6.39 2.39
4.75 6.48 2.39
4.62 6.58 2.39
4.48 6.67 2.39
4.35 6.76 2.39
4.21 6.85 2.39
4.07 6.93 2.39
3.93 7.02 2.39
3.79 7.09 2.39
3.65 7.17 2.39
3.51 7.25 2.39
3.36 7.32 2.39
3.21 7.38 2.39
3.06 7.45 2.39
2.92 7.51 2.39
2.76 7.57 2.39
2.61 7.63 2.39
2.46 7.68 2.39
2.30 7.73 2.39
2.15 7.78 2.39
2.03 7.96 2.43
1.91 8.21 2.50
1.75 8.25 2.50
1.58 8.29 2.50
1.42 8.32 2.50
1.25 8.35 2.50
1.08 8.38 2.50
0.91 8.41 2.50
0.74 8.43 2.50
0.58 8.45 2.50
0.41 8.46 2.50
0.23 8.47 2.50
0.06 8.48 2.50
-0.11 8.49 2.50
-0.28 8.49 2.50
-0.45 8.49 2.50
-0.62 8.48 2.50
-0.79 8.47 2.50
-0.96 8.46 2.50
-1.13 8.45 2.50
-1.30 8.43 2.50
-1.47 8.41 2.50
-1.64 8.38 2.50
-1.81 8.35 2.50
-1.98 8.32 2.50
-2.15 8.29 2.50
-2.32 8.25 2.50
-2.49 8.21 2.50
-2.65 8.16 2.50
-2.82 8.12 2.50
-2.99 8.06 2.50
-3.15 8.01 2.50
-3.31 7.95 2.50
-3.48 7.89 2.50
-3.64 7.83 2.50
-3.80 7.76 2.50
-3.96 7.69 2.50
-4.11 7.61 2.50
-4.27 7.54 2.50
-4.42 7.46 2.50
-4.58 7.37 2.50
-4.73 7.29 2.50
-4.88 7.20 2.50
-5.03 7.11 2.50
-5.18 7.01 2.50
-5.32 6.91 2.50
-5.46 6.81 2.50
-5.61 6.71 2.50
-5.74 6.60 2.50
-5.88 6.49 2.50
-5.99 6.35 2.49
-5.99 6.10 2.43
-6.02 5.89 2.39
-6.14 5.77 2.39
-6.27 5.65 2.39
-6.38 5.53 2.39
-6.50 5.41 2.39
-6.61 5.28 2.39
-6.73 5.15 2.39
-6.84 5.02 2.39
-6.94 4.89 2.39
-7.05 4.75 2.39
-7.15 4.62 2.39
-7.25 4.48 2.39
-7.34 4.33 2.39
-7.43 4.19 2.39
-7.52 4.04 2.39
-7.61 3.90 2.39
-7.70 3.75 2.39
-7.78 3.60 2.39
-7.86 3.44 2.39
-7.93 3.29 2.39
-8.00 3.13 2.39
-8.07 2.97 2.39
-8.14 2.81 2.39
-8.20 2.65 2.39
-8.26 2.49 2.39
-8.32 2.33 2.39
-8.37 2.16 2.39
-8.42 1.99 2.39
-8.47 1.83 2.39
-8.51 1.66 2.39
-8.55 1.49 2.39
-8.58 1.32 2.39
-8.62 1.15 2.39
-8.64 0.98 2.39
-8.67 0.80 2.39
-8.69 0.63 2.39
-8.71 0.46 2.39
-8.72 0.28 2.39
-8.74 0.11 2.39
-8.74 -0.07 2.39
-8.75 -0.24 2.39
-8.75 -0.42 2.39
-8.74 -0.59 2.39
-8.74 -0.77 2.39
-8.73 -0.95 2.39
-8.71 -1.12 2.39
-8.69 -1.30 2.39
-8.67 -1.47 2.39
-8.65 -1.64 2.39
-8.62 -1.82 2.39
-8.58 -1.99 2.39
-8.55 -2.16 2.39
-8.51 -2.34 2.39
-8.46 -2.51 2.39
-8.42 -2.68 2.39
-8.37 -2.85 2.39
-8.31 -3.02 2.39
-8.26 -3.18 2.39
-8.19 -3.35 2.39
-8.13 -3.51 2.39
-8.06 -3.68 2.39
-7.99 -3.84 2.39
-7.91 -4.00 2.39
-7.84 -4.16 2.39
-7.75 -4.32 2.39
-7.67 -4.47 2.39
-7.58 -4.63 2.39
-7.49 -4.78 2.39
-7.39 -4.93 2.39
-7.30 -5.08 2.39
-7.19 -5.22 2.39
-7.09 -5.37 2.39
-6.98 -5.51 2.39
-6.87 -5.65 2.39
-6.76 -5.79 2.39
-6.64 -5.92 2.39
-6.52 -6.06 2.39
-6.40 -6.19 2.39
-6.28 -6.31 2.39
-6.15 -6.44 2.39
-6.02 -6.56 2.39
-5.89 -6.68 2.39
-5.77 -6.81 2.40
-5.75 -7.08 2.45
-5.71 -7.32 2.50
-5.57 -7.43 2.50
-5.42 -7.54 2.50
-5.26 -7.65 2.50
-5.11 -7.75 2.50
-4.95 -7.85 2.50
-4.79 -7.95 2.50
-4.63 -8.04 2.50
-4.47 -8.13 2.50
-4.30 -8.22 2.50
-4.14 -8.30 2.50
-3.97 -8.38 2.50
-3.80 -8.45 2.50
-3.63 -8.52 2.50
-3.46 -8.59 2.50
-3.28 -8.66 2.50
-3.11 -8.72 2.50
-2.93 -8.77 2.50
-2.76 -8.83 2.50
-2.58 -8.88 2.50
-2.40 -8.92 2.50
-2.22 -8.96 2.50
-2.04 -9.00 2.50
-1.86 -9.04 2.50
-1.67 -9.07 2.50
-1.49 -9.09 2.50
-1.31 -9.12 2.50
-1.13 -9.14 2.50
-0.94 -9.15 2.50
-0.76 -9.16 2.50
-0.57 -9.17 2.50
-0.39 -9.17 2.50
-0.21 -9.17 2.50
-0.02 -8.42 2.50
0.15 -8.41 2.50
0.31 -8.40 2.50
0.48 -8.39 2.50
0.65 -8.37 2.50
0.82 -8.35 2.50
0.98 -8.32 2.50
1.15 -8.30 2.50
1.31 -8.27 2.50
1.48 -8.23 2.50
1.64 -8.19 2.50
1.80 -8.15 2.50
1.96 -8.11 2.50
2.12 -8.06 2.50
2.28 -8.01 2.50
2.34 -7.63 2.39
2.51 -7.64 2.41
2.64 -7.52 2.39
2.79 -7.46 2.39
2.93 -7.39 2.39
3.08 -7.33 2.39
3.22 -7.26 2.39
3.36 -7.18 2.39
3.50 -7.11 2.39
3.64 -7.03 2.39
3.78 -6.95 2.39
3.91 -6.87 2.39
4.05 -6.78 2.39
4.18 -6.69 2.39
4.31 -6.60 2.39
4.43 -6.51 2.39
4.56 -6.41 2.39
4.68 -6.31 2.39
4.80 -6.21 2.39
4.92 -6.11 2.39
5.04 -6.00 2.39
5.15 -5.89 2.39
5.27 -5.78 2.39
5.38 -5.67 2.39
5.48 -5.56 2.39
5.59 -5.44 2.39
5.69 -5.32 2.39
5.79 -5.20 2.39
5.89 -5.08 2.39
5.98 -4.96 2.39
6.08 -4.83 2.39
6.17 -4.70 2.39
6.25 -4.57 2.39
6.86 -4.81 2.59
6.94 -4.66 2.58
7.01 -4.51 2.58
7.09 -4.36 2.58
7.16 -4.20 2.57
7.22 -4.05 2.57
7.28 -3.89 2.57
7.29 -3.71 2.54
7.27 -3.52 2.51
7.25 -3.33 2.49
7.26 -3.16 2.47
7.30 -3.00 2.46
7.33 -2.85 2.46
7.36 -2.69 2.45
7.39 -2.53 2.45
7.42 -2.38 2.44
7.44 -2.22 2.44
7.46 -2.06 2.43
7.44 -1.90 2.41
7.40 -1.73 2.39
7.36 -1.57 2.37
7.32 -1.40 2.35
7.28 -1.24 2.33
7.28 -1.09 2.32
7.29 -0.95 2.32
7.30 -0.80 2.32
7.30 -0.65 2.32
7.30 -0.50 2.32
7.31 -0.35 2.32
7.31 -0.21 2.32
7.30 -0.06 2.32
7.30 0.09 2.32
7.30 0.23 2.32
7.29 0.38 2.32
7.28 0.53 2.32
7.27 0.67 2.32
7.26 0.82 2.32
7.23 0.97 2.32
7.21 1.11 2.32
7.18 1.25 2.33
7.15 1.40 2.33
7.12 1.54 2.33
7.09 1.69 2.33
7.06 1.83 2.33
7.02 1.97 2.33
6.99 2.11 2.34
6.95 2.26 2.34
6.91 2.40 2.34
6.87 2.54 2.35
6.83 2.68 2.35
6.79 2.83 2.36
6.75 2.97 2.37
6.71 3.12 2.37
6.67 3.26 2.38
6.62 3.41 2.39
6.57 3.55 2.40
6.42 3.64 2.37
6.25 3.71 2.34
6.43 3.99 2.44
6.38 4.14 2.45
6.33 4.29 2.46
6.06 4.29 2.39
5.98 4.42 2.39
5.88 4.53 2.39
5.79 4.65 2.39
5.69 4.77 2.39
5.60 4.88 2.39
5.50 4.99 2.39
5.39 5.10 2.39
5.29 5.21 2.39
5.18 5.31 2.39
5.07 5.41 2.39
4.96 5.52 2.39
4.85 5.61 2.39
4.74 5.71 2.39
4.62 5.81 2.39
4.50 5.90 2.39
4.38 5.99 2.39
4.26 6.08 2.39
4.14 6.16 2.39
4.02 6.24 2.39
3.89 6.32 2.39
3.76 6.40 2.39
3.63 6.48 2.39
3.50 6.55 2.39
3.37 6.62 2.39
3.24 6.69 2.39
3.10 6.76 2.39
2.97 6.82 2.39
2.83 6.88 2.39
2.69 6.94 2.39
2.55 6.99 2.39
2.41 7.04 2.39
2.27 7.09 2.39
2.13 7.14 2.39
2.04 7.38 2.46
1.92 7.54 2.50
1.77 7.58 2.50
1.61 7.62 2.50
1.46 7.65 2.50
1.31 7.68 2.50
1.15 7.71 2.50
1.00 7.74 2.50
0.84 7.76 2.50
0.69 7.78 2.50
0.53 7.79 2.50
0.37 7.81 2.50
0.22 7.82 2.50
0.06 7.83 2.50
-0.10 7.83 2.50
-0.26 7.83 2.50
-0.42 7.83 2.50
-0.57 7.82 2.50
-0.73 7.82 2.50
-0.89 7.81 2.50
-1.05 7.79 2.50
-1.20 7.77 2.50
-1.36 7.75 2.50
-1.52 7.73 2.50
-1.67 7.70 2.50
-1.83 7.67 2.50
-1.99 7.64 2.50
-2.14 7.61 2.50
-2.30 7.57 2.50
-2.45 7.53 2.50
-2.60 7.48 2.50
-2.75 7.43 2.50
-2.91 7.38 2.50
-3.06 7.33 2.50
-3.21 7.27 2.50
-3.35 7.21 2.50
-3.50 7.15 2.50
-3.65 7.08 2.50
-3.79 7.02 2.50
-3.94 6.94 2.50
-4.08 6.87 2.50
-4.22 6.79 2.50
-4.36 6.71 2.50
-4.50 6.63 2.50
-4.63 6.54 2.50
-4.77 6.46 2.50
-4.90 6.36 2.50
-5.03 6.27 2.50
-5.16 6.17 2.50
-5.29 6.07 2.50
-5.42 5.97 2.50
-5.54 5.87 2.50
-5.66 5.76 2.50
-5.78 5.65 2.50
-5.90 5.54 2.50
-5.98 5.39 2.48
-5.97 5.17 2.43
-5.98 4.97 2.39
-6.09 4.86 2.39
-6.19 4.74 2.39
-6.29 4.62 2.39
-6.39 4.50 2.39
-6.48 4.37 2.39
-6.58 4.24 2.39
-6.67 4.12 2.39
-6.75 3.98 2.39
-6.84 3.85 2.39
-6.92 3.72 2.39
-7.00 3.58 2.39
-7.08 3.44 2.39
-7.15 3.30 2.39
-7.22 3.16 2.39
-7.29 3.02 2.39
-7.36 2.88 2.39
-7.42 2.73 2.39
-7.48 2.58 2.39
-7.54 2.44 2.39
-7.59 2.29 2.39
-7.64 2.14 2.39
-7.69 1.98 2.39
-7.74 1.83 2.39
-7.78 1.68 2.39
-7.82 1.52 2.39
-7.85 1.37 2.39
-7.89 1.21 2.39
-7.91 1.05 2.39
-7.94 0.89 2.39
-7.96 0.74 2.39
-7.98 0.58 2.39
-8.00 0.42 2.39
-8.01 0.26 2.39
-8.02 0.10 2.39
-8.03 -0.06 2.39
-8.03 -0.23 2.39
-8.03 -0.39 2.39
-8.03 -0.55 2.39
-8.02 -0.71 2.39
-8.01 -0.87 2.39
-8.00 -1.03 2.39
-7.98 -1.19 2.39
-7.96 -1.35 2.39
-7.94 -1.51 2.39
-7.91 -1.67 2.39
-7.88 -1.83 2.39
-7.84 -1.99 2.39
-7.81 -2.15 2.39
-7.77 -2.30 2.39
-7.72 -2.46 2.39
-7.68 -2.61 2.39
-7.63 -2.77 2.39
-7.57 -2.92 2.39
-7.52 -3.07 2.39
-7.46 -3.23 2.39
-7.39 -3.38 2.39
-7.33 -3.52 2.39
-7.26 -3.67 2.39
-7.19 -3.82 2.39
-7.11 -3.96 2.39
-7.03 -4.10 2.39
-6.95 -4.25 2.39
-6.87 -4.38 2.39
-6.78 -4.52 2.39
-6.69 -4.66 2.39
-6.60 -4.79 2.39
-6.50 -4.92 2.39
-6.40 -5.05 2.39
-6.30 -5.18 2.39
-6.20 -5.31 2.39
-6.09 -5.43 2.39
-5.98 -5.55 2.39
-5.87 -5.67 2.39
-5.79 -5.82 2.40
-5.77 -6.04 2.45
-5.76 -6.27 2.50
-5.63 -6.39 2.50
-5.50 -6.50 2.50
-5.37 -6.61 2.50
-5.24 -6.71 2.50
-5.10 -6.82 2.50
-4.97 -6.92 2.50
-4.83 -7.01 2.50
-4.69 -7.11 2.50
-4.54 -7.20 2.50
-4.40 -7.29 2.50
-4.25 -7.37 2.50
-4.10 -7.46 2.50
-3.95 -7.53 2.50
-3.80 -7.61 2.50
-3.64 -7.68 2.50
-3.49 -7.75 2.50
-3.33 -7.82 2.50
-3.17 -7.88 2.50
-3.01 -7.94 2.50
-2.85 -8.00 2.50
-2.69 -8.05 2.50
-2.53 -8.10 2.50
-2.37 -8.14 2.50
-2.20 -8.19 2.50
-2.04 -8.22 2.50
-1.87 -8.26 2.50
-1.70 -8.29 2.50
-1.54 -8.32 2.50
-1.37 -8.34 2.50
-1.20 -8.37 2.50
-1.03 -8.38 2.50
-0.87 -8.40 2.50
-0.70 -8.41 2.50
-0.53 -8.42 2.50
-0.36 -8.42 2.50
-0.19 -8.42 2.50
-0.02 -7.77 2.50
0.13 -7.76 2.50
0.29 -7.76 2.50
0.44 -7.74 2.50
