ply
format ascii 1.0
element vertex 2983
property float32 x
property float32 y
property float32 z
end_header
-9.03 7.60 2.39
-9.17 7.41 2.39
-9.31 7.22 2.39
-9.44 7.02 2.39
-9.57 6.83 2.39
-9.70 6.62 2.39
-9.82 6.42 2.39
-8.59 4.25 1.97
-8.59 4.03 1.95
-8.59 3.82 1.93
-8.58 3.62 1.92
-8.58 3.42 1.90
-8.58 3.22 1.89
-8.59 3.03 1.88
-8.63 2.85 1.88
-8.99 2.77 1.95
-9.61 2.75 2.07
-9.60 2.54 2.06
-9.60 2.33 2.05
-9.59 2.13 2.05
-9.59 1.93 2.04
-9.53 1.72 2.02
-9.58 1.53 2.03
-8.89 1.24 1.88
-8.91 1.06 1.88
-8.91 0.88 1.88
-8.92 0.70 1.88
-8.92 0.52 1.88
-8.91 0.34 1.88
-8.91 0.16 1.88
-8.90 -0.02 1.88
-9.55 -0.21 2.02
-9.54 -0.40 2.02
-9.54 -0.60 2.03
-9.53 -0.79 2.03
-9.53 -0.98 2.04
-9.53 -1.17 2.04
-9.52 -1.37 2.05
-8.94 -1.47 1.93
-8.65 -1.60 1.88
-8.60 -1.77 1.88
-8.55 -1.94 1.88
-8.50 -2.11 1.88
-8.48 -2.28 1.89
-8.47 -2.47 1.90
-8.46 -2.65 1.91
-8.45 -2.83 1.92
-8.45 -3.02 1.94
-9.42 -3.59 2.18
-9.42 -3.80 2.20
-8.54 -4.49 2.10
-9.60 -5.30 2.39
-9.48 -5.48 2.39
-9.36 -5.67 2.39
-8.64 -5.47 2.23
-9.10 -6.03 2.39
-8.97 -6.20 2.39
-8.83 -6.37 2.39
-8.69 -6.54 2.39
-8.55 -6.71 2.39
-8.41 -6.87 2.39
-8.26 -7.03 2.39
-8.11 -7.19 2.39
-7.95 -7.35 2.39
-7.80 -7.50 2.39
-7.64 -7.65 2.39
-7.48 -7.79 2.39
-7.31 -7.93 2.39
-7.14 -8.07 2.39
-6.98 -8.21 2.39
-6.80 -8.34 2.39
-6.63 -8.47 2.39
-6.45 -8.59 2.39
-6.27 -8.71 2.39
-6.09 -8.83 2.39
-5.91 -8.94 2.39
-5.72 -9.06 2.39
-5.56 -9.21 2.40
-5.55 -9.62 2.48
-5.38 -9.77 2.49
-5.18 -9.87 2.49
-4.98 -9.97 2.49
-4.77 -10.06 2.49
-4.57 -10.15 2.49
-4.36 -10.23 2.49
-4.15 -10.31 2.49
-3.94 -10.39 2.49
-3.73 -10.46 2.49
-3.51 -10.53 2.49
-3.30 -10.59 2.49
-3.09 -10.65 2.49
-2.87 -10.71 2.49
-2.65 -10.76 2.49
-2.43 -10.81 2.49
-2.22 -10.85 2.49
-2.00 -10.89 2.49
-1.78 -10.93 2.49
-1.56 -10.96 2.49
-1.33 -10.99 2.49
-1.11 -11.01 2.49
-0.89 -11.03 2.49
-0.67 -11.04 2.49
-0.45 -11.05 2.49
-0.22 -11.06 2.49
-0.00 -10.00 2.49
0.20 -10.00 2.49
0.40 -10.00 2.49
0.60 -9.99 2.49
0.80 -9.97 2.49
1.01 -9.96 2.49
1.21 -9.93 2.49
1.41 -9.91 2.49
1.61 -9.88 2.49
1.80 -9.85 2.49
2.00 -9.81 2.49
2.20 -9.77 2.49
2.40 -9.73 2.49
2.49 -9.28 2.39
2.68 -9.26 2.40
2.86 -9.18 2.39
3.04 -9.12 2.39
3.23 -9.06 2.39
3.41 -9.00 2.39
3.59 -8.93 2.39
3.77 -8.86 2.39
3.95 -8.79 2.39
4.13 -8.71 2.39
4.31 -8.63 2.39
4.48 -8.54 2.39
4.66 -8.45 2.39
4.83 -8.36 2.39
5.00 -8.27 2.39
5.17 -8.17 2.39
5.33 -8.07 2.39
5.50 -7.97 2.39
5.66 -7.86 2.39
5.82 -7.75 2.39
5.98 -7.64 2.39
6.14 -7.52 2.39
6.29 -7.40 2.39
5.57 -6.29 2.07
5.61 -6.09 2.03
5.64 -5.87 2.00
5.69 -5.70 1.97
5.89 -5.66 2.00
6.13 -5.66 2.04
6.26 -5.55 2.05
6.24 -5.31 2.00
6.29 -5.14 1.98
6.40 -5.02 1.98
6.51 -4.89 1.98
5.80 -4.19 1.74
5.83 -4.03 1.72
5.81 -3.84 1.69
5.90 -3.73 1.69
5.92 -3.59 1.68
6.13 -3.54 1.71
6.40 -3.53 1.77
6.68 -3.51 1.83
7.18 -3.59 1.94
5.60 -2.66 1.50
5.56 -2.51 1.47
5.58 -2.38 1.46
5.60 -2.26 1.45
5.63 -2.14 1.45
5.64 -2.02 1.44
5.68 -1.90 1.44
5.79 -1.81 1.45
6.01 -1.75 1.50
6.55 -1.76 1.62
9.57 -2.37 2.35
9.61 -2.18 2.35
9.65 -1.98 2.35
9.68 -1.79 2.34
9.70 -1.59 2.33
9.71 -1.39 2.33
9.73 -1.20 2.32
5.63 -0.58 1.34
5.62 -0.46 1.33
5.65 -0.35 1.34
5.67 -0.24 1.34
5.69 -0.13 1.34
5.71 -0.01 1.34
5.73 0.10 1.35
9.81 0.38 2.31
9.80 0.57 2.30
9.79 0.77 2.30
9.77 0.97 2.30
9.76 1.16 2.30
9.75 1.36 2.30
9.74 1.56 2.30
9.72 1.76 2.30
6.02 1.21 1.43
5.81 1.29 1.38
5.61 1.37 1.34
5.61 1.49 1.35
5.60 1.60 1.35
5.66 1.75 1.37
5.66 1.87 1.38
5.69 2.01 1.39
9.74 3.66 2.40
9.68 3.86 2.40
9.61 4.06 2.40
9.54 4.26 2.40
6.82 3.21 1.73
6.38 3.16 1.63
6.06 3.15 1.56
5.76 3.14 1.50
5.46 3.12 1.44
5.22 3.13 1.39
5.13 3.22 1.38
4.91 3.22 1.34
4.96 3.39 1.37
4.97 3.55 1.39
5.03 3.75 1.42
8.38 6.50 2.40
8.25 6.67 2.40
6.89 5.80 2.04
6.57 5.77 1.98
6.28 5.73 1.92
6.02 5.72 1.87
5.86 5.80 1.86
5.65 5.82 1.83
5.57 5.97 1.84
5.62 6.27 1.89
6.01 6.98 2.07
6.00 7.26 2.12
6.00 7.56 2.16
5.99 7.87 2.22
5.98 8.20 2.27
6.12 8.74 2.39
5.95 8.87 2.39
5.77 9.00 2.39
5.59 9.12 2.39
5.41 9.23 2.39
5.23 9.34 2.39
5.05 9.45 2.39
4.86 9.56 2.39
4.67 9.66 2.39
4.48 9.76 2.39
4.28 9.85 2.39
4.09 9.94 2.39
3.89 10.02 2.39
3.69 10.10 2.39
3.49 10.18 2.39
3.29 10.25 2.39
3.08 10.32 2.39
2.87 10.38 2.39
2.67 10.44 2.39
2.46 10.50 2.39
2.27 10.63 2.41
2.08 10.79 2.43
1.90 11.09 2.49
1.68 11.13 2.49
1.46 11.16 2.49
1.24 11.19 2.49
1.01 11.22 2.49
0.79 11.24 2.49
0.56 11.25 2.49
0.34 11.26 2.49
0.11 11.27 2.49
-0.11 11.27 2.49
-0.34 11.26 2.49
-0.56 11.25 2.49
-0.79 11.24 2.49
-1.01 11.22 2.49
-1.24 11.20 2.49
-1.46 11.17 2.49
-1.68 11.14 2.49
-1.91 11.10 2.49
-2.13 11.05 2.49
-2.35 11.01 2.49
-2.57 10.96 2.49
-2.79 10.90 2.49
-3.00 10.84 2.49
-3.22 10.77 2.49
-3.43 10.70 2.49
-3.64 10.63 2.49
-3.85 10.55 2.49
-4.06 10.46 2.49
-4.27 10.38 2.49
-4.47 10.28 2.49
-4.68 10.19 2.49
-4.88 10.09 2.49
-5.08 9.98 2.49
-5.27 9.87 2.49
-5.46 9.76 2.49
-5.66 9.64 2.49
-5.84 9.52 2.49
-5.94 9.26 2.46
-5.95 8.88 2.39
-6.14 8.78 2.39
-6.30 8.63 2.39
-6.46 8.49 2.39
-6.63 8.35 2.39
-6.79 8.21 2.39
-6.95 8.07 2.39
-7.10 7.92 2.39
-7.25 7.77 2.39
-7.40 7.62 2.39
-7.54 7.46 2.39
-7.69 7.30 2.39
-7.82 7.14 2.39
-7.96 6.98 2.39
-8.09 6.81 2.39
-8.22 6.64 2.39
-8.34 6.47 2.39
-8.46 6.29 2.39
-8.57 6.12 2.39
-8.69 5.94 2.39
-8.80 5.76 2.39
-8.90 5.58 2.39
-9.00 5.39 2.39
-9.10 5.20 2.39
-9.19 5.01 2.39
-9.28 4.82 2.39
-9.36 4.63 2.39
-8.68 4.08 2.19
-8.95 3.99 2.24
-9.59 4.05 2.39
-9.66 3.85 2.39
-9.73 3.65 2.39
-8.66 3.05 2.11
-9.84 3.25 2.39
-9.53 1.72 2.25
-8.54 1.37 2.01
-8.53 1.19 2.01
-8.53 1.02 2.00
-8.53 0.84 2.00
-8.52 0.67 2.00
-8.52 0.50 2.00
-8.52 0.33 2.00
-8.51 0.15 2.00
-8.51 -0.02 2.00
-8.48 -1.57 2.05
-8.48 -1.74 2.06
-9.43 -2.34 2.31
-9.67 -2.60 2.39
-9.61 -2.79 2.39
-8.57 -2.68 2.15
-9.47 -3.17 2.39
-9.39 -3.36 2.39
-9.31 -3.54 2.39
-9.23 -3.72 2.39
-9.14 -3.90 2.39
-9.05 -4.08 2.39
-8.96 -4.26 2.39
-8.86 -4.43 2.39
-8.54 -4.49 2.33
-8.66 -4.78 2.39
-8.55 -4.94 2.39
-8.44 -5.11 2.39
-8.33 -5.27 2.39
-8.21 -5.43 2.39
-8.09 -5.59 2.39
-7.97 -5.75 2.39
-7.85 -5.90 2.39
-7.72 -6.05 2.39
-7.59 -6.20 2.39
-7.46 -6.35 2.39
-7.32 -6.49 2.39
-7.18 -6.63 2.39
-7.04 -6.77 2.39
-6.90 -6.90 2.39
-6.75 -7.03 2.39
-6.61 -7.16 2.39
-6.45 -7.29 2.39
-6.30 -7.41 2.39
-6.15 -7.53 2.39
-5.99 -7.65 2.39
-5.83 -7.76 2.39
-5.67 -7.87 2.39
-5.58 -8.08 2.42
-5.57 -8.43 2.49
-5.40 -8.54 2.49
-5.22 -8.64 2.49
-5.04 -8.74 2.49
-4.86 -8.83 2.49
-4.68 -8.92 2.49
-4.50 -9.01 2.49
-4.31 -9.09 2.49
-4.13 -9.17 2.49
-3.94 -9.25 2.49
-3.75 -9.32 2.49
-3.56 -9.39 2.49
-3.37 -9.46 2.49
-3.18 -9.52 2.49
-2.99 -9.58 2.49
-2.79 -9.63 2.49
-2.60 -9.68 2.49
-2.40 -9.73 2.49
-2.20 -9.78 2.49
-2.00 -9.82 2.49
-1.81 -9.85 2.49
-1.61 -9.88 2.49
-1.41 -9.91 2.49
-1.21 -9.94 2.49
-1.01 -9.96 2.49
-0.81 -9.97 2.49
-0.60 -9.99 2.49
-0.40 -10.00 2.49
-0.20 -10.00 2.49
-0.00 -9.12 2.49
0.18 -9.12 2.49
0.37 -9.12 2.49
0.55 -9.11 2.49
0.73 -9.09 2.49
0.92 -9.08 2.49
1.10 -9.06 2.49
1.28 -9.04 2.49
1.46 -9.01 2.49
1.65 -8.98 2.49
1.83 -8.95 2.49
2.01 -8.91 2.49
2.19 -8.87 2.49
2.36 -8.83 2.49
2.46 -8.51 2.41
2.61 -8.37 2.39
2.78 -8.31 2.39
2.94 -8.26 2.39
3.11 -8.20 2.39
3.28 -8.14 2.39
3.44 -8.08 2.39
3.60 -8.01 2.39
3.77 -7.94 2.39
3.93 -7.86 2.39
4.09 -7.79 2.39
4.24 -7.71 2.39
4.40 -7.62 2.39
4.56 -7.54 2.39
4.71 -7.45 2.39
4.86 -7.35 2.39
5.01 -7.26 2.39
5.16 -7.16 2.39
5.31 -7.06 2.39
5.45 -6.96 2.39
5.59 -6.85 2.39
5.73 -6.74 2.39
5.56 -6.28 2.26
5.61 -6.08 2.23
5.60 -5.83 2.18
5.70 -5.70 2.17
5.88 -5.65 2.19
6.12 -5.65 2.24
6.26 -5.55 2.25
6.25 -5.32 2.20
6.25 -5.10 2.16
6.24 -4.89 2.13
6.24 -4.69 2.09
5.80 -4.18 1.91
5.82 -4.02 1.89
5.85 -3.87 1.87
5.89 -3.73 1.86
5.93 -3.59 1.85
6.11 -3.53 1.88
6.41 -3.54 1.95
6.76 -3.55 2.03
8.10 -4.05 2.40
8.19 -3.89 2.40
5.56 -2.50 1.62
5.53 -2.36 1.59
5.54 -2.23 1.58
5.58 -2.12 1.58
5.64 -2.01 1.58
5.69 -1.90 1.58
5.79 -1.81 1.60
6.15 -1.79 1.69
6.58 -1.77 1.79
8.89 -2.20 2.40
8.93 -2.02 2.40
8.96 -1.84 2.40
9.00 -1.66 2.39
9.02 -1.48 2.39
9.05 -1.30 2.39
5.63 -0.69 1.48
5.64 -0.58 1.48
5.61 -0.46 1.47
5.60 -0.35 1.46
5.65 -0.24 1.47
5.65 -0.12 1.47
5.69 -0.01 1.48
5.72 0.11 1.48
9.15 0.35 2.37
9.15 0.54 2.37
9.15 0.72 2.37
9.15 0.91 2.37
9.14 1.09 2.37
9.13 1.28 2.37
9.11 1.46 2.37
9.10 1.65 2.37
6.01 1.21 1.57
5.61 1.25 1.47
5.63 1.37 1.48
5.60 1.48 1.48
5.55 1.59 1.47
5.60 1.73 1.49
5.67 1.88 1.52
5.70 2.01 1.54
8.85 3.33 2.40
8.79 3.51 2.40
8.73 3.69 2.40
8.66 3.86 2.40
6.82 3.21 1.91
6.36 3.15 1.80
6.06 3.15 1.73
5.77 3.15 1.66
5.46 3.12 1.59
5.28 3.16 1.55
4.95 3.10 1.47
4.91 3.22 1.48
4.94 3.38 1.50
4.86 3.47 1.50
4.89 3.64 1.53
6.25 4.86 1.98
6.16 4.98 1.98
6.07 5.11 1.98
6.03 5.29 2.01
6.04 5.52 2.04
6.01 5.72 2.07
5.78 5.72 2.03
5.60 5.77 2.00
5.60 6.01 2.04
5.64 6.30 2.10
6.01 6.98 2.29
6.00 7.27 2.34
5.98 7.54 2.39
5.83 7.67 2.39
5.68 7.79 2.39
5.53 7.91 2.39
5.37 8.02 2.39
5.21 8.13 2.39
5.03 8.20 2.38
4.86 8.28 2.37
4.69 8.38 2.37
4.53 8.48 2.37
4.36 8.58 2.37
4.19 8.67 2.37
4.04 8.82 2.39
3.87 8.90 2.39
3.69 8.98 2.39
3.51 9.05 2.39
3.33 9.13 2.39
3.15 9.20 2.39
2.97 9.26 2.39
2.78 9.32 2.39
2.60 9.38 2.39
2.41 9.43 2.39
2.22 9.48 2.39
2.09 9.82 2.46
1.92 9.98 2.49
1.72 10.02 2.49
1.52 10.05 2.49
1.32 10.08 2.49
1.12 10.11 2.49
0.91 10.13 2.49
0.71 10.15 2.49
0.51 10.16 2.49
0.30 10.17 2.49
0.10 10.17 2.49
-0.10 10.17 2.49
-0.31 10.17 2.49
-0.51 10.16 2.49
-0.71 10.15 2.49
-0.92 10.13 2.49
-1.12 10.11 2.49
-1.32 10.09 2.49
-1.52 10.06 2.49
-1.72 10.02 2.49
-1.92 9.98 2.49
-2.12 9.94 2.49
-2.32 9.89 2.49
-2.52 9.84 2.49
-2.71 9.79 2.49
-2.91 9.73 2.49
-3.10 9.67 2.49
-3.29 9.60 2.49
-3.48 9.53 2.49
-3.67 9.45 2.49
-3.86 9.37 2.49
-4.04 9.29 2.49
-4.22 9.20 2.49
-4.41 9.11 2.49
-4.58 9.02 2.49
-4.76 8.92 2.49
-4.94 8.82 2.49
-5.11 8.71 2.49
-5.28 8.61 2.49
-5.45 8.49 2.49
-5.61 8.38 2.49
-5.78 8.26 2.49
-5.92 8.11 2.48
-5.92 7.78 2.42
-5.99 7.55 2.39
-6.14 7.43 2.39
-6.28 7.30 2.39
-6.42 7.17 2.39
-6.56 7.03 2.39
-6.69 6.89 2.39
-6.82 6.75 2.39
-6.95 6.61 2.39
-7.08 6.46 2.39
-7.20 6.31 2.39
-7.32 6.16 2.39
-7.43 6.01 2.39
-7.54 5.86 2.39
-7.65 5.70 2.39
-7.76 5.54 2.39
-7.86 5.38 2.39
-7.96 5.21 2.39
-8.06 5.05 2.39
-8.15 4.88 2.39
-8.24 4.71 2.39
-8.32 4.54 2.39
-8.40 4.37 2.39
-8.48 4.20 2.39
-8.55 4.02 2.39
-8.62 3.85 2.39
-8.69 3.67 2.39
-8.75 3.49 2.39
-8.81 3.31 2.39
-8.66 3.06 2.33
-8.92 2.95 2.39
-8.97 2.77 2.39
-9.01 2.58 2.39
-9.05 2.40 2.39
-9.09 2.22 2.39
-9.12 2.03 2.39
-9.15 1.85 2.39
-9.17 1.66 2.39
-9.20 1.47 2.39
-9.21 1.29 2.39
-8.87 1.06 2.30
-9.24 0.92 2.39
-9.24 0.73 2.39
-9.25 0.54 2.39
-9.25 0.36 2.39
-8.60 0.16 2.22
-9.23 -0.01 2.39
-9.22 -0.20 2.39
-9.20 -0.38 2.39
-9.18 -0.57 2.39
-9.16 -0.75 2.39
-9.13 -0.93 2.39
-9.10 -1.12 2.39
-9.07 -1.30 2.39
-9.03 -1.48 2.39
-8.99 -1.66 2.39
-8.56 -1.76 2.28
-8.90 -2.01 2.39
-8.85 -2.19 2.39
-8.79 -2.36 2.39
-8.73 -2.54 2.39
-8.58 -2.68 2.36
-8.61 -2.88 2.39
-8.54 -3.05 2.39
-8.47 -3.22 2.39
-8.39 -3.38 2.39
-8.31 -3.55 2.39
-8.23 -3.71 2.39
-8.15 -3.87 2.39
-8.06 -4.03 2.39
-7.97 -4.19 2.39
-7.88 -4.34 2.39
-7.78 -4.50 2.39
-7.68 -4.65 2.39
-7.58 -4.80 2.39
-7.48 -4.94 2.39
-7.37 -5.09 2.39
-7.26 -5.23 2.39
-7.14 -5.37 2.39
-7.03 -5.51 2.39
-6.91 -5.64 2.39
-6.79 -5.78 2.39
-6.67 -5.91 2.39
-6.54 -6.04 2.39
-6.41 -6.16 2.39
-6.28 -6.28 2.39
-6.15 -6.40 2.39
-6.02 -6.52 2.39
-5.88 -6.64 2.39
-5.74 -6.75 2.39
-5.61 -6.87 2.39
-5.60 -7.14 2.45
-5.54 -7.37 2.49
-5.39 -7.48 2.49
-5.23 -7.58 2.49
-5.08 -7.68 2.49
-4.92 -7.78 2.49
-4.76 -7.87 2.49
-4.60 -7.96 2.49
-4.43 -8.05 2.49
-4.27 -8.13 2.49
-4.10 -8.21 2.49
-3.93 -8.29 2.49
-3.76 -8.36 2.49
-3.59 -8.43 2.49
-3.42 -8.50 2.49
-3.25 -8.56 2.49
-3.07 -8.62 2.49
-2.90 -8.68 2.49
-2.72 -8.73 2.49
-2.55 -8.78 2.49
-2.37 -8.83 2.49
-2.19 -8.87 2.49
-2.01 -8.91 2.49
-1.83 -8.95 2.49
-1.65 -8.98 2.49
-1.47 -9.01 2.49
-1.28 -9.04 2.49
-1.10 -9.06 2.49
-0.92 -9.08 2.49
-0.74 -9.10 2.49
-0.55 -9.11 2.49
-0.37 -9.12 2.49
-0.18 -9.12 2.49
-0.00 -8.38 2.49
0.17 -8.37 2.49
0.34 -8.37 2.49
0.51 -8.36 2.49
0.67 -8.35 2.49
0.84 -8.33 2.49
1.01 -8.32 2.49
1.18 -8.30 2.49
1.34 -8.27 2.49
1.51 -8.24 2.49
1.68 -8.21 2.49
1.84 -8.18 2.49
2.01 -8.14 2.49
2.17 -8.10 2.49
2.33 -8.06 2.49
2.44 -7.84 2.44
2.55 -7.63 2.39
2.70 -7.58 2.39
2.86 -7.53 2.39
3.01 -7.47 2.39
3.16 -7.41 2.39
3.31 -7.35 2.39
3.46 -7.28 2.39
3.61 -7.22 2.39
3.75 -7.15 2.39
3.90 -7.07 2.39
4.04 -6.99 2.39
4.18 -6.92 2.39
4.32 -6.83 2.39
4.46 -6.75 2.39
4.60 -6.66 2.39
4.73 -6.57 2.39
4.87 -6.48 2.39
5.00 -6.38 2.39
5.13 -6.28 2.39
5.26 -6.18 2.39
5.39 -6.08 2.39
5.51 -5.97 2.39
5.63 -5.86 2.39
5.72 -5.71 2.37
5.87 -5.64 2.39
5.99 -5.53 2.39
6.10 -5.41 2.39
6.22 -5.29 2.39
6.25 -5.10 2.36
6.24 -4.89 2.32
5.83 -4.38 2.13
5.85 -4.21 2.10
5.84 -4.03 2.07
5.87 -3.88 2.05
5.90 -3.73 2.03
5.92 -3.58 2.01
6.19 -3.58 2.08
6.22 -3.42 2.06
6.21 -3.26 2.04
6.20 -3.10 2.01
6.20 -2.94 1.99
5.65 -2.54 1.79
5.57 -2.38 1.75
5.59 -2.25 1.74
5.59 -2.12 1.73
5.64 -2.01 1.73
5.68 -1.90 1.72
5.72 -1.79 1.72
6.14 -1.78 1.84
6.71 -1.80 1.99
8.14 -2.01 2.40
8.18 -1.85 2.40
8.23 -1.69 2.40
8.27 -1.52 2.40
8.30 -1.36 2.40
8.34 -1.19 2.40
8.37 -1.02 2.40
5.66 -0.58 1.62
5.60 -0.46 1.60
5.57 -0.34 1.59
5.64 -0.23 1.60
5.61 -0.12 1.59
5.55 -0.01 1.57
5.73 0.11 1.62
8.49 0.33 2.40
8.49 0.50 2.40
8.49 0.67 2.40
8.48 0.84 2.40
8.47 1.01 2.40
8.46 1.19 2.40
8.44 1.36 2.40
8.42 1.53 2.40
6.01 1.22 1.72
5.63 1.26 1.62
5.65 1.38 1.63
5.59 1.48 1.62
5.52 1.59 1.61
5.60 1.73 1.64
5.56 1.84 1.63
5.71 2.02 1.69
8.08 3.04 2.40
8.03 3.21 2.40
7.97 3.37 2.40
7.91 3.53 2.40
6.82 3.21 2.09
6.37 3.15 1.97
6.04 3.15 1.89
5.63 3.08 1.78
5.45 3.12 1.74
5.23 3.14 1.68
4.98 3.12 1.62
4.91 3.22 1.62
4.93 3.37 1.64
4.86 3.47 1.64
4.92 3.67 1.69
6.05 4.70 2.10
6.05 4.90 2.14
6.05 5.10 2.17
6.04 5.30 2.20
6.04 5.52 2.24
6.03 5.74 2.28
5.83 5.77 2.24
5.62 5.80 2.21
5.58 5.99 2.23
5.47 6.11 2.24
5.71 6.65 2.39
5.58 6.76 2.39
5.45 6.88 2.39
5.32 6.99 2.39
5.18 7.10 2.39
5.04 7.21 2.39
4.90 7.31 2.39
4.75 7.41 2.39
4.60 7.51 2.39
4.46 7.60 2.39
4.31 7.70 2.39
4.15 7.79 2.39
4.00 7.87 2.39
3.84 7.95 2.39
3.68 8.03 2.39
3.52 8.11 2.39
3.36 8.18 2.39
3.20 8.25 2.39
3.03 8.31 2.39
2.87 8.38 2.39
2.70 8.44 2.39
2.53 8.49 2.39
2.36 8.54 2.39
2.19 8.59 2.39
2.11 9.01 2.49
1.93 9.05 2.49
1.75 9.09 2.49
1.57 9.12 2.49
1.38 9.16 2.49
1.20 9.18 2.49
1.02 9.21 2.49
0.83 9.23 2.49
0.65 9.24 2.49
0.46 9.25 2.49
0.28 9.26 2.49
0.09 9.27 2.49
-0.09 9.27 2.49
-0.28 9.26 2.49
-0.46 9.25 2.49
-0.65 9.24 2.49
-0.83 9.23 2.49
-1.02 9.21 2.49
-1.20 9.19 2.49
-1.38 9.16 2.49
-1.57 9.13 2.49
-1.75 9.09 2.49
-1.93 9.05 2.49
-2.11 9.01 2.49
-2.29 8.97 2.49
-2.47 8.92 2.49
-2.65 8.86 2.49
-2.82 8.81 2.49
-3.00 8.74 2.49
-3.17 8.68 2.49
-3.34 8.61 2.49
-3.51 8.54 2.49
-3.68 8.46 2.49
-3.85 8.39 2.49
-4.01 8.30 2.49
-4.18 8.22 2.49
-4.34 8.13 2.49
-4.50 8.04 2.49
-4.65 7.94 2.49
-4.81 7.84 2.49
-4.96 7.74 2.49
-5.11 7.64 2.49
-5.26 7.53 2.49
-5.41 7.42 2.49
-5.55 7.30 2.49
-5.69 7.18 2.49
-5.83 7.06 2.49
-5.89 6.85 2.46
-5.90 6.59 2.41
-5.98 6.41 2.39
-6.10 6.29 2.39
-6.22 6.16 2.39
-6.34 6.03 2.39
-6.45 5.90 2.39
-6.56 5.76 2.39
-6.67 5.62 2.39
-6.78 5.48 2.39
-6.88 5.34 2.39
-6.98 5.20 2.39
-7.08 5.06 2.39
-7.17 4.91 2.39
-7.26 4.76 2.39
-7.35 4.61 2.39
-7.43 4.46 2.39
-7.51 4.30 2.39
-7.59 4.15 2.39
-7.67 3.99 2.39
-7.74 3.83 2.39
-7.81 3.67 2.39
-7.87 3.51 2.39
-7.93 3.35 2.39
-7.99 3.19 2.39
-8.05 3.03 2.39
-8.10 2.86 2.39
-8.14 2.70 2.39
-8.19 2.53 2.39
-8.23 2.36 2.39
-8.27 2.20 2.39
-8.30 2.03 2.39
-8.33 1.86 2.39
-8.36 1.69 2.39
-8.38 1.52 2.39
-8.40 1.35 2.39
-8.42 1.18 2.39
-8.43 1.01 2.39
-8.44 0.84 2.39
-8.45 0.67 2.39
-8.45 0.50 2.39
-8.45 0.33 2.39
-8.45 0.16 2.39
-8.44 -0.01 2.39
-8.43 -0.18 2.39
-8.42 -0.35 2.39
-8.40 -0.52 2.39
-8.38 -0.69 2.39
-8.36 -0.85 2.39
-8.33 -1.02 2.39
-8.30 -1.18 2.39
-8.27 -1.35 2.39
-8.23 -1.51 2.39
-8.19 -1.68 2.39
-8.15 -1.84 2.39
-8.10 -2.00 2.39
-8.05 -2.16 2.39
-8.00 -2.32 2.39
-7.94 -2.48 2.39
-7.88 -2.63 2.39
-7.82 -2.79 2.39
-7.75 -2.94 2.39
-7.69 -3.10 2.39
-7.62 -3.25 2.39
-7.54 -3.40 2.39
-7.47 -3.54 2.39
-7.39 -3.69 2.39
-7.30 -3.83 2.39
-7.22 -3.98 2.39
-7.13 -4.12 2.39
-7.04 -4.26 2.39
-6.95 -4.39 2.39
-6.85 -4.53 2.39
-6.75 -4.66 2.39
-6.65 -4.79 2.39
-6.55 -4.92 2.39
-6.45 -5.05 2.39
-6.34 -5.17 2.39
-6.23 -5.30 2.39
-6.12 -5.42 2.39
-6.00 -5.53 2.39
-5.88 -5.65 2.39
-5.76 -5.76 2.39
-5.64 -5.87 2.39
-5.62 -6.09 2.43
-5.61 -6.33 2.48
-5.50 -6.46 2.49
-5.36 -6.56 2.49
-5.22 -6.66 2.49
-5.09 -6.76 2.49
-4.95 -6.86 2.49
-4.80 -6.96 2.49
-4.66 -7.05 2.49
-4.52 -7.14 2.49
-4.37 -7.22 2.49
-4.22 -7.30 2.49
-4.07 -7.38 2.49
-3.92 -7.46 2.49
-3.77 -7.53 2.49
-3.61 -7.61 2.49
-3.46 -7.67 2.49
-3.30 -7.74 2.49
-3.14 -7.80 2.49
-2.98 -7.86 2.49
-2.82 -7.91 2.49
-2.66 -7.97 2.49
-2.50 -8.02 2.49
-2.34 -8.06 2.49
-2.17 -8.11 2.49
-2.01 -8.15 2.49
-1.84 -8.18 2.49
-1.68 -8.22 2.49
-1.51 -8.25 2.49
-1.35 -8.27 2.49
-1.18 -8.30 2.49
-1.01 -8.32 2.49
-0.84 -8.34 2.49
-0.68 -8.35 2.49
-0.51 -8.36 2.49
-0.34 -8.37 2.49
-0.17 -8.37 2.49
-0.00 -7.73 2.49
0.16 -7.73 2.49
0.31 -7.73 2.49
0.47 -7.72 2.49
0.62 -7.71 2.49
0.78 -7.70 2.49
0.93 -7.68 2.49
1.09 -7.66 2.49
1.24 -7.64 2.49
1.40 -7.61 2.49
1.55 -7.58 2.49
1.70 -7.55 2.49
1.85 -7.52 2.49
2.01 -7.48 2.49
2.16 -7.44 2.49
2.31 -7.40 2.49
2.43 -7.28 2.47
2.50 -7.00 2.39
2.64 -6.96 2.39
2.78 -6.90 2.39
2.92 -6.84 2.39
3.06 -6.78 2.39
3.19 -6.72 2.39
3.33 -6.66 2.39
3.46 -6.60 2.39
3.60 -6.53 2.39
3.73 -6.46 2.39
3.86 -6.38 2.39
3.99 -6.31 2.39
4.12 -6.23 2.39
4.25 -6.15 2.39
4.37 -6.06 2.39
4.49 -5.98 2.39
4.62 -5.89 2.39
4.74 -5.80 2.39
4.86 -5.70 2.39
4.97 -5.61 2.39
5.09 -5.51 2.39
5.20 -5.41 2.39
5.31 -5.31 2.39
5.42 -5.20 2.39
5.53 -5.10 2.39
5.63 -4.99 2.39
5.74 -4.88 2.39
5.84 -4.76 2.39
5.94 -4.65 2.39
5.85 -4.39 2.32
5.81 -4.18 2.26
5.80 -4.00 2.23
5.86 -3.87 2.22
5.89 -3.72 2.20
5.92 -3.58 2.18
6.18 -3.56 2.25
6.22 -3.42 2.23
6.21 -3.26 2.21
6.21 -3.10 2.18
6.21 -2.94 2.16
5.73 -2.58 1.97
5.57 -2.37 1.90
5.59 -2.25 1.89
5.61 -2.13 1.88
5.64 -2.01 1.87
5.69 -1.90 1.87
5.80 -1.81 1.90
6.15 -1.78 2.00
6.17 -1.66 1.99
6.18 -1.53 1.98
6.22 -1.40 1.98
6.25 -1.28 1.98
6.28 -1.15 1.98
6.31 -1.03 1.98
6.34 -0.90 1.98
6.36 -0.78 1.98
5.67 -0.58 1.76
5.60 -0.46 1.74
5.59 -0.34 1.73
5.64 -0.23 1.74
5.62 -0.12 1.73
5.70 -0.01 1.75
5.72 0.11 1.76
7.82 0.31 2.40
7.82 0.46 2.40
7.81 0.62 2.40
7.81 0.78 2.40
7.80 0.94 2.40
7.78 1.09 2.40
7.77 1.25 2.40
6.39 1.16 1.98
6.01 1.22 1.87
5.78 1.29 1.81
5.66 1.38 1.77
5.58 1.48 1.76
5.55 1.60 1.75
5.62 1.74 1.79
5.68 1.88 1.81
5.71 2.02 1.83
6.13 2.31 1.98
6.09 2.43 1.98
6.09 2.57 2.00
6.08 2.72 2.01
6.09 2.87 2.03
6.09 3.02 2.05
6.04 3.15 2.05
5.73 3.13 1.96
5.45 3.13 1.89
5.29 3.18 1.85
5.04 3.16 1.79
4.90 3.21 1.76
4.92 3.37 1.79
4.86 3.47 1.79
5.06 3.77 1.89
6.05 4.70 2.29
6.05 4.90 2.33
6.05 5.10 2.36
6.02 5.28 2.39
5.91 5.41 2.39
5.81 5.53 2.39
5.70 5.65 2.39
5.59 5.76 2.39
5.48 5.88 2.39
5.36 5.99 2.39
5.24 6.10 2.39
5.12 6.21 2.39
5.00 6.31 2.39
4.88 6.42 2.39
4.75 6.52 2.39
4.62 6.62 2.39
4.49 6.71 2.39
4.36 6.80 2.39
4.22 6.89 2.39
4.09 6.98 2.39
3.95 7.06 2.39
3.81 7.14 2.39
3.67 7.22 2.39
3.52 7.30 2.39
3.38 7.37 2.39
3.23 7.44 2.39
3.08 7.50 2.39
2.93 7.57 2.39
2.78 7.63 2.39
2.63 7.68 2.39
2.48 7.74 2.39
2.33 7.80 2.39
2.17 7.84 2.39
2.10 8.22 2.49
1.93 8.26 2.49
1.77 8.30 2.49
1.60 8.34 2.49
1.44 8.37 2.49
1.27 8.40 2.49
1.10 8.42 2.49
0.93 8.44 2.49
0.76 8.46 2.49
0.59 8.48 2.49
0.42 8.49 2.49
0.25 8.49 2.49
0.08 8.50 2.49
-0.09 8.50 2.49
-0.26 8.49 2.49
-0.43 8.49 2.49
-0.59 8.48 2.49
-0.76 8.46 2.49
-0.93 8.45 2.49
-1.10 8.42 2.49
-1.27 8.40 2.49
-1.44 8.37 2.49
-1.60 8.34 2.49
-1.77 8.30 2.49
-1.94 8.27 2.49
-2.10 8.22 2.49
-2.26 8.18 2.49
-2.43 8.13 2.49
-2.59 8.08 2.49
-2.75 8.02 2.49
-2.91 7.96 2.49
-3.06 7.90 2.49
-3.22 7.83 2.49
-3.38 7.77 2.49
-3.53 7.69 2.49
-3.68 7.62 2.49
-3.83 7.54 2.49
-3.98 7.46 2.49
-4.13 7.37 2.49
-4.27 7.29 2.49
-4.41 7.20 2.49
-4.55 7.10 2.49
-4.69 7.01 2.49
-4.83 6.91 2.49
-4.96 6.81 2.49
-5.10 6.70 2.49
-5.23 6.59 2.49
-5.35 6.49 2.49
-5.48 6.37 2.49
-5.60 6.26 2.49
-5.72 6.14 2.49
-5.84 6.02 2.49
-5.87 5.82 2.46
-5.88 5.59 2.41
-5.92 5.41 2.39
-6.02 5.29 2.39
-6.13 5.17 2.39
-6.22 5.04 2.39
-6.32 4.91 2.39
-6.41 4.78 2.39
-6.50 4.64 2.39
-6.59 4.51 2.39
-6.67 4.37 2.39
-6.75 4.24 2.39
-6.83 4.10 2.39
-6.90 3.96 2.39
-6.98 3.81 2.39
-7.04 3.67 2.39
-7.11 3.53 2.39
-7.17 3.38 2.39
-7.23 3.23 2.39
-7.29 3.08 2.39
-7.34 2.93 2.39
-7.40 2.78 2.39
-7.44 2.63 2.39
-7.49 2.48 2.39
-7.53 2.33 2.39
-7.57 2.17 2.39
-7.60 2.02 2.39
-7.63 1.87 2.39
-7.66 1.71 2.39
-7.69 1.56 2.39
-7.71 1.40 2.39
-7.73 1.24 2.39
-7.75 1.09 2.39
-7.76 0.93 2.39
-7.77 0.77 2.39
-7.78 0.62 2.39
-7.78 0.46 2.39
-7.78 0.31 2.39
-7.78 0.15 2.39
-7.77 -0.01 2.39
-7.76 -0.16 2.39
-7.75 -0.32 2.39
-7.73 -0.47 2.39
-7.72 -0.63 2.39
-7.69 -0.78 2.39
-7.67 -0.94 2.39
-7.64 -1.09 2.39
-7.61 -1.24 2.39
-7.58 -1.39 2.39
-7.54 -1.54 2.39
-7.50 -1.69 2.39
-7.46 -1.84 2.39
-7.42 -1.99 2.39
-7.37 -2.14 2.39
-7.32 -2.28 2.39
-7.26 -2.43 2.39
-7.21 -2.57 2.39
-7.15 -2.71 2.39
-7.08 -2.85 2.39
-7.02 -2.99 2.39
-6.95 -3.13 2.39
-6.88 -3.26 2.39
-6.81 -3.40 2.39
-6.73 -3.53 2.39
-6.66 -3.66 2.39
-6.58 -3.79 2.39
-6.49 -3.92 2.39
-6.41 -4.05 2.39
-6.32 -4.17 2.39
-6.23 -4.30 2.39
-6.14 -4.42 2.39
-6.04 -4.54 2.39
-5.95 -4.65 2.39
-5.86 -4.78 2.39
-5.75 -4.88 2.39
-5.65 -5.00 2.39
-5.64 -5.19 2.43
-5.63 -5.40 2.48
-5.55 -5.54 2.49
-5.43 -5.65 2.49
-5.31 -5.75 2.49
-5.19 -5.86 2.49
-5.07 -5.96 2.49
-4.95 -6.05 2.49
-4.82 -6.15 2.49
-4.69 -6.24 2.49
-4.57 -6.33 2.49
-4.43 -6.42 2.49
-4.30 -6.50 2.49
-4.17 -6.58 2.49
-4.03 -6.66 2.49
-3.90 -6.74 2.49
-3.76 -6.81 2.49
-3.62 -6.89 2.49
-3.48 -6.95 2.49
-3.33 -7.02 2.49
-3.19 -7.08 2.49
-3.05 -7.14 2.49
-2.90 -7.20 2.49
-2.75 -7.25 2.49
-2.61 -7.31 2.49
-2.46 -7.35 2.49
-2.31 -7.40 2.49
-2.16 -7.44 2.49
-2.01 -7.48 2.49
-1.86 -7.52 2.49
-1.70 -7.55 2.49
-1.55 -7.59 2.49
-1.40 -7.61 2.49
-1.24 -7.64 2.49
-1.09 -7.66 2.49
-0.93 -7.68 2.49
-0.78 -7.70 2.49
-0.62 -7.71 2.49
-0.47 -7.72 2.49
-0.31 -7.73 2.49
-0.16 -7.73 2.49
-0.00 -7.18 2.49
0.14 -7.17 2.49
0.29 -7.17 2.49
0.43 -7.16 2.49
0.58 -7.15 2.49
0.72 -7.14 2.49
0.87 -7.13 2.49
1.01 -7.11 2.49
1.15 -7.09 2.49
1.30 -7.06 2.49
1.44 -7.04 2.49
1.58 -7.01 2.49
1.72 -6.97 2.49
1.86 -6.94 2.49
2.00 -6.90 2.49
2.14 -6.86 2.49
2.28 -6.82 2.49
2.42 -6.77 2.49
2.45 -6.45 2.39
2.58 -6.40 2.39
2.71 -6.35 2.39
2.84 -6.29 2.39
2.96 -6.24 2.39
3.09 -6.18 2.39
3.21 -6.12 2.39
3.34 -6.05 2.39
3.46 -5.99 2.39
3.58 -5.92 2.39
3.70 -5.85 2.39
3.82 -5.78 2.39
3.94 -5.70 2.39
4.05 -5.62 2.39
4.17 -5.54 2.39
4.28 -5.46 2.39
4.39 -5.37 2.39
4.50 -5.29 2.39
4.61 -5.20 2.39
4.72 -5.11 2.39
4.82 -5.01 2.39
4.93 -4.92 2.39
5.03 -4.82 2.39
5.13 -4.72 2.39
5.22 -4.62 2.39
5.32 -4.52 2.39
5.41 -4.41 2.39
5.50 -4.31 2.39
5.59 -4.20 2.39
5.68 -4.09 2.39
5.77 -3.97 2.39
5.75 -3.80 2.35
5.90 -3.72 2.37
5.90 -3.56 2.35
6.08 -3.51 2.39
6.16 -3.39 2.39
6.21 -3.26 2.38
6.21 -3.10 2.35
5.60 -2.65 2.10
5.60 -2.52 2.08
5.63 -2.40 2.07
5.60 -2.25 2.04
5.64 -2.14 2.04
5.66 -2.01 2.03
5.69 -1.90 2.02
5.79 -1.80 2.04
6.14 -1.78 2.15
6.18 -1.66 2.15
6.18 -1.52 2.14
6.18 -1.39 2.13
6.17 -1.26 2.11
6.17 -1.13 2.10
6.17 -1.00 2.09
6.16 -0.88 2.08
6.16 -0.75 2.08
5.77 -0.58 1.94
5.59 -0.45 1.87
5.61 -0.34 1.88
5.63 -0.23 1.88
5.65 -0.12 1.88
5.71 -0.00 1.90
5.73 0.11 1.90
6.14 0.24 2.04
6.14 0.37 2.04
6.14 0.49 2.04
6.14 0.61 2.04
6.13 0.74 2.04
6.13 0.86 2.05
6.13 0.99 2.05
6.13 1.11 2.06
6.01 1.22 2.02
5.83 1.30 1.97
5.68 1.39 1.92
5.58 1.48 1.90
5.60 1.61 1.91
5.62 1.74 1.93
5.68 1.88 1.96
5.70 2.02 1.98
6.10 2.30 2.14
6.10 2.44 2.15
6.10 2.58 2.16
6.09 2.73 2.18
6.09 2.87 2.20
6.09 3.02 2.22
6.05 3.15 2.22
5.74 3.14 2.13
5.45 3.13 2.05
5.24 3.14 1.99
5.12 3.21 1.96
4.90 3.21 1.90
4.91 3.36 1.93
5.01 3.58 2.00
5.03 3.75 2.03
5.11 3.97 2.09
5.74 4.65 2.39
5.65 4.77 2.39
5.55 4.88 2.39
5.46 4.99 2.39
5.36 5.11 2.39
5.26 5.22 2.39
5.16 5.32 2.39
5.06 5.43 2.39
4.95 5.53 2.39
4.84 5.63 2.39
4.73 5.73 2.39
4.62 5.83 2.39
4.50 5.93 2.39
4.38 6.02 2.39
4.27 6.11 2.39
4.15 6.19 2.39
4.02 6.28 2.39
3.90 6.36 2.39
3.77 6.44 2.39
3.64 6.52 2.39
3.51 6.59 2.39
3.38 6.67 2.39
3.25 6.73 2.39
3.12 6.80 2.39
2.98 6.86 2.39
2.84 6.93 2.39
2.71 6.98 2.39
2.57 7.04 2.39
2.43 7.09 2.39
2.29 7.14 2.39
2.15 7.23 2.40
2.09 7.54 2.49
1.93 7.58 2.49
1.78 7.62 2.49
1.63 7.66 2.49
1.48 7.69 2.49
1.32 7.72 2.49
1.17 7.75 2.49
1.01 7.77 2.49
0.86 7.79 2.49
0.70 7.81 2.49
0.55 7.82 2.49
0.39 7.83 2.49
0.23 7.84 2.49
0.08 7.84 2.49
-0.08 7.84 2.49
-0.24 7.84 2.49
-0.39 7.83 2.49
-0.55 7.82 2.49
-0.70 7.81 2.49
-0.86 7.79 2.49
-1.02 7.77 2.49
-1.17 7.75 2.49
-1.33 7.72 2.49
-1.48 7.69 2.49
-1.63 7.66 2.49
-1.79 7.63 2.49
-1.94 7.59 2.49
-2.09 7.55 2.49
-2.24 7.50 2.49
-2.39 7.45 2.49
-2.53 7.40 2.49
-2.68 7.35 2.49
-2.83 7.29 2.49
-2.97 7.23 2.49
-3.11 7.17 2.49
-3.26 7.10 2.49
-3.40 7.03 2.49
-3.53 6.96 2.49
-3.67 6.88 2.49
-3.81 6.81 2.49
-3.94 6.73 2.49
-4.07 6.64 2.49
-4.20 6.56 2.49
-4.33 6.47 2.49
-4.46 6.38 2.49
-4.58 6.28 2.49
-4.70 6.19 2.49
-4.82 6.09 2.49
-4.94 5.99 2.49
-5.06 5.88 2.49
-5.17 5.78 2.49
-5.28 5.67 2.49
-5.39 5.56 2.49
-5.50 5.45 2.49
-5.60 5.33 2.49
-5.70 5.22 2.49
-5.80 5.10 2.49
-5.86 4.94 2.47
-5.85 4.74 2.43
-5.86 4.55 2.40
-5.92 4.41 2.39
-6.00 4.29 2.39
-6.08 4.17 2.39
-6.16 4.04 2.39
-6.23 3.92 2.39
-6.31 3.79 2.39
-6.38 3.66 2.39
-6.44 3.53 2.39
-6.51 3.39 2.39
-6.57 3.26 2.39
-6.63 3.12 2.39
-6.68 2.99 2.39
-6.74 2.85 2.39
-6.79 2.71 2.39
-6.83 2.58 2.39
-6.88 2.44 2.39
-6.92 2.30 2.39
-6.96 2.15 2.39
-7.00 2.01 2.39
-7.03 1.87 2.39
-7.06 1.73 2.39
-7.09 1.58 2.39
-7.11 1.44 2.39
-7.13 1.30 2.39
-7.15 1.15 2.39
-7.16 1.01 2.39
-7.18 0.86 2.39
-7.19 0.72 2.39
-7.19 0.57 2.39
-7.20 0.43 2.39
-7.20 0.28 2.39
-7.20 0.14 2.39
-7.19 -0.00 2.39
-7.18 -0.15 2.39
-7.17 -0.29 2.39
-7.16 -0.44 2.39
-7.14 -0.58 2.39
-7.12 -0.72 2.39
-7.10 -0.86 2.39
-7.07 -1.01 2.39
-7.05 -1.15 2.39
-7.02 -1.29 2.39
-6.98 -1.43 2.39
-6.95 -1.56 2.39
-6.91 -1.70 2.39
-6.87 -1.84 2.39
-6.82 -1.98 2.39
-6.78 -2.11 2.39
-6.73 -2.24 2.39
-6.67 -2.38 2.39
-6.62 -2.51 2.39
-6.56 -2.64 2.39
-6.50 -2.77 2.39
-6.44 -2.90 2.39
-6.38 -3.02 2.39
-6.31 -3.15 2.39
-6.24 -3.27 2.39
-6.17 -3.39 2.39
-6.09 -3.51 2.39
-6.02 -3.63 2.39
-5.94 -3.75 2.39
-5.87 -3.88 2.39
-5.77 -3.98 2.39
-5.69 -4.09 2.39
-5.66 -4.24 2.41
-5.65 -4.42 2.45
-5.65 -4.61 2.49
-5.56 -4.72 2.49
-5.46 -4.83 2.49
-5.35 -4.93 2.49
-5.25 -5.04 2.49
-5.15 -5.14 2.49
-5.04 -5.24 2.49
-4.93 -5.33 2.49
-4.82 -5.43 2.49
-4.70 -5.52 2.49
-4.59 -5.61 2.49
-4.47 -5.70 2.49
-4.35 -5.79 2.49
-4.23 -5.87 2.49
-4.11 -5.95 2.49
-3.99 -6.03 2.49
-3.87 -6.11 2.49
-3.74 -6.18 2.49
-3.61 -6.25 2.49
-3.49 -6.32 2.49
-3.36 -6.39 2.49
-3.23 -6.45 2.49
-3.09 -6.51 2.49
-2.96 -6.57 2.49
-2.83 -6.63 2.49
-2.69 -6.68 2.49
-2.56 -6.73 2.49
-2.42 -6.78 2.49
-2.28 -6.82 2.49
-2.14 -6.87 2.49
-2.00 -6.91 2.49
-1.86 -6.94 2.49
-1.72 -6.98 2.49
-1.58 -7.01 2.49
-1.44 -7.04 2.49
-1.30 -7.06 2.49
-1.15 -7.09 2.49
-1.01 -7.11 2.49
-0.87 -7.13 2.49
-0.72 -7.14 2.49
-0.58 -7.15 2.49
-0.43 -7.16 2.49
-0.29 -7.17 2.49
-0.15 -7.18 2.49
-0.00 -6.69 2.49
0.13 -6.69 2.49
0.27 -6.68 2.49
0.40 -6.67 2.49
0.54 -6.67 2.49
0.67 -6.65 2.49
0.81 -6.64 2.49
0.94 -6.62 2.49
1.07 -6.60 2.49
1.21 -6.58 2.49
1.34 -6.56 2.49
1.47 -6.53 2.49
1.60 -6.50 2.49
1.73 -6.47 2.49
1.87 -6.43 2.49
1.99 -6.39 2.49
2.12 -6.35 2.49
2.25 -6.31 2.49
2.38 -6.27 2.49
2.42 -6.00 2.40
2.52 -5.91 2.39
2.64 -5.86 2.39
2.76 -5.81 2.39
2.88 -5.76 2.39
2.99 -5.70 2.39
3.11 -5.64 2.39
3.22 -5.58 2.39
3.34 -5.51 2.39
3.45 -5.45 2.39
3.56 -5.38 2.39
3.67 -5.31 2.39
3.78 -5.24 2.39
3.88 -5.16 2.39
3.99 -5.08 2.39
4.09 -5.00 2.39
4.19 -4.92 2.39
4.30 -4.84 2.39
4.39 -4.76 2.39
4.49 -4.67 2.39
4.59 -4.58 2.39
4.68 -4.49 2.39
4.77 -4.40 2.39
4.86 -4.30 2.39
4.95 -4.21 2.39
5.04 -4.11 2.39
5.12 -4.01 2.39
5.21 -3.91 2.39
5.29 -3.80 2.39
5.37 -3.70 2.39
5.44 -3.59 2.39
5.52 -3.48 2.39
5.59 -3.37 2.39
5.66 -3.26 2.39
5.73 -3.15 2.39
5.80 -3.04 2.39
5.86 -2.92 2.39
5.92 -2.81 2.39
5.56 -2.50 2.22
5.55 -2.36 2.19
5.55 -2.23 2.17
5.57 -2.11 2.16
5.65 -2.01 2.18
5.68 -1.89 2.17
5.71 -1.78 2.17
6.14 -1.78 2.31
6.18 -1.65 2.31
6.18 -1.52 2.30
6.18 -1.39 2.29
6.17 -1.26 2.27
6.17 -1.13 2.26
6.17 -1.00 2.25
6.16 -0.87 2.24
5.62 -0.68 2.04
5.64 -0.57 2.04
5.65 -0.46 2.04
5.64 -0.34 2.03
5.66 -0.23 2.03
5.67 -0.12 2.03
5.69 -0.00 2.04
5.71 0.11 2.04
6.14 0.24 2.20
6.14 0.37 2.20
6.14 0.49 2.20
6.14 0.62 2.20
6.13 0.74 2.20
6.13 0.87 2.20
6.13 0.99 2.21
6.13 1.12 2.21
6.01 1.22 2.18
5.61 1.26 2.04
5.62 1.38 2.05
5.64 1.50 2.07
5.61 1.62 2.07
5.64 1.75 2.09
5.67 1.88 2.11
5.70 2.02 2.13
6.10 2.30 2.30
6.10 2.44 2.31
6.10 2.58 2.33
6.09 2.73 2.35
6.09 2.87 2.37
6.09 3.02 2.39
6.03 3.15 2.39
5.75 3.15 2.30
5.45 3.13 2.20
5.26 3.16 2.15
4.95 3.11 2.04
4.90 3.22 2.05
4.94 3.39 2.09
4.95 3.54 2.13
4.91 3.66 2.14
5.10 3.97 2.25
5.32 4.32 2.39
5.24 4.42 2.39
5.15 4.53 2.39
5.07 4.64 2.39
4.97 4.74 2.39
4.88 4.84 2.39
4.79 4.94 2.39
4.69 5.04 2.39
4.59 5.13 2.39
4.49 5.23 2.39
4.39 5.32 2.39
4.28 5.41 2.39
4.18 5.50 2.39
4.07 5.58 2.39
3.96 5.67 2.39
3.84 5.75 2.39
3.73 5.83 2.39
3.61 5.90 2.39
3.50 5.98 2.39
3.38 6.05 2.39
3.26 6.12 2.39
3.14 6.18 2.39
3.01 6.25 2.39
2.89 6.31 2.39
2.76 6.37 2.39
2.64 6.42 2.39
2.51 6.48 2.39
2.38 6.53 2.39
2.25 6.58 2.39
2.16 6.74 2.43
2.07 6.95 2.49
1.93 6.99 2.49
1.79 7.03 2.49
1.65 7.07 2.49
1.51 7.10 2.49
1.37 7.13 2.49
1.23 7.16 2.49
1.08 7.18 2.49
0.94 7.20 2.49
0.80 7.22 2.49
0.65 7.24 2.49
0.51 7.25 2.49
0.36 7.26 2.49
0.22 7.27 2.49
0.07 7.27 2.49
-0.07 7.27 2.49
-0.22 7.27 2.49
-0.36 7.26 2.49
-0.51 7.25 2.49
-0.65 7.24 2.49
-0.80 7.22 2.49
-0.94 7.21 2.49
-1.09 7.18 2.49
-1.23 7.16 2.49
-1.37 7.13 2.49
-1.51 7.10 2.49
-1.65 7.07 2.49
-1.80 7.04 2.49
-1.94 7.00 2.49
-2.07 6.95 2.49
-2.21 6.91 2.49
-2.35 6.86 2.49
-2.49 6.81 2.49
-2.62 6.76 2.49
-2.75 6.70 2.49
-2.89 6.65 2.49
-3.02 6.58 2.49
-3.15 6.52 2.49
-3.28 6.45 2.49
-3.40 6.38 2.49
-3.53 6.31 2.49
-3.65 6.24 2.49
-3.77 6.16 2.49
-3.90 6.08 2.49
-4.01 6.00 2.49
-4.13 5.92 2.49
-4.25 5.83 2.49
-4.36 5.74 2.49
-4.47 5.65 2.49
-4.58 5.56 2.49
-4.69 5.46 2.49
-4.80 5.36 2.49
-4.90 5.26 2.49
-5.00 5.16 2.49
-5.10 5.06 2.49
-5.20 4.95 2.49
-5.29 4.84 2.49
-5.38 4.73 2.49
-5.47 4.62 2.49
-5.56 4.51 2.49
-5.65 4.39 2.49
-5.73 4.28 2.49
-5.81 4.16 2.49
-5.84 4.00 2.47
-5.83 3.83 2.44
-5.84 3.67 2.41
-5.85 3.52 2.39
-5.92 3.40 2.39
-5.98 3.27 2.39
-6.04 3.15 2.39
-6.10 3.03 2.39
-6.15 2.90 2.39
-6.21 2.78 2.39
-6.26 2.65 2.39
-6.30 2.52 2.39
-6.35 2.39 2.39
-6.39 2.26 2.39
-6.43 2.13 2.39
-6.46 2.00 2.39
-6.50 1.87 2.39
-6.53 1.74 2.39
-6.56 1.61 2.39
-6.58 1.47 2.39
-6.60 1.34 2.39
-6.62 1.21 2.39
-6.64 1.07 2.39
-6.66 0.94 2.39
-6.67 0.80 2.39
-6.68 0.67 2.39
-6.68 0.54 2.39
-6.69 0.40 2.39
-6.69 0.27 2.39
-6.69 0.13 2.39
-6.68 -0.00 2.39
-6.68 -0.14 2.39
-6.67 -0.27 2.39
-6.65 -0.40 2.39
-6.64 -0.54 2.39
-6.62 -0.67 2.39
-6.60 -0.80 2.39
-6.58 -0.93 2.39
-6.55 -1.06 2.39
-6.52 -1.19 2.39
-6.49 -1.32 2.39
-6.46 -1.45 2.39
-6.43 -1.58 2.39
-6.39 -1.71 2.39
-6.35 -1.83 2.39
-6.30 -1.96 2.39
-6.26 -2.09 2.39
-6.21 -2.21 2.39
-6.16 -2.33 2.39
-6.11 -2.45 2.39
-6.05 -2.57 2.39
-5.99 -2.69 2.39
-5.93 -2.81 2.39
-5.87 -2.93 2.39
-5.81 -3.04 2.39
-5.74 -3.16 2.39
-5.68 -3.28 2.39
-5.67 -3.42 2.42
-5.67 -3.58 2.45
-5.67 -3.74 2.48
-5.61 -3.86 2.49
-5.52 -3.97 2.49
-5.44 -4.08 2.49
-5.35 -4.19 2.49
-5.26 -4.29 2.49
-5.17 -4.39 2.49
-5.08 -4.49 2.49
-4.99 -4.59 2.49
-4.89 -4.69 2.49
-4.79 -4.78 2.49
-4.69 -4.88 2.49
-4.59 -4.97 2.49
-4.49 -5.05 2.49
-4.38 -5.14 2.49
-4.27 -5.23 2.49
-4.17 -5.31 2.49
-4.06 -5.39 2.49
-3.95 -5.47 2.49
-3.83 -5.54 2.49
-3.72 -5.62 2.49
-3.60 -5.69 2.49
-3.49 -5.76 2.49
-3.37 -5.82 2.49
-3.25 -5.89 2.49
-3.13 -5.95 2.49
-3.01 -6.01 2.49
-2.88 -6.06 2.49
-2.76 -6.12 2.49
-2.63 -6.17 2.49
-2.51 -6.22 2.49
-2.38 -6.27 2.49
-2.25 -6.31 2.49
-2.13 -6.36 2.49
-2.00 -6.40 2.49
-1.87 -6.43 2.49
-1.74 -6.47 2.49
-1.61 -6.50 2.49
-1.47 -6.53 2.49
-1.34 -6.56 2.49
-1.21 -6.58 2.49
-1.08 -6.60 2.49
-0.94 -6.62 2.49
-0.81 -6.64 2.49
-0.67 -6.65 2.49
-0.54 -6.67 2.49
-0.41 -6.68 2.49
-0.27 -6.68 2.49
-0.14 -6.69 2.49
-0.00 -6.25 2.49
0.13 -6.25 2.49
0.25 -6.25 2.49
0.38 -6.24 2.49
0.50 -6.23 2.49
0.63 -6.22 2.49
0.75 -6.21 2.49
0.88 -6.19 2.49
1.00 -6.17 2.49
1.13 -6.15 2.49
1.25 -6.13 2.49
1.38 -6.10 2.49
1.50 -6.08 2.49
1.62 -6.05 2.49
1.74 -6.01 2.49
1.87 -5.98 2.49
1.99 -5.94 2.49
2.11 -5.90 2.49
2.23 -5.86 2.49
2.34 -5.81 2.49
2.40 -5.63 2.43
2.47 -5.48 2.39
2.58 -5.43 2.39
2.69 -5.38 2.39
2.80 -5.33 2.39
2.91 -5.27 2.39
3.02 -5.21 2.39
3.12 -5.15 2.39
3.23 -5.09 2.39
3.33 -5.03 2.39
3.43 -4.96 2.39
3.53 -4.89 2.39
3.63 -4.82 2.39
3.73 -4.75 2.39
3.83 -4.68 2.39
3.92 -4.60 2.39
4.02 -4.52 2.39
4.11 -4.44 2.39
4.20 -4.36 2.39
4.29 -4.28 2.39
4.38 -4.19 2.39
4.46 -4.11 2.39
4.55 -4.02 2.39
4.63 -3.93 2.39
4.71 -3.84 2.39
4.79 -3.74 2.39
4.87 -3.65 2.39
4.94 -3.55 2.39
5.02 -3.45 2.39
5.09 -3.35 2.39
5.16 -3.25 2.39
5.23 -3.15 2.39
5.29 -3.05 2.39
5.36 -2.94 2.39
5.42 -2.84 2.39
5.48 -2.73 2.39
5.53 -2.62 2.39
5.55 -2.49 2.37
5.58 -2.37 2.36
5.60 -2.25 2.35
5.58 -2.11 2.32
5.65 -2.01 2.33
5.69 -1.89 2.33
5.71 -1.77 2.32
5.92 -1.71 2.39
5.95 -1.59 2.39
5.99 -1.47 2.39
6.02 -1.35 2.39
6.05 -1.23 2.39
6.08 -1.11 2.39
6.11 -0.99 2.39
6.13 -0.87 2.39
5.64 -0.68 2.19
5.66 -0.57 2.19
5.61 -0.45 2.17
5.59 -0.34 2.15
5.60 -0.22 2.15
5.60 -0.11 2.15
5.70 0.00 2.19
5.72 0.12 2.19
5.74 0.23 2.20
6.14 0.37 2.35
6.14 0.49 2.35
6.14 0.62 2.36
6.13 0.74 2.36
6.13 0.87 2.36
6.13 0.99 2.37
6.13 1.12 2.37
6.06 1.23 2.35
5.63 1.26 2.19
5.61 1.38 2.19
5.59 1.49 2.20
5.55 1.60 2.19
5.61 1.74 2.23
5.56 1.85 2.22
5.70 2.02 2.29
5.72 2.16 2.31
5.87 2.35 2.39
5.82 2.47 2.39
5.78 2.59 2.39
5.73 2.70 2.39
5.68 2.82 2.39
5.62 2.94 2.39
5.57 3.05 2.39
5.46 3.14 2.37
5.23 3.15 2.29
4.97 3.13 2.21
4.90 3.22 2.20
4.93 3.38 2.24
4.82 3.45 2.22
4.92 3.67 2.30
5.04 3.92 2.39
4.96 4.02 2.39
4.88 4.12 2.39
4.80 4.22 2.39
4.72 4.32 2.39
4.63 4.42 2.39
4.55 4.51 2.39
4.46 4.60 2.39
4.37 4.70 2.39
4.28 4.78 2.39
4.18 4.87 2.39
4.09 4.96 2.39
3.99 5.04 2.39
3.89 5.12 2.39
3.79 5.20 2.39
3.68 5.28 2.39
3.58 5.35 2.39
3.47 5.43 2.39
3.37 5.50 2.39
3.26 5.57 2.39
3.15 5.63 2.39
3.03 5.70 2.39
2.92 5.76 2.39
2.81 5.82 2.39
2.69 5.87 2.39
2.57 5.93 2.39
2.45 5.98 2.39
2.34 6.03 2.39
2.22 6.08 2.39
2.16 6.33 2.47
2.06 6.43 2.49
1.93 6.47 2.49
1.80 6.51 2.49
1.67 6.55 2.49
1.54 6.58 2.49
1.41 6.61 2.49
1.27 6.64 2.49
1.14 6.67 2.49
1.01 6.69 2.49
0.88 6.71 2.49
0.74 6.72 2.49
0.61 6.74 2.49
0.47 6.75 2.49
0.34 6.76 2.49
0.20 6.76 2.49
0.07 6.77 2.49
-0.07 6.77 2.49
-0.20 6.76 2.49
-0.34 6.76 2.49
-0.47 6.75 2.49
-0.61 6.74 2.49
-0.74 6.73 2.49
-0.88 6.71 2.49
-1.01 6.69 2.49
-1.14 6.67 2.49
-1.28 6.64 2.49
-1.41 6.61 2.49
-1.54 6.58 2.49
-1.67 6.55 2.49
-1.80 6.51 2.49
-1.93 6.48 2.49
-2.06 6.43 2.49
-2.19 6.39 2.49
-2.31 6.34 2.49
-2.44 6.30 2.49
-2.56 6.24 2.49
-2.69 6.19 2.49
-2.81 6.13 2.49
-2.93 6.07 2.49
-3.05 6.01 2.49
-3.17 5.95 2.49
-3.29 5.88 2.49
-3.40 5.81 2.49
-3.52 5.74 2.49
-3.63 5.67 2.49
-3.74 5.59 2.49
-3.85 5.51 2.49
-3.96 5.43 2.49
-4.06 5.35 2.49
-4.17 5.26 2.49
-4.27 5.18 2.49
-4.37 5.09 2.49
-4.47 5.00 2.49
-4.56 4.90 2.49
-4.66 4.81 2.49
-4.75 4.71 2.49
-4.84 4.61 2.49
-4.93 4.51 2.49
-5.02 4.41 2.49
-5.10 4.31 2.49
-5.18 4.20 2.49
-5.26 4.09 2.49
-5.34 3.99 2.49
-5.41 3.88 2.49
-5.49 3.76 2.49
-5.56 3.65 2.49
-5.63 3.54 2.49
-5.69 3.42 2.49
-5.75 3.30 2.49
-5.82 3.19 2.49
-5.82 3.04 2.47
-5.82 2.89 2.44
-5.82 2.75 2.42
-5.82 2.61 2.40
-5.83 2.47 2.39
-5.88 2.35 2.39
-5.92 2.23 2.39
-5.96 2.11 2.39
-6.01 2.00 2.40
-6.03 1.87 2.39
-6.06 1.75 2.39
-6.09 1.62 2.39
-6.11 1.50 2.39
-6.14 1.38 2.39
-6.16 1.25 2.39
-6.18 1.13 2.39
-6.20 1.00 2.39
-6.21 0.88 2.39
-6.22 0.75 2.39
-6.23 0.63 2.39
-6.24 0.50 2.39
-6.24 0.38 2.39
-6.24 0.25 2.39
-6.24 0.13 2.39
-6.24 0.00 2.39
-6.23 -0.12 2.39
-6.22 -0.25 2.39
-6.21 -0.37 2.39
-6.20 -0.50 2.39
-6.18 -0.62 2.39
-6.16 -0.75 2.39
-6.14 -0.87 2.39
-6.12 -0.99 2.39
-6.09 -1.11 2.39
-6.06 -1.23 2.39
-6.03 -1.35 2.39
-6.00 -1.47 2.39
-5.96 -1.59 2.39
-5.94 -1.71 2.39
-5.89 -1.83 2.39
-5.84 -1.95 2.39
-5.80 -2.06 2.39
-5.75 -2.18 2.39
-5.72 -2.30 2.40
-5.72 -2.43 2.42
-5.71 -2.56 2.43
-5.70 -2.70 2.46
-5.70 -2.84 2.48
-5.66 -2.96 2.49
-5.59 -3.07 2.49
-5.53 -3.18 2.49
-5.46 -3.29 2.49
-5.39 -3.40 2.49
-5.31 -3.50 2.49
-5.24 -3.61 2.49
-5.16 -3.71 2.49
-5.08 -3.81 2.49
-5.00 -3.91 2.49
-4.92 -4.01 2.49
-4.84 -4.10 2.49
-4.75 -4.20 2.49
-4.66 -4.29 2.49
-4.57 -4.38 2.49
-4.48 -4.47 2.49
-4.39 -4.56 2.49
-4.29 -4.64 2.49
-4.19 -4.72 2.49
-4.10 -4.80 2.49
-4.00 -4.88 2.49
-3.90 -4.96 2.49
-3.79 -5.04 2.49
-3.69 -5.11 2.49
-3.58 -5.18 2.49
-3.48 -5.25 2.49
-3.37 -5.31 2.49
-3.26 -5.38 2.49
-3.15 -5.44 2.49
-3.04 -5.50 2.49
-2.92 -5.56 2.49
-2.81 -5.62 2.49
-2.70 -5.67 2.49
-2.58 -5.72 2.49
-2.46 -5.77 2.49
-2.35 -5.82 2.49
-2.23 -5.86 2.49
-2.11 -5.90 2.49
-1.99 -5.94 2.49
-1.87 -5.98 2.49
-1.75 -6.01 2.49
-1.62 -6.05 2.49
-1.50 -6.08 2.49
-1.38 -6.11 2.49
-1.25 -6.13 2.49
-1.13 -6.15 2.49
-1.01 -6.17 2.49
-0.88 -6.19 2.49
-0.76 -6.21 2.49
-0.63 -6.22 2.49
-0.50 -6.23 2.49
-0.38 -6.24 2.49
-0.25 -6.25 2.49
-0.13 -6.25 2.49
-0.00 -5.86 2.49
0.12 -5.86 2.49
0.24 -5.86 2.49
0.35 -5.85 2.49
0.47 -5.85 2.49
0.59 -5.84 2.49
0.71 -5.82 2.49
0.83 -5.81 2.49
0.94 -5.79 2.49
1.06 -5.77 2.49
1.18 -5.75 2.49
1.29 -5.73 2.49
1.41 -5.70 2.49
1.52 -5.67 2.49
1.64 -5.64 2.49
1.75 -5.61 2.49
1.86 -5.57 2.49
1.98 -5.53 2.49
2.09 -5.49 2.49
2.20 -5.45 2.49
2.31 -5.41 2.49
2.39 -5.31 2.47
2.42 -5.09 2.39
2.53 -5.05 2.39
2.63 -4.99 2.39
2.73 -4.94 2.39
2.83 -4.89 2.39
2.93 -4.83 2.39
3.03 -4.77 2.39
3.12 -4.71 2.39
3.22 -4.65 2.39
3.31 -4.59 2.39
3.41 -4.52 2.39
3.50 -4.45 2.39
3.59 -4.38 2.39
3.68 -4.31 2.39
3.77 -4.24 2.39
3.85 -4.17 2.39
3.94 -4.09 2.39
4.02 -4.01 2.39
4.10 -3.93 2.39
4.18 -3.85 2.39
4.26 -3.77 2.39
4.34 -3.68 2.39
4.42 -3.60 2.39
4.49 -3.51 2.39
4.56 -3.42 2.39
4.63 -3.33 2.39
4.70 -3.24 2.39
4.77 -3.14 2.39
4.83 -3.05 2.39
4.90 -2.95 2.39
4.96 -2.85 2.39
5.02 -2.76 2.39
5.08 -2.66 2.39
5.13 -2.56 2.39
5.19 -2.45 2.39
5.24 -2.35 2.39
5.29 -2.25 2.39
5.34 -2.14 2.39
5.38 -2.03 2.39
5.43 -1.93 2.39
5.47 -1.82 2.39
5.51 -1.71 2.39
5.54 -1.60 2.39
5.58 -1.49 2.39
5.61 -1.38 2.39
5.64 -1.27 2.39
5.67 -1.15 2.39
5.70 -1.04 2.39
5.72 -0.92 2.39
5.74 -0.81 2.39
5.76 -0.70 2.39
5.67 -0.57 2.34
5.60 -0.45 2.31
5.59 -0.33 2.30
5.64 -0.22 2.32
5.61 -0.11 2.30
5.70 0.00 2.33
5.72 0.12 2.34
5.74 0.23 2.35
5.83 0.35 2.39
5.83 0.47 2.39
5.82 0.59 2.39
5.81 0.71 2.39
5.80 0.82 2.39
5.79 0.94 2.39
5.77 1.06 2.39
5.76 1.17 2.39
5.74 1.29 2.39
5.66 1.39 2.37
5.59 1.49 2.35
5.54 1.60 2.34
5.62 1.75 2.38
5.60 1.86 2.39
5.56 1.98 2.39
5.53 2.09 2.39
5.49 2.20 2.39
5.45 2.31 2.39
5.40 2.42 2.39
5.36 2.53 2.39
5.31 2.64 2.39
5.26 2.75 2.39
5.21 2.86 2.39
5.15 2.96 2.39
5.10 3.07 2.39
5.04 3.17 2.39
4.98 3.27 2.39
4.91 3.37 2.39
4.85 3.47 2.39
4.78 3.57 2.39
4.71 3.67 2.39
4.64 3.76 2.39
4.56 3.86 2.39
4.49 3.95 2.39
4.41 4.04 2.39
4.33 4.13 2.39
4.25 4.22 2.39
4.17 4.31 2.39
4.08 4.39 2.39
4.00 4.48 2.39
3.91 4.56 2.39
3.82 4.64 2.39
3.73 4.71 2.39
3.63 4.79 2.39
3.54 4.86 2.39
3.44 4.94 2.39
3.35 5.01 2.39
3.25 5.07 2.39
3.15 5.14 2.39
3.04 5.20 2.39
2.94 5.27 2.39
2.84 5.33 2.39
2.73 5.38 2.39
2.62 5.44 2.39
2.51 5.49 2.39
2.40 5.54 2.39
2.29 5.59 2.39
2.19 5.65 2.39
2.16 5.93 2.49
2.04 5.97 2.49
1.92 6.01 2.49
1.80 6.05 2.49
1.68 6.09 2.49
1.56 6.12 2.49
1.44 6.15 2.49
1.31 6.18 2.49
1.19 6.21 2.49
1.07 6.23 2.49
0.94 6.25 2.49
0.82 6.27 2.49
0.69 6.28 2.49
0.57 6.30 2.49
0.44 6.31 2.49
0.31 6.32 2.49
0.19 6.32 2.49
0.06 6.32 2.49
-0.06 6.32 2.49
-0.19 6.32 2.49
-0.32 6.32 2.49
-0.44 6.31 2.49
-0.57 6.30 2.49
-0.69 6.29 2.49
-0.82 6.27 2.49
-0.94 6.25 2.49
-1.07 6.23 2.49
-1.19 6.21 2.49
-1.32 6.18 2.49
-1.44 6.15 2.49
-1.56 6.12 2.49
-1.68 6.09 2.49
-1.80 6.05 2.49
-1.92 6.01 2.49
-2.04 5.97 2.49
-2.16 5.93 2.49
-2.28 5.88 2.49
-2.40 5.84 2.49
-2.51 5.79 2.49
-2.63 5.73 2.49
-2.74 5.68 2.49
-2.85 5.62 2.49
-2.96 5.56 2.49
-3.07 5.50 2.49
-3.18 5.43 2.49
-3.28 5.37 2.49
-3.39 5.30 2.49
-3.49 5.23 2.49
-3.60 5.15 2.49
-3.70 5.08 2.49
-3.80 5.00 2.49
-3.89 4.92 2.49
-3.99 4.84 2.49
-4.08 4.76 2.49
-4.17 4.67 2.49
-4.27 4.59 2.49
-4.35 4.50 2.49
-4.44 4.41 2.49
-4.53 4.31 2.49
-4.61 4.22 2.49
-4.69 4.13 2.49
-4.77 4.03 2.49
-4.84 3.93 2.49
-4.92 3.83 2.49
-4.99 3.73 2.49
-5.06 3.63 2.49
-5.13 3.52 2.49
-5.20 3.42 2.49
-5.26 3.31 2.49
-5.32 3.20 2.49
-5.38 3.09 2.49
-5.44 2.98 2.49
-5.49 2.87 2.49
-5.55 2.76 2.49
-5.60 2.64 2.49
-5.65 2.53 2.49
-5.69 2.42 2.49
-5.73 2.30 2.49
-5.77 2.18 2.49
-5.80 2.06 2.49
-5.80 1.93 2.47
-5.79 1.80 2.45
-5.79 1.67 2.44
-5.79 1.55 2.43
-5.79 1.42 2.42
-5.79 1.30 2.41
-5.79 1.18 2.40
-5.79 1.06 2.39
-5.80 0.94 2.39
-5.81 0.82 2.39
-5.82 0.71 2.39
-5.83 0.59 2.39
-5.84 0.47 2.39
-5.84 0.35 2.39
-5.84 0.24 2.39
-5.84 0.12 2.39
-5.84 0.00 2.39
-5.83 -0.11 2.39
-5.83 -0.23 2.39
-5.82 -0.35 2.39
-5.80 -0.46 2.39
-5.79 -0.58 2.39
-5.77 -0.70 2.39
-5.75 -0.81 2.39
-5.75 -0.93 2.40
-5.75 -1.05 2.40
-5.74 -1.17 2.41
-5.74 -1.29 2.42
-5.73 -1.41 2.44
-5.73 -1.53 2.45
-5.73 -1.65 2.46
-5.72 -1.78 2.48
-5.71 -1.90 2.49
-5.67 -2.01 2.49
-5.62 -2.12 2.49
-5.58 -2.24 2.49
-5.53 -2.35 2.49
-5.47 -2.45 2.49
-5.42 -2.56 2.49
-5.36 -2.67 2.49
-5.30 -2.77 2.49
-5.24 -2.88 2.49
-5.18 -2.98 2.49
-5.12 -3.08 2.49
-5.05 -3.18 2.49
-4.98 -3.28 2.49
-4.91 -3.38 2.49
-4.84 -3.48 2.49
-4.77 -3.57 2.49
-4.69 -3.66 2.49
-4.61 -3.76 2.49
-4.53 -3.85 2.49
-4.45 -3.93 2.49
-4.37 -4.02 2.49
-4.29 -4.10 2.49
-4.20 -4.19 2.49
-4.11 -4.27 2.49
-4.02 -4.35 2.49
-3.93 -4.43 2.49
-3.84 -4.50 2.49
-3.75 -4.58 2.49
-3.65 -4.65 2.49
-3.56 -4.72 2.49
-3.46 -4.79 2.49
-3.36 -4.86 2.49
-3.26 -4.92 2.49
-3.16 -4.98 2.49
-3.06 -5.04 2.49
-2.95 -5.10 2.49
-2.85 -5.16 2.49
-2.74 -5.21 2.49
-2.64 -5.27 2.49
-2.53 -5.32 2.49
-2.42 -5.36 2.49
-2.31 -5.41 2.49
-2.20 -5.45 2.49
-2.09 -5.50 2.49
-1.98 -5.54 2.49
-1.87 -5.57 2.49
-1.75 -5.61 2.49
-1.64 -5.64 2.49
-1.52 -5.67 2.49
-1.41 -5.70 2.49
-1.29 -5.73 2.49
-1.18 -5.75 2.49
-1.06 -5.77 2.49
-0.94 -5.79 2.49
-0.83 -5.81 2.49
-0.71 -5.82 2.49
-0.59 -5.84 2.49
-0.47 -5.85 2.49
-0.36 -5.85 2.49
-0.24 -5.86 2.49
-0.12 -5.86 2.49
-0.00 -5.52 2.49
0.11 -5.52 2.49
0.22 -5.51 2.49
0.33 -5.51 2.49
0.44 -5.50 2.49
0.56 -5.49 2.49
0.67 -5.48 2.49
0.78 -5.46 2.49
0.89 -5.45 2.49
1.00 -5.43 2.49
1.11 -5.41 2.49
1.22 -5.38 2.49
1.32 -5.36 2.49
1.43 -5.33 2.49
1.54 -5.30 2.49
1.65 -5.27 2.49
1.75 -5.24 2.49
1.86 -5.20 2.49
1.96 -5.17 2.49
2.07 -5.13 2.49
2.17 -5.09 2.49
2.28 -5.04 2.49
2.38 -5.00 2.49
2.39 -4.78 2.40
2.47 -4.70 2.39
2.57 -4.65 2.39
2.66 -4.60 2.39
2.75 -4.54 2.39
2.85 -4.49 2.39
2.94 -4.43 2.39
3.03 -4.37 2.39
3.12 -4.31 2.39
3.20 -4.25 2.39
3.29 -4.19 2.39
3.38 -4.12 2.39
3.46 -4.05 2.39
3.54 -3.99 2.39
3.62 -3.92 2.39
3.70 -3.84 2.39
3.78 -3.77 2.39
3.86 -3.70 2.39
3.93 -3.62 2.39
4.01 -3.54 2.39
4.08 -3.46 2.39
4.15 -3.38 2.39
4.22 -3.30 2.39
4.29 -3.21 2.39
4.36 -3.13 2.39
4.42 -3.04 2.39
4.48 -2.95 2.39
4.55 -2.86 2.39
4.60 -2.77 2.39
4.66 -2.68 2.39
4.72 -2.59 2.39
4.77 -2.50 2.39
4.83 -2.40 2.39
4.88 -2.30 2.39
4.92 -2.21 2.39
4.97 -2.11 2.39
5.02 -2.01 2.39
5.06 -1.91 2.39
5.10 -1.81 2.39
5.14 -1.71 2.39
5.17 -1.60 2.39
5.21 -1.50 2.39
5.24 -1.40 2.39
5.27 -1.29 2.39
5.30 -1.19 2.39
5.33 -1.08 2.39
5.35 -0.97 2.39
5.37 -0.87 2.39
5.39 -0.76 2.39
5.41 -0.65 2.39
5.43 -0.54 2.39
5.44 -0.43 2.39
5.45 -0.32 2.39
5.46 -0.22 2.39
5.47 -0.11 2.39
5.48 0.00 2.39
5.48 0.11 2.39
5.48 0.22 2.39
5.48 0.33 2.39
5.47 0.44 2.39
5.47 0.55 2.39
5.46 0.66 2.39
5.45 0.77 2.39
5.44 0.88 2.39
5.42 0.99 2.39
5.40 1.10 2.39
5.38 1.21 2.39
5.36 1.32 2.39
5.34 1.43 2.39
5.31 1.54 2.39
5.29 1.64 2.39
5.25 1.75 2.39
5.22 1.86 2.39
5.19 1.96 2.39
5.15 2.07 2.39
5.11 2.17 2.39
5.07 2.28 2.39
5.03 2.38 2.39
4.98 2.48 2.39
4.93 2.58 2.39
4.89 2.68 2.39
4.83 2.78 2.39
4.78 2.88 2.39
4.72 2.98 2.39
4.67 3.07 2.39
4.61 3.17 2.39
4.55 3.26 2.39
4.48 3.35 2.39
4.42 3.44 2.39
4.35 3.53 2.39
4.28 3.62 2.39
4.21 3.71 2.39
4.14 3.79 2.39
4.06 3.88 2.39
3.99 3.96 2.39
3.91 4.04 2.39
3.83 4.12 2.39
3.75 4.20 2.39
3.67 4.27 2.39
3.58 4.35 2.39
3.49 4.42 2.39
3.41 4.49 2.39
3.32 4.56 2.39
3.23 4.63 2.39
3.14 4.70 2.39
3.04 4.76 2.39
2.95 4.82 2.39
2.85 4.88 2.39
2.76 4.94 2.39
2.66 4.99 2.39
2.56 5.05 2.39
2.46 5.10 2.39
2.36 5.15 2.39
2.25 5.20 2.39
2.19 5.33 2.43
2.13 5.51 2.49
2.02 5.56 2.49
1.91 5.60 2.49
1.80 5.64 2.49
1.69 5.67 2.49
1.58 5.71 2.49
1.46 5.74 2.49
1.35 5.77 2.49
1.23 5.79 2.49
1.12 5.82 2.49
1.00 5.84 2.49
0.88 5.86 2.49
0.77 5.88 2.49
0.65 5.89 2.49
0.53 5.90 2.49
0.41 5.91 2.49
0.30 5.92 2.49
0.18 5.93 2.49
0.06 5.93 2.49
-0.06 5.93 2.49
-0.18 5.93 2.49
-0.30 5.92 2.49
-0.41 5.91 2.49
-0.53 5.91 2.49
-0.65 5.89 2.49
-0.77 5.88 2.49
-0.88 5.86 2.49
-1.00 5.84 2.49
-1.12 5.82 2.49
-1.23 5.80 2.49
-1.35 5.77 2.49
-1.46 5.74 2.49
-1.58 5.71 2.49
-1.69 5.68 2.49
-1.80 5.64 2.49
-1.92 5.60 2.49
-2.03 5.56 2.49
-2.14 5.52 2.49
-2.25 5.47 2.49
-2.35 5.42 2.49
-2.46 5.37 2.49
-2.57 5.32 2.49
-2.67 5.27 2.49
-2.78 5.21 2.49
-2.88 5.15 2.49
-2.98 5.09 2.49
-3.08 5.03 2.49
-3.18 4.97 2.49
-3.28 4.90 2.49
-3.37 4.83 2.49
-3.47 4.76 2.49
-3.56 4.69 2.49
-3.65 4.62 2.49
-3.74 4.54 2.49
-3.83 4.46 2.49
-3.91 4.38 2.49
-4.00 4.30 2.49
-4.08 4.22 2.49
-4.16 4.13 2.49
-4.24 4.05 2.49
-4.32 3.96 2.49
-4.40 3.87 2.49
-4.47 3.78 2.49
-4.54 3.69 2.49
-4.61 3.59 2.49
-4.68 3.50 2.49
-4.75 3.40 2.49
-4.81 3.31 2.49
-4.88 3.21 2.49
-4.94 3.11 2.49
-4.99 3.01 2.49
-5.05 2.90 2.49
-5.10 2.80 2.49
-5.15 2.70 2.49
-5.20 2.59 2.49
-5.25 2.48 2.49
-5.30 2.38 2.49
-5.34 2.27 2.49
-5.38 2.16 2.49
-5.42 2.05 2.49
-5.46 1.94 2.49
-5.49 1.83 2.49
-5.52 1.72 2.49
-5.55 1.61 2.49
-5.58 1.49 2.49
-5.60 1.38 2.49
-5.63 1.27 2.49
-5.65 1.15 2.49
-5.66 1.04 2.49
-5.68 0.92 2.49
-5.69 0.81 2.49
-5.70 0.69 2.49
-5.71 0.58 2.49
-5.72 0.46 2.49
-5.72 0.35 2.49
-5.72 0.23 2.49
-5.72 0.12 2.49
-5.72 0.00 2.49
-5.72 -0.11 2.49
-5.71 -0.23 2.49
-5.70 -0.34 2.49
-5.69 -0.45 2.49
-5.67 -0.57 2.49
-5.65 -0.68 2.49
-5.64 -0.79 2.49
-5.61 -0.91 2.49
-5.59 -1.02 2.49
-5.57 -1.13 2.49
-5.54 -1.24 2.49
-5.51 -1.35 2.49
-5.48 -1.46 2.49
-5.44 -1.57 2.49
-5.41 -1.68 2.49
-5.37 -1.78 2.49
-5.33 -1.89 2.49
-5.28 -1.99 2.49
-5.24 -2.10 2.49
-5.19 -2.20 2.49
-5.14 -2.30 2.49
-5.09 -2.41 2.49
-5.04 -2.51 2.49
-4.99 -2.61 2.49
-4.93 -2.70 2.49
-4.87 -2.80 2.49
-4.81 -2.90 2.49
-4.75 -2.99 2.49
-4.68 -3.08 2.49
-4.62 -3.18 2.49
-4.55 -3.27 2.49
-4.48 -3.36 2.49
-4.41 -3.44 2.49
-4.34 -3.53 2.49
-4.26 -3.61 2.49
-4.19 -3.70 2.49
-4.11 -3.78 2.49
-4.03 -3.86 2.49
-3.95 -3.94 2.49
-3.87 -4.01 2.49
-3.78 -4.09 2.49
-3.70 -4.16 2.49
-3.61 -4.23 2.49
-3.53 -4.30 2.49
-3.44 -4.37 2.49
-3.35 -4.44 2.49
-3.25 -4.50 2.49
-3.16 -4.57 2.49
-3.07 -4.63 2.49
-2.97 -4.69 2.49
-2.88 -4.74 2.49
-2.78 -4.80 2.49
-2.68 -4.85 2.49
-2.58 -4.90 2.49
-2.48 -4.95 2.49
-2.38 -5.00 2.49
-2.28 -5.04 2.49
-2.17 -5.09 2.49
-2.07 -5.13 2.49
-1.97 -5.17 2.49
-1.86 -5.21 2.49
-1.76 -5.24 2.49
-1.65 -5.27 2.49
-1.54 -5.31 2.49
-1.43 -5.33 2.49
-1.33 -5.36 2.49
-1.22 -5.39 2.49
-1.11 -5.41 2.49
-1.00 -5.43 2.49
-0.89 -5.45 2.49
-0.78 -5.46 2.49
-0.67 -5.48 2.49
-0.56 -5.49 2.49
-0.45 -5.50 2.49
-0.33 -5.51 2.49
-0.22 -5.51 2.49
-0.11 -5.52 2.49
-0.00 -5.20 2.49
0.10 -5.20 2.49
0.21 -5.20 2.49
0.31 -5.19 2.49
0.42 -5.18 2.49
0.52 -5.17 2.49
0.63 -5.16 2.49
0.73 -5.15 2.49
0.84 -5.13 2.49
0.94 -5.12 2.49
1.04 -5.10 2.49
1.15 -5.08 2.49
1.25 -5.05 2.49
1.35 -5.03 2.49
1.45 -5.00 2.49
1.55 -4.97 2.49
1.65 -4.94 2.49
1.75 -4.91 2.49
1.85 -4.87 2.49
1.95 -4.83 2.49
2.05 -4.79 2.49
2.15 -4.75 2.49
2.24 -4.71 2.49
2.34 -4.67 2.49
2.38 -4.52 2.44
2.42 -4.38 2.39
2.51 -4.33 2.39
2.60 -4.28 2.39
2.68 -4.23 2.39
2.77 -4.18 2.39
2.85 -4.12 2.39
2.94 -4.06 2.39
3.02 -4.01 2.39
3.10 -3.95 2.39
3.18 -3.88 2.39
3.26 -3.82 2.39
3.34 -3.76 2.39
3.42 -3.69 2.39
3.49 -3.62 2.39
3.57 -3.55 2.39
3.64 -3.48 2.39
3.71 -3.41 2.39
3.78 -3.34 2.39
3.85 -3.26 2.39
3.91 -3.18 2.39
3.98 -3.11 2.39
4.04 -3.03 2.39
4.11 -2.95 2.39
4.17 -2.86 2.39
4.23 -2.78 2.39
4.28 -2.70 2.39
4.34 -2.61 2.39
4.39 -2.53 2.39
4.45 -2.44 2.39
4.50 -2.35 2.39
4.55 -2.26 2.39
4.59 -2.17 2.39
4.64 -2.08 2.39
4.68 -1.98 2.39
4.73 -1.89 2.39
4.77 -1.80 2.39
4.80 -1.70 2.39
4.84 -1.61 2.39
4.87 -1.51 2.39
4.91 -1.41 2.39
4.94 -1.31 2.39
4.97 -1.22 2.39
4.99 -1.12 2.39
5.02 -1.02 2.39
5.04 -0.92 2.39
5.06 -0.81 2.39
5.08 -0.71 2.39
5.10 -0.61 2.39
5.11 -0.51 2.39
5.13 -0.41 2.39
5.14 -0.30 2.39
5.14 -0.20 2.39
