ply
format ascii 1.0
element vertex 2817
property float32 x
property float32 y
property float32 z
end_header
23.15 17.87 1.31
23.13 18.60 1.33
23.10 19.36 1.35
23.05 20.12 1.37
23.05 20.95 1.40
23.01 21.77 1.42
22.61 22.27 1.43
22.21 22.77 1.43
21.80 23.27 1.44
21.40 23.77 1.44
20.82 24.09 1.44
20.26 24.42 1.44
19.71 24.74 1.44
17.81 23.31 1.33
17.07 23.28 1.31
16.34 23.26 1.30
15.64 23.24 1.28
14.96 23.22 1.26
14.30 23.20 1.25
13.65 23.18 1.24
13.02 23.16 1.22
12.40 23.14 1.21
11.80 23.12 1.20
11.73 24.18 1.24
11.70 25.38 1.30
11.66 26.69 1.35
11.52 27.88 1.41
11.56 29.67 1.49
11.59 31.61 1.58
11.27 32.74 1.62
10.59 32.91 1.63
9.97 33.25 1.64
10.12 36.38 1.78
9.33 36.36 1.78
2.66 11.30 0.55
8.48 39.57 1.92
6.50 49.41 2.39
5.49 49.40 2.39
4.48 49.32 2.39
3.48 49.28 2.39
2.49 49.22 2.39
1.50 49.13 2.39
-7.19 47.49 2.39
-8.12 47.21 2.39
-9.04 46.92 2.39
-6.86 32.12 1.65
-10.75 45.82 2.37
-10.62 41.48 2.16
-11.13 40.13 2.11
-11.69 39.07 2.07
-12.18 37.91 2.02
-12.34 35.93 1.94
-12.61 34.45 1.87
-13.16 33.83 1.86
-13.59 32.96 1.83
-13.72 31.46 1.77
-13.75 29.88 1.70
-13.90 28.67 1.65
-14.04 27.54 1.60
-14.08 26.30 1.55
-13.92 24.80 1.48
-13.34 22.69 1.37
-13.23 21.49 1.32
-13.22 20.54 1.28
-13.25 19.71 1.25
-13.28 18.92 1.22
-13.30 18.16 1.19
-13.31 17.44 1.16
-13.34 16.77 1.14
-13.39 16.15 1.12
-13.44 15.57 1.10
-13.46 14.97 1.08
-13.44 14.35 1.05
-13.41 13.76 1.03
-13.41 13.21 1.01
-13.43 12.71 1.00
-13.46 12.24 0.98
-13.48 11.78 0.97
-13.50 11.32 0.96
-13.50 10.86 0.94
-13.51 10.44 0.93
-13.53 10.03 0.92
-13.55 9.62 0.91
-13.59 9.24 0.90
-13.62 8.87 0.89
-13.69 8.53 0.89
-13.76 8.20 0.88
-13.82 7.86 0.88
-13.86 7.52 0.87
-13.91 7.19 0.87
-13.95 6.86 0.86
-13.96 6.52 0.86
-13.96 6.18 0.85
-14.00 5.86 0.85
-14.04 5.55 0.84
-14.08 5.24 0.84
-14.12 4.94 0.84
-14.13 4.63 0.83
-14.12 4.31 0.83
-14.12 4.00 0.82
-14.13 3.70 0.82
-14.14 3.40 0.82
-14.15 3.10 0.82
-14.15 2.81 0.81
-14.16 2.52 0.81
-14.16 2.22 0.81
-14.14 1.93 0.81
-14.13 1.64 0.81
-14.11 1.35 0.80
-14.09 1.06 0.80
-14.07 0.78 0.80
-14.08 0.50 0.80
-14.09 0.21 0.80
-14.08 -0.07 0.80
-14.07 -0.35 0.80
-14.06 -0.63 0.80
-14.04 -0.92 0.80
-14.03 -1.20 0.80
-14.02 -1.48 0.80
-14.00 -1.76 0.81
-14.01 -2.05 0.81
-14.03 -2.34 0.81
-14.04 -2.64 0.82
-14.05 -2.93 0.82
-14.06 -3.23 0.83
-14.04 -3.52 0.83
-14.01 -3.82 0.83
-13.99 -4.11 0.83
-13.96 -4.41 0.84
-13.93 -4.71 0.84
-13.91 -5.02 0.85
-13.88 -5.33 0.85
-13.83 -5.63 0.85
-13.77 -5.93 0.86
-13.70 -6.23 0.86
-13.64 -6.53 0.86
-13.57 -6.84 0.87
-13.50 -7.15 0.87
-13.42 -7.45 0.88
-13.28 -7.73 0.88
-13.15 -8.01 0.88
-13.02 -8.29 0.88
-12.88 -8.57 0.88
-12.74 -8.86 0.88
-12.63 -9.16 0.89
-12.51 -9.46 0.89
-12.38 -9.76 0.90
-12.25 -10.06 0.90
-12.12 -10.37 0.90
-12.00 -10.69 0.91
-11.88 -11.02 0.92
-11.75 -11.35 0.92
-11.66 -11.73 0.93
-11.56 -12.10 0.94
-11.45 -12.48 0.95
-11.34 -12.86 0.96
-11.22 -13.25 0.98
-11.12 -13.69 0.99
-11.05 -14.17 1.01
-10.99 -14.69 1.03
-10.94 -15.26 1.05
-10.85 -15.79 1.07
-10.74 -16.32 1.09
-10.62 -16.87 1.11
-10.50 -17.45 1.13
-5.54 -9.64 0.62
-10.34 -18.86 1.19
-10.23 -19.58 1.22
-10.17 -20.45 1.26
-10.11 -21.39 1.30
-10.04 -22.40 1.35
-9.97 -23.51 1.40
-9.89 -24.67 1.46
-9.88 -26.17 1.53
-10.03 -28.27 1.64
-10.01 -30.10 1.73
-9.88 -31.84 1.81
-9.70 -33.62 1.90
-9.69 -36.34 2.04
-9.73 -39.67 2.21
-9.41 -41.98 2.32
-8.82 -43.40 2.38
-7.99 -43.80 2.39
-7.12 -44.05 2.39
-6.25 -44.28 2.39
-5.37 -44.49 2.39
-4.49 -44.69 2.39
-3.75 -46.81 2.49
-2.82 -46.99 2.49
-1.88 -47.14 2.49
-0.93 -47.28 2.49
0.02 -33.15 2.49
0.68 -33.20 2.49
1.35 -33.24 2.49
2.02 -33.26 2.49
2.69 -33.27 2.49
3.37 -33.26 2.49
3.87 -31.87 2.39
4.52 -31.84 2.39
5.17 -31.80 2.39
5.81 -31.75 2.39
6.46 -31.68 2.39
7.11 -31.60 2.39
7.77 -31.55 2.39
8.41 -31.44 2.39
9.06 -31.32 2.39
9.70 -31.19 2.39
10.34 -31.04 2.39
10.99 -30.88 2.39
11.62 -30.71 2.39
12.26 -30.53 2.39
12.89 -30.33 2.39
13.52 -30.12 2.39
14.15 -29.89 2.39
14.77 -29.66 2.39
15.39 -29.41 2.39
16.01 -29.14 2.39
16.23 -28.18 2.34
16.20 -26.88 2.25
16.43 -26.06 2.21
16.76 -25.44 2.18
17.08 -24.83 2.15
17.40 -24.24 2.13
16.72 -22.32 1.98
17.01 -21.78 1.96
17.29 -21.26 1.94
17.57 -20.73 1.92
17.85 -20.22 1.90
18.12 -19.72 1.89
18.38 -19.22 1.87
18.65 -18.73 1.86
18.91 -18.24 1.84
19.17 -17.76 1.83
19.42 -17.29 1.82
19.67 -16.82 1.81
19.92 -16.35 1.80
20.17 -15.89 1.79
20.42 -15.43 1.78
20.66 -14.97 1.77
20.91 -14.52 1.76
22.97 -15.27 1.91
29.23 -18.60 2.39
29.64 -18.04 2.39
30.03 -17.46 2.39
30.42 -16.88 2.39
30.79 -16.28 2.39
31.15 -15.68 2.39
31.50 -15.08 2.39
31.84 -14.46 2.39
32.16 -13.83 2.39
32.47 -13.20 2.39
32.77 -12.56 2.39
33.06 -11.92 2.39
33.33 -11.26 2.39
33.58 -10.60 2.39
33.82 -9.94 2.39
34.05 -9.27 2.39
34.27 -8.59 2.39
34.46 -7.91 2.39
34.65 -7.22 2.39
34.82 -6.53 2.39
34.97 -5.84 2.39
35.11 -5.14 2.39
35.24 -4.44 2.39
35.35 -3.73 2.39
35.44 -3.03 2.39
35.52 -2.32 2.39
35.58 -1.60 2.39
35.63 -0.89 2.39
23.95 -0.12 1.61
23.93 0.36 1.61
23.92 0.84 1.60
23.60 1.31 1.58
23.89 1.80 1.60
23.85 2.28 1.60
23.83 2.76 1.61
23.84 3.25 1.61
23.83 3.74 1.61
23.80 4.22 1.62
23.78 4.72 1.62
23.78 5.21 1.63
23.77 5.71 1.63
23.75 6.22 1.64
24.80 7.02 1.72
24.84 7.58 1.74
23.64 7.73 1.66
21.63 7.56 1.53
21.50 8.00 1.53
21.45 8.47 1.54
21.39 8.95 1.55
21.33 9.44 1.56
21.27 9.93 1.57
21.26 10.45 1.58
20.95 10.82 1.58
23.31 12.64 1.78
23.29 13.24 1.79
23.27 13.85 1.81
23.25 14.48 1.84
23.23 15.12 1.86
23.21 15.78 1.88
23.19 16.46 1.91
23.17 17.15 1.94
23.15 17.86 1.97
23.13 18.60 2.00
23.10 19.36 2.03
23.05 20.12 2.06
23.05 20.95 2.10
23.01 21.77 2.14
22.61 22.27 2.14
20.16 20.67 1.95
19.66 20.98 1.95
19.21 21.34 1.95
18.92 21.89 1.96
20.27 24.42 2.15
19.71 24.74 2.15
17.82 23.31 2.00
17.07 23.28 1.97
16.35 23.26 1.94
15.64 23.24 1.91
14.96 23.22 1.89
14.30 23.20 1.87
13.65 23.18 1.84
13.02 23.16 1.82
12.41 23.14 1.80
11.80 23.12 1.79
11.82 24.34 1.86
11.78 25.56 1.94
11.66 26.68 2.01
11.52 27.87 2.09
11.29 28.96 2.15
10.69 29.14 2.15
11.21 32.56 2.39
10.54 32.73 2.39
9.86 32.88 2.39
9.19 33.02 2.39
8.51 33.15 2.39
2.66 11.30 0.81
7.15 33.35 2.39
6.47 33.44 2.39
5.79 33.50 2.39
5.10 33.52 2.39
4.42 33.56 2.39
3.74 33.58 2.39
3.06 33.60 2.39
2.38 33.59 2.39
1.70 33.58 2.39
1.07 34.99 2.49
0.37 34.94 2.49
-0.33 34.88 2.49
-1.03 34.81 2.49
-1.73 34.72 2.49
-2.42 34.62 2.49
-3.11 34.50 2.49
-3.79 34.37 2.49
-4.47 34.23 2.49
-5.15 34.07 2.49
-5.82 33.90 2.49
-6.41 33.26 2.46
-6.86 32.12 2.39
-7.49 31.93 2.39
-8.11 31.71 2.39
-8.73 31.49 2.39
-9.35 31.25 2.39
-9.95 31.00 2.39
-10.86 31.62 2.46
-11.37 31.07 2.44
-11.72 30.13 2.39
-12.00 29.12 2.33
-12.33 28.29 2.29
-12.77 27.77 2.27
-13.21 27.26 2.25
-13.37 26.24 2.19
-12.39 23.15 1.96
-12.38 22.06 1.89
-12.29 20.90 1.81
-12.32 20.02 1.76
-12.40 19.28 1.72
-12.52 18.63 1.69
-12.58 17.94 1.65
-12.64 17.27 1.61
-12.70 16.64 1.58
-12.80 16.09 1.56
-12.90 15.56 1.53
-12.97 15.03 1.51
-12.96 14.42 1.47
-12.95 13.83 1.44
-12.94 13.28 1.41
-12.95 12.76 1.39
-12.98 12.30 1.37
-13.02 11.84 1.35
-13.05 11.40 1.33
-13.07 10.97 1.31
-13.10 10.55 1.29
-13.12 10.14 1.28
-13.14 9.74 1.26
-13.16 9.35 1.25
-13.20 8.98 1.24
-13.26 8.64 1.23
-13.33 8.31 1.22
-13.40 7.99 1.21
-13.47 7.67 1.21
-13.52 7.34 1.20
-13.56 7.01 1.19
-13.59 6.68 1.18
-13.60 6.35 1.17
-13.61 6.03 1.16
-13.62 5.71 1.16
-13.67 5.41 1.15
-13.71 5.11 1.15
-13.75 4.81 1.14
-13.74 4.50 1.14
-13.73 4.19 1.13
-13.72 3.89 1.12
-13.73 3.60 1.12
-13.74 3.31 1.12
-13.74 3.02 1.11
-13.75 2.73 1.11
-13.77 2.45 1.11
-13.78 2.16 1.10
-13.78 1.88 1.10
-13.76 1.60 1.10
-13.75 1.32 1.10
-13.73 1.04 1.09
-13.71 0.76 1.09
-13.73 0.48 1.09
-13.75 0.21 1.09
-13.77 -0.07 1.10
-13.75 -0.34 1.10
-13.74 -0.62 1.10
-13.73 -0.90 1.10
-13.72 -1.17 1.10
-13.70 -1.45 1.10
-13.68 -1.72 1.10
-13.67 -2.00 1.10
-13.67 -2.28 1.11
-13.68 -2.57 1.11
-13.69 -2.86 1.12
-13.70 -3.15 1.12
-13.69 -3.44 1.13
-13.66 -3.72 1.13
-13.63 -4.01 1.13
-13.60 -4.30 1.14
-13.57 -4.59 1.14
-13.54 -4.89 1.15
-13.51 -5.18 1.16
-13.47 -5.48 1.16
-13.41 -5.77 1.17
-13.35 -6.07 1.17
-13.29 -6.37 1.18
-13.23 -6.67 1.18
-13.16 -6.97 1.19
-13.09 -7.27 1.19
-12.98 -7.55 1.20
-12.85 -7.83 1.20
-12.72 -8.10 1.20
-12.58 -8.38 1.20
-12.45 -8.65 1.21
-12.31 -8.93 1.21
-12.17 -9.21 1.21
-12.04 -9.49 1.22
-11.93 -9.80 1.22
-11.81 -10.10 1.23
-11.69 -10.42 1.24
-11.57 -10.73 1.25
-11.44 -11.05 1.26
-11.31 -11.37 1.27
-11.23 -11.75 1.28
-11.14 -12.14 1.30
-11.04 -12.52 1.32
-10.92 -12.90 1.33
-10.80 -13.29 1.35
-10.71 -13.73 1.37
-10.62 -14.21 1.39
-10.54 -14.70 1.42
-10.47 -15.24 1.45
-10.37 -15.76 1.48
-10.25 -16.28 1.51
-10.12 -16.81 1.53
-5.54 -9.64 0.87
-9.89 -18.03 1.60
-9.77 -18.70 1.64
-9.64 -19.40 1.69
-9.52 -20.15 1.73
-9.40 -20.99 1.78
-9.26 -21.85 1.84
-9.13 -22.78 1.90
-8.98 -23.79 1.97
-8.82 -24.86 2.04
-8.63 -25.97 2.11
-8.63 -27.84 2.24
-8.30 -28.79 2.30
-8.02 -30.09 2.39
-7.43 -30.29 2.39
-6.83 -30.48 2.39
-6.22 -30.65 2.39
-5.62 -30.82 2.39
-5.00 -30.97 2.39
-4.41 -31.29 2.40
-3.93 -32.60 2.49
-3.28 -32.72 2.49
-2.63 -32.83 2.49
-1.97 -32.93 2.49
-1.31 -33.02 2.49
-0.65 -33.09 2.49
0.02 -25.47 2.49
0.53 -25.50 2.49
1.04 -25.51 2.49
1.55 -25.52 2.49
2.07 -25.52 2.49
2.58 -25.51 2.49
3.10 -25.48 2.49
3.47 -24.40 2.39
3.96 -24.35 2.39
4.45 -24.30 2.39
4.95 -24.24 2.39
5.44 -24.17 2.39
5.93 -24.09 2.39
6.42 -24.00 2.39
6.91 -23.90 2.39
7.40 -23.78 2.39
7.90 -23.70 2.39
8.39 -23.56 2.39
8.87 -23.42 2.39
9.35 -23.27 2.39
9.83 -23.11 2.39
10.30 -22.94 2.39
10.78 -22.76 2.39
11.25 -22.57 2.39
11.71 -22.37 2.39
12.18 -22.16 2.39
12.64 -21.94 2.39
13.09 -21.71 2.39
13.54 -21.47 2.39
13.99 -21.23 2.39
14.43 -20.97 2.39
14.87 -20.70 2.39
15.30 -20.43 2.39
15.73 -20.14 2.39
16.15 -19.85 2.39
16.57 -19.55 2.39
16.98 -19.23 2.39
17.38 -18.91 2.39
17.78 -18.58 2.39
18.17 -18.24 2.39
18.56 -17.90 2.39
18.94 -17.54 2.39
19.31 -17.18 2.39
19.67 -16.81 2.39
19.93 -16.35 2.38
20.17 -15.88 2.37
20.42 -15.42 2.36
20.67 -14.97 2.35
20.91 -14.51 2.34
21.70 -14.42 2.39
22.01 -14.00 2.39
22.31 -13.57 2.39
22.60 -13.13 2.39
22.88 -12.69 2.39
23.15 -12.24 2.39
23.42 -11.79 2.39
23.67 -11.33 2.39
23.92 -10.86 2.39
24.16 -10.39 2.39
24.38 -9.91 2.39
24.60 -9.43 2.39
24.80 -8.94 2.39
25.00 -8.45 2.39
25.18 -7.95 2.39
25.36 -7.45 2.39
25.52 -6.94 2.39
25.68 -6.44 2.39
25.82 -5.92 2.39
25.95 -5.41 2.39
26.07 -4.89 2.39
26.18 -4.37 2.39
26.28 -3.85 2.39
26.37 -3.32 2.39
26.45 -2.79 2.39
26.51 -2.26 2.39
26.57 -1.73 2.39
26.61 -1.20 2.39
26.64 -0.66 2.39
23.95 -0.12 2.15
23.93 0.36 2.15
23.92 0.84 2.15
23.63 1.31 2.12
23.89 1.80 2.15
23.84 2.28 2.15
23.82 2.76 2.15
23.84 3.25 2.16
23.83 3.74 2.16
23.79 4.22 2.16
23.77 4.71 2.17
23.78 5.21 2.18
23.77 5.71 2.19
23.75 6.22 2.20
24.80 7.02 2.31
24.84 7.58 2.32
24.89 8.14 2.34
21.63 7.56 2.05
21.50 8.00 2.05
21.45 8.47 2.06
21.39 8.95 2.08
21.33 9.44 2.09
21.27 9.92 2.10
21.30 10.46 2.13
20.98 10.84 2.12
23.31 12.64 2.38
23.21 13.19 2.39
22.94 13.65 2.39
22.65 14.10 2.39
22.35 14.55 2.39
22.05 14.99 2.39
21.73 15.42 2.39
21.41 15.85 2.39
21.08 16.26 2.39
20.74 16.67 2.39
20.39 17.08 2.39
20.03 17.47 2.39
19.66 17.86 2.39
19.29 18.24 2.39
18.90 18.61 2.39
18.51 18.97 2.39
18.12 19.33 2.39
17.71 19.67 2.39
17.30 20.01 2.39
16.88 20.34 2.39
16.46 20.65 2.39
16.03 20.96 2.39
13.63 18.59 2.09
13.14 18.70 2.08
14.70 21.83 2.39
14.24 22.10 2.39
13.79 22.36 2.39
13.32 22.61 2.39
12.85 22.85 2.39
12.38 23.08 2.39
11.81 23.12 2.37
11.42 23.51 2.39
10.93 23.71 2.39
10.44 23.90 2.39
9.95 24.08 2.39
9.46 24.25 2.39
8.96 24.40 2.39
8.46 24.55 2.39
7.95 24.69 2.39
7.45 24.81 2.39
6.94 24.93 2.39
6.43 25.03 2.39
2.66 11.30 1.08
5.40 25.18 2.39
4.89 25.25 2.39
4.38 25.31 2.39
3.86 25.36 2.39
3.35 25.40 2.39
2.83 25.43 2.39
2.32 25.45 2.39
1.86 26.24 2.46
1.35 26.56 2.49
0.82 26.54 2.49
0.28 26.52 2.49
-0.25 26.48 2.49
-0.78 26.44 2.49
-1.31 26.38 2.49
-1.84 26.31 2.49
-2.36 26.24 2.49
-2.88 26.15 2.49
-3.40 26.05 2.49
-3.92 25.94 2.49
-4.43 25.82 2.49
-4.94 25.69 2.49
-5.45 25.55 2.49
-5.95 25.40 2.49
-6.19 24.20 2.39
-6.66 24.04 2.39
-7.13 23.87 2.39
-7.60 23.69 2.39
-8.06 23.50 2.39
-8.52 23.30 2.39
-8.98 23.09 2.39
-9.42 22.87 2.39
-9.87 22.65 2.39
-11.03 24.00 2.56
-11.38 23.50 2.53
-11.35 22.27 2.43
-11.39 21.30 2.35
-11.41 20.33 2.27
-11.43 19.45 2.20
-11.56 18.79 2.15
-11.70 18.19 2.12
-11.81 17.58 2.07
-11.88 16.94 2.03
-11.94 16.32 1.99
-12.03 15.77 1.95
-12.14 15.27 1.92
-12.21 14.73 1.89
-12.23 14.17 1.85
-12.24 13.62 1.81
-12.25 13.09 1.77
-12.26 12.59 1.74
-12.32 12.15 1.72
-12.40 11.74 1.69
-12.47 11.35 1.68
-12.54 10.96 1.66
-12.57 10.55 1.63
-12.65 10.19 1.62
-12.72 9.83 1.60
-12.77 9.47 1.59
-12.80 9.10 1.57
-12.85 8.75 1.56
-12.92 8.42 1.55
-13.00 8.10 1.54
-13.07 7.79 1.53
-13.14 7.48 1.52
-13.19 7.16 1.51
-13.24 6.84 1.50
-13.25 6.52 1.49
-13.26 6.19 1.48
-13.27 5.88 1.47
-13.28 5.57 1.45
-13.31 5.27 1.45
-13.36 4.98 1.44
-13.38 4.68 1.44
-13.37 4.38 1.43
-13.36 4.08 1.42
-13.35 3.79 1.41
-13.35 3.50 1.40
-13.36 3.21 1.40
-13.36 2.93 1.39
-13.38 2.66 1.39
-13.39 2.38 1.38
-13.40 2.11 1.38
-13.42 1.83 1.38
-13.42 1.56 1.38
-13.40 1.29 1.37
-13.39 1.01 1.37
-13.37 0.74 1.37
-13.39 0.47 1.37
-13.42 0.20 1.37
-13.44 -0.06 1.37
-13.45 -0.34 1.38
-13.44 -0.61 1.38
-13.43 -0.88 1.38
-13.41 -1.15 1.38
-13.40 -1.42 1.38
-13.38 -1.69 1.38
-13.36 -1.96 1.38
-13.35 -2.23 1.39
-13.34 -2.50 1.39
-13.35 -2.78 1.40
-13.35 -3.07 1.40
-13.36 -3.35 1.41
-13.32 -3.63 1.42
-13.29 -3.91 1.42
-13.26 -4.19 1.43
-13.22 -4.47 1.43
-13.19 -4.76 1.44
-13.16 -5.05 1.45
-13.13 -5.34 1.45
-13.07 -5.63 1.46
-13.01 -5.92 1.47
-12.95 -6.21 1.47
-12.89 -6.50 1.48
-12.83 -6.79 1.49
-12.76 -7.09 1.50
-12.69 -7.38 1.50
-12.56 -7.65 1.50
-12.43 -7.92 1.51
-12.30 -8.19 1.51
-12.16 -8.45 1.51
-12.00 -8.71 1.52
-11.85 -8.96 1.52
-11.69 -9.22 1.52
-11.57 -9.50 1.53
-11.48 -9.83 1.54
-11.39 -10.15 1.56
-11.27 -10.46 1.57
-11.15 -10.77 1.58
-11.02 -11.08 1.59
-10.89 -11.40 1.60
-10.80 -11.77 1.62
-10.71 -12.16 1.65
-10.62 -12.55 1.67
-10.51 -12.94 1.69
-10.39 -13.33 1.71
-10.30 -13.77 1.74
-10.21 -14.24 1.77
-10.11 -14.73 1.81
-10.02 -15.23 1.84
-9.89 -15.71 1.87
-9.72 -16.16 1.90
-5.54 -9.64 1.12
-9.37 -17.10 1.96
-9.21 -17.64 2.00
-9.10 -18.30 2.05
-8.96 -18.97 2.11
-8.80 -19.65 2.16
-8.63 -20.35 2.21
-8.46 -21.13 2.28
-8.29 -21.96 2.35
-8.00 -22.55 2.39
-7.55 -22.73 2.39
-7.10 -22.91 2.39
-6.65 -23.07 2.39
-6.19 -23.22 2.39
-5.73 -23.37 2.39
-5.26 -23.51 2.39
-4.80 -23.64 2.39
-4.51 -24.78 2.49
-4.02 -24.90 2.49
-3.52 -25.00 2.49
-3.02 -25.10 2.49
-2.52 -25.18 2.49
-2.02 -25.26 2.49
-1.51 -25.33 2.49
-1.00 -25.38 2.49
-0.50 -25.43 2.49
0.02 -20.66 2.49
0.43 -20.68 2.49
0.85 -20.69 2.49
1.26 -20.69 2.49
1.68 -20.68 2.49
2.10 -20.66 2.49
2.51 -20.64 2.49
2.93 -20.61 2.49
3.31 -20.31 2.46
3.61 -19.67 2.39
4.01 -19.62 2.39
4.40 -19.55 2.39
4.80 -19.48 2.39
5.20 -19.40 2.39
5.59 -19.32 2.39
5.99 -19.22 2.39
6.38 -19.12 2.39
6.77 -19.01 2.39
7.16 -18.89 2.39
7.55 -18.79 2.39
7.94 -18.65 2.39
8.32 -18.51 2.39
8.70 -18.36 2.39
9.07 -18.20 2.39
9.45 -18.03 2.39
9.82 -17.86 2.39
10.18 -17.68 2.39
10.55 -17.49 2.39
10.91 -17.29 2.39
11.27 -17.09 2.39
11.62 -16.88 2.39
11.97 -16.66 2.39
12.31 -16.43 2.39
12.65 -16.20 2.39
12.99 -15.96 2.39
13.32 -15.71 2.39
13.65 -15.46 2.39
13.97 -15.20 2.39
14.29 -14.93 2.39
14.60 -14.65 2.39
14.90 -14.37 2.39
15.20 -14.08 2.39
15.50 -13.79 2.39
15.79 -13.49 2.39
16.07 -13.18 2.39
16.35 -12.87 2.39
16.62 -12.55 2.39
16.88 -12.22 2.39
17.14 -11.89 2.39
17.39 -11.56 2.39
17.63 -11.22 2.39
17.87 -10.87 2.39
18.10 -10.52 2.39
18.32 -10.16 2.39
18.54 -9.80 2.39
18.75 -9.43 2.39
18.95 -9.06 2.39
19.14 -8.69 2.39
19.32 -8.31 2.39
19.50 -7.92 2.39
19.67 -7.54 2.39
19.83 -7.15 2.39
19.99 -6.75 2.39
20.13 -6.35 2.39
20.27 -5.95 2.39
20.39 -5.55 2.39
20.51 -5.14 2.39
20.63 -4.73 2.39
20.73 -4.32 2.39
20.82 -3.90 2.39
20.91 -3.49 2.39
20.98 -3.07 2.39
21.05 -2.65 2.39
21.11 -2.23 2.39
21.16 -1.80 2.39
21.20 -1.38 2.39
21.23 -0.95 2.39
21.26 -0.53 2.39
21.27 -0.10 2.39
21.27 0.32 2.39
21.27 0.75 2.39
21.26 1.18 2.39
21.24 1.60 2.39
21.20 2.03 2.39
21.16 2.46 2.39
21.11 2.88 2.39
21.06 3.30 2.39
20.99 3.73 2.39
20.91 4.15 2.39
20.83 4.57 2.39
20.73 4.98 2.39
20.63 5.40 2.39
20.52 5.81 2.39
20.40 6.22 2.39
20.27 6.63 2.39
20.13 7.04 2.39
19.98 7.44 2.39
19.83 7.84 2.39
19.67 8.23 2.39
19.50 8.62 2.39
19.32 9.01 2.39
19.13 9.39 2.39
18.93 9.77 2.39
18.73 10.15 2.39
18.52 10.52 2.39
18.30 10.89 2.39
18.07 11.25 2.39
17.83 11.61 2.39
17.59 11.96 2.39
17.34 12.30 2.39
17.08 12.64 2.39
16.82 12.98 2.39
14.17 11.39 2.05
13.58 11.38 2.00
13.36 11.66 2.00
15.70 14.26 2.39
15.40 14.56 2.39
15.10 14.86 2.39
14.79 15.15 2.39
14.00 14.93 2.32
13.43 14.92 2.27
13.83 15.99 2.39
13.49 16.25 2.39
13.16 16.51 2.39
12.81 16.76 2.39
12.47 17.00 2.39
12.11 17.23 2.39
11.76 17.46 2.39
11.40 17.68 2.39
11.03 17.89 2.39
10.66 18.10 2.39
10.29 18.29 2.39
9.91 18.48 2.39
9.53 18.66 2.39
9.15 18.83 2.39
8.76 18.99 2.39
8.37 19.15 2.39
7.98 19.30 2.39
7.58 19.44 2.39
5.66 15.41 1.88
5.35 15.51 1.89
5.03 15.59 1.88
4.74 15.79 1.90
5.57 19.98 2.39
5.16 20.07 2.39
2.66 11.27 1.34
4.34 20.22 2.39
3.93 20.28 2.39
3.52 20.34 2.39
3.11 20.38 2.39
2.69 20.42 2.39
2.28 20.45 2.39
1.95 21.35 2.49
1.52 21.36 2.49
1.09 21.37 2.49
0.66 21.36 2.49
0.23 21.35 2.49
-0.20 21.33 2.49
-0.63 21.29 2.49
-1.05 21.25 2.49
-1.48 21.21 2.49
-1.90 21.15 2.49
-2.32 21.08 2.49
-2.74 21.01 2.49
-3.16 20.93 2.49
-3.57 20.84 2.49
-3.99 20.74 2.49
-4.40 20.63 2.49
-4.81 20.51 2.49
-5.21 20.39 2.49
-5.61 20.26 2.49
-6.00 20.07 2.49
-6.14 19.15 2.39
-6.52 19.00 2.39
-6.89 18.84 2.39
-7.26 18.68 2.39
-7.62 18.51 2.39
-7.98 18.33 2.39
-8.34 18.15 2.39
-8.70 17.96 2.39
-9.04 17.76 2.39
-9.39 17.56 2.39
-9.73 17.35 2.39
-10.52 17.90 2.50
-10.87 17.67 2.50
-11.08 17.23 2.47
-11.17 16.62 2.42
-11.24 16.04 2.37
-11.32 15.47 2.32
-11.42 14.98 2.28
-11.47 14.43 2.23
-11.52 13.90 2.19
-11.55 13.38 2.15
-11.57 12.88 2.11
-11.61 12.41 2.07
-11.64 11.95 2.03
-11.71 11.55 2.00
-11.79 11.17 1.98
-11.84 10.77 1.96
-11.85 10.36 1.92
-11.88 9.97 1.90
-11.96 9.63 1.88
-12.03 9.30 1.86
-12.10 8.97 1.85
-12.14 8.63 1.83
-12.21 8.31 1.82
-12.41 8.09 1.82
-12.61 7.86 1.83
-12.74 7.60 1.83
-12.81 7.29 1.82
-12.88 6.99 1.81
-12.91 6.68 1.79
-12.92 6.36 1.78
-12.93 6.04 1.77
-12.95 5.74 1.75
-12.96 5.43 1.74
-12.98 5.14 1.73
-13.02 4.85 1.72
-13.02 4.56 1.71
-13.01 4.26 1.70
-13.01 3.97 1.69
-13.00 3.69 1.68
-12.99 3.41 1.67
-12.99 3.13 1.66
-13.00 2.86 1.66
-13.02 2.59 1.65
-13.03 2.32 1.65
-13.05 2.05 1.65
-13.06 1.78 1.64
-13.07 1.52 1.64
-13.08 1.25 1.64
-13.06 0.99 1.64
-13.05 0.72 1.63
-13.07 0.46 1.64
-13.09 0.20 1.64
-13.11 -0.06 1.64
-13.13 -0.33 1.64
-13.15 -0.59 1.65
-13.13 -0.86 1.65
-13.12 -1.12 1.65
-13.11 -1.38 1.65
-13.09 -1.65 1.65
-13.07 -1.91 1.66
-13.05 -2.18 1.66
-13.04 -2.45 1.66
-13.02 -2.72 1.67
-13.03 -2.99 1.68
-13.03 -3.27 1.68
-13.00 -3.54 1.69
-12.97 -3.81 1.69
-12.93 -4.09 1.70
-12.90 -4.36 1.71
-12.86 -4.64 1.71
-12.83 -4.92 1.72
-12.79 -5.21 1.73
-12.75 -5.49 1.74
-12.69 -5.77 1.75
-12.63 -6.05 1.75
-12.57 -6.34 1.76
-12.51 -6.62 1.77
-12.44 -6.91 1.78
-12.38 -7.21 1.79
-12.28 -7.48 1.80
-12.14 -7.73 1.80
-11.99 -7.98 1.80
-11.84 -8.23 1.80
-11.69 -8.48 1.80
-11.54 -8.73 1.81
-11.38 -8.98 1.81
-11.23 -9.23 1.81
-11.11 -9.51 1.83
-11.02 -9.83 1.84
-10.93 -10.15 1.86
-10.84 -10.48 1.88
-10.74 -10.80 1.90
-10.61 -11.11 1.91
-10.49 -11.43 1.93
-10.39 -11.79 1.96
-10.29 -12.17 1.98
-10.19 -12.55 2.01
-10.09 -12.95 2.04
-9.96 -13.32 2.06
-9.82 -13.70 2.09
-9.68 -14.09 2.12
-9.53 -14.49 2.15
-9.37 -14.90 2.18
-9.21 -15.32 2.21
-5.52 -9.62 1.37
-8.95 -16.34 2.30
-8.77 -16.80 2.34
-8.58 -17.27 2.38
-8.28 -17.55 2.39
-7.94 -17.72 2.39
-7.58 -17.89 2.39
-7.23 -18.06 2.39
-6.87 -18.21 2.39
-6.51 -18.36 2.39
-6.14 -18.51 2.39
-5.78 -18.64 2.39
-5.41 -18.77 2.39
-5.03 -18.89 2.39
-4.77 -19.47 2.45
-4.46 -19.94 2.49
-4.06 -20.05 2.49
-3.67 -20.14 2.49
-3.26 -20.23 2.49
-2.86 -20.31 2.49
-2.45 -20.39 2.49
-2.05 -20.45 2.49
-1.64 -20.51 2.49
-1.22 -20.56 2.49
-0.81 -20.60 2.49
-0.40 -20.64 2.49
0.02 -17.36 2.49
0.36 -17.38 2.49
0.71 -17.38 2.49
1.06 -17.38 2.49
1.41 -17.37 2.49
1.76 -17.35 2.49
2.11 -17.33 2.49
2.46 -17.30 2.49
2.81 -17.26 2.49
3.16 -17.22 2.49
3.38 -16.53 2.40
3.70 -16.40 2.39
4.03 -16.34 2.39
4.36 -16.27 2.39
4.69 -16.20 2.39
5.02 -16.11 2.39
5.35 -16.02 2.39
5.67 -15.93 2.39
6.00 -15.83 2.39
6.32 -15.72 2.39
6.64 -15.60 2.39
6.96 -15.48 2.39
7.28 -15.37 2.39
7.60 -15.23 2.39
7.91 -15.09 2.39
8.22 -14.94 2.39
8.52 -14.79 2.39
8.83 -14.63 2.39
9.13 -14.46 2.39
9.42 -14.29 2.39
9.72 -14.11 2.39
10.01 -13.92 2.39
10.29 -13.73 2.39
10.58 -13.54 2.39
10.86 -13.33 2.39
11.13 -13.12 2.39
11.40 -12.91 2.39
11.67 -12.69 2.39
11.93 -12.46 2.39
12.19 -12.23 2.39
12.44 -11.99 2.39
12.69 -11.75 2.39
12.94 -11.50 2.39
13.17 -11.25 2.39
13.41 -10.99 2.39
13.64 -10.73 2.39
13.86 -10.46 2.39
14.08 -10.19 2.39
14.29 -9.91 2.39
14.50 -9.63 2.39
14.70 -9.35 2.39
14.89 -9.06 2.39
15.08 -8.76 2.39
15.27 -8.46 2.39
15.44 -8.16 2.39
15.62 -7.86 2.39
15.78 -7.55 2.39
15.94 -7.23 2.39
16.09 -6.92 2.39
16.24 -6.60 2.39
16.38 -6.27 2.39
16.51 -5.95 2.39
16.63 -5.62 2.39
16.75 -5.29 2.39
16.86 -4.95 2.39
16.97 -4.61 2.39
17.07 -4.28 2.39
17.16 -3.93 2.39
17.24 -3.59 2.39
17.32 -3.25 2.39
17.39 -2.90 2.39
17.45 -2.55 2.39
17.50 -2.20 2.39
17.55 -1.85 2.39
17.59 -1.50 2.39
17.62 -1.15 2.39
17.65 -0.79 2.39
17.67 -0.44 2.39
17.68 -0.08 2.39
17.68 0.27 2.39
17.68 0.63 2.39
14.71 0.82 1.99
17.64 1.33 2.39
17.62 1.69 2.39
17.58 2.04 2.39
17.54 2.39 2.39
17.49 2.75 2.39
17.44 3.10 2.39
17.37 3.45 2.39
17.30 3.79 2.39
17.22 4.14 2.39
17.14 4.49 2.39
17.05 4.83 2.39
14.38 4.39 2.03
13.58 4.44 1.93
13.58 4.74 1.94
16.60 6.18 2.39
16.47 6.51 2.39
16.34 6.84 2.39
16.20 7.16 2.39
16.05 7.49 2.39
15.89 7.81 2.39
15.73 8.12 2.39
15.56 8.43 2.39
14.15 8.04 2.20
13.48 8.02 2.12
13.46 8.38 2.15
14.82 9.64 2.39
14.62 9.94 2.39
14.41 10.22 2.39
14.20 10.51 2.39
13.98 10.79 2.39
13.76 11.06 2.39
13.53 11.33 2.39
13.29 11.60 2.39
13.05 11.86 2.39
12.81 12.11 2.39
12.56 12.36 2.39
12.30 12.60 2.39
12.04 12.84 2.39
11.77 13.07 2.39
11.50 13.30 2.39
11.23 13.52 2.39
10.95 13.74 2.39
10.67 13.94 2.39
8.72 11.88 2.01
10.09 14.34 2.39
9.79 14.54 2.39
9.49 14.72 2.39
9.19 14.90 2.39
8.88 15.07 2.39
8.57 15.23 2.39
8.26 15.39 2.39
7.94 15.54 2.39
7.62 15.69 2.39
7.30 15.83 2.39
6.98 15.96 2.39
6.65 16.08 2.39
6.32 16.20 2.39
5.99 16.30 2.39
5.65 16.40 2.39
5.32 16.50 2.39
4.98 16.59 2.39
2.91 10.44 1.50
2.68 10.42 1.49
2.66 11.27 1.60
3.63 16.88 2.39
3.28 16.93 2.39
2.94 16.98 2.39
2.60 17.02 2.39
2.25 17.06 2.39
1.99 17.82 2.49
1.63 17.84 2.49
1.27 17.85 2.49
0.91 17.86 2.49
0.55 17.86 2.49
0.19 17.85 2.49
-0.16 17.83 2.49
-0.52 17.81 2.49
-0.88 17.78 2.49
-1.23 17.74 2.49
-1.59 17.70 2.49
-1.94 17.65 2.49
-2.29 17.59 2.49
-2.64 17.52 2.49
-2.99 17.45 2.49
-3.34 17.37 2.49
-3.68 17.28 2.49
-4.02 17.19 2.49
-4.36 17.09 2.49
-4.70 16.98 2.49
-5.04 16.87 2.49
-5.37 16.75 2.49
-5.70 16.62 2.49
-5.87 16.07 2.43
-6.09 15.67 2.39
-6.39 15.53 2.39
-6.70 15.39 2.39
-7.00 15.24 2.39
-7.30 15.08 2.39
-7.59 14.91 2.39
-7.88 14.75 2.39
-8.17 14.57 2.39
-8.45 14.39 2.39
-8.73 14.21 2.39
-9.01 14.02 2.39
-9.28 13.82 2.39
-9.55 13.62 2.39
-9.81 13.41 2.39
-10.67 13.98 2.53
-10.82 13.61 2.50
-10.90 13.16 2.46
-10.94 12.69 2.42
-10.99 12.23 2.38
-11.03 11.80 2.34
-11.07 11.37 2.30
-11.15 11.00 2.27
-11.18 10.60 2.23
-11.21 10.20 2.20
-11.23 9.82 2.17
-11.26 9.45 2.14
-11.34 9.14 2.12
-11.40 8.81 2.10
-11.44 8.49 2.07
-11.49 8.17 2.05
-11.53 7.85 2.03
-11.67 7.61 2.03
-11.86 7.40 2.04
-12.04 7.18 2.05
-12.22 6.96 2.06
-12.33 6.70 2.05
-12.41 6.42 2.05
-12.48 6.14 2.04
-12.55 5.87 2.03
-12.62 5.59 2.03
-12.65 5.31 2.01
-12.67 5.01 2.00
-12.68 4.73 1.99
-12.68 4.44 1.97
-12.67 4.15 1.96
-12.67 3.87 1.95
-12.67 3.60 1.94
-12.66 3.32 1.93
-12.66 3.05 1.92
-12.66 2.78 1.91
-12.68 2.52 1.91
-12.69 2.26 1.90
-12.71 2.00 1.90
-12.72 1.74 1.90
-12.73 1.48 1.89
-12.74 1.22 1.89
-12.75 0.97 1.89
-12.74 0.71 1.89
-12.76 0.45 1.89
-12.78 0.20 1.89
-12.80 -0.06 1.89
-12.82 -0.32 1.90
-12.84 -0.58 1.90
-12.85 -0.84 1.91
-12.84 -1.10 1.91
-12.83 -1.35 1.91
-12.81 -1.61 1.91
-12.79 -1.87 1.92
-12.77 -2.13 1.92
-12.76 -2.39 1.92
-12.74 -2.66 1.93
-12.71 -2.92 1.93
-12.71 -3.19 1.94
-12.69 -3.46 1.95
-12.66 -3.72 1.96
-12.63 -3.99 1.96
-12.59 -4.26 1.97
-12.55 -4.53 1.98
-12.52 -4.80 1.99
-12.48 -5.08 2.00
-12.44 -5.36 2.01
-12.38 -5.63 2.02
-12.32 -5.90 2.02
-12.24 -6.17 2.03
-12.14 -6.43 2.04
-12.04 -6.69 2.04
-11.94 -6.95 2.05
-11.83 -7.21 2.05
-11.73 -7.48 2.06
-11.64 -7.75 2.07
-11.54 -8.02 2.08
-11.39 -8.26 2.08
-11.24 -8.50 2.08
-11.09 -8.75 2.09
-10.94 -8.99 2.09
-10.79 -9.23 2.10
-10.67 -9.51 2.11
-10.58 -9.82 2.13
-10.49 -10.14 2.15
-10.39 -10.46 2.17
-10.30 -10.78 2.20
-10.20 -11.12 2.22
-10.09 -11.45 2.25
-9.94 -11.75 2.27
-9.79 -12.06 2.29
-9.63 -12.36 2.31
-9.47 -12.67 2.33
-9.30 -12.98 2.35
-9.13 -13.30 2.37
-8.95 -13.61 2.39
-8.68 -13.79 2.39
-8.40 -13.97 2.39
-5.52 -9.62 1.62
-7.84 -14.32 2.39
-7.56 -14.48 2.39
-7.27 -14.64 2.39
-6.98 -14.79 2.39
-6.69 -14.94 2.39
-6.39 -15.08 2.39
-6.09 -15.22 2.39
-5.79 -15.35 2.39
-5.48 -15.47 2.39
-5.17 -15.59 2.39
-4.89 -15.80 2.40
-4.75 -16.49 2.49
-4.42 -16.60 2.49
-4.09 -16.70 2.49
-3.75 -16.79 2.49
-3.42 -16.87 2.49
-3.08 -16.95 2.49
-2.74 -17.03 2.49
-2.40 -17.09 2.49
-2.06 -17.15 2.49
-1.72 -17.20 2.49
-1.37 -17.25 2.49
-1.03 -17.29 2.49
-0.68 -17.32 2.49
-0.33 -17.35 2.49
0.02 -14.96 2.49
0.32 -14.97 2.49
0.62 -14.97 2.49
0.92 -14.97 2.49
1.22 -14.96 2.49
1.52 -14.94 2.49
1.82 -14.92 2.49
2.12 -14.89 2.49
2.42 -14.86 2.49
2.72 -14.82 2.49
3.02 -14.77 2.49
3.18 -14.11 2.39
3.47 -14.06 2.39
3.75 -14.00 2.39
4.04 -13.93 2.39
4.32 -13.86 2.39
4.60 -13.78 2.39
4.88 -13.69 2.39
5.16 -13.61 2.39
5.43 -13.51 2.39
5.71 -13.41 2.39
5.98 -13.30 2.39
6.25 -13.19 2.39
6.52 -13.07 2.39
6.79 -12.95 2.39
7.05 -12.82 2.39
7.32 -12.70 2.39
7.58 -12.56 2.39
7.84 -12.42 2.39
8.09 -12.27 2.39
8.34 -12.11 2.39
8.59 -11.95 2.39
8.84 -11.79 2.39
9.08 -11.61 2.39
9.32 -11.44 2.39
9.55 -11.26 2.39
9.78 -11.07 2.39
10.01 -10.88 2.39
10.23 -10.69 2.39
10.45 -10.49 2.39
10.67 -10.28 2.39
10.88 -10.07 2.39
11.09 -9.86 2.39
11.29 -9.64 2.39
11.49 -9.42 2.39
11.69 -9.19 2.39
11.88 -8.96 2.39
12.06 -8.73 2.39
12.24 -8.49 2.39
12.42 -8.25 2.39
12.59 -8.00 2.39
12.76 -7.76 2.39
12.92 -7.50 2.39
13.07 -7.25 2.39
13.22 -6.99 2.39
13.37 -6.72 2.39
13.51 -6.46 2.39
13.64 -6.19 2.39
13.77 -5.92 2.39
13.90 -5.64 2.39
14.01 -5.37 2.39
14.12 -5.09 2.39
14.23 -4.80 2.39
14.33 -4.52 2.39
14.43 -4.23 2.39
14.51 -3.95 2.39
14.60 -3.66 2.39
14.67 -3.36 2.39
14.74 -3.07 2.39
14.81 -2.77 2.39
14.87 -2.48 2.39
14.92 -2.18 2.39
14.97 -1.88 2.39
15.00 -1.58 2.39
15.04 -1.28 2.39
15.07 -0.98 2.39
15.09 -0.68 2.39
15.10 -0.37 2.39
15.11 -0.07 2.39
15.11 0.23 2.39
15.11 0.53 2.39
13.70 0.76 2.17
15.08 1.14 2.39
15.06 1.44 2.39
15.03 1.75 2.39
14.99 2.05 2.39
14.95 2.35 2.39
14.90 2.65 2.39
14.85 2.94 2.39
14.78 3.24 2.39
14.72 3.54 2.39
14.64 3.83 2.39
14.57 4.13 2.39
14.48 4.42 2.39
13.59 4.44 2.26
13.60 4.75 2.28
14.19 5.28 2.39
14.08 5.56 2.39
13.96 5.84 2.39
13.84 6.12 2.39
13.71 6.40 2.39
13.58 6.67 2.39
13.44 6.94 2.39
13.30 7.21 2.39
13.15 7.47 2.39
12.99 7.73 2.39
12.83 7.99 2.39
12.67 8.24 2.39
12.50 8.49 2.39
12.32 8.74 2.39
12.14 8.98 2.39
11.95 9.22 2.39
11.76 9.46 2.39
11.57 9.69 2.39
11.37 9.91 2.39
11.16 10.14 2.39
10.95 10.35 2.39
10.74 10.57 2.39
10.52 10.78 2.39
10.30 10.98 2.39
10.07 11.18 2.39
9.84 11.38 2.39
9.61 11.57 2.39
9.37 11.75 2.39
9.13 11.93 2.39
8.72 11.88 2.35
8.63 12.27 2.39
8.38 12.44 2.39
8.12 12.60 2.39
7.77 12.60 2.36
7.60 12.90 2.39
5.80 10.30 1.89
5.63 10.49 1.90
5.46 10.68 1.92
6.53 13.43 2.39
6.25 13.54 2.39
5.97 13.65 2.39
5.69 13.76 2.39
5.41 13.86 2.39
5.13 13.96 2.39
4.85 14.05 2.39
4.56 14.14 2.39
4.27 14.22 2.39
2.90 10.39 1.74
2.67 10.39 1.73
2.66 11.26 1.87
3.11 14.47 2.39
2.82 14.52 2.39
2.52 14.56 2.39
2.23 14.63 2.39
2.02 15.26 2.49
1.71 15.29 2.49
1.40 15.31 2.49
1.09 15.32 2.49
0.79 15.33 2.49
0.48 15.33 2.49
0.17 15.32 2.49
-0.14 15.31 2.49
-0.44 15.29 2.49
-0.75 15.27 2.49
-1.06 15.24 2.49
-1.36 15.20 2.49
-1.66 15.16 2.49
-1.97 15.11 2.49
-2.27 15.06 2.49
-2.57 15.00 2.49
-2.87 14.93 2.49
-3.16 14.86 2.49
-3.46 14.78 2.49
-3.75 14.69 2.49
-4.04 14.60 2.49
-4.33 14.51 2.49
-4.62 14.41 2.49
-4.90 14.30 2.49
-5.18 14.19 2.49
-5.46 14.07 2.49
-5.74 13.95 2.49
-5.80 13.32 2.40
-6.02 13.12 2.39
-6.28 12.98 2.39
-6.53 12.84 2.39
-6.79 12.70 2.39
-7.03 12.55 2.39
-7.28 12.40 2.39
-7.52 12.24 2.39
-7.76 12.08 2.39
-7.99 11.91 2.39
-8.22 11.74 2.39
-8.45 11.56 2.39
-8.68 11.38 2.39
-8.90 11.19 2.39
-9.11 11.01 2.39
-9.32 10.81 2.39
-9.53 10.62 2.39
-10.10 10.80 2.48
-10.26 10.54 2.47
-10.35 10.22 2.44
-10.44 9.90 2.42
-10.53 9.59 2.39
-10.61 9.28 2.37
-10.68 8.97 2.35
-10.75 8.66 2.33
-10.80 8.35 2.30
-10.85 8.05 2.28
-10.90 7.75 2.26
-10.94 7.45 2.24
-11.01 7.18 2.22
-11.19 6.98 2.23
-11.29 6.73 2.22
-11.37 6.47 2.21
-11.44 6.21 2.21
-11.51 5.96 2.20
-11.58 5.70 2.19
-11.65 5.45 2.18
-11.72 5.19 2.18
-11.78 4.94 2.17
-11.83 4.69 2.16
-11.87 4.43 2.15
-11.91 4.17 2.15
-11.92 3.91 2.13
-11.93 3.65 2.12
-11.94 3.39 2.11
-11.95 3.13 2.10
-11.95 2.88 2.10
-12.03 2.64 2.10
-12.13 2.41 2.11
-12.17 2.17 2.11
-12.21 1.92 2.11
-12.25 1.68 2.11
-12.28 1.43 2.11
-12.32 1.18 2.11
-12.35 0.94 2.12
-12.38 0.69 2.12
-12.44 0.44 2.13
-12.49 0.19 2.14
-12.50 -0.06 2.14
-12.52 -0.31 2.14
-12.54 -0.56 2.15
-12.55 -0.82 2.15
-12.57 -1.07 2.16
-12.56 -1.33 2.16
-12.54 -1.58 2.17
-12.52 -1.83 2.17
-12.50 -2.09 2.17
-12.49 -2.34 2.18
-12.46 -2.60 2.18
-12.44 -2.86 2.19
-12.42 -3.12 2.19
-12.40 -3.38 2.20
-12.37 -3.64 2.21
-12.31 -3.89 2.21
-12.24 -4.14 2.22
-12.18 -4.39 2.22
-12.11 -4.65 2.22
-12.04 -4.90 2.23
-11.97 -5.15 2.23
-11.89 -5.41 2.24
-11.82 -5.66 2.25
-11.73 -5.91 2.25
-11.64 -6.16 2.26
-11.54 -6.41 2.26
-11.44 -6.66 2.27
-11.33 -6.91 2.27
-11.23 -7.15 2.28
-11.13 -7.41 2.29
-11.03 -7.67 2.30
-10.94 -7.93 2.31
-10.84 -8.20 2.32
-10.73 -8.47 2.34
-10.63 -8.74 2.35
-10.51 -9.00 2.36
-10.36 -9.24 2.37
-10.25 -9.51 2.39
-10.16 -9.81 2.41
-10.02 -10.08 2.43
-9.87 -10.34 2.44
-9.72 -10.60 2.45
-9.56 -10.86 2.47
-9.06 -10.72 2.39
-8.85 -10.90 2.39
-8.63 -11.08 2.39
-8.41 -11.26 2.39
-8.19 -11.43 2.39
-7.96 -11.60 2.39
-7.73 -11.76 2.39
-7.50 -11.92 2.39
-7.26 -12.07 2.39
-5.52 -9.62 1.88
-6.77 -12.37 2.39
-6.53 -12.51 2.39
-6.28 -12.65 2.39
-6.03 -12.78 2.39
-5.77 -12.90 2.39
-5.52 -13.02 2.39
-5.26 -13.14 2.39
-5.00 -13.25 2.39
-4.94 -13.93 2.49
-4.66 -14.04 2.49
-4.38 -14.14 2.49
-4.10 -14.23 2.49
-3.81 -14.32 2.49
-3.52 -14.41 2.49
-3.24 -14.48 2.49
-2.95 -14.56 2.49
-2.66 -14.62 2.49
-2.36 -14.68 2.49
-2.07 -14.74 2.49
-1.78 -14.79 2.49
-1.48 -14.83 2.49
-1.18 -14.87 2.49
-0.88 -14.90 2.49
-0.58 -14.93 2.49
-0.28 -14.95 2.49
0.02 -13.13 2.49
0.28 -13.14 2.49
0.54 -13.14 2.49
0.81 -13.13 2.49
1.07 -13.12 2.49
1.34 -13.11 2.49
1.60 -13.09 2.49
1.86 -13.06 2.49
2.13 -13.03 2.49
2.39 -13.00 2.49
2.65 -12.95 2.49
2.91 -12.91 2.49
3.07 -12.43 2.41
3.29 -12.27 2.39
3.54 -12.21 2.39
3.79 -12.14 2.39
4.03 -12.07 2.39
4.28 -12.00 2.39
4.52 -11.92 2.39
4.76 -11.84 2.39
5.00 -11.75 2.39
5.24 -11.65 2.39
5.48 -11.55 2.39
5.71 -11.45 2.39
5.95 -11.34 2.39
6.18 -11.23 2.39
6.41 -11.11 2.39
6.63 -10.98 2.39
6.86 -10.86 2.39
7.08 -10.74 2.39
7.30 -10.60 2.39
7.52 -10.46 2.39
7.73 -10.31 2.39
7.94 -10.16 2.39
8.15 -10.01 2.39
8.36 -9.85 2.39
8.56 -9.68 2.39
8.76 -9.52 2.39
8.95 -9.35 2.39
9.14 -9.17 2.39
9.33 -8.99 2.39
9.52 -8.81 2.39
9.70 -8.62 2.39
9.87 -8.43 2.39
10.05 -8.23 2.39
10.22 -8.04 2.39
10.38 -7.83 2.39
10.54 -7.63 2.39
10.70 -7.42 2.39
10.85 -7.21 2.39
11.00 -6.99 2.39
11.15 -6.77 2.39
11.28 -6.55 2.39
11.42 -6.33 2.39
11.55 -6.10 2.39
11.68 -5.87 2.39
11.80 -5.64 2.39
11.91 -5.40 2.39
12.03 -5.17 2.39
12.13 -4.93 2.39
12.24 -4.68 2.39
12.33 -4.44 2.39
12.42 -4.19 2.39
12.51 -3.95 2.39
12.59 -3.69 2.39
12.67 -3.44 2.39
12.74 -3.19 2.39
12.81 -2.93 2.39
12.87 -2.68 2.39
12.92 -2.42 2.39
12.97 -2.16 2.39
13.02 -1.90 2.39
13.06 -1.64 2.39
13.09 -1.38 2.39
13.12 -1.12 2.39
13.14 -0.85 2.39
13.16 -0.59 2.39
13.17 -0.33 2.39
13.18 -0.06 2.39
13.18 0.20 2.39
13.18 0.47 2.39
13.17 0.73 2.39
13.15 1.00 2.39
13.13 1.26 2.39
13.11 1.52 2.39
13.08 1.79 2.39
13.04 2.05 2.39
13.00 2.31 2.39
12.95 2.57 2.39
12.90 2.83 2.39
12.84 3.09 2.39
12.77 3.34 2.39
12.70 3.60 2.39
12.63 3.85 2.39
12.55 4.10 2.39
12.46 4.36 2.39
12.37 4.60 2.39
12.28 4.85 2.39
12.18 5.10 2.39
12.07 5.34 2.39
11.96 5.58 2.39
11.85 5.82 2.39
11.73 6.05 2.39
11.60 6.29 2.39
11.47 6.52 2.39
11.33 6.74 2.39
11.20 6.97 2.39
11.05 7.19 2.39
10.90 7.41 2.39
10.75 7.62 2.39
10.59 7.84 2.39
10.43 8.04 2.39
10.26 8.25 2.39
10.09 8.45 2.39
9.92 8.65 2.39
9.74 8.84 2.39
9.56 9.03 2.39
8.09 7.96 2.07
9.18 9.40 2.39
8.99 9.58 2.39
8.79 9.76 2.39
8.59 9.93 2.39
8.39 10.09 2.39
8.18 10.26 2.39
7.97 10.41 2.39
7.75 10.57 2.39
7.54 10.72 2.39
7.32 10.86 2.39
7.10 11.00 2.39
6.87 11.13 2.39
6.64 11.26 2.39
5.93 10.54 2.22
6.17 11.50 2.39
5.94 11.61 2.39
5.70 11.72 2.39
5.46 11.83 2.39
5.22 11.93 2.39
4.98 12.02 2.39
4.73 12.11 2.39
4.48 12.20 2.39
4.24 12.28 2.39
3.99 12.36 2.39
3.74 12.43 2.39
2.89 10.35 1.98
2.67 10.36 1.97
2.66 11.26 2.14
2.72 12.65 2.39
2.47 12.73 2.40
2.27 13.09 2.46
2.04 13.32 2.49
1.77 13.35 2.49
1.50 13.37 2.49
1.23 13.39 2.49
0.96 13.40 2.49
0.69 13.41 2.49
0.42 13.41 2.49
0.15 13.41 2.49
-0.12 13.40 2.49
-0.39 13.39 2.49
-0.66 13.37 2.49
-0.92 13.34 2.49
-1.19 13.31 2.49
-1.46 13.28 2.49
-1.72 13.23 2.49
-1.98 13.19 2.49
-2.25 13.14 2.49
-2.51 13.08 2.49
-2.77 13.02 2.49
-3.03 12.95 2.49
-3.28 12.88 2.49
-3.54 12.80 2.49
-3.79 12.72 2.49
-4.04 12.63 2.49
-4.29 12.54 2.49
-4.54 12.44 2.49
-4.79 12.34 2.49
-5.03 12.23 2.49
-5.27 12.12 2.49
-5.51 12.00 2.49
-5.74 11.87 2.49
-5.74 11.28 2.39
-5.95 11.14 2.39
-6.17 11.01 2.39
-6.38 10.88 2.39
-6.60 10.74 2.39
-6.81 10.60 2.39
-7.01 10.45 2.39
-7.22 10.30 2.39
-7.42 10.15 2.39
-7.61 9.99 2.39
-7.81 9.83 2.39
-8.00 9.66 2.39
-8.19 9.50 2.39
-8.37 9.32 2.39
-8.55 9.15 2.39
-8.73 8.97 2.39
-8.90 8.79 2.39
-9.07 8.60 2.39
-9.23 8.41 2.39
-9.40 8.22 2.39
-9.55 8.02 2.39
-9.77 7.88 2.41
-9.88 7.64 2.40
-9.98 7.40 2.38
-10.08 7.17 2.37
-10.17 6.93 2.37
-10.28 6.71 2.36
-10.39 6.48 2.36
-10.49 6.26 2.35
-10.58 6.03 2.35
-10.66 5.79 2.34
-10.73 5.56 2.33
-10.80 5.32 2.32
-10.86 5.08 2.31
-10.92 4.84 2.31
-10.97 4.60 2.30
-11.01 4.36 2.29
-11.05 4.12 2.28
-11.09 3.89 2.27
-11.12 3.65 2.26
-11.15 3.41 2.26
-11.16 3.17 2.25
-11.17 2.93 2.24
-11.24 2.71 2.24
-11.33 2.49 2.25
-11.42 2.27 2.26
-11.50 2.05 2.27
-11.58 1.82 2.27
-11.61 1.59 2.27
-11.65 1.36 2.28
-11.68 1.12 2.28
-11.71 0.89 2.28
-11.73 0.65 2.28
-11.76 0.42 2.29
-11.78 0.18 2.29
-11.82 -0.06 2.30
-11.87 -0.29 2.31
-11.92 -0.54 2.32
-11.97 -0.78 2.33
-12.02 -1.02 2.35
-12.05 -1.27 2.36
-12.05 -1.52 2.36
-12.02 -1.76 2.36
-11.99 -2.00 2.37
-11.95 -2.24 2.37
-11.91 -2.49 2.37
-11.87 -2.73 2.37
-11.83 -2.97 2.37
-11.79 -3.21 2.38
-11.75 -3.46 2.38
-11.72 -3.71 2.39
-11.69 -3.95 2.40
-11.62 -4.19 2.41
-11.56 -4.43 2.41
-11.49 -4.68 2.41
-11.42 -4.92 2.42
-11.35 -5.16 2.43
-11.27 -5.40 2.43
-11.19 -5.64 2.44
-11.12 -5.89 2.45
-11.04 -6.13 2.46
-10.95 -6.38 2.46
-10.87 -6.62 2.47
-10.77 -6.86 2.48
-10.66 -7.10 2.49
-10.56 -7.34 2.50
-10.47 -7.59 2.51
-10.37 -7.85 2.53
-10.27 -8.10 2.54
-10.16 -8.35 2.55
-10.02 -8.58 2.56
-9.88 -8.81 2.57
-9.03 -8.38 2.39
-8.86 -8.57 2.39
-8.69 -8.75 2.39
-8.52 -8.92 2.39
-8.34 -9.09 2.39
-8.16 -9.26 2.39
-7.97 -9.43 2.39
-7.78 -9.59 2.39
-7.59 -9.75 2.39
-7.40 -9.90 2.39
-7.20 -10.05 2.39
-7.00 -10.20 2.39
-6.80 -10.34 2.39
-6.59 -10.48 2.39
-6.38 -10.62 2.39
-5.52 -9.61 2.14
-5.96 -10.88 2.39
-5.74 -11.00 2.39
-5.52 -11.12 2.39
-5.30 -11.23 2.39
-5.07 -11.34 2.39
-5.01 -11.82 2.47
-4.82 -12.05 2.49
-4.58 -12.15 2.49
-4.34 -12.25 2.49
-4.09 -12.34 2.49
-3.84 -12.43 2.49
-3.60 -12.51 2.49
-3.35 -12.58 2.49
-3.10 -12.66 2.49
-2.84 -12.72 2.49
-2.59 -12.79 2.49
-2.33 -12.84 2.49
-2.07 -12.90 2.49
-1.82 -12.94 2.49
-1.56 -12.99 2.49
-1.30 -13.02 2.49
-1.04 -13.05 2.49
-0.77 -13.08 2.49
-0.51 -13.10 2.49
-0.25 -13.12 2.49
0.02 -11.69 2.49
0.25 -11.69 2.49
0.49 -11.69 2.49
0.72 -11.69 2.49
0.96 -11.68 2.49
1.19 -11.66 2.49
1.43 -11.65 2.49
1.66 -11.62 2.49
1.89 -11.59 2.49
2.13 -11.56 2.49
2.36 -11.52 2.49
2.59 -11.48 2.49
2.83 -11.43 2.49
3.03 -11.27 2.47
3.15 -10.86 2.39
3.37 -10.80 2.39
3.59 -10.74 2.39
3.81 -10.67 2.39
4.02 -10.60 2.39
4.24 -10.52 2.39
4.45 -10.44 2.39
4.66 -10.35 2.39
4.87 -10.27 2.39
5.08 -10.17 2.39
5.29 -10.07 2.39
5.49 -9.97 2.39
5.69 -9.87 2.39
5.89 -9.76 2.39
6.09 -9.64 2.39
6.29 -9.52 2.39
6.48 -9.40 2.39
6.67 -9.28 2.39
6.86 -9.15 2.39
7.06 -9.02 2.39
7.24 -8.88 2.39
7.42 -8.74 2.39
7.60 -8.60 2.39
7.78 -8.45 2.39
7.95 -8.29 2.39
8.12 -8.14 2.39
8.28 -7.98 2.39
8.45 -7.82 2.39
8.61 -7.65 2.39
8.76 -7.48 2.39
8.92 -7.31 2.39
9.07 -7.13 2.39
9.21 -6.95 2.39
9.35 -6.77 2.39
9.49 -6.58 2.39
9.63 -6.39 2.39
9.76 -6.20 2.39
9.89 -6.01 2.39
10.01 -5.81 2.39
10.13 -5.61 2.39
10.24 -5.41 2.39
10.36 -5.21 2.39
10.46 -5.00 2.39
10.57 -4.79 2.39
10.66 -4.58 2.39
10.76 -4.37 2.39
10.85 -4.15 2.39
10.93 -3.93 2.39
11.01 -3.72 2.39
11.09 -3.50 2.39
11.16 -3.27 2.39
11.23 -3.05 2.39
11.29 -2.83 2.39
11.35 -2.60 2.39
11.40 -2.37 2.39
11.45 -2.14 2.39
11.50 -1.91 2.39
11.54 -1.68 2.39
11.57 -1.45 2.39
11.60 -1.22 2.39
11.63 -0.99 2.39
11.65 -0.76 2.39
11.66 -0.52 2.39
11.67 -0.29 2.39
11.68 -0.05 2.39
11.68 0.18 2.39
11.68 0.41 2.39
11.67 0.65 2.39
11.65 0.88 2.39
11.63 1.12 2.39
11.61 1.35 2.39
11.58 1.58 2.39
11.55 1.81 2.39
11.51 2.05 2.39
11.47 2.28 2.39
11.42 2.51 2.39
11.37 2.73 2.39
8.91 2.33 1.88
8.86 2.51 1.88
8.81 2.69 1.88
8.77 2.87 1.89
8.69 3.04 1.88
8.64 3.21 1.89
8.56 3.38 1.88
10.79 4.51 2.39
10.69 4.73 2.39
10.60 4.94 2.39
10.49 5.15 2.39
10.39 5.36 2.39
10.28 5.57 2.39
10.16 5.77 2.39
10.04 5.97 2.39
9.92 6.17 2.39
9.79 6.37 2.39
9.66 6.56 2.39
9.52 6.75 2.39
9.39 6.94 2.39
9.24 7.13 2.39
8.99 7.22 2.36
8.94 7.49 2.39
8.79 7.66 2.39
8.63 7.84 2.39
8.47 8.01 2.39
8.09 7.96 2.33
8.14 8.33 2.39
7.97 8.49 2.39
7.79 8.65 2.39
7.62 8.80 2.39
7.43 8.95 2.39
7.25 9.09 2.39
7.06 9.23 2.39
6.88 9.37 2.39
6.68 9.50 2.39
6.49 9.63 2.39
6.28 9.74 2.39
6.09 9.86 2.39
5.88 9.98 2.39
5.68 10.09 2.39
5.47 10.20 2.39
5.27 10.30 2.39
5.06 10.40 2.39
4.84 10.49 2.39
4.63 10.58 2.39
4.42 10.67 2.39
4.20 10.75 2.39
3.98 10.82 2.39
3.76 10.90 2.39
3.54 10.96 2.39
3.32 11.03 2.39
3.09 11.08 2.39
2.87 11.14 2.39
2.64 11.19 2.39
2.42 11.23 2.39
2.28 11.76 2.49
2.05 11.79 2.49
1.81 11.83 2.49
1.57 11.85 2.49
1.33 11.87 2.49
1.09 11.89 2.49
0.85 11.90 2.49
0.61 11.91 2.49
0.37 11.91 2.49
0.14 11.91 2.49
-0.10 11.90 2.49
-0.34 11.89 2.49
-0.58 11.88 2.49
-0.82 11.85 2.49
-1.06 11.83 2.49
-1.29 11.80 2.49
-1.53 11.76 2.49
-1.76 11.72 2.49
-2.00 11.68 2.49
-2.23 11.63 2.49
-2.46 11.57 2.49
-2.69 11.51 2.49
-2.92 11.45 2.49
-3.15 11.38 2.49
-3.37 11.31 2.49
-3.59 11.23 2.49
-3.82 11.15 2.49
-4.04 11.06 2.49
-4.26 10.97 2.49
-4.47 10.88 2.49
-4.69 10.78 2.49
-4.90 10.68 2.49
-5.11 10.57 2.49
-5.32 10.46 2.49
-5.52 10.34 2.49
-5.69 10.16 2.48
-5.69 9.69 2.39
-5.88 9.58 2.40
-6.06 9.43 2.39
-6.24 9.30 2.39
-6.42 9.17 2.39
-6.60 9.04 2.39
-6.78 8.90 2.39
-6.95 8.75 2.39
-7.12 8.61 2.39
-7.29 8.46 2.39
-7.45 8.30 2.39
-7.61 8.15 2.39
-7.77 7.99 2.39
-7.93 7.83 2.39
-8.08 7.66 2.39
-8.22 7.49 2.39
-8.37 7.32 2.39
-8.51 7.15 2.39
-8.65 6.97 2.39
-8.78 6.80 2.39
-8.91 6.61 2.39
-9.04 6.43 2.39
-9.16 6.24 2.39
-9.28 6.06 2.39
-9.40 5.87 2.39
-9.51 5.67 2.39
-9.74 5.55 2.42
-9.82 5.34 2.42
-9.91 5.13 2.41
-9.99 4.92 2.41
-10.09 4.72 2.41
-10.18 4.52 2.41
-10.23 4.29 2.40
-10.28 4.07 2.40
-10.32 3.85 2.39
-10.36 3.63 2.38
-10.40 3.41 2.37
-10.43 3.19 2.37
-10.46 2.97 2.36
-10.53 2.76 2.36
-10.61 2.56 2.37
-10.70 2.35 2.38
-10.78 2.14 2.39
-10.86 1.93 2.40
-10.94 1.72 2.41
-11.01 1.51 2.42
-11.07 1.29 2.42
-11.10 1.07 2.43
-11.12 0.84 2.43
-11.15 0.62 2.43
-11.17 0.40 2.43
-11.19 0.17 2.44
-11.21 -0.05 2.44
-11.22 -0.28 2.45
-11.25 -0.50 2.45
-11.29 -0.73 2.47
-11.33 -0.97 2.48
-11.37 -1.20 2.49
-11.37 -1.43 2.50
-11.36 -1.66 2.50
-11.34 -1.89 2.51
-11.33 -2.13 2.51
-11.31 -2.36 2.52
-11.27 -2.59 2.52
-11.23 -2.82 2.52
-11.18 -3.05 2.53
-11.14 -3.28 2.53
-11.11 -3.51 2.54
-11.07 -3.75 2.55
-11.04 -3.98 2.56
-11.00 -4.22 2.57
-10.96 -4.46 2.58
-10.91 -4.70 2.59
-10.84 -4.93 2.60
-10.77 -5.16 2.60
-10.69 -5.39 2.61
-10.62 -5.62 2.62
-10.54 -5.86 2.63
-10.46 -6.09 2.64
-10.37 -6.32 2.65
-10.29 -6.56 2.66
-9.13 -6.08 2.39
-9.01 -6.27 2.39
-8.88 -6.45 2.39
-8.75 -6.63 2.39
-8.62 -6.80 2.39
-8.48 -6.98 2.39
-8.34 -7.15 2.39
-8.20 -7.31 2.39
-8.06 -7.48 2.39
-7.91 -7.64 2.39
-7.75 -7.80 2.39
-7.60 -7.96 2.39
-7.44 -8.11 2.39
-7.28 -8.26 2.39
-7.11 -8.41 2.39
-6.94 -8.55 2.39
-6.77 -8.69 2.39
-6.60 -8.83 2.39
-6.42 -8.97 2.39
-6.24 -9.10 2.39
-6.06 -9.22 2.39
-5.88 -9.35 2.39
-5.69 -9.47 2.39
-5.50 -9.58 2.39
-5.31 -9.70 2.39
-5.12 -9.81 2.39
-5.06 -10.19 2.46
-4.93 -10.45 2.49
-4.72 -10.55 2.49
-4.51 -10.65 2.49
-4.29 -10.74 2.49
-4.08 -10.83 2.49
-3.86 -10.91 2.49
-3.64 -10.99 2.49
-3.42 -11.07 2.49
-3.20 -11.14 2.49
-2.98 -11.21 2.49
-2.76 -11.28 2.49
-2.53 -11.33 2.49
-2.30 -11.39 2.49
-2.08 -11.44 2.49
-1.85 -11.49 2.49
-1.62 -11.53 2.49
-1.38 -11.56 2.49
-1.15 -11.60 2.49
-0.92 -11.62 2.49
-0.69 -11.65 2.49
-0.45 -11.67 2.49
-0.22 -11.68 2.49
0.02 -10.52 2.49
0.23 -10.52 2.49
0.44 -10.52 2.49
0.65 -10.52 2.49
0.86 -10.51 2.49
1.07 -10.50 2.49
1.28 -10.48 2.49
1.50 -10.46 2.49
1.71 -10.43 2.49
1.92 -10.40 2.49
2.13 -10.37 2.49
2.33 -10.33 2.49
2.54 -10.28 2.49
2.75 -10.24 2.49
2.96 -10.19 2.49
3.03 -9.71 2.39
3.23 -9.65 2.39
3.42 -9.59 2.39
3.62 -9.53 2.39
3.81 -9.46 2.39
4.00 -9.39 2.39
4.19 -9.31 2.39
4.38 -9.23 2.39
4.57 -9.14 2.39
4.75 -9.06 2.39
4.94 -8.96 2.39
5.12 -8.87 2.39
5.30 -8.77 2.39
5.48 -8.67 2.39
5.65 -8.56 2.39
5.83 -8.45 2.39
6.00 -8.33 2.39
6.17 -8.22 2.39
6.33 -8.10 2.39
6.50 -7.97 2.39
6.66 -7.84 2.39
6.82 -7.71 2.39
6.99 -7.59 2.39
7.14 -7.45 2.39
7.29 -7.31 2.39
7.44 -7.16 2.39
7.59 -7.02 2.39
7.73 -6.87 2.39
7.87 -6.71 2.39
8.01 -6.56 2.39
8.14 -6.40 2.39
8.27 -6.24 2.39
8.40 -6.07 2.39
8.52 -5.91 2.39
8.64 -5.74 2.39
8.76 -5.57 2.39
8.87 -5.39 2.39
8.99 -5.21 2.39
9.09 -5.04 2.39
9.19 -4.85 2.39
9.29 -4.67 2.39
9.39 -4.49 2.39
9.48 -4.30 2.39
9.57 -4.11 2.39
9.65 -3.92 2.39
9.73 -3.72 2.39
9.81 -3.53 2.39
9.88 -3.33 2.39
9.95 -3.14 2.39
10.01 -2.94 2.39
10.07 -2.74 2.39
10.13 -2.53 2.39
10.18 -2.33 2.39
10.23 -2.13 2.39
10.27 -1.92 2.39
10.31 -1.72 2.39
10.35 -1.51 2.39
10.38 -1.30 2.39
10.41 -1.09 2.39
10.43 -0.89 2.39
10.45 -0.68 2.39
10.46 -0.47 2.39
10.47 -0.26 2.39
10.47 -0.05 2.39
10.47 0.16 2.39
10.47 0.37 2.39
10.46 0.58 2.39
10.45 0.79 2.39
10.43 1.00 2.39
10.41 1.21 2.39
10.39 1.42 2.39
10.36 1.63 2.39
10.32 1.83 2.39
10.29 2.04 2.39
10.24 2.25 2.39
10.20 2.45 2.39
10.15 2.66 2.39
9.02 2.55 2.14
10.03 3.06 2.39
9.97 3.26 2.39
9.90 3.46 2.39
9.83 3.66 2.39
9.75 3.85 2.39
8.23 3.44 2.04
9.59 4.24 2.39
9.50 4.43 2.39
9.41 4.62 2.39
9.31 4.81 2.39
9.22 4.99 2.39
9.11 5.18 2.39
9.01 5.36 2.39
8.90 5.54 2.39
8.78 5.71 2.39
8.66 5.89 2.39
8.54 6.06 2.39
8.42 6.23 2.39
8.29 6.39 2.39
8.16 6.56 2.39
8.02 6.72 2.39
7.88 6.87 2.39
6.10 5.54 1.88
5.99 5.66 1.89
5.88 5.78 1.89
5.76 5.90 1.89
5.63 6.00 1.88
5.51 6.11 1.88
5.38 6.22 1.88
5.25 6.32 1.88
5.13 6.43 1.89
5.01 6.55 1.89
6.16 8.39 2.39
5.99 8.51 2.39
5.82 8.63 2.39
5.64 8.74 2.39
5.46 8.85 2.39
5.28 8.95 2.39
5.10 9.05 2.39
4.91 9.15 2.39
4.73 9.24 2.39
4.54 9.33 2.39
4.35 9.42 2.39
4.16 9.50 2.39
3.96 9.57 2.39
3.77 9.65 2.39
3.57 9.72 2.39
3.38 9.78 2.39
3.18 9.84 2.39
2.98 9.90 2.39
2.78 9.95 2.39
2.58 10.00 2.39
2.38 10.05 2.39
2.27 10.52 2.49
2.05 10.56 2.49
1.84 10.59 2.49
1.63 10.62 2.49
1.41 10.65 2.49
1.20 10.67 2.49
0.98 10.68 2.49
0.77 10.69 2.49
0.55 10.70 2.49
0.34 10.71 2.49
0.12 10.70 2.49
-0.09 10.70 2.49
-0.31 10.69 2.49
-0.52 10.67 2.49
-0.73 10.66 2.49
-0.95 10.63 2.49
-1.16 10.60 2.49
-1.37 10.57 2.49
-1.58 10.54 2.49
-1.79 10.50 2.49
-2.00 10.45 2.49
-2.21 10.41 2.49
-2.42 10.35 2.49
-2.62 10.30 2.49
-2.83 10.24 2.49
-3.03 10.17 2.49
-3.23 10.10 2.49
-3.43 10.03 2.49
-3.63 9.95 2.49
-3.83 9.87 2.49
-4.02 9.79 2.49
-4.22 9.70 2.49
-4.41 9.61 2.49
-4.60 9.51 2.49
-4.78 9.41 2.49
-4.97 9.31 2.49
-5.15 9.20 2.49
-5.33 9.09 2.49
-5.51 8.98 2.49
-5.65 8.80 2.48
-5.64 8.42 2.40
-5.78 8.26 2.39
-5.94 8.14 2.39
-6.10 8.01 2.39
-6.26 7.88 2.39
-6.41 7.75 2.39
-6.56 7.62 2.39
-6.71 7.48 2.39
-6.86 7.34 2.39
-7.00 7.20 2.39
-7.14 7.05 2.39
-7.27 6.90 2.39
-7.41 6.75 2.39
-7.54 6.60 2.39
-7.67 6.44 2.39
-7.79 6.28 2.39
-7.91 6.12 2.39
-8.03 5.96 2.39
-8.14 5.79 2.39
-8.25 5.63 2.39
-8.36 5.46 2.39
-8.47 5.29 2.39
-8.57 5.11 2.39
-8.66 4.94 2.39
-8.76 4.76 2.39
-8.85 4.58 2.39
-8.93 4.40 2.39
-9.02 4.22 2.39
-9.10 4.04 2.39
-9.17 3.85 2.39
-9.25 3.66 2.39
-9.31 3.48 2.39
-9.38 3.29 2.39
-9.44 3.10 2.39
-9.76 2.99 2.46
-9.81 2.79 2.46
-9.88 2.59 2.46
-9.94 2.40 2.46
-10.03 2.21 2.47
-10.12 2.01 2.49
-10.22 1.82 2.50
-10.31 1.62 2.52
-10.40 1.42 2.53
-10.49 1.22 2.55
-10.55 1.02 2.56
-10.59 0.80 2.56
-10.61 0.59 2.57
-10.63 0.38 2.57
-10.65 0.17 2.57
-10.67 -0.05 2.58
-10.68 -0.26 2.58
-10.69 -0.48 2.59
-10.70 -0.70 2.59
-10.72 -0.91 2.60
-10.75 -1.13 2.61
-10.75 -1.35 2.62
-10.74 -1.57 2.62
-10.73 -1.79 2.63
-10.71 -2.01 2.64
-10.70 -2.23 2.64
-10.68 -2.45 2.65
-10.65 -2.67 2.66
-10.63 -2.90 2.66
-10.59 -3.11 2.67
-10.55 -3.33 2.68
-10.52 -3.56 2.69
-10.48 -3.78 2.69
-9.23 -3.54 2.39
-9.16 -3.73 2.39
-9.08 -3.91 2.39
-9.00 -4.09 2.39
-8.92 -4.27 2.39
-8.83 -4.45 2.39
-8.74 -4.63 2.39
-8.64 -4.80 2.39
-8.55 -4.98 2.39
-8.45 -5.15 2.39
-8.34 -5.32 2.39
-8.24 -5.49 2.39
-8.13 -5.65 2.39
-8.01 -5.81 2.39
-7.89 -5.98 2.39
-7.77 -6.13 2.39
-7.65 -6.29 2.39
-7.52 -6.44 2.39
-7.40 -6.60 2.39
-7.26 -6.74 2.39
-7.13 -6.89 2.39
-6.99 -7.03 2.39
-6.85 -7.18 2.39
-6.70 -7.31 2.39
-6.56 -7.45 2.39
-6.41 -7.58 2.39
-6.26 -7.71 2.39
-6.10 -7.84 2.39
-5.95 -7.96 2.39
-5.79 -8.08 2.39
-5.63 -8.20 2.39
-5.46 -8.32 2.39
-5.30 -8.43 2.39
-5.13 -8.53 2.39
-5.10 -8.89 2.46
-4.99 -9.12 2.49
-4.81 -9.22 2.49
-4.62 -9.32 2.49
-4.44 -9.41 2.49
-4.25 -9.50 2.49
-4.06 -9.59 2.49
-3.87 -9.68 2.49
-3.67 -9.76 2.49
-3.48 -9.83 2.49
-3.28 -9.91 2.49
-3.08 -9.97 2.49
-2.88 -10.04 2.49
-2.68 -10.10 2.49
-2.48 -10.16 2.49
-2.28 -10.21 2.49
-2.07 -10.26 2.49
-1.87 -10.30 2.49
-1.66 -10.34 2.49
-1.45 -10.38 2.49
-1.25 -10.41 2.49
-1.04 -10.44 2.49
-0.83 -10.47 2.49
-0.62 -10.49 2.49
-0.41 -10.50 2.49
-0.20 -10.51 2.49
0.02 -9.56 2.49
0.21 -9.56 2.49
0.40 -9.56 2.49
0.59 -9.55 2.49
0.78 -9.54 2.49
0.98 -9.53 2.49
1.17 -9.52 2.49
1.36 -9.50 2.49
1.55 -9.47 2.49
1.74 -9.44 2.49
1.93 -9.41 2.49
2.12 -9.38 2.49
2.31 -9.34 2.49
2.50 -9.29 2.49
2.69 -9.25 2.49
2.87 -9.19 2.49
2.96 -8.84 2.41
3.11 -8.71 2.39
3.28 -8.65 2.39
3.46 -8.58 2.39
3.63 -8.52 2.39
3.80 -8.45 2.39
3.98 -8.37 2.39
4.15 -8.30 2.39
4.31 -8.22 2.39
4.48 -8.13 2.39
4.64 -8.04 2.39
4.81 -7.95 2.39
4.97 -7.86 2.39
5.13 -7.76 2.39
5.29 -7.66 2.39
5.44 -7.56 2.39
5.59 -7.45 2.39
5.75 -7.34 2.39
5.89 -7.23 2.39
6.04 -7.11 2.39
6.19 -6.99 2.39
6.33 -6.87 2.39
6.47 -6.75 2.39
6.60 -6.62 2.39
6.74 -6.49 2.39
6.87 -6.35 2.39
7.01 -6.22 2.39
7.13 -6.09 2.39
7.26 -5.94 2.39
7.38 -5.80 2.39
7.50 -5.65 2.39
7.61 -5.50 2.39
7.73 -5.35 2.39
7.83 -5.20 2.39
7.94 -5.04 2.39
8.04 -4.88 2.39
8.14 -4.72 2.39
8.24 -4.56 2.39
8.33 -4.40 2.39
8.42 -4.23 2.39
8.51 -4.06 2.39
8.59 -3.89 2.39
8.67 -3.72 2.39
8.75 -3.55 2.39
8.82 -3.37 2.39
8.89 -3.20 2.39
8.95 -3.02 2.39
9.01 -2.84 2.39
9.07 -2.66 2.39
9.13 -2.48 2.39
9.18 -2.30 2.39
9.22 -2.11 2.39
9.27 -1.93 2.39
9.31 -1.74 2.39
9.34 -1.55 2.39
9.37 -1.37 2.39
9.40 -1.18 2.39
9.42 -0.99 2.39
9.44 -0.80 2.39
9.46 -0.61 2.39
9.47 -0.42 2.39
9.48 -0.23 2.39
9.48 -0.04 2.39
9.49 0.15 2.39
9.48 0.34 2.39
9.47 0.53 2.39
9.46 0.72 2.39
9.45 0.91 2.39
9.43 1.10 2.39
9.41 1.28 2.39
9.38 1.47 2.39
9.35 1.66 2.39
9.31 1.85 2.39
9.28 2.03 2.39
9.23 2.22 2.39
9.19 2.40 2.39
9.02 2.55 2.36
9.08 2.77 2.39
9.03 2.95 2.39
8.96 3.13 2.39
8.90 3.31 2.39
8.83 3.49 2.39
8.23 3.44 2.25
8.68 3.84 2.39
8.60 4.01 2.39
8.52 4.18 2.39
8.44 4.35 2.39
8.35 4.52 2.39
8.25 4.69 2.39
8.16 4.85 2.39
8.06 5.01 2.39
7.95 5.17 2.39
7.85 5.33 2.39
7.74 5.48 2.39
7.62 5.64 2.39
7.51 5.79 2.39
7.39 5.94 2.39
7.27 6.08 2.39
7.14 6.23 2.39
7.01 6.37 2.39
6.06 5.73 2.11
6.75 6.64 2.39
6.61 6.77 2.39
6.47 6.89 2.39
6.33 7.02 2.39
6.18 7.14 2.39
