ply
format ascii 1.0
element vertex 2840
property float32 x
property float32 y
property float32 z
end_header
-11.59 -43.43 2.39
-10.73 -43.70 2.39
-9.17 -40.89 2.22
-8.98 -44.19 2.39
-8.10 -44.40 2.39
-7.22 -44.61 2.39
-6.33 -44.79 2.39
-0.82 -41.25 2.17
0.01 -33.24 2.49
0.68 -33.26 2.49
1.34 -33.27 2.49
1.51 -24.87 1.86
2.68 -33.24 2.49
3.21 -31.84 2.39
3.86 -31.80 2.39
4.50 -31.74 2.39
5.14 -31.67 2.39
5.23 -28.57 2.16
6.42 -31.50 2.39
6.90 -30.70 2.34
7.69 -31.28 2.39
8.33 -31.15 2.39
8.96 -31.00 2.39
9.59 -30.85 2.39
10.22 -30.68 2.39
10.84 -30.50 2.39
11.46 -30.30 2.39
12.08 -30.09 2.39
2.12 -4.98 0.40
13.32 -29.69 2.39
13.93 -29.44 2.39
14.53 -29.18 2.39
15.13 -28.92 2.39
15.72 -28.63 2.39
16.31 -28.34 2.39
16.89 -28.04 2.39
17.47 -27.72 2.39
18.04 -27.39 2.39
18.60 -27.05 2.39
15.25 -21.25 1.91
14.44 -19.29 1.75
14.20 -18.19 1.68
14.25 -17.53 1.64
14.31 -16.89 1.61
14.28 -16.19 1.57
14.32 -15.58 1.53
14.35 -15.00 1.50
14.31 -14.38 1.47
14.34 -13.84 1.44
14.37 -13.32 1.41
14.40 -12.82 1.39
14.36 -12.28 1.36
14.40 -11.82 1.34
14.43 -11.37 1.32
14.47 -10.93 1.30
14.45 -10.47 1.28
14.48 -10.06 1.26
14.52 -9.66 1.25
14.55 -9.26 1.23
14.52 -8.84 1.22
14.54 -8.45 1.20
14.56 -8.08 1.19
14.57 -7.71 1.18
14.53 -7.32 1.16
14.55 -6.96 1.15
14.56 -6.61 1.14
14.58 -6.27 1.13
14.54 -5.91 1.11
14.55 -5.58 1.11
14.57 -5.25 1.10
14.58 -4.93 1.09
14.54 -4.59 1.08
14.55 -4.28 1.07
14.55 -3.96 1.07
14.56 -3.65 1.06
14.57 -3.34 1.06
14.58 -3.04 1.05
14.55 -2.73 1.04
14.60 -2.44 1.04
14.66 -2.15 1.04
14.71 -1.85 1.04
14.86 -1.57 1.05
15.04 -1.28 1.06
15.22 -0.99 1.07
15.41 -0.69 1.08
15.61 -0.39 1.10
15.81 -0.08 1.11
16.01 0.24 1.12
16.22 0.57 1.14
16.43 0.91 1.15
16.26 1.23 1.14
15.81 1.51 1.11
15.39 1.79 1.08
15.41 2.10 1.09
15.63 2.45 1.11
15.86 2.82 1.13
16.10 3.19 1.15
16.35 3.59 1.17
16.61 3.99 1.19
16.88 4.42 1.22
17.16 4.86 1.24
17.46 5.33 1.27
17.77 5.81 1.30
18.09 6.32 1.34
18.43 6.86 1.37
18.79 7.43 1.41
19.18 8.03 1.45
19.58 8.66 1.49
20.01 9.34 1.54
30.82 15.14 2.39
30.51 15.76 2.39
30.19 16.37 2.39
29.85 16.97 2.39
29.50 17.56 2.39
29.14 18.15 2.39
28.77 18.73 2.39
28.39 19.30 2.39
27.99 19.87 2.39
27.58 20.42 2.39
27.16 20.97 2.39
26.73 21.50 2.39
26.29 22.03 2.39
25.84 22.55 2.39
25.37 23.06 2.39
24.76 23.43 2.38
24.34 23.98 2.39
23.92 24.52 2.39
23.41 24.99 2.39
22.90 25.45 2.39
22.38 25.89 2.39
21.84 26.32 2.39
21.30 26.75 2.39
20.75 27.16 2.39
20.20 27.56 2.39
19.63 27.94 2.39
19.06 28.32 2.39
18.47 28.68 2.39
17.89 29.03 2.39
14.85 25.23 2.06
14.20 25.26 2.04
16.08 30.00 2.39
14.84 29.08 2.30
14.85 30.59 2.39
14.22 30.86 2.39
13.59 31.12 2.39
12.95 31.37 2.39
12.31 31.60 2.39
11.67 31.82 2.39
11.02 32.03 2.39
10.37 32.22 2.39
9.71 32.40 2.39
9.05 32.56 2.39
6.73 26.24 1.92
7.73 32.85 2.39
7.05 32.93 2.39
6.39 33.04 2.39
5.72 33.14 2.39
5.05 33.22 2.39
4.38 33.29 2.39
3.70 33.34 2.39
3.16 34.82 2.49
2.46 34.84 2.49
1.76 34.86 2.49
1.06 34.85 2.49
0.36 34.84 2.49
-0.34 34.81 2.49
-1.04 34.76 2.49
-1.73 34.70 2.49
-2.43 34.63 2.49
-3.12 34.54 2.49
-3.81 34.44 2.49
-4.50 34.32 2.49
-4.96 32.78 2.39
-5.62 32.64 2.39
-6.26 32.49 2.39
-6.91 32.33 2.39
-7.55 32.15 2.39
-8.18 31.96 2.39
-8.90 32.07 2.41
-9.42 31.46 2.38
-9.86 30.69 2.34
-10.22 29.74 2.29
-10.63 29.04 2.25
-11.09 28.51 2.23
-11.44 27.75 2.19
-11.79 27.05 2.15
-12.09 26.27 2.11
-12.27 25.31 2.06
-12.36 24.24 1.99
-12.47 23.29 1.94
-12.52 22.29 1.88
-12.57 21.37 1.82
-12.55 20.39 1.76
-12.52 19.46 1.70
-12.01 17.86 1.59
-11.76 16.75 1.51
-11.61 15.86 1.45
-11.48 15.04 1.40
-11.46 14.40 1.36
-11.41 13.76 1.32
-11.33 13.12 1.28
-11.34 12.61 1.26
-11.35 12.12 1.23
-11.37 11.67 1.21
-11.41 11.25 1.19
-11.41 10.80 1.17
-11.39 10.36 1.15
-11.37 9.93 1.13
-11.36 9.53 1.11
-11.36 9.14 1.09
-11.37 8.78 1.08
-11.39 8.44 1.06
-11.41 8.10 1.05
-11.43 7.78 1.04
-11.43 7.45 1.02
-11.43 7.12 1.01
-11.45 6.82 1.00
-11.47 6.53 0.99
-11.50 6.24 0.99
-11.52 5.95 0.98
-11.55 5.68 0.97
-11.58 5.41 0.96
-11.61 5.14 0.96
-11.63 4.87 0.95
-11.65 4.61 0.95
-11.68 4.35 0.94
-11.70 4.09 0.94
-11.72 3.84 0.93
-11.75 3.59 0.93
-11.78 3.34 0.93
-11.82 3.10 0.93
-11.84 2.85 0.93
-11.86 2.60 0.92
-11.88 2.36 0.92
-11.89 2.11 0.92
-11.91 1.87 0.92
-11.92 1.63 0.92
-11.92 1.38 0.92
-11.93 1.14 0.92
-11.96 0.90 0.92
-12.01 0.67 0.92
-12.07 0.43 0.92
-12.13 0.18 0.93
-12.18 -0.06 0.93
-12.23 -0.31 0.94
-12.27 -0.55 0.94
-12.32 -0.80 0.95
-12.36 -1.06 0.95
-12.39 -1.31 0.96
-12.42 -1.57 0.96
-12.45 -1.82 0.97
-12.48 -2.09 0.97
-12.51 -2.35 0.98
-12.54 -2.62 0.98
-12.57 -2.89 0.99
-12.59 -3.16 1.00
-12.60 -3.43 1.00
-12.61 -3.71 1.01
-12.62 -3.99 1.02
-12.63 -4.27 1.02
-12.64 -4.56 1.03
-12.64 -4.85 1.04
-12.65 -5.15 1.05
-12.65 -5.44 1.06
-12.64 -5.75 1.07
-12.65 -6.06 1.08
-12.65 -6.37 1.09
-12.66 -6.70 1.10
-12.66 -7.03 1.11
-12.68 -7.38 1.13
-12.70 -7.73 1.14
-12.72 -8.10 1.16
-12.74 -8.48 1.18
-12.76 -8.87 1.20
-12.79 -9.28 1.22
-12.86 -9.72 1.24
-12.98 -10.23 1.27
-13.13 -10.78 1.31
-13.22 -11.31 1.34
-13.27 -11.82 1.37
-13.39 -12.42 1.40
-13.52 -13.06 1.44
-13.54 -13.61 1.47
-13.54 -14.17 1.50
-13.55 -14.76 1.54
-13.53 -15.34 1.57
-13.43 -15.86 1.59
-13.33 -16.41 1.62
-13.23 -16.97 1.65
-13.17 -17.60 1.68
-13.11 -18.28 1.72
-13.00 -18.92 1.76
-12.90 -19.60 1.80
-12.80 -20.32 1.84
-12.63 -20.98 1.87
-12.51 -21.76 1.92
-12.53 -22.85 1.99
-12.57 -24.04 2.07
-13.03 -26.20 2.23
-18.96 -40.11 3.38
-12.83 -28.63 2.39
-12.26 -28.90 2.39
-11.69 -29.16 2.39
-11.11 -29.41 2.39
-10.52 -29.64 2.39
-9.93 -29.87 2.39
-9.34 -30.08 2.39
-8.74 -30.28 2.39
-8.48 -31.79 2.49
-7.85 -31.97 2.49
-7.21 -32.15 2.49
-6.57 -32.31 2.49
-5.92 -32.46 2.49
-5.27 -32.60 2.49
-4.62 -32.72 2.49
-3.97 -32.83 2.49
-3.31 -32.93 2.49
-2.65 -33.02 2.49
-1.99 -33.09 2.49
-1.32 -33.15 2.49
-0.66 -33.20 2.49
0.01 -25.52 2.49
0.52 -25.53 2.49
1.00 -24.60 2.40
1.48 -24.47 2.39
1.98 -24.45 2.39
2.47 -24.42 2.39
2.96 -24.38 2.39
3.45 -24.34 2.39
3.94 -24.28 2.39
4.43 -24.21 2.39
4.92 -24.14 2.39
5.41 -24.08 2.39
5.90 -23.99 2.39
6.39 -23.88 2.39
6.87 -23.77 2.39
7.35 -23.64 2.39
7.83 -23.51 2.39
8.31 -23.36 2.39
8.78 -23.21 2.39
9.25 -23.04 2.39
2.12 -4.98 0.52
10.18 -22.69 2.39
10.65 -22.50 2.39
11.10 -22.30 2.39
11.56 -22.09 2.39
12.01 -21.87 2.39
12.45 -21.64 2.39
12.90 -21.40 2.39
13.33 -21.15 2.39
13.76 -20.90 2.39
14.19 -20.63 2.39
14.61 -20.36 2.39
14.44 -19.28 2.30
14.20 -18.19 2.20
14.25 -17.52 2.15
14.31 -16.88 2.11
14.28 -16.19 2.05
14.32 -15.58 2.01
14.35 -15.00 1.97
14.31 -14.38 1.93
14.34 -13.84 1.89
14.37 -13.32 1.86
14.40 -12.82 1.83
14.36 -12.28 1.79
14.40 -11.82 1.76
14.43 -11.37 1.74
14.47 -10.93 1.71
14.45 -10.47 1.68
14.48 -10.06 1.66
14.52 -9.66 1.64
14.55 -9.26 1.63
14.52 -8.84 1.60
14.54 -8.45 1.58
14.56 -8.08 1.57
14.57 -7.71 1.55
14.53 -7.32 1.53
14.55 -6.96 1.51
14.56 -6.61 1.50
14.58 -6.27 1.49
14.54 -5.91 1.47
14.55 -5.58 1.46
14.57 -5.25 1.45
14.58 -4.93 1.44
14.54 -4.59 1.43
14.55 -4.27 1.42
14.55 -3.96 1.41
14.56 -3.65 1.40
14.57 -3.34 1.39
14.58 -3.04 1.39
14.55 -2.73 1.38
14.60 -2.44 1.38
14.66 -2.15 1.38
14.71 -1.85 1.38
14.86 -1.57 1.39
15.04 -1.28 1.40
15.22 -0.99 1.42
15.41 -0.69 1.43
15.61 -0.39 1.45
15.81 -0.08 1.47
16.01 0.24 1.49
16.22 0.57 1.51
16.43 0.91 1.53
16.26 1.23 1.51
15.81 1.51 1.47
15.39 1.79 1.43
15.41 2.10 1.44
15.63 2.45 1.46
15.86 2.82 1.49
16.10 3.19 1.52
16.35 3.59 1.55
16.61 3.99 1.58
16.88 4.42 1.61
17.16 4.86 1.65
17.46 5.33 1.69
17.77 5.81 1.73
18.09 6.32 1.77
18.43 6.86 1.82
18.79 7.43 1.87
19.18 8.03 1.92
19.58 8.66 1.98
20.01 9.34 2.04
23.26 11.43 2.39
23.02 11.89 2.39
22.78 12.35 2.39
22.53 12.80 2.39
22.26 13.25 2.39
21.99 13.70 2.39
21.71 14.13 2.39
21.42 14.57 2.39
21.12 14.99 2.39
20.82 15.41 2.39
20.50 15.82 2.39
20.18 16.23 2.39
19.84 16.63 2.39
19.50 17.02 2.39
19.15 17.41 2.39
18.80 17.78 2.39
18.43 18.15 2.39
18.06 18.51 2.39
17.68 18.87 2.39
17.29 19.21 2.39
16.90 19.55 2.39
16.50 19.88 2.39
16.09 20.20 2.39
15.68 20.51 2.39
15.26 20.82 2.39
14.83 21.11 2.39
14.40 21.40 2.39
13.96 21.68 2.39
13.52 21.94 2.39
13.07 22.20 2.39
12.62 22.45 2.39
12.16 22.69 2.39
11.70 22.92 2.39
11.23 23.14 2.39
10.76 23.35 2.39
10.28 23.55 2.39
9.80 23.74 2.39
9.32 23.92 2.39
8.83 24.09 2.39
8.34 24.25 2.39
7.85 24.40 2.39
7.36 24.53 2.39
6.85 24.64 2.39
6.35 24.75 2.39
5.85 24.86 2.39
5.35 24.96 2.39
4.84 25.05 2.39
4.34 25.12 2.39
3.83 25.19 2.39
3.32 25.25 2.39
2.93 26.38 2.49
2.40 26.42 2.49
1.87 26.44 2.49
1.34 26.46 2.49
0.81 26.46 2.49
0.27 26.46 2.49
-0.26 26.44 2.49
-0.79 26.41 2.49
-1.32 26.37 2.49
-1.84 26.32 2.49
-2.37 26.26 2.49
-2.89 26.19 2.49
-3.42 26.10 2.49
-3.94 26.01 2.49
-4.46 25.91 2.49
-4.92 25.54 2.47
-5.26 24.61 2.39
-5.75 24.48 2.39
-6.23 24.34 2.39
-6.71 24.19 2.39
-7.19 24.04 2.39
-7.67 23.87 2.39
-8.14 23.69 2.39
-8.61 23.51 2.39
-10.04 25.82 2.65
-10.40 25.23 2.61
-10.71 24.57 2.57
-10.98 23.87 2.52
-11.20 23.11 2.46
-11.41 22.39 2.41
-11.51 21.50 2.34
-11.60 20.66 2.28
-11.55 19.65 2.19
-11.56 18.78 2.12
-11.15 17.32 1.98
-11.11 16.53 1.92
-11.10 15.82 1.86
-10.99 15.01 1.80
-10.99 14.39 1.75
-10.99 13.81 1.71
-10.94 13.19 1.66
-10.95 12.68 1.62
-10.96 12.19 1.59
-10.98 11.73 1.56
-11.01 11.30 1.53
-11.02 10.87 1.50
-11.01 10.43 1.47
-11.00 10.01 1.45
-10.99 9.60 1.42
-10.99 9.21 1.40
-11.00 8.86 1.38
-11.03 8.52 1.36
-11.05 8.19 1.34
-11.07 7.87 1.33
-11.10 7.55 1.31
-11.11 7.24 1.30
-11.12 6.93 1.28
-11.15 6.64 1.27
-11.18 6.36 1.26
-11.20 6.08 1.25
-11.23 5.80 1.24
-11.25 5.53 1.23
-11.28 5.27 1.22
-11.31 5.01 1.22
-11.34 4.75 1.21
-11.36 4.49 1.20
-11.38 4.24 1.20
-11.40 3.99 1.19
-11.42 3.74 1.18
-11.44 3.49 1.18
-11.48 3.25 1.18
-11.51 3.02 1.17
-11.53 2.77 1.17
-11.55 2.53 1.17
-11.57 2.30 1.17
-11.58 2.06 1.16
-11.60 1.82 1.16
-11.61 1.59 1.16
-11.62 1.35 1.16
-11.63 1.11 1.16
-11.66 0.88 1.16
-11.71 0.65 1.16
-11.77 0.42 1.17
-11.82 0.18 1.17
-11.87 -0.06 1.18
-11.92 -0.30 1.18
-11.97 -0.54 1.19
-12.01 -0.78 1.20
-12.06 -1.03 1.20
-12.09 -1.28 1.21
-12.11 -1.53 1.21
-12.14 -1.78 1.22
-12.17 -2.03 1.23
-12.19 -2.29 1.23
-12.22 -2.55 1.24
-12.25 -2.81 1.25
-12.27 -3.08 1.26
-12.28 -3.34 1.27
-12.28 -3.61 1.27
-12.29 -3.88 1.28
-12.30 -4.16 1.29
-12.30 -4.44 1.30
-12.31 -4.72 1.31
-12.32 -5.01 1.32
-12.31 -5.30 1.34
-12.31 -5.59 1.35
-12.30 -5.89 1.36
-12.29 -6.19 1.37
-12.29 -6.51 1.39
-12.29 -6.82 1.40
-12.29 -7.15 1.42
-12.31 -7.50 1.44
-12.33 -7.85 1.46
-12.34 -8.21 1.48
-12.36 -8.59 1.50
-12.37 -8.97 1.52
-12.40 -9.38 1.55
-12.46 -9.82 1.58
-12.52 -10.29 1.61
-12.65 -10.82 1.66
-12.73 -11.34 1.70
-12.71 -11.79 1.72
-12.71 -12.27 1.76
-12.82 -12.88 1.81
-12.85 -13.44 1.85
-12.79 -13.93 1.88
-12.75 -14.46 1.92
-12.74 -15.05 1.96
-12.66 -15.58 1.99
-12.54 -16.08 2.03
-12.42 -16.60 2.06
-12.30 -17.15 2.09
-12.23 -17.79 2.14
-12.18 -18.51 2.20
-12.11 -19.23 2.25
-11.99 -19.92 2.30
-11.76 -20.45 2.34
-11.46 -20.90 2.36
-11.16 -21.35 2.39
-10.76 -21.63 2.39
-10.32 -21.85 2.39
-9.89 -22.06 2.39
-9.45 -22.27 2.39
-9.00 -22.46 2.39
-8.55 -22.65 2.39
-8.10 -22.83 2.39
-7.65 -23.00 2.39
-7.20 -23.21 2.40
-7.01 -24.32 2.49
-6.53 -24.46 2.49
-6.04 -24.60 2.49
-5.55 -24.73 2.49
-5.05 -24.85 2.49
-4.55 -24.97 2.49
-4.05 -25.07 2.49
-3.55 -25.16 2.49
-3.05 -25.24 2.49
-2.54 -25.31 2.49
-2.03 -25.37 2.49
-1.53 -25.42 2.49
-1.02 -25.47 2.49
-0.50 -25.50 2.49
0.01 -20.69 2.49
0.42 -20.70 2.49
0.84 -20.70 2.49
1.20 -19.84 2.39
1.60 -19.82 2.39
2.00 -19.79 2.39
2.40 -19.76 2.39
2.80 -19.72 2.39
3.19 -19.67 2.39
3.59 -19.61 2.39
3.99 -19.55 2.39
4.38 -19.47 2.39
4.77 -19.39 2.39
5.16 -19.31 2.39
5.56 -19.24 2.39
5.95 -19.13 2.39
6.34 -19.02 2.39
6.72 -18.90 2.39
7.10 -18.77 2.39
7.48 -18.64 2.39
2.12 -4.98 0.64
8.24 -18.35 2.39
8.61 -18.19 2.39
8.98 -18.02 2.39
9.34 -17.85 2.39
9.71 -17.67 2.39
10.06 -17.48 2.39
10.42 -17.29 2.39
10.77 -17.09 2.39
11.12 -16.88 2.39
11.46 -16.66 2.39
11.80 -16.44 2.39
12.14 -16.21 2.39
12.47 -15.97 2.39
12.79 -15.73 2.39
13.11 -15.47 2.39
13.43 -15.22 2.39
13.74 -14.95 2.39
14.05 -14.68 2.39
14.35 -14.41 2.39
14.34 -13.84 2.34
14.37 -13.32 2.30
14.40 -12.82 2.27
14.36 -12.28 2.22
14.40 -11.81 2.19
14.43 -11.37 2.16
14.47 -10.93 2.13
14.45 -10.47 2.09
14.48 -10.06 2.07
14.52 -9.65 2.04
14.55 -9.26 2.02
14.52 -8.84 1.99
14.54 -8.45 1.97
14.56 -8.08 1.94
14.57 -7.71 1.92
14.53 -7.32 1.90
14.55 -6.96 1.88
14.56 -6.61 1.86
14.58 -6.27 1.85
14.54 -5.91 1.83
14.55 -5.58 1.81
14.57 -5.25 1.80
14.58 -4.93 1.79
14.54 -4.59 1.77
14.55 -4.27 1.76
14.55 -3.96 1.75
14.56 -3.65 1.74
14.57 -3.34 1.73
14.58 -3.04 1.73
14.55 -2.73 1.72
14.60 -2.44 1.72
14.66 -2.14 1.72
14.71 -1.85 1.72
14.86 -1.57 1.73
15.04 -1.28 1.75
15.23 -0.99 1.77
15.41 -0.69 1.78
15.61 -0.39 1.81
15.81 -0.08 1.83
16.01 0.24 1.85
16.22 0.57 1.87
16.44 0.91 1.90
16.26 1.23 1.88
15.81 1.51 1.83
15.38 1.79 1.79
15.41 2.10 1.79
15.63 2.45 1.82
15.86 2.82 1.86
16.10 3.19 1.89
16.35 3.59 1.93
16.61 3.99 1.97
16.88 4.42 2.01
17.16 4.86 2.06
17.46 5.33 2.10
17.77 5.81 2.15
18.09 6.32 2.21
18.43 6.86 2.27
18.79 7.43 2.33
19.17 8.03 2.39
19.01 8.41 2.39
18.84 8.79 2.39
18.66 9.17 2.39
18.47 9.54 2.39
18.27 9.91 2.39
18.07 10.27 2.39
17.86 10.63 2.39
17.64 10.99 2.39
17.42 11.34 2.39
17.19 11.69 2.39
16.95 12.03 2.39
16.70 12.37 2.39
16.45 12.70 2.39
16.19 13.02 2.39
15.92 13.34 2.39
15.65 13.66 2.39
15.37 13.97 2.39
15.08 14.27 2.39
14.79 14.57 2.39
14.49 14.86 2.39
14.19 15.14 2.39
13.88 15.42 2.39
13.57 15.69 2.39
13.24 15.96 2.39
12.92 16.22 2.39
12.59 16.47 2.39
12.25 16.71 2.39
11.91 16.95 2.39
11.56 17.18 2.39
11.21 17.41 2.39
10.86 17.62 2.39
10.50 17.83 2.39
10.14 18.03 2.39
9.77 18.22 2.39
9.40 18.41 2.39
9.02 18.59 2.39
8.65 18.76 2.39
8.26 18.92 2.39
7.88 19.08 2.39
7.49 19.22 2.39
7.10 19.36 2.39
6.70 19.47 2.39
6.31 19.59 2.39
5.91 19.71 2.39
5.51 19.81 2.39
5.11 19.91 2.39
4.71 20.00 2.39
4.30 20.08 2.39
3.90 20.15 2.39
3.49 20.21 2.39
3.10 20.39 2.41
2.79 21.19 2.49
2.36 21.23 2.49
1.93 21.27 2.49
1.51 21.29 2.49
1.08 21.30 2.49
0.65 21.31 2.49
0.22 21.31 2.49
-0.21 21.30 2.49
-0.63 21.28 2.49
-1.06 21.25 2.49
-1.48 21.21 2.49
-1.91 21.16 2.49
-2.33 21.11 2.49
-2.75 21.05 2.49
-3.17 20.97 2.49
-3.59 20.89 2.49
-4.01 20.80 2.49
-4.42 20.71 2.49
-4.83 20.60 2.49
-5.15 20.14 2.45
-5.42 19.52 2.39
-5.80 19.40 2.39
-6.19 19.27 2.39
-6.57 19.13 2.39
-6.95 18.98 2.39
-7.32 18.83 2.39
-7.69 18.66 2.39
-8.06 18.49 2.39
-8.43 18.32 2.39
-8.79 18.13 2.39
-9.14 17.94 2.39
-10.36 19.36 2.61
-10.43 18.58 2.53
-10.49 17.85 2.46
-10.48 17.03 2.38
-10.50 16.32 2.31
-10.52 15.65 2.25
-10.52 14.99 2.18
-10.53 14.38 2.13
-10.54 13.80 2.07
-10.54 13.25 2.02
-10.56 12.74 1.98
-10.59 12.26 1.94
-10.61 11.80 1.90
-10.63 11.36 1.86
-10.65 10.93 1.83
-10.64 10.49 1.79
-10.64 10.07 1.76
-10.63 9.67 1.72
-10.61 9.27 1.69
-10.62 8.91 1.67
-10.66 8.58 1.65
-10.69 8.26 1.63
-10.72 7.95 1.61
-10.75 7.64 1.59
-10.78 7.34 1.57
-10.80 7.04 1.55
-10.83 6.75 1.54
-10.86 6.47 1.53
-10.89 6.20 1.51
-10.92 5.93 1.50
-10.95 5.66 1.49
-10.97 5.40 1.48
-11.00 5.14 1.47
-11.03 4.88 1.46
-11.05 4.63 1.45
-11.08 4.38 1.44
-11.10 4.14 1.44
-11.12 3.89 1.43
-11.14 3.65 1.42
-11.16 3.41 1.42
-11.19 3.17 1.41
-11.22 2.94 1.41
-11.24 2.70 1.40
-11.25 2.47 1.40
-11.27 2.24 1.40
-11.29 2.01 1.39
-11.30 1.78 1.39
-11.32 1.55 1.39
-11.34 1.32 1.39
-11.34 1.09 1.39
-11.37 0.86 1.39
-11.42 0.63 1.39
-11.48 0.41 1.40
-11.53 0.18 1.41
-11.58 -0.06 1.41
-11.63 -0.29 1.42
-11.68 -0.53 1.43
-11.72 -0.76 1.43
-11.76 -1.00 1.44
-11.79 -1.25 1.45
-11.82 -1.49 1.46
-11.84 -1.73 1.46
-11.87 -1.98 1.47
-11.89 -2.23 1.48
-11.92 -2.49 1.49
-11.94 -2.74 1.50
-11.96 -3.00 1.51
-11.97 -3.26 1.52
-11.98 -3.52 1.53
-11.98 -3.79 1.54
-11.98 -4.05 1.55
-11.99 -4.32 1.56
-11.99 -4.60 1.57
-11.99 -4.88 1.59
-11.99 -5.16 1.60
-11.99 -5.45 1.61
-11.98 -5.74 1.63
-11.97 -6.03 1.64
-11.95 -6.33 1.66
-11.94 -6.63 1.67
-11.94 -6.95 1.69
-11.94 -7.27 1.71
-11.95 -7.61 1.73
-11.96 -7.96 1.76
-11.97 -8.32 1.78
-11.98 -8.69 1.81
-11.99 -9.07 1.84
-12.02 -9.48 1.87
-12.07 -9.91 1.91
-12.11 -10.36 1.95
-12.19 -10.86 2.00
-12.25 -11.37 2.04
-12.22 -11.80 2.08
-12.19 -12.25 2.11
-12.15 -12.72 2.15
-12.21 -13.31 2.21
-12.15 -13.78 2.24
-12.07 -14.27 2.28
-12.00 -14.77 2.32
-11.94 -15.31 2.37
-11.81 -15.79 2.41
-11.59 -16.16 2.43
-11.33 -16.48 2.44
-11.06 -16.80 2.45
-10.44 -16.59 2.39
-10.11 -16.80 2.39
-9.77 -17.00 2.39
-9.43 -17.20 2.39
-9.09 -17.39 2.39
-8.74 -17.58 2.39
-8.39 -17.76 2.39
-8.03 -17.93 2.39
-7.68 -18.09 2.39
-7.31 -18.25 2.39
-6.95 -18.40 2.39
-6.84 -19.27 2.48
-6.48 -19.49 2.49
-6.09 -19.62 2.49
-5.69 -19.75 2.49
-5.30 -19.87 2.49
-4.90 -19.98 2.49
-4.50 -20.08 2.49
-4.10 -20.18 2.49
-3.69 -20.27 2.49
-3.29 -20.35 2.49
-2.88 -20.42 2.49
-2.47 -20.48 2.49
-2.06 -20.54 2.49
-1.65 -20.58 2.49
-1.24 -20.62 2.49
-0.82 -20.66 2.49
-0.41 -20.68 2.49
0.01 -17.39 2.49
0.36 -17.39 2.49
0.71 -17.39 2.49
1.06 -17.38 2.49
1.35 -16.64 2.39
1.68 -16.62 2.39
2.02 -16.59 2.39
2.35 -16.56 2.39
2.68 -16.52 2.39
3.02 -16.47 2.39
3.35 -16.41 2.39
3.68 -16.35 2.39
4.01 -16.28 2.39
4.34 -16.20 2.39
4.66 -16.12 2.39
4.99 -16.03 2.39
5.31 -15.94 2.39
5.64 -15.86 2.39
5.96 -15.75 2.39
6.28 -15.63 2.39
2.12 -4.98 0.77
6.91 -15.38 2.39
7.22 -15.25 2.39
7.53 -15.11 2.39
7.83 -14.96 2.39
8.14 -14.81 2.39
8.44 -14.65 2.39
8.73 -14.49 2.39
9.03 -14.32 2.39
9.32 -14.14 2.39
9.61 -13.96 2.39
9.89 -13.77 2.39
10.17 -13.58 2.39
10.44 -13.38 2.39
10.72 -13.17 2.39
10.98 -12.96 2.39
11.25 -12.74 2.39
11.51 -12.52 2.39
11.76 -12.29 2.39
12.01 -12.06 2.39
12.26 -11.82 2.39
12.50 -11.58 2.39
12.74 -11.33 2.39
12.97 -11.08 2.39
13.19 -10.82 2.39
13.41 -10.56 2.39
13.63 -10.30 2.39
13.84 -10.02 2.39
14.05 -9.75 2.39
14.24 -9.47 2.39
14.44 -9.19 2.39
14.52 -8.84 2.38
14.54 -8.45 2.35
14.56 -8.07 2.33
14.57 -7.71 2.30
14.53 -7.31 2.27
14.55 -6.96 2.25
14.56 -6.61 2.23
14.58 -6.27 2.21
14.54 -5.91 2.19
14.55 -5.58 2.17
14.57 -5.25 2.16
14.58 -4.93 2.14
14.54 -4.59 2.12
14.55 -4.27 2.11
14.55 -3.96 2.10
14.56 -3.65 2.09
14.57 -3.34 2.08
14.58 -3.04 2.07
14.55 -2.73 2.05
14.60 -2.44 2.05
14.66 -2.14 2.06
14.71 -1.85 2.06
14.86 -1.57 2.07
15.04 -1.28 2.09
15.23 -0.99 2.11
15.42 -0.69 2.14
15.61 -0.39 2.16
15.81 -0.08 2.19
16.01 0.24 2.22
16.22 0.57 2.25
16.44 0.91 2.28
16.26 1.23 2.26
15.81 1.52 2.20
15.38 1.79 2.14
15.41 2.10 2.15
15.63 2.45 2.19
15.86 2.82 2.23
16.10 3.19 2.27
16.35 3.59 2.31
16.61 3.99 2.36
16.77 4.39 2.39
16.68 4.73 2.39
16.58 5.06 2.39
16.48 5.39 2.39
16.37 5.72 2.39
16.25 6.05 2.39
16.12 6.37 2.39
15.99 6.70 2.39
15.86 7.02 2.39
15.71 7.33 2.39
15.56 7.65 2.39
15.41 7.96 2.39
15.24 8.27 2.39
15.08 8.57 2.39
14.90 8.87 2.39
14.72 9.17 2.39
14.53 9.46 2.39
14.34 9.75 2.39
14.14 10.03 2.39
13.93 10.32 2.39
13.72 10.59 2.39
13.51 10.86 2.39
13.28 11.13 2.39
13.06 11.39 2.39
12.82 11.65 2.39
12.59 11.91 2.39
12.34 12.15 2.39
12.09 12.40 2.39
11.84 12.64 2.39
11.58 12.87 2.39
11.32 13.10 2.39
11.05 13.32 2.39
10.78 13.53 2.39
10.51 13.74 2.39
10.23 13.95 2.39
9.94 14.15 2.39
9.65 14.34 2.39
9.36 14.53 2.39
9.07 14.71 2.39
8.77 14.88 2.39
8.46 15.05 2.39
8.16 15.22 2.39
7.85 15.37 2.39
7.54 15.52 2.39
7.22 15.66 2.39
6.90 15.80 2.39
6.57 15.91 2.39
6.25 16.04 2.39
5.93 16.15 2.39
5.60 16.26 2.39
5.27 16.37 2.39
4.94 16.46 2.39
4.61 16.55 2.39
4.27 16.63 2.39
3.93 16.71 2.39
3.60 16.78 2.39
3.26 16.84 2.39
2.92 16.90 2.39
2.69 17.67 2.49
2.33 17.72 2.49
1.98 17.75 2.49
1.62 17.78 2.49
1.26 17.80 2.49
0.90 17.82 2.49
0.54 17.82 2.49
0.19 17.82 2.49
-0.17 17.81 2.49
-0.53 17.80 2.49
-0.88 17.78 2.49
-1.24 17.75 2.49
-1.60 17.71 2.49
-1.95 17.66 2.49
-2.30 17.61 2.49
-2.65 17.55 2.49
-3.00 17.49 2.49
-3.35 17.42 2.49
-3.70 17.34 2.49
-4.05 17.25 2.49
-4.39 17.16 2.49
-4.73 17.06 2.49
-5.07 16.95 2.49
-5.31 16.53 2.45
-5.50 16.02 2.39
-5.82 15.90 2.39
-6.13 15.77 2.39
-6.45 15.64 2.39
-6.75 15.50 2.39
-7.06 15.35 2.39
-7.36 15.20 2.39
-7.66 15.04 2.39
-7.96 14.88 2.39
-8.25 14.71 2.39
-8.54 14.53 2.39
-8.83 14.35 2.39
-9.11 14.16 2.39
-9.39 13.97 2.39
-9.72 13.86 2.41
-9.74 13.30 2.34
-9.81 12.85 2.30
-9.91 12.46 2.27
-9.95 12.01 2.22
-9.99 11.57 2.18
-10.03 11.15 2.14
-10.09 10.78 2.11
-10.13 10.40 2.07
-10.13 9.99 2.03
-10.13 9.60 1.99
-10.13 9.22 1.96
-10.16 8.88 1.93
-10.21 8.57 1.91
-10.25 8.26 1.88
-10.29 7.95 1.86
-10.32 7.65 1.84
-10.36 7.36 1.82
-10.39 7.07 1.80
-10.41 6.78 1.78
-10.44 6.51 1.77
-10.48 6.25 1.75
-10.52 5.99 1.74
-10.56 5.73 1.73
-10.60 5.48 1.72
-10.63 5.23 1.70
-10.67 4.98 1.69
-10.69 4.74 1.68
-10.72 4.49 1.67
-10.76 4.26 1.67
-10.79 4.02 1.66
-10.82 3.79 1.65
-10.84 3.55 1.65
-10.87 3.32 1.64
-10.90 3.09 1.64
-10.92 2.86 1.63
-10.95 2.63 1.63
-10.97 2.41 1.62
-10.99 2.18 1.62
-11.01 1.96 1.62
-11.02 1.73 1.61
-11.04 1.51 1.61
-11.05 1.28 1.61
-11.07 1.06 1.61
-11.10 0.84 1.61
-11.15 0.62 1.62
-11.20 0.40 1.62
-11.25 0.17 1.63
-11.30 -0.05 1.64
-11.34 -0.28 1.65
-11.39 -0.51 1.65
-11.44 -0.74 1.66
-11.48 -0.98 1.67
-11.51 -1.22 1.68
-11.53 -1.45 1.69
-11.56 -1.69 1.70
-11.58 -1.93 1.70
-11.60 -2.18 1.71
-11.62 -2.42 1.72
-11.65 -2.67 1.74
-11.67 -2.93 1.75
-11.68 -3.18 1.76
-11.68 -3.43 1.77
-11.68 -3.69 1.78
-11.69 -3.95 1.79
-11.69 -4.22 1.81
-11.69 -4.48 1.82
-11.69 -4.75 1.83
-11.69 -5.03 1.85
-11.68 -5.31 1.86
-11.67 -5.59 1.88
-11.65 -5.87 1.90
-11.64 -6.16 1.91
-11.62 -6.45 1.93
-11.61 -6.75 1.95
-11.59 -7.06 1.97
-11.60 -7.39 2.00
-11.60 -7.72 2.03
-11.61 -8.07 2.05
-11.61 -8.42 2.08
-11.62 -8.78 2.12
-11.62 -9.16 2.15
-11.65 -9.57 2.19
-11.69 -10.00 2.23
-11.72 -10.44 2.28
-11.76 -10.91 2.33
-11.79 -11.39 2.38
-11.75 -11.81 2.42
-11.71 -12.25 2.46
-11.66 -12.71 2.50
-11.56 -13.12 2.54
-11.38 -13.45 2.56
-10.39 -12.79 2.39
-10.13 -13.00 2.39
-9.87 -13.20 2.39
-9.61 -13.40 2.39
-9.34 -13.59 2.39
-9.07 -13.78 2.39
-8.79 -13.96 2.39
-8.51 -14.14 2.39
-8.23 -14.31 2.39
-7.94 -14.48 2.39
-7.65 -14.64 2.39
-7.36 -14.79 2.39
-7.06 -14.94 2.39
-6.76 -15.09 2.39
-6.70 -15.79 2.48
-6.42 -16.02 2.49
-6.10 -16.15 2.49
-5.77 -16.27 2.49
-5.45 -16.39 2.49
-5.12 -16.51 2.49
-4.79 -16.61 2.49
-4.46 -16.71 2.49
-4.12 -16.80 2.49
-3.78 -16.89 2.49
-3.45 -16.97 2.49
-3.11 -17.04 2.49
-2.76 -17.11 2.49
-2.42 -17.16 2.49
-2.08 -17.22 2.49
-1.73 -17.26 2.49
-1.38 -17.30 2.49
-1.04 -17.33 2.49
-0.69 -17.36 2.49
-0.34 -17.38 2.49
0.01 -14.98 2.49
0.31 -14.98 2.49
0.61 -14.98 2.49
0.91 -14.97 2.49
1.21 -14.95 2.49
1.45 -14.32 2.39
1.74 -14.29 2.39
2.02 -14.26 2.39
2.31 -14.22 2.39
2.60 -14.18 2.39
2.88 -14.13 2.39
3.17 -14.07 2.39
3.45 -14.01 2.39
3.73 -13.95 2.39
4.01 -13.88 2.39
4.29 -13.80 2.39
4.57 -13.72 2.39
4.85 -13.63 2.39
5.12 -13.53 2.39
5.40 -13.43 2.39
2.12 -4.98 0.89
5.94 -13.24 2.39
6.21 -13.12 2.39
6.48 -13.00 2.39
6.74 -12.87 2.39
7.00 -12.74 2.39
7.26 -12.60 2.39
7.51 -12.46 2.39
7.76 -12.31 2.39
8.01 -12.16 2.39
8.26 -12.00 2.39
8.50 -11.84 2.39
8.74 -11.67 2.39
8.98 -11.50 2.39
9.21 -11.32 2.39
9.44 -11.14 2.39
9.67 -10.95 2.39
9.89 -10.76 2.39
10.11 -10.56 2.39
10.32 -10.36 2.39
10.53 -10.16 2.39
10.74 -9.95 2.39
10.94 -9.73 2.39
11.14 -9.52 2.39
11.33 -9.30 2.39
11.52 -9.07 2.39
11.71 -8.84 2.39
11.89 -8.61 2.39
12.06 -8.37 2.39
12.23 -8.13 2.39
12.40 -7.89 2.39
12.56 -7.64 2.39
12.71 -7.39 2.39
12.86 -7.13 2.39
13.01 -6.88 2.39
13.15 -6.62 2.39
13.29 -6.36 2.39
13.42 -6.09 2.39
13.54 -5.82 2.39
13.66 -5.55 2.39
13.77 -5.28 2.39
13.88 -5.00 2.39
13.98 -4.72 2.39
14.08 -4.44 2.39
14.17 -4.16 2.39
14.25 -3.88 2.39
14.33 -3.59 2.39
14.41 -3.30 2.39
14.48 -3.02 2.39
14.54 -2.73 2.39
14.59 -2.43 2.39
14.64 -2.14 2.39
14.69 -1.85 2.39
14.72 -1.55 2.39
14.76 -1.26 2.39
14.78 -0.96 2.39
14.80 -0.66 2.39
14.82 -0.37 2.39
14.82 -0.07 2.39
14.83 0.23 2.39
14.82 0.52 2.39
14.81 0.82 2.39
14.79 1.12 2.39
14.77 1.42 2.39
14.74 1.71 2.39
14.71 2.01 2.39
14.67 2.30 2.39
14.62 2.60 2.39
14.57 2.89 2.39
14.51 3.18 2.39
14.44 3.47 2.39
14.37 3.76 2.39
14.29 4.05 2.39
14.21 4.34 2.39
14.12 4.62 2.39
14.03 4.90 2.39
13.93 5.19 2.39
13.82 5.46 2.39
13.71 5.74 2.39
13.59 6.01 2.39
13.47 6.28 2.39
13.34 6.55 2.39
13.20 6.82 2.39
13.07 7.08 2.39
12.92 7.34 2.39
12.77 7.60 2.39
12.61 7.86 2.39
12.45 8.11 2.39
12.29 8.36 2.39
12.12 8.60 2.39
11.94 8.84 2.39
11.76 9.08 2.39
11.58 9.31 2.39
11.39 9.54 2.39
11.19 9.77 2.39
10.99 9.99 2.39
10.79 10.21 2.39
10.58 10.42 2.39
10.37 10.63 2.39
10.15 10.83 2.39
9.93 11.03 2.39
9.70 11.23 2.39
9.48 11.42 2.39
9.24 11.60 2.39
9.01 11.78 2.39
8.77 11.96 2.39
8.52 12.13 2.39
8.28 12.30 2.39
8.03 12.46 2.39
7.77 12.61 2.39
7.52 12.76 2.39
7.26 12.91 2.39
7.00 13.05 2.39
6.73 13.18 2.39
6.46 13.30 2.39
6.19 13.42 2.39
5.91 13.54 2.39
5.64 13.65 2.39
5.36 13.76 2.39
5.08 13.86 2.39
4.80 13.95 2.39
4.52 14.04 2.39
4.24 14.12 2.39
3.95 14.20 2.39
3.67 14.27 2.39
3.38 14.34 2.39
3.09 14.40 2.39
2.80 14.45 2.39
2.61 15.13 2.49
2.31 15.17 2.49
2.00 15.21 2.49
1.70 15.24 2.49
1.39 15.26 2.49
1.08 15.28 2.49
0.78 15.30 2.49
0.47 15.30 2.49
0.16 15.30 2.49
-0.15 15.30 2.49
-0.45 15.28 2.49
-0.76 15.27 2.49
-1.06 15.24 2.49
-1.37 15.21 2.49
-1.67 15.17 2.49
-1.98 15.13 2.49
-2.28 15.08 2.49
-2.58 15.03 2.49
-2.88 14.96 2.49
-3.18 14.90 2.49
-3.48 14.82 2.49
-3.77 14.74 2.49
-4.06 14.66 2.49
-4.36 14.57 2.49
-4.64 14.47 2.49
-4.93 14.37 2.49
-5.22 14.26 2.49
-5.42 13.94 2.46
-5.54 13.45 2.39
-5.81 13.33 2.39
-6.07 13.20 2.39
-6.33 13.07 2.39
-6.59 12.94 2.39
-6.84 12.79 2.39
-7.10 12.65 2.39
-7.35 12.50 2.39
-7.59 12.34 2.39
-7.83 12.18 2.39
-8.07 12.02 2.39
-8.31 11.85 2.39
-8.54 11.67 2.39
-8.77 11.49 2.39
-9.00 11.31 2.39
-9.22 11.12 2.39
-9.43 10.93 2.39
-9.52 10.60 2.36
-9.60 10.26 2.33
-9.65 9.91 2.29
-9.66 9.53 2.25
-9.67 9.16 2.21
-9.71 8.84 2.18
-9.77 8.54 2.15
-9.82 8.24 2.13
-9.87 7.95 2.11
-9.91 7.66 2.08
-9.95 7.37 2.06
-9.98 7.09 2.04
-10.01 6.82 2.02
-10.04 6.54 2.00
-10.06 6.27 1.98
-10.10 6.02 1.96
-10.14 5.77 1.95
-10.18 5.53 1.93
-10.22 5.29 1.92
-10.26 5.05 1.91
-10.28 4.80 1.90
-10.31 4.57 1.88
-10.33 4.33 1.87
-10.37 4.10 1.86
-10.40 3.88 1.86
-10.43 3.65 1.85
-10.46 3.43 1.84
-10.48 3.20 1.83
-10.51 2.98 1.83
-10.53 2.76 1.82
-10.55 2.54 1.82
-10.58 2.32 1.81
-10.60 2.11 1.81
-10.62 1.89 1.81
-10.64 1.67 1.81
-10.66 1.46 1.80
-10.67 1.24 1.80
-10.69 1.03 1.80
-10.70 0.81 1.80
-10.70 0.59 1.80
-10.78 0.38 1.81
-10.87 0.17 1.83
-10.95 -0.05 1.84
-11.04 -0.27 1.86
-11.12 -0.50 1.87
-11.16 -0.73 1.88
-11.21 -0.96 1.89
-11.24 -1.19 1.90
-11.26 -1.42 1.91
-11.28 -1.65 1.92
-11.30 -1.89 1.93
-11.32 -2.12 1.94
-11.34 -2.37 1.95
-11.36 -2.61 1.96
-11.38 -2.85 1.98
-11.40 -3.10 1.99
-11.40 -3.35 2.00
-11.40 -3.60 2.01
-11.40 -3.86 2.03
-11.40 -4.11 2.04
-11.40 -4.37 2.06
-11.39 -4.64 2.07
-11.39 -4.90 2.09
-11.39 -5.17 2.11
-11.37 -5.45 2.12
-11.36 -5.72 2.14
-11.34 -6.00 2.16
-11.27 -6.26 2.17
-11.21 -6.52 2.18
-11.14 -6.78 2.20
-11.07 -7.05 2.21
-11.02 -7.33 2.23
-10.98 -7.63 2.25
-10.96 -7.94 2.28
-10.93 -8.26 2.31
-10.89 -8.59 2.34
-10.86 -8.92 2.37
-10.82 -9.26 2.40
-10.78 -9.60 2.43
-10.41 -9.66 2.39
-10.22 -9.87 2.39
-10.02 -10.07 2.39
-9.81 -10.27 2.39
-9.61 -10.47 2.39
-9.40 -10.66 2.39
-9.18 -10.85 2.39
-8.96 -11.03 2.39
-8.74 -11.21 2.39
-8.52 -11.39 2.39
-8.29 -11.56 2.39
-8.06 -11.73 2.39
-7.82 -11.89 2.39
-7.58 -12.05 2.39
-7.34 -12.20 2.39
-7.10 -12.35 2.39
-6.85 -12.49 2.39
-6.60 -12.63 2.39
-6.59 -13.25 2.48
-6.35 -13.44 2.49
-6.08 -13.57 2.49
-5.81 -13.70 2.49
-5.53 -13.81 2.49
-5.26 -13.93 2.49
-4.98 -14.03 2.49
-4.70 -14.13 2.49
-4.41 -14.23 2.49
-4.13 -14.32 2.49
-3.84 -14.41 2.49
-3.55 -14.48 2.49
-3.26 -14.56 2.49
-2.97 -14.63 2.49
-2.68 -14.69 2.49
-2.38 -14.74 2.49
-2.09 -14.79 2.49
-1.79 -14.84 2.49
-1.49 -14.88 2.49
-1.19 -14.91 2.49
-0.89 -14.93 2.49
-0.59 -14.96 2.49
-0.29 -14.97 2.49
0.01 -13.14 2.49
0.27 -13.15 2.49
0.54 -13.14 2.49
0.80 -13.13 2.49
1.06 -13.12 2.49
1.33 -13.10 2.49
1.53 -12.54 2.39
1.78 -12.51 2.39
2.03 -12.47 2.39
2.28 -12.44 2.39
2.53 -12.39 2.39
2.78 -12.34 2.39
3.03 -12.29 2.39
3.27 -12.23 2.39
3.52 -12.17 2.39
3.77 -12.10 2.39
4.01 -12.03 2.39
4.25 -11.95 2.39
4.49 -11.86 2.39
4.73 -11.78 2.39
2.12 -4.98 1.02
5.21 -11.59 2.39
5.44 -11.48 2.39
5.68 -11.39 2.39
5.91 -11.28 2.39
6.14 -11.16 2.39
6.36 -11.04 2.39
6.58 -10.92 2.39
6.80 -10.79 2.39
7.02 -10.65 2.39
7.24 -10.51 2.39
7.45 -10.37 2.39
7.66 -10.22 2.39
7.87 -10.07 2.39
8.07 -9.92 2.39
8.27 -9.76 2.39
8.47 -9.59 2.39
8.66 -9.42 2.39
8.85 -9.25 2.39
9.04 -9.07 2.39
9.22 -8.89 2.39
9.40 -8.71 2.39
9.58 -8.52 2.39
9.75 -8.33 2.39
9.92 -8.14 2.39
10.09 -7.94 2.39
10.25 -7.74 2.39
10.41 -7.53 2.39
10.56 -7.33 2.39
10.71 -7.12 2.39
10.85 -6.90 2.39
10.99 -6.69 2.39
11.13 -6.47 2.39
11.26 -6.24 2.39
11.39 -6.02 2.39
11.51 -5.79 2.39
11.63 -5.56 2.39
11.74 -5.33 2.39
11.85 -5.09 2.39
11.95 -4.86 2.39
12.05 -4.62 2.39
12.14 -4.37 2.39
12.23 -4.13 2.39
12.32 -3.89 2.39
12.40 -3.64 2.39
12.47 -3.39 2.39
12.54 -3.14 2.39
12.60 -2.89 2.39
12.66 -2.64 2.39
12.71 -2.38 2.39
12.76 -2.13 2.39
12.81 -1.87 2.39
12.84 -1.61 2.39
12.88 -1.36 2.39
12.90 -1.10 2.39
12.93 -0.84 2.39
12.94 -0.58 2.39
12.96 -0.32 2.39
12.96 -0.06 2.39
12.96 0.20 2.39
12.96 0.46 2.39
12.95 0.72 2.39
12.93 0.98 2.39
12.91 1.24 2.39
12.89 1.50 2.39
12.86 1.76 2.39
12.82 2.01 2.39
12.78 2.27 2.39
12.73 2.53 2.39
12.68 2.78 2.39
12.63 3.04 2.39
12.56 3.29 2.39
12.50 3.54 2.39
12.42 3.79 2.39
12.35 4.04 2.39
12.26 4.29 2.39
12.18 4.53 2.39
12.08 4.78 2.39
11.98 5.02 2.39
11.88 5.26 2.39
11.77 5.49 2.39
11.66 5.73 2.39
11.54 5.96 2.39
11.42 6.19 2.39
11.29 6.42 2.39
11.16 6.64 2.39
11.03 6.87 2.39
10.89 7.09 2.39
10.74 7.30 2.39
10.59 7.52 2.39
10.44 7.73 2.39
10.28 7.94 2.39
10.12 8.14 2.39
9.95 8.34 2.39
9.78 8.54 2.39
9.61 8.73 2.39
9.43 8.92 2.39
9.25 9.11 2.39
9.06 9.29 2.39
8.87 9.47 2.39
8.68 9.64 2.39
8.48 9.81 2.39
8.29 9.98 2.39
8.08 10.14 2.39
7.88 10.30 2.39
7.67 10.46 2.39
7.45 10.61 2.39
7.24 10.75 2.39
7.02 10.89 2.39
6.80 11.03 2.39
6.57 11.16 2.39
6.34 11.28 2.39
6.11 11.40 2.39
5.88 11.52 2.39
5.65 11.63 2.39
5.41 11.74 2.39
5.17 11.84 2.39
4.93 11.94 2.39
4.69 12.03 2.39
4.45 12.12 2.39
4.20 12.20 2.39
3.96 12.28 2.39
3.71 12.36 2.39
3.46 12.42 2.39
3.21 12.49 2.39
2.96 12.54 2.39
2.70 12.60 2.39
2.55 13.19 2.49
2.29 13.24 2.49
2.02 13.27 2.49
1.75 13.31 2.49
1.49 13.34 2.49
1.22 13.36 2.49
0.95 13.38 2.49
0.68 13.39 2.49
0.41 13.39 2.49
0.14 13.39 2.49
-0.13 13.39 2.49
-0.39 13.38 2.49
-0.66 13.36 2.49
-0.93 13.34 2.49
-1.20 13.32 2.49
-1.46 13.29 2.49
-1.73 13.25 2.49
-1.99 13.21 2.49
-2.26 13.16 2.49
-2.52 13.11 2.49
-2.78 13.05 2.49
-3.04 12.98 2.49
-3.30 12.92 2.49
-3.56 12.84 2.49
-3.81 12.76 2.49
-4.07 12.68 2.49
-4.32 12.59 2.49
-4.57 12.49 2.49
-4.82 12.40 2.49
-5.06 12.29 2.49
-5.31 12.18 2.49
-5.50 11.97 2.47
-5.55 11.46 2.39
-5.77 11.34 2.39
-6.00 11.21 2.39
-6.22 11.09 2.39
-6.44 10.96 2.39
-6.65 10.82 2.39
-6.87 10.68 2.39
-7.08 10.54 2.39
-7.28 10.39 2.39
-7.49 10.24 2.39
-7.69 10.08 2.39
-7.89 9.92 2.39
-8.08 9.75 2.39
-8.27 9.59 2.39
-8.46 9.42 2.39
-8.64 9.24 2.39
-8.82 9.06 2.39
-9.00 8.88 2.39
-9.17 8.69 2.39
-9.34 8.50 2.39
-9.40 8.22 2.36
-9.46 7.94 2.34
-9.51 7.66 2.31
-9.56 7.39 2.29
-9.60 7.11 2.26
-9.63 6.85 2.24
-9.66 6.58 2.22
-9.69 6.32 2.19
-9.71 6.06 2.17
-9.74 5.81 2.15
-9.79 5.57 2.14
-9.83 5.34 2.12
-9.87 5.10 2.11
-9.90 4.87 2.10
-9.93 4.64 2.08
-9.95 4.41 2.07
-9.97 4.18 2.06
-10.00 3.96 2.05
-10.03 3.74 2.04
-10.06 3.52 2.03
-10.09 3.31 2.02
-10.12 3.09 2.02
-10.15 2.88 2.01
-10.17 2.67 2.00
-10.19 2.45 2.00
-10.21 2.24 1.99
-10.23 2.03 1.99
-10.25 1.82 1.99
-10.27 1.62 1.99
-10.29 1.41 1.98
-10.31 1.20 1.98
-10.32 0.99 1.98
-10.33 0.78 1.98
-10.33 0.57 1.98
-10.33 0.37 1.98
-10.34 0.16 1.98
-10.42 -0.05 1.99
-10.50 -0.26 2.01
-10.57 -0.47 2.03
-10.65 -0.69 2.04
-10.73 -0.91 2.06
-10.79 -1.14 2.08
-10.77 -1.36 2.08
-10.77 -1.58 2.08
-10.81 -1.80 2.10
-10.84 -2.03 2.11
-10.87 -2.27 2.13
-10.90 -2.50 2.14
-10.93 -2.74 2.16
-10.96 -2.98 2.18
-10.96 -3.22 2.19
-10.92 -3.45 2.19
-10.90 -3.68 2.20
-10.87 -3.92 2.21
-10.83 -4.16 2.22
-10.80 -4.39 2.23
-10.76 -4.63 2.25
-10.72 -4.87 2.26
-10.68 -5.11 2.27
-10.65 -5.36 2.29
-10.61 -5.62 2.30
-10.58 -5.87 2.32
-10.52 -6.12 2.33
-10.45 -6.37 2.35
-10.38 -6.61 2.36
-10.31 -6.86 2.37
-10.23 -7.11 2.39
-10.10 -7.32 2.39
-9.95 -7.52 2.39
-9.80 -7.72 2.39
-9.64 -7.92 2.39
-9.48 -8.11 2.39
-9.32 -8.30 2.39
-9.15 -8.49 2.39
-8.98 -8.67 2.39
-8.80 -8.85 2.39
-8.62 -9.03 2.39
-8.44 -9.20 2.39
-8.26 -9.37 2.39
-8.07 -9.53 2.39
-7.88 -9.69 2.39
-7.68 -9.85 2.39
-7.48 -10.01 2.39
-7.28 -10.16 2.39
-7.08 -10.30 2.39
-6.87 -10.44 2.39
-6.66 -10.58 2.39
-6.49 -10.79 2.41
-6.50 -11.31 2.49
-6.27 -11.44 2.49
-6.04 -11.57 2.49
-5.81 -11.69 2.49
-5.58 -11.81 2.49
-5.34 -11.92 2.49
-5.10 -12.03 2.49
-4.86 -12.13 2.49
-4.62 -12.23 2.49
-4.37 -12.32 2.49
-4.12 -12.41 2.49
-3.87 -12.50 2.49
-3.62 -12.57 2.49
-3.37 -12.65 2.49
-3.12 -12.72 2.49
-2.86 -12.78 2.49
-2.61 -12.84 2.49
-2.35 -12.89 2.49
-2.09 -12.94 2.49
-1.83 -12.99 2.49
-1.57 -13.02 2.49
-1.31 -13.06 2.49
-1.05 -13.08 2.49
-0.78 -13.11 2.49
-0.52 -13.13 2.49
-0.26 -13.14 2.49
0.01 -11.70 2.49
0.24 -11.70 2.49
0.48 -11.70 2.49
0.71 -11.69 2.49
0.95 -11.68 2.49
1.18 -11.66 2.49
1.42 -11.64 2.49
1.58 -11.13 2.39
1.81 -11.10 2.39
2.03 -11.06 2.39
2.25 -11.02 2.39
2.47 -10.98 2.39
2.69 -10.93 2.39
2.91 -10.88 2.39
3.13 -10.82 2.39
3.35 -10.76 2.39
3.57 -10.70 2.39
3.78 -10.63 2.39
4.00 -10.55 2.39
4.21 -10.47 2.39
2.12 -4.98 1.15
4.63 -10.30 2.39
4.84 -10.21 2.39
5.04 -10.12 2.39
5.25 -10.02 2.39
5.45 -9.91 2.39
5.66 -9.82 2.39
5.85 -9.71 2.39
6.05 -9.59 2.39
6.24 -9.47 2.39
6.44 -9.35 2.39
6.62 -9.22 2.39
6.81 -9.09 2.39
6.99 -8.95 2.39
7.17 -8.81 2.39
7.35 -8.67 2.39
7.53 -8.52 2.39
7.70 -8.37 2.39
7.87 -8.22 2.39
8.03 -8.06 2.39
8.20 -7.90 2.39
8.36 -7.74 2.39
8.51 -7.57 2.39
8.67 -7.40 2.39
8.82 -7.23 2.39
8.96 -7.05 2.39
9.11 -6.88 2.39
9.25 -6.69 2.39
9.38 -6.51 2.39
9.51 -6.32 2.39
9.64 -6.13 2.39
9.76 -5.94 2.39
9.88 -5.74 2.39
10.00 -5.54 2.39
10.11 -5.34 2.39
10.22 -5.14 2.39
10.33 -4.94 2.39
10.43 -4.73 2.39
10.52 -4.52 2.39
10.61 -4.31 2.39
10.70 -4.10 2.39
10.78 -3.88 2.39
10.86 -3.67 2.39
10.94 -3.45 2.39
11.01 -3.23 2.39
11.07 -3.01 2.39
11.13 -2.79 2.39
11.19 -2.56 2.39
11.24 -2.34 2.39
11.29 -2.11 2.39
11.33 -1.89 2.39
11.37 -1.66 2.39
11.40 -1.43 2.39
11.43 -1.20 2.39
11.46 -0.97 2.39
11.47 -0.75 2.39
11.49 -0.51 2.39
11.50 -0.28 2.39
11.51 -0.05 2.39
11.51 0.18 2.39
11.50 0.41 2.39
11.49 0.64 2.39
11.48 0.87 2.39
11.46 1.10 2.39
11.44 1.33 2.39
11.41 1.56 2.39
11.38 1.79 2.39
11.34 2.02 2.39
11.30 2.24 2.39
11.25 2.47 2.39
11.20 2.70 2.39
11.15 2.92 2.39
11.09 3.14 2.39
11.02 3.36 2.39
10.96 3.59 2.39
10.88 3.80 2.39
10.80 4.02 2.39
10.72 4.24 2.39
10.63 4.45 2.39
10.54 4.67 2.39
10.45 4.88 2.39
10.35 5.08 2.39
10.24 5.29 2.39
10.14 5.50 2.39
10.02 5.70 2.39
9.91 5.90 2.39
9.79 6.10 2.39
9.66 6.29 2.39
9.53 6.48 2.39
9.40 6.67 2.39
9.26 6.86 2.39
9.12 7.04 2.39
8.98 7.22 2.39
8.83 7.40 2.39
8.68 7.58 2.39
8.53 7.75 2.39
8.37 7.92 2.39
8.21 8.08 2.39
8.04 8.24 2.39
7.88 8.40 2.39
7.70 8.56 2.39
7.53 8.71 2.39
7.35 8.86 2.39
7.17 9.00 2.39
6.99 9.14 2.39
6.80 9.28 2.39
6.62 9.41 2.39
6.42 9.53 2.39
6.22 9.66 2.39
6.03 9.78 2.39
5.83 9.90 2.39
5.63 10.01 2.39
5.43 10.12 2.39
5.22 10.22 2.39
5.01 10.32 2.39
4.80 10.42 2.39
4.59 10.51 2.39
4.38 10.60 2.39
4.17 10.68 2.39
3.95 10.76 2.39
3.73 10.83 2.39
3.51 10.90 2.39
3.29 10.97 2.39
3.07 11.03 2.39
2.85 11.09 2.39
2.62 11.14 2.39
2.50 11.67 2.49
2.27 11.71 2.49
2.03 11.75 2.49
1.80 11.79 2.49
1.56 11.82 2.49
1.32 11.84 2.49
1.08 11.86 2.49
0.84 11.88 2.49
0.61 11.89 2.49
0.37 11.90 2.49
0.13 11.90 2.49
-0.11 11.90 2.49
-0.35 11.89 2.49
-0.59 11.87 2.49
-0.83 11.86 2.49
-1.06 11.83 2.49
-1.30 11.80 2.49
-1.54 11.77 2.49
-1.77 11.74 2.49
-2.01 11.69 2.49
-2.24 11.65 2.49
-2.47 11.60 2.49
-2.70 11.54 2.49
-2.93 11.48 2.49
-3.16 11.41 2.49
-3.39 11.34 2.49
-3.61 11.27 2.49
-3.84 11.19 2.49
-4.06 11.11 2.49
-4.28 11.02 2.49
-4.50 10.93 2.49
-4.72 10.83 2.49
-4.93 10.73 2.49
-5.14 10.63 2.49
-5.36 10.52 2.49
-5.56 10.40 2.49
-5.60 9.98 2.42
-5.72 9.74 2.39
-5.92 9.62 2.39
-6.11 9.50 2.39
-6.29 9.37 2.39
-6.48 9.24 2.39
-6.66 9.10 2.39
-6.84 8.97 2.39
-7.02 8.82 2.39
-7.19 8.68 2.39
-7.36 8.53 2.39
-7.53 8.38 2.39
-7.69 8.22 2.39
-7.85 8.06 2.39
-8.01 7.90 2.39
-8.16 7.74 2.39
-8.31 7.57 2.39
-8.46 7.40 2.39
-8.60 7.22 2.39
-8.75 7.05 2.39
-8.88 6.87 2.39
-9.02 6.69 2.39
-9.14 6.50 2.39
-9.27 6.31 2.39
-9.36 6.10 2.38
-9.39 5.86 2.36
-9.41 5.61 2.34
-9.45 5.38 2.32
-9.49 5.16 2.31
-9.53 4.93 2.29
-9.56 4.71 2.28
-9.59 4.48 2.26
-9.62 4.26 2.25
-9.64 4.04 2.23
-9.66 3.83 2.22
-9.69 3.61 2.21
-9.72 3.40 2.20
-9.75 3.20 2.20
-9.78 2.99 2.19
-9.80 2.78 2.18
-9.83 2.58 2.18
-9.85 2.37 2.17
-9.87 2.17 2.16
-9.89 1.97 2.16
-9.91 1.76 2.16
-9.93 1.56 2.15
-9.94 1.36 2.15
-9.96 1.16 2.15
-9.98 0.96 2.15
-9.98 0.76 2.15
-9.98 0.56 2.15
-9.99 0.35 2.14
-9.99 0.15 2.14
-9.99 -0.05 2.14
-10.00 -0.25 2.15
-10.07 -0.45 2.16
-10.14 -0.66 2.18
-10.21 -0.87 2.20
-10.28 -1.08 2.22
-10.27 -1.29 2.22
-10.25 -1.50 2.23
-10.23 -1.71 2.23
-10.21 -1.92 2.23
-10.18 -2.12 2.24
-10.21 -2.34 2.25
-10.23 -2.57 2.27
-10.25 -2.79 2.28
-10.27 -3.02 2.30
-10.26 -3.24 2.31
-10.22 -3.46 2.32
-10.18 -3.67 2.33
-10.14 -3.89 2.34
-10.09 -4.11 2.34
-10.05 -4.32 2.35
-10.00 -4.54 2.36
-9.96 -4.77 2.38
-9.91 -4.99 2.39
-9.82 -5.20 2.39
-9.71 -5.39 2.39
-9.60 -5.59 2.39
-9.49 -5.78 2.39
-9.37 -5.97 2.39
-9.25 -6.16 2.39
-9.13 -6.34 2.39
-9.00 -6.52 2.39
-8.86 -6.70 2.39
-8.73 -6.88 2.39
-8.59 -7.06 2.39
-8.45 -7.23 2.39
-8.30 -7.40 2.39
-8.15 -7.56 2.39
-8.00 -7.72 2.39
-7.84 -7.88 2.39
-7.68 -8.04 2.39
-7.52 -8.19 2.39
-7.35 -8.34 2.39
-7.19 -8.49 2.39
-7.02 -8.64 2.39
-6.84 -8.78 2.39
-6.66 -8.91 2.39
-6.49 -9.05 2.39
-6.42 -9.35 2.44
-6.38 -9.70 2.49
-6.19 -9.83 2.49
-5.99 -9.96 2.49
-5.79 -10.08 2.49
-5.59 -10.19 2.49
-5.38 -10.31 2.49
-5.18 -10.41 2.49
-4.97 -10.52 2.49
-4.76 -10.62 2.49
-4.54 -10.71 2.49
-4.33 -10.80 2.49
-4.11 -10.89 2.49
-3.89 -10.97 2.49
-3.67 -11.05 2.49
-3.45 -11.13 2.49
-3.23 -11.20 2.49
-3.00 -11.26 2.49
-2.77 -11.32 2.49
-2.55 -11.38 2.49
-2.32 -11.43 2.49
-2.09 -11.48 2.49
-1.86 -11.52 2.49
-1.63 -11.56 2.49
-1.40 -11.59 2.49
-1.16 -11.62 2.49
-0.93 -11.65 2.49
-0.70 -11.67 2.49
-0.46 -11.68 2.49
-0.23 -11.69 2.49
0.01 -10.53 2.49
0.22 -10.53 2.49
0.43 -10.53 2.49
0.64 -10.52 2.49
0.85 -10.51 2.49
1.06 -10.49 2.49
1.28 -10.47 2.49
1.49 -10.45 2.49
1.63 -9.99 2.39
1.83 -9.96 2.39
2.03 -9.92 2.39
2.23 -9.88 2.39
2.43 -9.84 2.39
2.62 -9.79 2.39
2.82 -9.74 2.39
3.02 -9.68 2.39
3.21 -9.62 2.39
3.40 -9.56 2.39
3.60 -9.49 2.39
3.79 -9.42 2.39
2.12 -4.98 1.27
4.17 -9.27 2.39
4.35 -9.19 2.39
4.54 -9.10 2.39
4.72 -9.01 2.39
4.90 -8.92 2.39
5.08 -8.82 2.39
5.26 -8.72 2.39
5.43 -8.61 2.39
5.61 -8.50 2.39
5.79 -8.40 2.39
5.96 -8.29 2.39
6.12 -8.17 2.39
6.29 -8.05 2.39
6.45 -7.92 2.39
6.61 -7.79 2.39
6.77 -7.66 2.39
6.92 -7.53 2.39
7.07 -7.39 2.39
7.22 -7.25 2.39
7.37 -7.10 2.39
7.51 -6.96 2.39
7.65 -6.81 2.39
7.79 -6.65 2.39
7.93 -6.50 2.39
8.06 -6.34 2.39
8.19 -6.18 2.39
8.31 -6.02 2.39
8.43 -5.85 2.39
8.55 -5.68 2.39
8.66 -5.51 2.39
8.78 -5.34 2.39
8.88 -5.16 2.39
8.99 -4.98 2.39
9.09 -4.80 2.39
9.19 -4.62 2.39
9.28 -4.44 2.39
9.37 -4.25 2.39
9.45 -4.06 2.39
9.54 -3.87 2.39
9.61 -3.68 2.39
9.69 -3.49 2.39
9.76 -3.29 2.39
9.83 -3.10 2.39
9.89 -2.90 2.39
9.95 -2.70 2.39
10.00 -2.50 2.39
10.05 -2.30 2.39
10.10 -2.10 2.39
10.14 -1.90 2.39
10.18 -1.70 2.39
10.21 -1.49 2.39
10.24 -1.29 2.39
10.27 -1.08 2.39
10.29 -0.88 2.39
10.31 -0.67 2.39
10.32 -0.46 2.39
10.33 -0.25 2.39
10.33 -0.05 2.39
10.33 0.16 2.39
10.33 0.37 2.39
10.32 0.57 2.39
10.31 0.78 2.39
10.29 0.99 2.39
10.27 1.19 2.39
10.25 1.40 2.39
10.22 1.61 2.39
10.19 1.81 2.39
10.15 2.01 2.39
10.11 2.22 2.39
10.06 2.42 2.39
10.01 2.62 2.39
9.96 2.82 2.39
9.90 3.02 2.39
9.84 3.22 2.39
9.77 3.42 2.39
9.70 3.61 2.39
9.63 3.81 2.39
9.55 4.00 2.39
9.47 4.19 2.39
9.38 4.38 2.39
9.29 4.57 2.39
9.20 4.75 2.39
9.10 4.93 2.39
9.00 5.12 2.39
8.90 5.30 2.39
8.79 5.47 2.39
8.68 5.65 2.39
8.56 5.82 2.39
8.44 5.99 2.39
8.32 6.16 2.39
8.19 6.32 2.39
8.07 6.49 2.39
7.93 6.65 2.39
7.80 6.80 2.39
7.66 6.96 2.39
7.52 7.11 2.39
7.37 7.26 2.39
7.22 7.40 2.39
7.07 7.55 2.39
6.92 7.68 2.39
6.76 7.82 2.39
6.60 7.95 2.39
6.44 8.08 2.39
6.27 8.20 2.39
6.10 8.32 2.39
5.93 8.44 2.39
5.76 8.56 2.39
5.59 8.67 2.39
5.41 8.78 2.39
5.24 8.89 2.39
5.06 8.99 2.39
4.87 9.09 2.39
4.69 9.18 2.39
4.50 9.27 2.39
4.32 9.36 2.39
4.13 9.44 2.39
3.94 9.52 2.39
3.74 9.59 2.39
3.55 9.67 2.39
3.35 9.73 2.39
3.16 9.80 2.39
2.96 9.85 2.39
2.76 9.91 2.39
2.56 9.96 2.39
2.46 10.44 2.49
2.25 10.48 2.49
2.04 10.52 2.49
1.83 10.56 2.49
1.61 10.59 2.49
1.40 10.62 2.49
1.19 10.64 2.49
0.97 10.66 2.49
0.76 10.68 2.49
0.54 10.69 2.49
0.33 10.69 2.49
0.12 10.69 2.49
-0.10 10.69 2.49
-0.31 10.68 2.49
-0.53 10.67 2.49
-0.74 10.66 2.49
-0.95 10.64 2.49
-1.17 10.61 2.49
-1.38 10.58 2.49
-1.59 10.55 2.49
-1.80 10.51 2.49
-2.01 10.47 2.49
-2.22 10.42 2.49
-2.43 10.37 2.49
-2.64 10.32 2.49
-2.84 10.26 2.49
-3.05 10.20 2.49
-3.25 10.13 2.49
-3.45 10.06 2.49
-3.65 9.99 2.49
-3.85 9.91 2.49
-4.05 9.83 2.49
-4.24 9.74 2.49
-4.43 9.65 2.49
-4.63 9.56 2.49
-4.82 9.46 2.49
-5.00 9.36 2.49
-5.19 9.25 2.49
-5.37 9.14 2.49
-5.55 9.03 2.49
-5.64 8.78 2.46
-5.67 8.44 2.39
-5.83 8.31 2.39
-5.99 8.19 2.39
-6.15 8.07 2.39
-6.31 7.94 2.39
-6.47 7.81 2.39
-6.62 7.67 2.39
-6.77 7.54 2.39
-6.92 7.40 2.39
-7.06 7.26 2.39
-7.21 7.11 2.39
-7.34 6.96 2.39
-7.48 6.81 2.39
-7.61 6.66 2.39
-7.74 6.50 2.39
-7.87 6.34 2.39
-7.99 6.18 2.39
-8.11 6.02 2.39
-8.23 5.85 2.39
-8.34 5.68 2.39
-8.45 5.51 2.39
-8.56 5.34 2.39
-8.66 5.17 2.39
-8.76 4.99 2.39
-8.86 4.81 2.39
-8.95 4.63 2.39
-9.04 4.45 2.39
-9.13 4.27 2.39
-9.21 4.08 2.39
-9.28 3.89 2.39
-9.35 3.70 2.39
-9.37 3.49 2.38
-9.40 3.29 2.37
-9.43 3.09 2.36
-9.45 2.89 2.35
-9.48 2.69 2.34
-9.50 2.49 2.34
-9.52 2.30 2.33
-9.55 2.10 2.33
-9.56 1.90 2.32
-9.58 1.71 2.32
-9.60 1.51 2.31
-9.62 1.32 2.31
-9.63 1.12 2.31
-9.65 0.93 2.31
-9.65 0.73 2.31
-9.66 0.54 2.30
-9.66 0.34 2.30
-9.66 0.15 2.30
-9.66 -0.04 2.30
-9.66 -0.24 2.30
-9.65 -0.43 2.30
-9.67 -0.63 2.31
-9.73 -0.83 2.33
-9.79 -1.03 2.35
-9.82 -1.23 2.36
-9.80 -1.43 2.36
-9.77 -1.63 2.36
-9.75 -1.83 2.37
-9.73 -2.03 2.37
-9.70 -2.23 2.38
-9.67 -2.43 2.38
-9.64 -2.62 2.39
-9.61 -2.82 2.39
-9.55 -3.02 2.39
-9.48 -3.21 2.39
-9.42 -3.40 2.39
-9.35 -3.58 2.39
-9.27 -3.77 2.39
-9.19 -3.96 2.39
-9.11 -4.14 2.39
-9.03 -4.32 2.39
-8.94 -4.50 2.39
-8.85 -4.68 2.39
-8.75 -4.86 2.39
-8.65 -5.03 2.39
-8.55 -5.21 2.39
-8.44 -5.38 2.39
-8.33 -5.55 2.39
-8.22 -5.71 2.39
-8.10 -5.88 2.39
-7.98 -6.04 2.39
-7.86 -6.20 2.39
-7.74 -6.36 2.39
-7.61 -6.51 2.39
-7.48 -6.66 2.39
-7.34 -6.81 2.39
-7.20 -6.96 2.39
-7.06 -7.10 2.39
-6.92 -7.24 2.39
-6.77 -7.38 2.39
-6.62 -7.52 2.39
-6.47 -7.65 2.39
-6.36 -7.83 2.41
-6.37 -8.17 2.47
-6.26 -8.38 2.49
-6.09 -8.50 2.49
-5.92 -8.62 2.49
-5.75 -8.74 2.49
-5.57 -8.86 2.49
-5.39 -8.97 2.49
-5.21 -9.08 2.49
-5.03 -9.18 2.49
-4.85 -9.28 2.49
-4.66 -9.38 2.49
-4.47 -9.47 2.49
-4.28 -9.56 2.49
-4.09 -9.65 2.49
-3.90 -9.73 2.49
-3.70 -9.81 2.49
-3.50 -9.88 2.49
-3.31 -9.95 2.49
-3.11 -10.02 2.49
-2.90 -10.08 2.49
-2.70 -10.14 2.49
-2.50 -10.20 2.49
-2.29 -10.25 2.49
-2.09 -10.29 2.49
-1.88 -10.34 2.49
-1.67 -10.37 2.49
-1.46 -10.41 2.49
-1.26 -10.44 2.49
-1.05 -10.46 2.49
-0.84 -10.49 2.49
-0.63 -10.50 2.49
-0.41 -10.52 2.49
-0.20 -10.53 2.49
0.01 -9.56 2.49
0.20 -9.56 2.49
0.39 -9.56 2.49
0.58 -9.55 2.49
0.78 -9.54 2.49
0.97 -9.53 2.49
1.16 -9.51 2.49
1.35 -9.49 2.49
1.54 -9.46 2.49
1.66 -9.04 2.39
1.84 -9.01 2.39
2.02 -8.97 2.39
2.20 -8.93 2.39
2.38 -8.89 2.39
2.56 -8.84 2.39
2.74 -8.79 2.39
2.92 -8.74 2.39
3.09 -8.68 2.39
3.27 -8.62 2.39
3.44 -8.55 2.39
2.11 -4.95 1.40
2.23 -4.96 1.41
3.95 -8.34 2.39
4.12 -8.26 2.39
4.29 -8.18 2.39
4.45 -8.09 2.39
4.61 -8.00 2.39
4.77 -7.91 2.39
4.93 -7.82 2.39
5.09 -7.72 2.39
5.25 -7.62 2.39
5.40 -7.51 2.39
5.55 -7.40 2.39
5.70 -7.29 2.39
5.85 -7.19 2.39
6.00 -7.07 2.39
6.14 -6.95 2.39
6.28 -6.83 2.39
6.42 -6.70 2.39
6.56 -6.58 2.39
6.69 -6.45 2.39
6.82 -6.31 2.39
6.94 -6.18 2.39
7.07 -6.04 2.39
7.19 -5.90 2.39
7.31 -5.75 2.39
7.43 -5.60 2.39
7.54 -5.46 2.39
7.65 -5.31 2.39
7.76 -5.15 2.39
7.86 -5.00 2.39
7.96 -4.84 2.39
8.06 -4.68 2.39
8.15 -4.52 2.39
8.24 -4.35 2.39
8.33 -4.19 2.39
8.42 -4.02 2.39
8.50 -3.85 2.39
8.57 -3.68 2.39
8.65 -3.51 2.39
8.72 -3.34 2.39
8.79 -3.16 2.39
8.85 -2.99 2.39
8.91 -2.81 2.39
8.97 -2.63 2.39
9.02 -2.45 2.39
9.07 -2.27 2.39
9.11 -2.09 2.39
9.16 -1.91 2.39
9.19 -1.72 2.39
9.23 -1.54 2.39
9.26 -1.35 2.39
9.29 -1.17 2.39
9.31 -0.98 2.39
9.33 -0.79 2.39
9.34 -0.61 2.39
9.36 -0.42 2.39
9.36 -0.23 2.39
9.37 -0.04 2.39
9.37 0.15 2.39
9.36 0.33 2.39
9.36 0.52 2.39
9.35 0.71 2.39
9.33 0.90 2.39
9.31 1.08 2.39
9.29 1.27 2.39
9.26 1.46 2.39
9.23 1.64 2.39
9.20 1.83 2.39
9.16 2.01 2.39
9.12 2.19 2.39
9.08 2.38 2.39
9.03 2.56 2.39
8.97 2.74 2.39
8.92 2.92 2.39
8.86 3.10 2.39
8.79 3.27 2.39
8.73 3.45 2.39
8.66 3.62 2.39
8.58 3.80 2.39
8.50 3.97 2.39
8.42 4.14 2.39
8.34 4.31 2.39
8.25 4.47 2.39
8.16 4.64 2.39
8.06 4.80 2.39
7.97 4.96 2.39
7.86 5.12 2.39
7.76 5.28 2.39
7.65 5.43 2.39
7.54 5.58 2.39
7.43 5.73 2.39
7.31 5.88 2.39
7.19 6.03 2.39
7.07 6.17 2.39
6.94 6.31 2.39
6.81 6.45 2.39
6.68 6.58 2.39
6.55 6.71 2.39
6.41 6.84 2.39
6.27 6.96 2.39
6.12 7.08 2.39
5.98 7.20 2.39
5.83 7.32 2.39
5.69 7.44 2.39
5.53 7.55 2.39
5.38 7.66 2.39
5.23 7.76 2.39
5.07 7.86 2.39
4.91 7.96 2.39
4.75 8.06 2.39
4.58 8.15 2.39
4.42 8.24 2.39
4.25 8.32 2.39
4.08 8.41 2.39
3.91 8.48 2.39
3.74 8.56 2.39
3.57 8.63 2.39
3.39 8.70 2.39
3.22 8.76 2.39
3.04 8.83 2.39
2.86 8.88 2.39
2.68 8.94 2.39
2.50 8.99 2.39
2.42 9.42 2.49
2.23 9.47 2.49
2.04 9.51 2.49
1.85 9.54 2.49
1.66 9.58 2.49
1.46 9.61 2.49
1.27 9.63 2.49
1.08 9.65 2.49
0.88 9.67 2.49
0.69 9.68 2.49
0.49 9.69 2.49
0.30 9.70 2.49
0.11 9.70 2.49
-0.09 9.70 2.49
-0.28 9.69 2.49
-0.48 9.68 2.49
-0.67 9.67 2.49
-0.87 9.65 2.49
-1.06 9.63 2.49
-1.25 9.60 2.49
-1.44 9.57 2.49
-1.63 9.54 2.49
-1.83 9.50 2.49
-2.01 9.46 2.49
-2.20 9.41 2.49
-2.39 9.37 2.49
-2.58 9.31 2.49
-2.76 9.26 2.49
-2.95 9.20 2.49
-3.13 9.13 2.49
-3.31 9.07 2.49
-3.49 8.99 2.49
-3.67 8.92 2.49
-3.85 8.84 2.49
-4.02 8.76 2.49
-4.20 8.67 2.49
-4.37 8.59 2.49
-4.54 8.49 2.49
-4.71 8.40 2.49
-4.87 8.30 2.49
-5.04 8.20 2.49
-5.20 8.09 2.49
-5.36 7.98 2.49
-5.52 7.87 2.49
-5.67 7.76 2.49
-5.70 7.47 2.44
-5.73 7.21 2.39
-5.87 7.09 2.39
-6.01 6.97 2.39
-6.15 6.84 2.39
-6.28 6.72 2.39
-6.41 6.59 2.39
-6.54 6.46 2.39
-6.67 6.32 2.39
-6.79 6.19 2.39
-6.91 6.05 2.39
-7.03 5.90 2.39
-7.15 5.76 2.39
-7.26 5.61 2.39
-7.37 5.47 2.39
-7.47 5.32 2.39
-7.58 5.16 2.39
-7.68 5.01 2.39
-7.78 4.85 2.39
-7.87 4.69 2.39
-7.96 4.53 2.39
-8.05 4.37 2.39
-8.13 4.21 2.39
-8.21 4.04 2.39
-8.29 3.88 2.39
-8.36 3.71 2.39
-8.43 3.54 2.39
-8.50 3.37 2.39
-8.57 3.20 2.39
-8.63 3.02 2.39
-8.68 2.85 2.39
-8.74 2.67 2.39
-8.79 2.50 2.39
-8.83 2.32 2.39
-8.88 2.14 2.39
-8.92 1.96 2.39
-8.95 1.78 2.39
-8.98 1.60 2.39
-9.01 1.42 2.39
-9.04 1.24 2.39
-9.06 1.06 2.39
-9.08 0.87 2.39
-9.09 0.69 2.39
-9.10 0.51 2.39
-9.11 0.32 2.39
-9.11 0.14 2.39
-9.11 -0.04 2.39
-9.11 -0.22 2.39
-9.10 -0.41 2.39
-9.09 -0.59 2.39
-9.08 -0.77 2.39
-9.06 -0.95 2.39
-9.04 -1.14 2.39
-9.01 -1.32 2.39
-8.98 -1.50 2.39
-8.95 -1.68 2.39
-8.91 -1.86 2.39
-8.87 -2.04 2.39
-8.83 -2.21 2.39
-8.78 -2.39 2.39
-8.73 -2.57 2.39
-8.68 -2.74 2.39
-8.62 -2.91 2.39
-8.56 -3.09 2.39
-8.50 -3.26 2.39
-8.43 -3.43 2.39
-8.36 -3.60 2.39
-8.28 -3.76 2.39
-8.21 -3.93 2.39
-8.12 -4.09 2.39
-8.04 -4.26 2.39
-7.95 -4.42 2.39
-7.86 -4.58 2.39
-7.77 -4.73 2.39
-7.67 -4.89 2.39
-7.57 -5.04 2.39
-7.47 -5.19 2.39
-7.37 -5.34 2.39
-7.26 -5.49 2.39
-7.15 -5.63 2.39
-7.03 -5.78 2.39
-6.91 -5.92 2.39
-6.79 -6.06 2.39
-6.67 -6.19 2.39
-6.55 -6.32 2.39
-6.42 -6.45 2.39
-6.31 -6.61 2.40
-6.31 -6.88 2.45
-6.28 -7.13 2.49
-6.14 -7.25 2.49
-5.99 -7.37 2.49
-5.84 -7.49 2.49
-5.69 -7.61 2.49
-5.54 -7.73 2.49
-5.38 -7.84 2.49
-5.22 -7.94 2.49
-5.06 -8.05 2.49
-4.90 -8.15 2.49
-4.74 -8.25 2.49
-4.57 -8.34 2.49
-4.40 -8.43 2.49
-4.23 -8.52 2.49
-4.06 -8.61 2.49
-3.89 -8.69 2.49
-3.72 -8.77 2.49
-3.54 -8.84 2.49
-3.36 -8.91 2.49
-3.18 -8.98 2.49
-3.00 -9.04 2.49
-2.82 -9.10 2.49
-2.64 -9.16 2.49
-2.45 -9.21 2.49
-2.27 -9.26 2.49
-2.08 -9.31 2.49
-1.90 -9.35 2.49
-1.71 -9.39 2.49
-1.52 -9.42 2.49
-1.33 -9.45 2.49
-1.14 -9.48 2.49
-0.95 -9.51 2.49
-0.76 -9.52 2.49
-0.57 -9.54 2.49
-0.38 -9.55 2.49
-0.18 -9.56 2.49
0.01 -8.75 2.49
0.18 -8.75 2.49
0.36 -8.75 2.49
0.54 -8.74 2.49
0.71 -8.73 2.49
0.89 -8.72 2.49
1.06 -8.70 2.49
1.24 -8.68 2.49
1.41 -8.66 2.49
1.58 -8.63 2.49
1.69 -8.27 2.40
1.85 -8.21 2.39
2.02 -8.17 2.39
2.18 -8.13 2.39
2.34 -8.09 2.39
