ply
format ascii 1.0
element vertex 2992
property float32 x
property float32 y
property float32 z
end_header
-0.22 -11.68 2.49
0.02 -10.52 2.49
0.23 -10.53 2.49
0.44 -10.53 2.49
0.65 -10.52 2.49
0.87 -10.51 2.49
1.08 -10.50 2.49
1.29 -10.49 2.49
1.50 -10.46 2.49
1.71 -10.44 2.49
1.92 -10.41 2.49
2.13 -10.38 2.49
2.27 -10.02 2.42
2.44 -9.87 2.39
2.64 -9.83 2.39
2.84 -9.78 2.39
3.04 -9.73 2.39
3.24 -9.67 2.39
3.43 -9.61 2.39
3.63 -9.55 2.39
3.82 -9.48 2.39
4.01 -9.41 2.39
4.20 -9.33 2.39
4.39 -9.25 2.39
4.58 -9.17 2.39
4.77 -9.08 2.39
4.95 -8.99 2.39
5.13 -8.89 2.39
5.32 -8.79 2.39
5.49 -8.69 2.39
5.67 -8.58 2.39
5.85 -8.47 2.39
6.02 -8.36 2.39
6.19 -8.24 2.39
6.40 -8.18 2.41
6.57 -8.05 2.41
6.73 -7.93 2.41
6.89 -7.79 2.41
7.05 -7.66 2.41
7.21 -7.52 2.41
7.36 -7.38 2.41
7.52 -7.23 2.41
7.66 -7.09 2.41
7.81 -6.93 2.41
7.95 -6.78 2.41
8.09 -6.62 2.41
8.23 -6.46 2.41
8.02 -6.05 2.31
8.13 -5.87 2.30
8.23 -5.70 2.30
8.33 -5.53 2.29
8.42 -5.35 2.29
8.52 -5.17 2.29
8.61 -4.99 2.28
8.70 -4.81 2.28
8.78 -4.63 2.27
8.86 -4.45 2.27
8.94 -4.27 2.27
6.27 -2.84 1.57
6.27 -2.69 1.56
6.26 -2.54 1.54
6.26 -2.39 1.53
6.26 -2.25 1.52
6.25 -2.11 1.51
6.25 -1.97 1.49
6.25 -1.83 1.48
6.24 -1.69 1.47
6.24 -1.56 1.47
6.24 -1.43 1.46
6.23 -1.30 1.45
6.23 -1.17 1.44
6.23 -1.04 1.44
6.22 -0.91 1.43
6.23 -0.78 1.43
6.23 -0.65 1.42
6.23 -0.53 1.42
6.23 -0.40 1.42
6.23 -0.28 1.42
6.23 -0.15 1.42
6.23 -0.03 1.42
6.24 0.10 1.42
6.24 0.22 1.42
6.24 0.35 1.42
6.24 0.47 1.42
6.24 0.60 1.42
6.24 0.73 1.43
6.24 0.85 1.43
6.25 0.98 1.43
6.25 1.11 1.44
6.25 1.24 1.45
6.25 1.37 1.45
6.25 1.50 1.46
6.25 1.64 1.47
6.25 1.77 1.47
6.26 1.91 1.48
6.26 2.05 1.49
6.26 2.19 1.50
6.26 2.33 1.52
6.26 2.47 1.53
6.26 2.62 1.54
6.27 2.77 1.55
6.27 2.92 1.57
6.27 3.08 1.59
6.27 3.24 1.60
6.27 3.40 1.62
6.27 3.56 1.64
6.28 3.73 1.66
6.28 3.91 1.68
6.28 4.08 1.70
6.28 4.27 1.73
6.28 4.45 1.75
6.29 4.65 1.78
6.29 4.85 1.81
6.31 5.07 1.84
6.29 5.27 1.87
6.30 5.49 1.90
6.30 5.71 1.94
6.30 5.95 1.98
6.30 6.20 2.02
6.31 6.45 2.06
6.31 6.72 2.10
6.31 7.00 2.15
6.32 7.29 2.20
6.32 7.60 2.26
6.32 7.92 2.32
6.36 8.30 2.39
6.19 8.42 2.39
6.01 8.54 2.39
5.84 8.66 2.39
5.66 8.77 2.39
5.48 8.87 2.39
5.30 8.98 2.39
5.12 9.08 2.39
4.93 9.17 2.39
4.74 9.27 2.39
4.55 9.35 2.39
4.36 9.44 2.39
4.17 9.52 2.39
3.98 9.59 2.39
3.78 9.67 2.39
3.58 9.74 2.39
3.39 9.80 2.39
3.19 9.86 2.39
2.99 9.92 2.39
2.79 9.97 2.39
2.58 10.02 2.39
2.48 10.49 2.49
2.27 10.53 2.49
2.06 10.57 2.49
1.85 10.60 2.49
1.63 10.63 2.49
1.42 10.65 2.49
1.20 10.67 2.49
0.99 10.69 2.49
0.77 10.70 2.49
0.56 10.71 2.49
0.34 10.71 2.49
0.13 10.70 2.49
-0.09 10.70 2.49
-0.30 10.69 2.49
-0.52 10.67 2.49
-0.73 10.65 2.49
-0.94 10.63 2.49
-1.16 10.60 2.49
-1.37 10.57 2.49
-1.58 10.53 2.49
-1.79 10.49 2.49
-2.00 10.44 2.49
-2.20 10.39 2.49
-2.41 10.34 2.49
-2.62 10.28 2.49
-2.82 10.22 2.49
-3.02 10.15 2.49
-3.22 10.08 2.49
-3.42 10.01 2.49
-3.62 9.93 2.49
-3.82 9.85 2.49
-4.01 9.77 2.49
-4.20 9.68 2.49
-4.39 9.58 2.49
-4.58 9.49 2.49
-4.77 9.39 2.49
-4.95 9.28 2.49
-5.13 9.18 2.49
-5.31 9.07 2.49
-5.49 8.95 2.49
-5.57 8.69 2.45
-5.60 8.35 2.39
-5.77 8.25 2.40
-5.92 8.11 2.39
-5.94 7.80 2.34
-5.94 7.49 2.28
-6.06 7.33 2.27
-6.43 7.46 2.35
-6.53 7.29 2.34
-6.54 7.00 2.29
-6.61 6.80 2.27
-7.11 7.02 2.39
-7.24 6.87 2.39
-7.37 6.72 2.39
-7.50 6.57 2.39
-7.63 6.41 2.39
-7.75 6.26 2.39
-7.87 6.10 2.39
-7.99 5.93 2.39
-8.10 5.77 2.39
-8.21 5.60 2.39
-8.32 5.43 2.39
-8.42 5.26 2.39
-8.52 5.09 2.39
-8.62 4.91 2.39
-8.71 4.74 2.39
-5.88 3.04 1.60
-5.93 2.92 1.59
-8.97 4.20 2.39
-9.05 4.02 2.39
-9.12 3.83 2.39
-9.20 3.65 2.39
-9.26 3.46 2.39
-9.33 3.27 2.39
-9.39 3.08 2.39
-9.44 2.89 2.39
-9.50 2.70 2.39
-9.55 2.51 2.39
-9.59 2.31 2.39
-9.63 2.12 2.39
-47.23 9.40 11.67
-47.13 8.40 11.61
-46.94 7.40 11.53
-44.71 6.13 10.95
-46.60 5.43 11.38
-46.47 4.47 11.33
-45.79 3.48 11.15
-45.74 2.55 11.13
-45.77 1.63 11.12
-46.03 0.72 11.18
-46.01 -0.21 11.18
-46.08 -1.14 11.20
-46.15 -2.07 11.23
-46.34 -3.01 11.29
-46.62 -3.97 11.37
-46.85 -4.94 11.45
-47.20 -5.94 11.57
-47.73 -6.99 11.73
-9.70 -1.62 2.39
-9.66 -1.81 2.39
-9.62 -2.01 2.39
-9.58 -2.20 2.39
-9.53 -2.39 2.39
-9.48 -2.58 2.39
-9.43 -2.77 2.39
-9.37 -2.96 2.39
-9.31 -3.15 2.39
-9.25 -3.34 2.39
-9.18 -3.52 2.39
-9.11 -3.71 2.39
-9.03 -3.89 2.39
-8.95 -4.07 2.39
-8.87 -4.25 2.39
-8.78 -4.43 2.39
-8.69 -4.61 2.39
-8.60 -4.78 2.39
-8.50 -4.95 2.39
-8.41 -5.12 2.39
-8.30 -5.29 2.39
-8.20 -5.46 2.39
-8.09 -5.63 2.39
-7.97 -5.79 2.39
-7.86 -5.95 2.39
-7.74 -6.11 2.39
-7.62 -6.26 2.39
-7.49 -6.42 2.39
-7.36 -6.57 2.39
-7.23 -6.72 2.39
-7.10 -6.86 2.39
-6.96 -7.01 2.39
-6.82 -7.15 2.39
-6.68 -7.29 2.39
-6.53 -7.42 2.39
-6.38 -7.56 2.39
-6.23 -7.69 2.39
-6.08 -7.81 2.39
-5.92 -7.94 2.39
-5.77 -8.07 2.39
-5.77 -8.41 2.46
-5.68 -8.65 2.49
-5.50 -8.76 2.49
-5.33 -8.88 2.49
-5.15 -8.99 2.49
-4.97 -9.09 2.49
-4.79 -9.20 2.49
-4.61 -9.30 2.49
-4.42 -9.39 2.49
-4.24 -9.48 2.49
-4.05 -9.57 2.49
-3.86 -9.66 2.49
-3.66 -9.74 2.49
-3.47 -9.81 2.49
-3.27 -9.89 2.49
-3.08 -9.96 2.49
-2.88 -10.02 2.49
-2.68 -10.09 2.49
-2.47 -10.14 2.49
-2.27 -10.20 2.49
-2.07 -10.25 2.49
-1.86 -10.29 2.49
-1.66 -10.33 2.49
-1.45 -10.37 2.49
-1.24 -10.41 2.49
-1.03 -10.44 2.49
-0.82 -10.46 2.49
-0.61 -10.48 2.49
-0.40 -10.50 2.49
-0.19 -10.51 2.49
0.02 -9.56 2.49
0.21 -9.56 2.49
0.40 -9.56 2.49
0.60 -9.56 2.49
0.79 -9.55 2.49
0.98 -9.54 2.49
1.17 -9.52 2.49
1.36 -9.50 2.49
1.55 -9.48 2.49
1.75 -9.45 2.49
1.94 -9.42 2.49
2.13 -9.39 2.49
2.27 -9.17 2.45
2.40 -8.92 2.39
2.58 -8.88 2.39
2.76 -8.83 2.39
2.94 -8.78 2.39
3.12 -8.72 2.39
3.29 -8.66 2.39
3.47 -8.60 2.39
3.64 -8.53 2.39
3.82 -8.46 2.39
3.99 -8.39 2.39
4.16 -8.31 2.39
4.33 -8.23 2.39
4.49 -8.15 2.39
4.66 -8.06 2.39
4.82 -7.97 2.39
4.98 -7.88 2.39
5.14 -7.78 2.39
5.30 -7.68 2.39
5.46 -7.58 2.39
5.61 -7.47 2.39
5.77 -7.36 2.39
5.92 -7.25 2.39
6.06 -7.14 2.39
6.21 -7.02 2.39
6.39 -6.94 2.41
6.54 -6.82 2.41
6.68 -6.69 2.41
6.81 -6.55 2.41
6.95 -6.42 2.41
7.08 -6.28 2.41
7.06 -6.02 2.36
7.17 -5.87 2.35
7.27 -5.71 2.35
7.37 -5.56 2.34
7.47 -5.40 2.34
7.57 -5.24 2.33
7.66 -5.08 2.33
7.75 -4.92 2.32
7.84 -4.76 2.32
7.92 -4.59 2.32
8.00 -4.43 2.31
8.08 -4.26 2.31
8.15 -4.09 2.31
8.53 -4.07 2.39
6.27 -2.84 1.74
6.27 -2.69 1.72
6.26 -2.54 1.71
6.26 -2.39 1.69
6.26 -2.25 1.68
6.25 -2.11 1.66
6.25 -1.97 1.65
6.25 -1.83 1.64
6.24 -1.69 1.63
6.24 -1.56 1.62
6.24 -1.43 1.61
6.23 -1.30 1.60
6.23 -1.16 1.59
6.23 -1.04 1.59
6.22 -0.91 1.58
6.23 -0.78 1.58
6.23 -0.65 1.57
6.23 -0.53 1.57
6.23 -0.40 1.57
6.23 -0.28 1.57
6.23 -0.15 1.56
6.23 -0.03 1.56
6.24 0.10 1.56
6.24 0.22 1.57
6.24 0.35 1.57
6.24 0.47 1.57
6.24 0.60 1.57
6.24 0.73 1.58
6.24 0.85 1.58
6.25 0.98 1.58
6.25 1.11 1.59
6.25 1.24 1.60
6.25 1.37 1.60
6.25 1.50 1.61
6.25 1.64 1.62
6.25 1.77 1.63
6.26 1.91 1.64
6.26 2.05 1.65
6.26 2.19 1.66
6.26 2.33 1.67
6.26 2.47 1.69
6.26 2.62 1.70
6.27 2.77 1.72
6.27 2.92 1.73
6.27 3.08 1.75
6.27 3.23 1.77
6.27 3.40 1.79
6.27 3.56 1.81
6.28 3.73 1.83
6.28 3.90 1.86
6.28 4.08 1.88
6.28 4.27 1.91
6.28 4.45 1.94
6.29 4.65 1.96
6.29 4.85 2.00
6.31 5.07 2.03
6.29 5.27 2.06
6.30 5.49 2.10
6.30 5.71 2.14
6.30 5.95 2.18
6.30 6.20 2.23
6.31 6.45 2.27
6.31 6.72 2.32
6.31 7.00 2.38
6.21 7.17 2.39
6.06 7.29 2.39
5.91 7.40 2.39
5.76 7.52 2.39
5.60 7.63 2.39
5.45 7.74 2.39
5.29 7.84 2.39
5.13 7.94 2.39
4.97 8.04 2.39
4.80 8.13 2.39
4.64 8.22 2.39
4.47 8.31 2.39
4.30 8.39 2.39
4.13 8.47 2.39
3.95 8.55 2.39
3.78 8.62 2.39
3.60 8.69 2.39
3.43 8.76 2.39
3.25 8.82 2.39
3.07 8.88 2.39
2.89 8.94 2.39
2.71 8.99 2.39
2.53 9.03 2.39
2.45 9.47 2.49
2.25 9.51 2.49
2.06 9.55 2.49
1.87 9.58 2.49
1.67 9.61 2.49
1.48 9.64 2.49
1.29 9.66 2.49
1.09 9.68 2.49
0.90 9.69 2.49
0.70 9.70 2.49
0.51 9.71 2.49
0.31 9.71 2.49
0.12 9.71 2.49
-0.08 9.70 2.49
-0.27 9.69 2.49
-0.47 9.68 2.49
-0.66 9.66 2.49
-0.85 9.64 2.49
-1.05 9.62 2.49
-1.24 9.59 2.49
-1.43 9.55 2.49
-1.62 9.52 2.49
-1.81 9.48 2.49
-2.00 9.43 2.49
-2.19 9.39 2.49
-2.37 9.33 2.49
-2.56 9.28 2.49
-2.74 9.22 2.49
-2.92 9.16 2.49
-3.11 9.09 2.49
-3.29 9.02 2.49
-3.46 8.95 2.49
-3.64 8.87 2.49
-3.82 8.79 2.49
-3.99 8.71 2.49
-4.16 8.62 2.49
-4.33 8.53 2.49
-4.50 8.43 2.49
-4.66 8.34 2.49
-4.83 8.24 2.49
-4.99 8.13 2.49
-5.15 8.03 2.49
-5.30 7.92 2.49
-5.46 7.80 2.49
-5.59 7.65 2.48
-5.59 7.35 2.42
-5.66 7.14 2.39
-5.80 7.02 2.39
-5.94 6.90 2.39
-5.95 6.64 2.34
-5.96 6.38 2.30
-6.01 6.19 2.27
-6.35 6.28 2.35
-6.47 6.15 2.35
-6.55 5.97 2.34
-6.55 5.74 2.30
-6.58 5.54 2.27
-6.69 5.40 2.27
-7.16 5.54 2.39
-7.26 5.40 2.39
-7.37 5.25 2.39
-7.47 5.10 2.39
-7.57 4.94 2.39
-7.66 4.79 2.39
-7.75 4.63 2.39
-7.84 4.47 2.39
-7.92 4.31 2.39
-5.88 3.04 1.75
-5.93 2.92 1.75
-8.16 3.82 2.39
-8.23 3.65 2.39
-8.30 3.49 2.39
-8.37 3.32 2.39
-8.43 3.15 2.39
-8.49 2.98 2.39
-8.54 2.80 2.39
-8.59 2.63 2.39
-8.64 2.46 2.39
-8.69 2.28 2.39
-8.73 2.11 2.39
-8.77 1.93 2.39
-8.80 1.75 2.39
-8.83 1.58 2.39
-8.86 1.40 2.39
-8.88 1.22 2.39
-8.90 1.04 2.39
-8.92 0.86 2.39
-8.94 0.68 2.39
-8.95 0.50 2.39
-8.95 0.32 2.39
-8.96 0.14 2.39
-8.96 -0.04 2.39
-8.95 -0.22 2.39
-8.94 -0.40 2.39
-8.93 -0.58 2.39
-8.92 -0.76 2.39
-8.90 -0.94 2.39
-8.88 -1.12 2.39
-8.85 -1.30 2.39
-8.83 -1.47 2.39
-8.79 -1.65 2.39
-8.76 -1.83 2.39
-8.72 -2.00 2.39
-8.68 -2.18 2.39
-8.63 -2.35 2.39
-8.58 -2.53 2.39
-8.53 -2.70 2.39
-8.48 -2.87 2.39
-8.42 -3.04 2.39
-8.35 -3.21 2.39
-8.29 -3.38 2.39
-8.22 -3.54 2.39
-8.15 -3.71 2.39
-8.07 -3.87 2.39
-7.99 -4.03 2.39
-7.91 -4.19 2.39
-7.83 -4.35 2.39
-7.74 -4.51 2.39
-7.65 -4.66 2.39
-7.56 -4.82 2.39
-7.46 -4.97 2.39
-7.36 -5.12 2.39
-7.26 -5.27 2.39
-6.79 -5.14 2.27
-6.69 -5.28 2.27
-6.68 -5.49 2.30
-6.68 -5.72 2.34
-6.59 -5.88 2.35
-6.47 -6.01 2.35
-6.13 -5.93 2.27
-6.10 -6.14 2.30
-6.10 -6.40 2.35
-6.07 -6.63 2.39
-5.94 -6.75 2.39
-5.81 -6.87 2.39
-5.75 -7.10 2.43
-5.75 -7.40 2.49
-5.62 -7.53 2.49
-5.47 -7.65 2.49
-5.32 -7.76 2.49
-5.16 -7.87 2.49
-5.01 -7.97 2.49
-4.85 -8.07 2.49
-4.69 -8.17 2.49
-4.52 -8.27 2.49
-4.36 -8.36 2.49
-4.19 -8.45 2.49
-4.02 -8.54 2.49
-3.85 -8.62 2.49
-3.68 -8.70 2.49
-3.50 -8.78 2.49
-3.33 -8.85 2.49
-3.15 -8.92 2.49
-2.97 -8.99 2.49
-2.79 -9.05 2.49
-2.61 -9.11 2.49
-2.43 -9.17 2.49
-2.25 -9.22 2.49
-2.06 -9.27 2.49
-1.88 -9.31 2.49
-1.69 -9.35 2.49
-1.50 -9.39 2.49
-1.32 -9.43 2.49
-1.13 -9.46 2.49
-0.94 -9.48 2.49
-0.75 -9.50 2.49
-0.56 -9.52 2.49
-0.36 -9.54 2.49
-0.17 -9.55 2.49
0.02 -8.75 2.49
0.19 -8.75 2.49
0.37 -8.75 2.49
0.55 -8.74 2.49
0.72 -8.74 2.49
0.90 -8.73 2.49
1.07 -8.71 2.49
1.25 -8.69 2.49
1.42 -8.67 2.49
1.60 -8.65 2.49
1.77 -8.62 2.49
1.95 -8.58 2.49
2.12 -8.55 2.49
2.28 -8.46 2.48
2.36 -8.12 2.39
2.53 -8.07 2.39
2.69 -8.02 2.39
2.85 -7.97 2.39
3.01 -7.92 2.39
3.17 -7.86 2.39
3.33 -7.80 2.39
3.49 -7.74 2.39
3.65 -7.67 2.39
3.80 -7.60 2.39
3.96 -7.53 2.39
4.11 -7.45 2.39
4.26 -7.37 2.39
4.41 -7.29 2.39
4.56 -7.20 2.39
4.70 -7.11 2.39
4.85 -7.02 2.39
4.99 -6.93 2.39
5.13 -6.83 2.39
5.27 -6.73 2.39
5.41 -6.62 2.39
5.54 -6.52 2.39
5.67 -6.41 2.39
5.80 -6.30 2.39
5.93 -6.18 2.39
6.06 -6.07 2.39
6.18 -5.95 2.39
6.30 -5.82 2.39
6.42 -5.70 2.39
6.53 -5.56 2.39
6.63 -5.42 2.38
6.72 -5.28 2.38
6.82 -5.14 2.37
6.91 -4.99 2.37
7.00 -4.85 2.36
7.08 -4.70 2.36
7.17 -4.55 2.35
7.25 -4.40 2.35
7.33 -4.25 2.35
7.40 -4.10 2.34
7.68 -4.05 2.40
7.77 -3.90 2.41
7.85 -3.75 2.41
6.27 -2.84 1.90
6.27 -2.69 1.89
6.26 -2.54 1.87
6.26 -2.39 1.85
6.26 -2.25 1.84
6.25 -2.11 1.82
6.25 -1.97 1.81
6.25 -1.83 1.80
6.24 -1.69 1.78
6.24 -1.56 1.77
6.24 -1.43 1.76
6.23 -1.29 1.75
6.23 -1.16 1.75
6.23 -1.04 1.74
6.22 -0.91 1.73
6.23 -0.78 1.73
6.23 -0.65 1.72
6.23 -0.53 1.72
6.23 -0.40 1.72
6.23 -0.28 1.72
6.23 -0.15 1.71
6.23 -0.03 1.71
6.24 0.10 1.71
6.24 0.22 1.72
6.24 0.35 1.72
6.24 0.47 1.72
6.24 0.60 1.72
6.24 0.73 1.73
6.24 0.85 1.73
6.25 0.98 1.74
6.25 1.11 1.74
6.25 1.24 1.75
6.25 1.37 1.76
6.25 1.50 1.77
6.25 1.64 1.78
6.25 1.77 1.79
6.26 1.91 1.80
6.26 2.05 1.81
6.26 2.19 1.82
6.26 2.33 1.84
6.26 2.47 1.85
6.26 2.62 1.87
6.27 2.77 1.88
6.27 2.92 1.90
6.27 3.08 1.92
6.27 3.23 1.94
6.27 3.40 1.96
6.27 3.56 1.98
6.28 3.73 2.01
6.28 3.90 2.03
6.28 4.08 2.06
6.28 4.27 2.09
6.28 4.45 2.12
6.29 4.65 2.15
6.29 4.85 2.19
6.29 5.05 2.22
6.29 5.26 2.26
6.30 5.48 2.30
6.30 5.71 2.34
6.30 5.95 2.39
6.18 6.07 2.39
6.05 6.19 2.39
5.93 6.31 2.39
5.80 6.43 2.39
5.67 6.54 2.39
5.53 6.65 2.39
5.40 6.76 2.39
5.26 6.86 2.39
5.12 6.96 2.39
4.97 7.06 2.39
4.83 7.16 2.39
4.68 7.25 2.39
4.54 7.34 2.39
4.39 7.42 2.39
4.23 7.51 2.39
4.08 7.59 2.39
3.93 7.66 2.39
3.77 7.74 2.39
3.61 7.81 2.39
3.45 7.88 2.39
3.29 7.94 2.39
3.13 8.00 2.39
2.97 8.06 2.39
2.81 8.11 2.39
2.64 8.16 2.39
2.48 8.22 2.39
2.41 8.61 2.49
2.24 8.65 2.49
2.06 8.69 2.49
1.88 8.72 2.49
1.71 8.76 2.49
1.53 8.78 2.49
1.35 8.81 2.49
1.18 8.83 2.49
1.00 8.84 2.49
0.82 8.86 2.49
0.64 8.87 2.49
0.46 8.87 2.49
0.29 8.88 2.49
0.11 8.88 2.49
-0.07 8.87 2.49
-0.25 8.86 2.49
-0.43 8.85 2.49
-0.60 8.83 2.49
-0.78 8.82 2.49
-0.96 8.79 2.49
-1.13 8.77 2.49
-1.31 8.74 2.49
-1.48 8.70 2.49
-1.65 8.67 2.49
-1.83 8.63 2.49
-2.00 8.58 2.49
-2.17 8.54 2.49
-2.34 8.49 2.49
-2.51 8.43 2.49
-2.67 8.38 2.49
-2.84 8.32 2.49
-3.00 8.25 2.49
-3.17 8.19 2.49
-3.33 8.12 2.49
-3.49 8.04 2.49
-3.65 7.97 2.49
-3.80 7.89 2.49
-3.96 7.80 2.49
-4.11 7.72 2.49
-4.27 7.63 2.49
-4.42 7.54 2.49
-4.56 7.44 2.49
-4.71 7.35 2.49
-4.85 7.25 2.49
-5.00 7.14 2.49
-5.13 7.04 2.49
-5.27 6.93 2.49
-5.41 6.82 2.49
-5.54 6.71 2.49
-5.60 6.51 2.46
-5.61 6.26 2.41
-5.68 6.09 2.39
-5.80 5.97 2.39
-5.91 5.85 2.39
-5.97 5.67 2.37
-5.97 5.44 2.32
-5.97 5.23 2.28
-6.03 5.07 2.27
-6.35 5.13 2.35
-6.45 5.00 2.35
-6.54 4.86 2.35
-6.56 4.68 2.33
-6.57 4.48 2.29
-6.58 4.30 2.27
-6.66 4.16 2.27
-7.10 4.24 2.39
-7.18 4.10 2.39
-7.26 3.95 2.39
-5.88 3.05 1.91
-5.93 2.92 1.91
-7.48 3.50 2.39
-7.54 3.35 2.39
-7.61 3.20 2.39
-7.67 3.04 2.39
-7.72 2.89 2.39
-7.78 2.73 2.39
-7.83 2.57 2.39
-7.87 2.41 2.39
-7.92 2.25 2.39
-7.96 2.09 2.39
-8.00 1.93 2.39
-8.03 1.77 2.39
-8.07 1.61 2.39
-8.09 1.44 2.39
-8.12 1.28 2.39
-8.14 1.12 2.39
-8.16 0.95 2.39
-8.18 0.79 2.39
-8.19 0.62 2.39
-8.20 0.46 2.39
-8.21 0.29 2.39
-8.21 0.13 2.39
-8.21 -0.04 2.39
-8.21 -0.20 2.39
-8.20 -0.37 2.39
-8.19 -0.53 2.39
-8.18 -0.70 2.39
-8.16 -0.86 2.39
-8.14 -1.02 2.39
-8.12 -1.19 2.39
-8.09 -1.35 2.39
-8.06 -1.51 2.39
-8.03 -1.67 2.39
-7.99 -1.84 2.39
-7.96 -2.00 2.39
-7.91 -2.16 2.39
-7.87 -2.31 2.39
-7.82 -2.47 2.39
-7.77 -2.63 2.39
-7.72 -2.79 2.39
-7.66 -2.94 2.39
-7.60 -3.09 2.39
-7.54 -3.25 2.39
-7.47 -3.40 2.39
-7.40 -3.55 2.39
-7.33 -3.70 2.39
-7.25 -3.84 2.39
-7.18 -3.99 2.39
-6.73 -3.92 2.27
-6.67 -4.07 2.27
-6.66 -4.25 2.30
-6.67 -4.44 2.33
-6.63 -4.62 2.35
-6.54 -4.75 2.35
-6.45 -4.88 2.35
-6.12 -4.84 2.27
-6.09 -5.01 2.29
-6.09 -5.22 2.33
-6.09 -5.44 2.37
-6.03 -5.60 2.39
-5.93 -5.74 2.40
-5.80 -5.84 2.39
-5.75 -6.02 2.42
-5.74 -6.27 2.47
-5.68 -6.46 2.49
-5.55 -6.57 2.49
-5.42 -6.68 2.49
-5.29 -6.79 2.49
-5.15 -6.90 2.49
-5.01 -7.01 2.49
-4.87 -7.11 2.49
-4.73 -7.21 2.49
-4.59 -7.30 2.49
-4.44 -7.40 2.49
-4.29 -7.49 2.49
-4.14 -7.58 2.49
-3.99 -7.66 2.49
-3.84 -7.74 2.49
-3.68 -7.82 2.49
-3.53 -7.90 2.49
-3.37 -7.97 2.49
-3.21 -8.04 2.49
-3.05 -8.11 2.49
-2.89 -8.17 2.49
-2.72 -8.23 2.49
-2.56 -8.29 2.49
-2.39 -8.34 2.49
-2.22 -8.39 2.49
-2.06 -8.44 2.49
-1.89 -8.49 2.49
-1.72 -8.53 2.49
-1.55 -8.56 2.49
-1.37 -8.60 2.49
-1.20 -8.63 2.49
-1.03 -8.66 2.49
-0.86 -8.68 2.49
-0.68 -8.70 2.49
-0.51 -8.72 2.49
-0.33 -8.73 2.49
-0.16 -8.74 2.49
0.02 -8.05 2.49
0.18 -8.06 2.49
0.34 -8.05 2.49
0.50 -8.05 2.49
0.67 -8.04 2.49
0.83 -8.03 2.49
0.99 -8.02 2.49
1.15 -8.00 2.49
1.31 -7.98 2.49
1.47 -7.96 2.49
1.63 -7.93 2.49
1.79 -7.90 2.49
1.95 -7.87 2.49
2.11 -7.83 2.49
2.27 -7.79 2.49
2.33 -7.43 2.39
2.48 -7.38 2.39
2.63 -7.34 2.39
2.77 -7.29 2.39
2.92 -7.23 2.39
3.07 -7.18 2.39
3.21 -7.12 2.39
3.36 -7.06 2.39
3.50 -6.99 2.39
3.64 -6.92 2.39
3.78 -6.85 2.39
3.92 -6.78 2.39
4.06 -6.70 2.39
4.19 -6.62 2.39
4.33 -6.54 2.39
4.46 -6.46 2.39
4.59 -6.37 2.39
4.72 -6.28 2.39
4.85 -6.19 2.39
4.97 -6.09 2.39
5.10 -5.99 2.39
5.22 -5.89 2.39
5.34 -5.79 2.39
5.46 -5.68 2.39
5.57 -5.58 2.39
5.68 -5.47 2.39
5.80 -5.35 2.39
5.90 -5.24 2.39
6.01 -5.12 2.39
6.12 -5.00 2.39
6.22 -4.88 2.39
6.32 -4.76 2.39
6.42 -4.64 2.39
6.50 -4.50 2.39
6.58 -4.36 2.38
6.66 -4.23 2.38
6.74 -4.09 2.38
6.91 -4.00 2.41
6.99 -3.86 2.41
7.07 -3.73 2.41
7.14 -3.58 2.41
7.21 -3.44 2.41
6.27 -2.84 2.07
6.27 -2.69 2.05
6.26 -2.54 2.03
6.26 -2.39 2.02
6.26 -2.25 2.00
6.25 -2.11 1.98
6.25 -1.97 1.97
6.25 -1.83 1.95
6.24 -1.69 1.94
6.24 -1.56 1.93
6.24 -1.43 1.92
6.23 -1.29 1.91
6.23 -1.16 1.90
6.23 -1.03 1.89
6.22 -0.91 1.89
6.23 -0.78 1.88
6.23 -0.65 1.88
6.23 -0.53 1.87
6.23 -0.40 1.87
6.23 -0.28 1.87
6.23 -0.15 1.87
6.23 -0.03 1.87
6.24 0.10 1.87
6.24 0.22 1.87
6.24 0.35 1.87
6.24 0.47 1.87
6.24 0.60 1.88
6.24 0.73 1.88
6.24 0.85 1.89
6.25 0.98 1.89
6.25 1.11 1.90
6.25 1.24 1.91
6.25 1.37 1.91
6.25 1.50 1.92
6.25 1.64 1.93
6.25 1.77 1.94
6.26 1.91 1.96
6.26 2.05 1.97
6.26 2.19 1.98
6.26 2.33 2.00
6.26 2.47 2.01
6.26 2.62 2.03
6.27 2.77 2.05
6.27 2.92 2.07
6.27 3.08 2.09
6.27 3.23 2.11
6.27 3.40 2.14
6.27 3.56 2.16
6.28 3.73 2.19
6.28 3.90 2.21
6.28 4.08 2.24
6.28 4.26 2.28
6.28 4.45 2.31
6.29 4.65 2.34
6.32 4.87 2.39
6.22 4.99 2.39
6.11 5.11 2.39
6.01 5.23 2.39
5.90 5.35 2.39
5.79 5.47 2.39
5.68 5.58 2.39
5.56 5.69 2.39
5.45 5.80 2.39
5.33 5.91 2.39
5.21 6.01 2.39
5.08 6.11 2.39
4.96 6.21 2.39
4.83 6.30 2.39
4.70 6.40 2.39
4.57 6.49 2.39
4.44 6.58 2.39
4.30 6.66 2.39
4.17 6.74 2.39
4.03 6.82 2.39
3.89 6.90 2.39
3.75 6.97 2.39
3.61 7.04 2.39
3.47 7.11 2.39
3.32 7.18 2.39
3.18 7.24 2.39
3.03 7.30 2.39
2.88 7.35 2.39
2.73 7.41 2.39
2.58 7.46 2.39
2.46 7.61 2.42
2.38 7.87 2.49
2.22 7.92 2.49
2.06 7.95 2.49
1.90 7.99 2.49
1.73 8.02 2.49
1.57 8.05 2.49
1.41 8.08 2.49
1.25 8.10 2.49
1.08 8.12 2.49
0.92 8.13 2.49
0.76 8.15 2.49
0.59 8.16 2.49
0.43 8.16 2.49
0.26 8.17 2.49
0.10 8.16 2.49
-0.06 8.16 2.49
-0.23 8.15 2.49
-0.39 8.14 2.49
-0.55 8.13 2.49
-0.72 8.11 2.49
-0.88 8.09 2.49
-1.04 8.07 2.49
-1.20 8.04 2.49
-1.36 8.01 2.49
-1.52 7.98 2.49
-1.68 7.94 2.49
-1.84 7.90 2.49
-1.99 7.86 2.49
-2.15 7.81 2.49
-2.31 7.76 2.49
-2.46 7.71 2.49
-2.61 7.66 2.49
-2.76 7.60 2.49
-2.91 7.54 2.49
-3.06 7.47 2.49
-3.21 7.41 2.49
-3.36 7.34 2.49
-3.50 7.26 2.49
-3.65 7.19 2.49
-3.79 7.11 2.49
-3.93 7.03 2.49
-4.06 6.94 2.49
-4.20 6.86 2.49
-4.34 6.77 2.49
-4.47 6.68 2.49
-4.60 6.58 2.49
-4.73 6.48 2.49
-4.86 6.38 2.49
-4.98 6.28 2.49
-5.10 6.18 2.49
-5.22 6.07 2.49
-5.34 5.96 2.49
-5.46 5.85 2.49
-5.57 5.74 2.49
-5.61 5.55 2.46
-5.62 5.34 2.42
-5.65 5.16 2.39
-5.75 5.04 2.39
-5.85 4.92 2.39
-5.95 4.80 2.39
-5.98 4.63 2.37
-5.98 4.44 2.33
-5.98 4.26 2.30
-5.99 4.09 2.27
-6.06 3.96 2.27
-6.36 3.98 2.35
-6.44 3.85 2.35
-6.51 3.72 2.35
-6.57 3.58 2.35
-5.87 3.05 2.08
-5.92 2.92 2.07
-6.89 3.23 2.39
-6.95 3.09 2.39
-7.01 2.95 2.39
-7.07 2.80 2.39
-7.12 2.66 2.39
-7.17 2.52 2.39
-7.22 2.37 2.39
-7.26 2.22 2.39
-7.30 2.08 2.39
-7.34 1.93 2.39
-7.37 1.78 2.39
-7.41 1.63 2.39
-7.44 1.48 2.39
-7.46 1.33 2.39
-7.49 1.18 2.39
-7.51 1.03 2.39
-7.53 0.88 2.39
-7.54 0.73 2.39
-7.55 0.58 2.39
-7.56 0.42 2.39
-7.57 0.27 2.39
-7.57 0.12 2.39
-7.57 -0.03 2.39
-7.57 -0.19 2.39
-7.56 -0.34 2.39
-7.55 -0.49 2.39
-7.54 -0.64 2.39
-7.52 -0.79 2.39
-7.51 -0.94 2.39
-7.48 -1.10 2.39
-7.46 -1.25 2.39
-7.43 -1.40 2.39
-7.40 -1.54 2.39
-7.37 -1.69 2.39
-7.34 -1.84 2.39
-7.30 -1.99 2.39
-7.26 -2.13 2.39
-7.21 -2.28 2.39
-7.16 -2.43 2.39
-6.75 -2.44 2.27
-6.70 -2.57 2.27
-6.66 -2.71 2.27
-6.65 -2.86 2.29
-6.65 -3.03 2.31
-6.65 -3.19 2.33
-6.64 -3.35 2.35
-6.58 -3.49 2.35
-6.51 -3.62 2.35
-6.43 -3.75 2.35
-6.14 -3.74 2.27
-6.08 -3.88 2.28
-6.07 -4.05 2.30
-6.08 -4.23 2.34
-6.08 -4.42 2.37
-6.04 -4.58 2.39
-5.95 -4.70 2.39
-5.86 -4.82 2.39
-5.76 -4.94 2.39
-5.73 -5.12 2.42
-5.73 -5.33 2.47
-5.69 -5.51 2.49
-5.58 -5.62 2.49
-5.47 -5.73 2.49
-5.35 -5.84 2.49
-5.23 -5.95 2.49
-5.12 -6.06 2.49
-4.99 -6.16 2.49
-4.87 -6.26 2.49
-4.75 -6.36 2.49
-4.62 -6.46 2.49
-4.49 -6.55 2.49
-4.36 -6.64 2.49
-4.23 -6.73 2.49
-4.09 -6.82 2.49
-3.95 -6.90 2.49
-3.82 -6.98 2.49
-3.68 -7.06 2.49
-3.54 -7.14 2.49
-3.39 -7.21 2.49
-3.25 -7.28 2.49
-3.10 -7.35 2.49
-2.96 -7.41 2.49
-2.81 -7.47 2.49
-2.66 -7.53 2.49
-2.51 -7.59 2.49
-2.35 -7.64 2.49
-2.20 -7.69 2.49
-2.05 -7.73 2.49
-1.89 -7.78 2.49
-1.74 -7.82 2.49
-1.58 -7.85 2.49
-1.42 -7.89 2.49
-1.27 -7.92 2.49
-1.11 -7.95 2.49
-0.95 -7.97 2.49
-0.79 -7.99 2.49
-0.63 -8.01 2.49
-0.47 -8.03 2.49
-0.30 -8.04 2.49
-0.14 -8.05 2.49
0.02 -7.45 2.49
0.17 -7.46 2.49
0.32 -7.46 2.49
0.47 -7.45 2.49
0.62 -7.44 2.49
0.77 -7.43 2.49
0.92 -7.42 2.49
1.07 -7.41 2.49
1.22 -7.39 2.49
1.36 -7.36 2.49
1.51 -7.34 2.49
1.66 -7.31 2.49
1.81 -7.28 2.49
1.95 -7.25 2.49
2.10 -7.21 2.49
2.25 -7.17 2.49
2.31 -6.87 2.41
2.43 -6.79 2.39
2.57 -6.74 2.39
2.70 -6.69 2.39
2.84 -6.64 2.39
2.97 -6.58 2.39
3.11 -6.53 2.39
3.24 -6.47 2.39
3.37 -6.40 2.39
3.50 -6.34 2.39
3.63 -6.27 2.39
3.75 -6.20 2.39
3.88 -6.12 2.39
4.00 -6.05 2.39
4.13 -5.97 2.39
4.25 -5.89 2.39
4.37 -5.81 2.39
4.48 -5.72 2.39
4.60 -5.63 2.39
4.71 -5.54 2.39
4.83 -5.45 2.39
4.94 -5.35 2.39
5.04 -5.25 2.39
5.15 -5.15 2.39
5.26 -5.05 2.39
5.36 -4.95 2.39
5.46 -4.84 2.39
5.56 -4.73 2.39
5.65 -4.62 2.39
5.75 -4.51 2.39
5.84 -4.40 2.39
5.93 -4.28 2.39
6.02 -4.16 2.39
6.10 -4.04 2.39
6.18 -3.92 2.39
6.26 -3.80 2.39
6.34 -3.67 2.39
6.46 -3.57 2.41
6.53 -3.44 2.41
6.60 -3.31 2.41
6.67 -3.18 2.41
6.27 -2.84 2.24
6.27 -2.69 2.22
6.26 -2.54 2.20
6.26 -2.39 2.18
6.26 -2.25 2.16
6.25 -2.11 2.15
6.25 -1.97 2.13
6.25 -1.83 2.12
6.24 -1.69 2.10
6.24 -1.56 2.09
6.24 -1.43 2.08
6.23 -1.29 2.07
6.23 -1.16 2.06
6.23 -1.03 2.05
6.22 -0.91 2.04
6.23 -0.78 2.04
6.23 -0.65 2.03
6.23 -0.53 2.03
6.23 -0.40 2.02
6.23 -0.28 2.02
6.23 -0.15 2.02
6.23 -0.03 2.02
6.24 0.10 2.02
6.24 0.22 2.02
6.24 0.35 2.02
6.24 0.47 2.03
6.24 0.60 2.03
6.24 0.73 2.04
6.24 0.85 2.04
6.25 0.98 2.05
6.25 1.11 2.05
6.25 1.24 2.06
6.25 1.37 2.07
6.25 1.50 2.08
6.25 1.64 2.09
6.25 1.77 2.10
6.26 1.91 2.12
6.26 2.05 2.13
6.26 2.19 2.15
6.26 2.33 2.16
6.26 2.47 2.18
6.26 2.62 2.20
6.27 2.77 2.22
6.27 2.92 2.24
6.27 3.08 2.26
6.27 3.23 2.29
6.27 3.40 2.31
6.27 3.56 2.34
6.28 3.73 2.37
6.26 3.89 2.39
6.18 4.02 2.39
6.10 4.14 2.39
6.01 4.26 2.39
5.93 4.38 2.39
5.84 4.50 2.39
5.74 4.61 2.39
5.65 4.72 2.39
5.55 4.83 2.39
5.45 4.94 2.39
5.35 5.05 2.39
5.25 5.15 2.39
5.14 5.26 2.39
5.03 5.36 2.39
4.92 5.46 2.39
4.81 5.55 2.39
4.70 5.65 2.39
4.58 5.74 2.39
4.47 5.83 2.39
4.35 5.91 2.39
4.23 6.00 2.39
4.10 6.08 2.39
3.98 6.16 2.39
3.85 6.23 2.39
3.73 6.31 2.39
3.60 6.38 2.39
3.47 6.44 2.39
3.34 6.51 2.39
3.20 6.57 2.39
3.07 6.63 2.39
2.94 6.69 2.39
2.80 6.75 2.39
2.66 6.80 2.39
2.53 6.85 2.39
2.45 7.09 2.46
2.34 7.24 2.49
2.20 7.28 2.49
2.05 7.32 2.49
1.90 7.35 2.49
1.75 7.39 2.49
1.60 7.42 2.49
1.46 7.44 2.49
1.30 7.47 2.49
1.15 7.49 2.49
1.00 7.51 2.49
0.85 7.52 2.49
0.70 7.53 2.49
0.55 7.54 2.49
0.40 7.55 2.49
0.25 7.55 2.49
0.09 7.55 2.49
-0.06 7.55 2.49
-0.21 7.54 2.49
-0.36 7.53 2.49
-0.51 7.52 2.49
-0.66 7.50 2.49
-0.81 7.49 2.49
-0.96 7.46 2.49
-1.11 7.44 2.49
-1.26 7.41 2.49
-1.41 7.38 2.49
-1.55 7.35 2.49
-1.70 7.31 2.49
-1.84 7.27 2.49
-1.99 7.23 2.49
-2.13 7.18 2.49
-2.27 7.14 2.49
-2.42 7.09 2.49
-2.56 7.03 2.49
-2.70 6.98 2.49
-2.83 6.92 2.49
-2.97 6.85 2.49
-3.11 6.79 2.49
-3.24 6.72 2.49
-3.37 6.65 2.49
-3.50 6.58 2.49
-3.63 6.51 2.49
-3.76 6.43 2.49
-3.89 6.35 2.49
-4.01 6.27 2.49
-4.14 6.18 2.49
-4.26 6.09 2.49
-4.38 6.00 2.49
-4.49 5.91 2.49
-4.61 5.82 2.49
-4.72 5.72 2.49
-4.84 5.62 2.49
-4.95 5.52 2.49
-5.05 5.42 2.49
-5.16 5.31 2.49
-5.26 5.21 2.49
-5.36 5.10 2.49
-5.46 4.99 2.49
-5.56 4.87 2.49
-5.62 4.73 2.48
-5.62 4.54 2.44
-5.63 4.37 2.41
-5.68 4.22 2.39
-5.76 4.11 2.39
-5.84 3.99 2.39
-5.92 3.87 2.39
-5.99 3.75 2.39
-5.99 3.58 2.36
-5.99 3.42 2.34
-5.99 3.26 2.31
-5.87 3.05 2.24
-5.92 2.92 2.24
-6.38 2.99 2.39
-6.44 2.86 2.39
-6.50 2.73 2.39
-6.55 2.60 2.39
-6.60 2.47 2.39
-6.64 2.33 2.39
-6.69 2.20 2.39
-6.73 2.06 2.39
-6.77 1.93 2.39
-6.80 1.79 2.39
-6.83 1.65 2.39
-6.86 1.51 2.39
-6.89 1.37 2.39
-6.92 1.24 2.39
-6.94 1.10 2.39
-6.96 0.96 2.39
-6.97 0.82 2.39
-6.99 0.67 2.39
-7.00 0.53 2.39
-7.01 0.39 2.39
-7.01 0.25 2.39
-7.02 0.11 2.39
-7.02 -0.03 2.39
-7.01 -0.17 2.39
-7.01 -0.31 2.39
-7.00 -0.45 2.39
-6.99 -0.59 2.39
-6.97 -0.73 2.39
-6.96 -0.88 2.39
-6.94 -1.01 2.39
-6.91 -1.15 2.39
-6.89 -1.29 2.39
-6.86 -1.43 2.39
-6.50 -1.49 2.27
-6.45 -1.62 2.27
-6.63 -1.81 2.34
-6.61 -1.95 2.35
-6.57 -2.08 2.35
-6.53 -2.21 2.35
-6.49 -2.34 2.35
-6.44 -2.47 2.35
-6.16 -2.51 2.27
-6.11 -2.63 2.27
-6.07 -2.76 2.27
-6.06 -2.91 2.29
-6.06 -3.06 2.31
-6.06 -3.21 2.34
-6.07 -3.37 2.37
-6.06 -3.53 2.39
-5.99 -3.65 2.39
-5.92 -3.78 2.39
-5.84 -3.89 2.39
-5.76 -4.01 2.39
-5.73 -4.16 2.41
-5.72 -4.33 2.44
-5.72 -4.52 2.48
-5.66 -4.66 2.49
-5.57 -4.77 2.49
-5.47 -4.88 2.49
-5.37 -4.99 2.49
-5.27 -5.10 2.49
-5.17 -5.21 2.49
-5.06 -5.31 2.49
-4.96 -5.42 2.49
-4.85 -5.52 2.49
-4.74 -5.61 2.49
-4.63 -5.71 2.49
-4.51 -5.80 2.49
-4.40 -5.90 2.49
-4.28 -5.98 2.49
-4.16 -6.07 2.49
-4.04 -6.16 2.49
-3.91 -6.24 2.49
-3.79 -6.32 2.49
-3.66 -6.39 2.49
-3.53 -6.47 2.49
-3.40 -6.54 2.49
-3.27 -6.61 2.49
-3.14 -6.68 2.49
-3.01 -6.74 2.49
-2.87 -6.81 2.49
-2.74 -6.86 2.49
-2.60 -6.92 2.49
-2.46 -6.97 2.49
-2.32 -7.03 2.49
-2.18 -7.07 2.49
-2.04 -7.12 2.49
-1.90 -7.16 2.49
-1.75 -7.20 2.49
-1.61 -7.24 2.49
-1.46 -7.27 2.49
-1.32 -7.30 2.49
-1.17 -7.33 2.49
-1.02 -7.36 2.49
-0.88 -7.38 2.49
-0.73 -7.40 2.49
-0.58 -7.42 2.49
-0.43 -7.43 2.49
-0.28 -7.44 2.49
-0.13 -7.45 2.49
0.02 -6.93 2.49
0.16 -6.93 2.49
0.30 -6.93 2.49
0.44 -6.93 2.49
0.58 -6.92 2.49
0.72 -6.91 2.49
0.85 -6.90 2.49
0.99 -6.88 2.49
1.13 -6.87 2.49
1.27 -6.85 2.49
1.41 -6.82 2.49
1.55 -6.80 2.49
1.68 -6.77 2.49
1.82 -6.73 2.49
1.95 -6.70 2.49
2.09 -6.66 2.49
2.22 -6.62 2.49
2.30 -6.43 2.44
2.39 -6.26 2.39
2.52 -6.23 2.39
2.64 -6.17 2.39
2.76 -6.12 2.39
2.89 -6.06 2.39
3.01 -6.01 2.39
3.13 -5.95 2.39
3.25 -5.89 2.39
3.37 -5.82 2.39
3.49 -5.76 2.39
3.60 -5.69 2.39
3.72 -5.62 2.39
3.83 -5.55 2.39
3.95 -5.47 2.39
4.06 -5.39 2.39
4.17 -5.31 2.39
4.27 -5.23 2.39
4.38 -5.15 2.39
4.48 -5.06 2.39
4.59 -4.97 2.39
4.69 -4.88 2.39
4.79 -4.79 2.39
4.88 -4.69 2.39
4.98 -4.60 2.39
5.07 -4.50 2.39
5.16 -4.40 2.39
5.25 -4.29 2.39
5.34 -4.19 2.39
5.42 -4.08 2.39
5.51 -3.97 2.39
5.59 -3.86 2.39
5.67 -3.75 2.39
5.74 -3.64 2.39
5.82 -3.53 2.39
5.89 -3.41 2.39
5.96 -3.29 2.39
6.02 -3.17 2.39
6.09 -3.05 2.39
6.15 -2.93 2.39
6.21 -2.81 2.39
6.27 -2.68 2.39
6.26 -2.54 2.37
6.26 -2.39 2.35
6.26 -2.25 2.33
6.25 -2.11 2.31
6.25 -1.97 2.29
6.25 -1.83 2.28
6.24 -1.69 2.26
6.24 -1.56 2.25
6.24 -1.42 2.24
6.23 -1.29 2.23
6.23 -1.16 2.22
6.23 -1.03 2.21
6.22 -0.91 2.20
6.23 -0.78 2.19
6.23 -0.65 2.19
6.23 -0.53 2.18
6.23 -0.40 2.18
6.23 -0.28 2.18
6.23 -0.15 2.18
6.23 -0.03 2.18
6.24 0.10 2.18
6.24 0.22 2.18
6.24 0.35 2.18
6.24 0.47 2.18
6.24 0.60 2.19
6.24 0.73 2.19
6.24 0.85 2.20
6.25 0.98 2.21
6.25 1.11 2.21
6.25 1.24 2.22
6.25 1.37 2.23
6.25 1.50 2.24
6.25 1.64 2.25
6.25 1.77 2.27
6.26 1.91 2.28
6.26 2.05 2.30
6.26 2.19 2.31
6.26 2.33 2.33
6.26 2.47 2.35
6.26 2.62 2.37
6.26 2.77 2.39
6.21 2.89 2.39
6.15 3.02 2.39
6.09 3.14 2.39
6.02 3.26 2.39
5.95 3.38 2.39
5.88 3.50 2.39
5.81 3.61 2.39
5.74 3.73 2.39
5.66 3.84 2.39
5.58 3.95 2.39
5.50 4.06 2.39
5.42 4.17 2.39
5.33 4.28 2.39
5.24 4.38 2.39
5.15 4.49 2.39
5.06 4.59 2.39
4.97 4.69 2.39
4.87 4.78 2.39
4.77 4.88 2.39
4.67 4.97 2.39
4.57 5.06 2.39
4.47 5.15 2.39
4.36 5.24 2.39
4.26 5.33 2.39
4.15 5.41 2.39
4.04 5.49 2.39
3.92 5.57 2.39
3.81 5.64 2.39
3.70 5.72 2.39
3.58 5.79 2.39
3.46 5.85 2.39
3.34 5.92 2.39
3.22 5.98 2.39
3.10 6.05 2.39
2.98 6.10 2.39
2.85 6.16 2.39
2.73 6.21 2.39
2.60 6.26 2.39
2.47 6.31 2.39
2.45 6.63 2.49
2.31 6.68 2.49
2.18 6.72 2.49
2.04 6.76 2.49
1.91 6.80 2.49
1.77 6.83 2.49
1.63 6.86 2.49
1.49 6.89 2.49
1.35 6.92 2.49
1.21 6.94 2.49
1.07 6.96 2.49
0.93 6.97 2.49
0.79 6.99 2.49
0.65 7.00 2.49
0.51 7.01 2.49
0.37 7.01 2.49
0.23 7.02 2.49
0.09 7.02 2.49
-0.05 7.01 2.49
-0.19 7.01 2.49
-0.33 7.00 2.49
-0.47 6.99 2.49
-0.61 6.97 2.49
-0.75 6.96 2.49
-0.89 6.94 2.49
-1.03 6.91 2.49
-1.17 6.89 2.49
-1.30 6.86 2.49
-1.44 6.83 2.49
-1.58 6.80 2.49
-1.71 6.76 2.49
-1.85 6.72 2.49
-1.98 6.68 2.49
-2.11 6.63 2.49
-2.24 6.59 2.49
-2.38 6.54 2.49
-2.51 6.49 2.49
-2.63 6.43 2.49
-2.76 6.37 2.49
-2.89 6.31 2.49
-3.01 6.25 2.49
-3.14 6.19 2.49
-3.26 6.12 2.49
-3.38 6.05 2.49
-3.50 5.98 2.49
-3.61 5.90 2.49
-3.73 5.83 2.49
-3.85 5.75 2.49
-3.96 5.67 2.49
-4.07 5.58 2.49
-4.18 5.50 2.49
-4.29 5.41 2.49
-4.39 5.32 2.49
-4.50 5.23 2.49
-4.60 5.14 2.49
-4.70 5.04 2.49
-4.80 4.94 2.49
-4.89 4.84 2.49
-4.99 4.74 2.49
-5.08 4.64 2.49
-5.17 4.53 2.49
-5.26 4.43 2.49
-5.34 4.32 2.49
-5.43 4.21 2.49
-5.51 4.10 2.49
-5.59 3.99 2.49
-5.63 3.85 2.48
-5.63 3.68 2.45
-5.64 3.53 2.42
-5.65 3.38 2.39
-5.70 3.26 2.39
-5.77 3.14 2.39
-5.83 3.03 2.39
-5.88 2.90 2.39
-5.94 2.78 2.39
-5.99 2.66 2.39
-6.04 2.54 2.39
-6.09 2.42 2.39
-6.14 2.30 2.39
-6.18 2.17 2.39
-6.22 2.05 2.39
-6.26 1.92 2.39
-6.30 1.79 2.39
-6.33 1.67 2.39
-6.36 1.54 2.39
-6.39 1.41 2.39
-6.41 1.28 2.39
-6.44 1.15 2.39
-6.46 1.02 2.39
-6.48 0.89 2.39
-6.49 0.76 2.39
-6.50 0.63 2.39
-6.51 0.50 2.39
-6.52 0.37 2.39
-6.53 0.23 2.39
-6.53 0.10 2.39
-6.53 -0.03 2.39
-6.53 -0.16 2.39
-6.52 -0.29 2.39
-6.51 -0.42 2.39
-6.50 -0.55 2.39
-6.49 -0.68 2.39
-6.48 -0.81 2.39
-6.46 -0.94 2.39
-6.44 -1.07 2.39
-6.41 -1.20 2.39
-6.39 -1.33 2.39
-6.36 -1.46 2.39
-6.05 -1.52 2.28
-6.05 -1.65 2.30
-6.05 -1.78 2.31
-6.05 -1.91 2.32
-6.05 -2.05 2.34
-6.05 -2.19 2.36
-6.05 -2.33 2.38
-6.04 -2.46 2.39
-5.99 -2.58 2.39
-5.94 -2.70 2.39
-5.90 -2.83 2.39
-5.83 -2.94 2.39
-5.77 -3.06 2.39
-5.72 -3.18 2.40
-5.71 -3.33 2.42
-5.71 -3.48 2.45
-5.71 -3.65 2.48
-5.67 -3.78 2.49
-5.59 -3.90 2.49
-5.52 -4.01 2.49
-5.44 -4.12 2.49
-5.35 -4.23 2.49
-5.27 -4.34 2.49
-5.18 -4.44 2.49
-5.09 -4.55 2.49
-5.00 -4.65 2.49
-4.91 -4.75 2.49
-4.81 -4.85 2.49
-4.71 -4.95 2.49
-4.61 -5.04 2.49
-4.51 -5.13 2.49
-4.41 -5.23 2.49
-4.30 -5.31 2.49
-4.20 -5.40 2.49
-4.09 -5.49 2.49
-3.98 -5.57 2.49
-3.87 -5.65 2.49
-3.76 -5.73 2.49
-3.64 -5.80 2.49
-3.52 -5.88 2.49
-3.41 -5.95 2.49
-3.29 -6.02 2.49
-3.17 -6.09 2.49
-3.04 -6.15 2.49
-2.92 -6.21 2.49
-2.80 -6.27 2.49
-2.67 -6.33 2.49
-2.54 -6.39 2.49
-2.42 -6.44 2.49
-2.29 -6.49 2.49
-2.16 -6.54 2.49
-2.03 -6.58 2.49
-1.89 -6.62 2.49
-1.76 -6.66 2.49
-1.63 -6.70 2.49
-1.49 -6.73 2.49
-1.36 -6.77 2.49
-1.22 -6.79 2.49
-1.09 -6.82 2.49
-0.95 -6.84 2.49
-0.81 -6.86 2.49
-0.68 -6.88 2.49
-0.54 -6.90 2.49
-0.40 -6.91 2.49
-0.26 -6.92 2.49
-0.12 -6.93 2.49
0.02 -6.47 2.49
0.15 -6.47 2.49
0.28 -6.47 2.49
0.41 -6.47 2.49
0.54 -6.46 2.49
0.67 -6.45 2.49
0.80 -6.44 2.49
0.93 -6.42 2.49
1.06 -6.41 2.49
1.19 -6.39 2.49
1.32 -6.37 2.49
1.44 -6.34 2.49
1.57 -6.31 2.49
1.70 -6.28 2.49
1.82 -6.25 2.49
1.95 -6.22 2.49
2.08 -6.18 2.49
2.20 -6.14 2.49
2.31 -6.05 2.47
2.35 -5.80 2.39
2.46 -5.76 2.39
2.58 -5.71 2.39
2.69 -5.66 2.39
2.81 -5.60 2.39
2.92 -5.55 2.39
3.03 -5.49 2.39
3.15 -5.43 2.39
3.25 -5.37 2.39
3.36 -5.31 2.39
3.47 -5.24 2.39
3.58 -5.17 2.39
3.68 -5.10 2.39
3.78 -5.03 2.39
3.89 -4.95 2.39
3.99 -4.88 2.39
4.09 -4.80 2.39
4.18 -4.72 2.39
4.28 -4.64 2.39
4.37 -4.55 2.39
4.46 -4.46 2.39
4.55 -4.37 2.39
4.64 -4.28 2.39
4.73 -4.19 2.39
4.81 -4.10 2.39
4.90 -4.00 2.39
4.98 -3.90 2.39
5.06 -3.81 2.39
5.13 -3.71 2.39
5.21 -3.60 2.39
5.28 -3.50 2.39
5.35 -3.39 2.39
5.42 -3.29 2.39
5.49 -3.18 2.39
5.55 -3.07 2.39
5.62 -2.96 2.39
5.68 -2.85 2.39
5.73 -2.73 2.39
5.79 -2.62 2.39
5.84 -2.50 2.39
5.89 -2.39 2.39
5.94 -2.27 2.39
5.99 -2.15 2.39
6.03 -2.03 2.39
6.07 -1.91 2.39
6.11 -1.79 2.39
6.14 -1.66 2.39
6.18 -1.54 2.39
6.21 -1.42 2.39
6.24 -1.29 2.39
6.26 -1.17 2.39
6.23 -1.03 2.37
6.22 -0.91 2.36
6.23 -0.78 2.35
6.23 -0.65 2.35
6.23 -0.53 2.34
6.23 -0.40 2.34
6.23 -0.28 2.34
6.23 -0.15 2.34
6.23 -0.03 2.34
6.24 0.10 2.34
6.24 0.22 2.34
6.24 0.35 2.34
6.24 0.47 2.34
6.24 0.60 2.35
6.24 0.73 2.35
6.24 0.85 2.36
6.25 0.98 2.37
6.25 1.11 2.38
6.26 1.24 2.39
6.24 1.37 2.39
6.21 1.49 2.39
6.18 1.62 2.39
6.14 1.74 2.39
6.11 1.86 2.39
6.07 1.98 2.39
6.03 2.10 2.39
5.98 2.23 2.39
5.94 2.34 2.39
5.89 2.46 2.39
5.84 2.58 2.39
5.79 2.70 2.39
5.73 2.81 2.39
5.67 2.92 2.39
5.61 3.04 2.39
5.55 3.15 2.39
5.48 3.26 2.39
5.42 3.37 2.39
5.35 3.47 2.39
5.28 3.58 2.39
5.20 3.68 2.39
5.13 3.79 2.39
5.05 3.89 2.39
4.97 3.99 2.39
4.89 4.09 2.39
4.80 4.18 2.39
4.72 4.28 2.39
4.63 4.37 2.39
4.54 4.46 2.39
4.45 4.55 2.39
4.36 4.64 2.39
4.26 4.72 2.39
4.17 4.80 2.39
4.07 4.89 2.39
3.97 4.96 2.39
3.87 5.04 2.39
3.76 5.12 2.39
3.66 5.19 2.39
3.55 5.26 2.39
3.45 5.33 2.39
3.34 5.39 2.39
3.23 5.46 2.39
3.12 5.52 2.39
3.00 5.58 2.39
2.89 5.64 2.39
2.78 5.69 2.39
2.66 5.74 2.39
2.54 5.79 2.39
2.45 5.89 2.41
2.41 6.14 2.49
2.28 6.19 2.49
2.16 6.23 2.49
2.03 6.27 2.49
1.91 6.30 2.49
1.78 6.34 2.49
1.65 6.37 2.49
1.52 6.40 2.49
1.39 6.43 2.49
1.26 6.45 2.49
1.13 6.47 2.49
1.00 6.49 2.49
0.87 6.51 2.49
0.74 6.52 2.49
0.61 6.53 2.49
0.48 6.54 2.49
0.35 6.54 2.49
0.22 6.55 2.49
0.08 6.55 2.49
-0.05 6.54 2.49
-0.18 6.54 2.49
-0.31 6.53 2.49
-0.44 6.52 2.49
-0.57 6.51 2.49
-0.70 6.49 2.49
-0.83 6.47 2.49
-0.96 6.45 2.49
-1.09 6.43 2.49
-1.22 6.40 2.49
-1.34 6.37 2.49
-1.47 6.34 2.49
-1.60 6.31 2.49
-1.72 6.27 2.49
-1.85 6.23 2.49
-1.97 6.19 2.49
-2.09 6.15 2.49
-2.22 6.10 2.49
-2.34 6.05 2.49
-2.46 6.00 2.49
-2.58 5.95 2.49
-2.69 5.89 2.49
-2.81 5.84 2.49
-2.93 5.78 2.49
-3.04 5.71 2.49
-3.15 5.65 2.49
-3.26 5.58 2.49
-3.37 5.51 2.49
-3.48 5.44 2.49
-3.59 5.37 2.49
-3.69 5.29 2.49
-3.80 5.21 2.49
-3.90 5.13 2.49
-4.00 5.05 2.49
-4.10 4.97 2.49
-4.20 4.88 2.49
-4.29 4.80 2.49
-4.39 4.71 2.49
-4.48 4.62 2.49
-4.57 4.52 2.49
-4.66 4.43 2.49
-4.74 4.33 2.49
-4.83 4.24 2.49
-4.91 4.14 2.49
-4.99 4.03 2.49
-5.07 3.93 2.49
-5.15 3.83 2.49
-5.22 3.72 2.49
-5.29 3.62 2.49
-5.36 3.51 2.49
-5.43 3.40 2.49
-5.49 3.29 2.49
-5.56 3.17 2.49
-5.62 3.06 2.49
-5.64 2.93 2.48
-5.64 2.79 2.45
-5.64 2.65 2.43
-5.65 2.51 2.41
-5.66 2.38 2.40
-5.69 2.26 2.39
-5.73 2.15 2.39
-5.77 2.03 2.39
-5.81 1.91 2.39
-5.85 1.79 2.39
-5.88 1.68 2.39
-5.91 1.56 2.39
-5.94 1.44 2.39
-5.97 1.32 2.39
-5.99 1.20 2.39
-6.01 1.07 2.39
-6.03 0.95 2.39
-6.05 0.83 2.39
-6.06 0.71 2.39
-6.08 0.59 2.39
-6.09 0.46 2.39
-6.09 0.34 2.39
-6.10 0.22 2.39
-6.10 0.10 2.39
-6.10 -0.03 2.39
-6.10 -0.15 2.39
-6.09 -0.27 2.39
-6.09 -0.39 2.39
-6.08 -0.52 2.39
-6.06 -0.64 2.39
-6.05 -0.76 2.39
-6.03 -0.88 2.39
-6.01 -1.00 2.39
-5.99 -1.12 2.39
-5.97 -1.24 2.39
-5.94 -1.36 2.39
-5.91 -1.48 2.39
-5.88 -1.60 2.39
-5.85 -1.72 2.39
-5.81 -1.84 2.39
-5.78 -1.96 2.39
-5.73 -2.07 2.39
-5.71 -2.19 2.40
-5.70 -2.32 2.41
-5.70 -2.46 2.43
-5.70 -2.59 2.46
-5.70 -2.74 2.48
-5.68 -2.87 2.49
-5.62 -2.98 2.49
-5.56 -3.09 2.49
-5.50 -3.21 2.49
-5.43 -3.32 2.49
-5.37 -3.43 2.49
-5.30 -3.53 2.49
-5.23 -3.64 2.49
-5.15 -3.74 2.49
-5.08 -3.85 2.49
-5.00 -3.95 2.49
-4.92 -4.05 2.49
-4.84 -4.15 2.49
-4.76 -4.25 2.49
-4.67 -4.34 2.49
-4.58 -4.44 2.49
-4.49 -4.53 2.49
-4.40 -4.62 2.49
-4.31 -4.71 2.49
-4.21 -4.80 2.49
-4.12 -4.88 2.49
-4.02 -4.96 2.49
-3.92 -5.05 2.49
-3.82 -5.13 2.49
-3.72 -5.20 2.49
-3.61 -5.28 2.49
-3.51 -5.35 2.49
-3.40 -5.42 2.49
-3.29 -5.49 2.49
-3.18 -5.56 2.49
-3.07 -5.62 2.49
-2.96 -5.69 2.49
-2.84 -5.75 2.49
-2.73 -5.80 2.49
-2.61 -5.86 2.49
-2.49 -5.91 2.49
-2.38 -5.96 2.49
-2.26 -6.01 2.49
-2.14 -6.06 2.49
-2.01 -6.10 2.49
-1.89 -6.15 2.49
-1.77 -6.18 2.49
-1.64 -6.22 2.49
-1.52 -6.26 2.49
-1.39 -6.29 2.49
-1.27 -6.32 2.49
-1.14 -6.34 2.49
-1.01 -6.37 2.49
-0.89 -6.39 2.49
-0.76 -6.41 2.49
-0.63 -6.43 2.49
-0.50 -6.44 2.49
-0.37 -6.45 2.49
-0.24 -6.46 2.49
-0.11 -6.47 2.49
0.02 -6.06 2.49
0.14 -6.06 2.49
0.26 -6.06 2.49
0.38 -6.06 2.49
0.51 -6.05 2.49
0.63 -6.04 2.49
0.75 -6.03 2.49
0.87 -6.02 2.49
0.99 -6.00 2.49
1.11 -5.98 2.49
1.23 -5.96 2.49
1.35 -5.94 2.49
1.47 -5.91 2.49
1.59 -5.88 2.49
1.71 -5.85 2.49
1.83 -5.82 2.49
1.94 -5.78 2.49
2.06 -5.75 2.49
2.18 -5.71 2.49
2.29 -5.66 2.49
2.32 -5.42 2.41
2.42 -5.34 2.39
2.53 -5.30 2.39
2.63 -5.25 2.39
2.74 -5.19 2.39
2.84 -5.14 2.39
2.94 -5.08 2.39
3.05 -5.03 2.39
3.15 -4.97 2.39
3.25 -4.90 2.39
3.35 -4.84 2.39
3.45 -4.77 2.39
3.54 -4.71 2.39
3.64 -4.64 2.39
3.73 -4.56 2.39
3.82 -4.49 2.39
3.91 -4.41 2.39
4.00 -4.34 2.39
4.09 -4.26 2.39
4.18 -4.18 2.39
4.26 -4.09 2.39
4.35 -4.01 2.39
4.43 -3.92 2.39
4.51 -3.83 2.39
4.58 -3.74 2.39
4.66 -3.65 2.39
4.73 -3.56 2.39
4.80 -3.47 2.39
4.88 -3.37 2.39
4.94 -3.27 2.39
5.01 -3.17 2.39
5.07 -3.07 2.39
5.14 -2.97 2.39
5.20 -2.87 2.39
5.25 -2.77 2.39
5.31 -2.66 2.39
5.36 -2.56 2.39
5.42 -2.45 2.39
5.46 -2.34 2.39
5.51 -2.23 2.39
5.56 -2.12 2.39
5.60 -2.01 2.39
5.64 -1.90 2.39
5.68 -1.78 2.39
5.71 -1.67 2.39
5.75 -1.56 2.39
5.78 -1.44 2.39
5.81 -1.33 2.39
5.83 -1.21 2.39
5.86 -1.09 2.39
5.88 -0.98 2.39
5.90 -0.86 2.39
5.92 -0.74 2.39
5.93 -0.62 2.39
5.94 -0.50 2.39
5.95 -0.38 2.39
5.96 -0.26 2.39
5.97 -0.14 2.39
5.97 -0.03 2.39
5.97 0.09 2.39
5.97 0.21 2.39
5.96 0.33 2.39
5.95 0.45 2.39
5.94 0.57 2.39
5.93 0.69 2.39
5.92 0.81 2.39
5.90 0.93 2.39
5.88 1.04 2.39
5.86 1.16 2.39
5.83 1.28 2.39
5.81 1.40 2.39
5.78 1.51 2.39
5.75 1.63 2.39
5.71 1.74 2.39
5.68 1.86 2.39
5.64 1.97 2.39
5.60 2.08 2.39
5.55 2.19 2.39
5.51 2.30 2.39
5.46 2.41 2.39
5.41 2.52 2.39
5.36 2.63 2.39
5.31 2.74 2.39
5.25 2.84 2.39
5.19 2.94 2.39
5.13 3.05 2.39
5.07 3.15 2.39
5.00 3.25 2.39
4.94 3.35 2.39
4.87 3.45 2.39
4.80 3.54 2.39
4.72 3.64 2.39
4.65 3.73 2.39
4.57 3.82 2.39
4.49 3.91 2.39
4.41 4.00 2.39
4.33 4.09 2.39
4.25 4.17 2.39
4.16 4.25 2.39
4.08 4.34 2.39
3.99 4.42 2.39
3.90 4.49 2.39
3.81 4.57 2.39
3.71 4.64 2.39
3.62 4.72 2.39
3.52 4.79 2.39
3.42 4.85 2.39
3.32 4.92 2.39
3.22 4.98 2.39
3.12 5.05 2.39
3.02 5.11 2.39
2.92 5.16 2.39
2.81 5.22 2.39
2.71 5.27 2.39
2.60 5.32 2.39
2.49 5.37 2.39
2.44 5.55 2.45
2.37 5.70 2.49
2.25 5.75 2.49
2.14 5.79 2.49
2.02 5.83 2.49
1.90 5.86 2.49
1.78 5.90 2.49
1.67 5.93 2.49
1.55 5.96 2.49
1.43 5.99 2.49
1.30 6.01 2.49
1.18 6.04 2.49
1.06 6.06 2.49
0.94 6.07 2.49
0.82 6.09 2.49
0.69 6.10 2.49
0.57 6.11 2.49
0.45 6.12 2.49
0.33 6.12 2.49
0.20 6.13 2.49
0.08 6.13 2.49
-0.04 6.12 2.49
-0.17 6.12 2.49
-0.29 6.11 2.49
-0.41 6.10 2.49
-0.53 6.09 2.49
-0.65 6.08 2.49
-0.78 6.06 2.49
-0.90 6.04 2.49
-1.02 6.02 2.49
-1.14 5.99 2.49
-1.26 5.97 2.49
-1.38 5.94 2.49
-1.49 5.91 2.49
-1.61 5.87 2.49
-1.73 5.84 2.49
-1.84 5.80 2.49
-1.96 5.76 2.49
-2.07 5.71 2.49
-2.19 5.67 2.49
-2.30 5.62 2.49
-2.41 5.57 2.49
-2.52 5.52 2.49
-2.63 5.47 2.49
-2.74 5.41 2.49
-2.85 5.35 2.49
-2.95 5.29 2.49
-3.06 5.23 2.49
-3.16 5.16 2.49
-3.26 5.10 2.49
-3.36 5.03 2.49
-3.46 4.96 2.49
-3.56 4.89 2.49
-3.65 4.81 2.49
-3.75 4.73 2.49
-3.84 4.66 2.49
-3.93 4.58 2.49
-4.02 4.49 2.49
-4.11 4.41 2.49
-4.20 4.33 2.49
-4.28 4.24 2.49
-4.36 4.15 2.49
-4.44 4.06 2.49
-4.52 3.97 2.49
-4.60 3.88 2.49
-4.68 3.78 2.49
-4.75 3.69 2.49
-4.82 3.59 2.49
-4.89 3.49 2.49
-4.96 3.39 2.49
-5.02 3.29 2.49
-5.09 3.18 2.49
-5.15 3.08 2.49
-5.21 2.98 2.49
-5.26 2.87 2.49
-5.32 2.76 2.49
-5.37 2.65 2.49
-5.42 2.54 2.49
-5.47 2.43 2.49
-5.52 2.32 2.49
-5.56 2.21 2.49
-5.60 2.10 2.49
-5.64 1.98 2.49
-5.65 1.86 2.48
-5.65 1.73 2.47
-5.65 1.61 2.45
-5.66 1.49 2.44
-5.66 1.37 2.43
-5.66 1.25 2.42
-5.67 1.13 2.41
-5.67 1.01 2.40
-5.67 0.90 2.40
-5.67 0.78 2.39
-5.68 0.67 2.39
-5.70 0.55 2.39
-5.70 0.44 2.39
-5.71 0.32 2.39
-5.72 0.21 2.39
-5.72 0.09 2.39
-5.72 -0.02 2.39
-5.72 -0.14 2.39
-5.71 -0.25 2.39
-5.70 -0.37 2.39
-5.70 -0.48 2.39
-5.69 -0.60 2.39
-5.69 -0.72 2.40
-5.69 -0.83 2.41
-5.69 -0.95 2.41
-5.69 -1.07 2.42
-5.69 -1.19 2.43
-5.69 -1.31 2.44
-5.69 -1.43 2.45
-5.69 -1.55 2.47
-5.69 -1.67 2.48
-5.68 -1.80 2.49
-5.65 -1.91 2.49
-5.61 -2.03 2.49
-5.57 -2.14 2.49
-5.52 -2.25 2.49
-5.48 -2.36 2.49
-5.43 -2.47 2.49
-5.38 -2.58 2.49
-5.32 -2.69 2.49
-5.27 -2.79 2.49
-5.21 -2.90 2.49
-5.15 -3.00 2.49
-5.09 -3.11 2.49
-5.03 -3.21 2.49
-4.97 -3.31 2.49
-4.90 -3.41 2.49
-4.83 -3.51 2.49
-4.76 -3.61 2.49
-4.69 -3.70 2.49
-4.61 -3.80 2.49
-4.53 -3.89 2.49
-4.46 -3.98 2.49
-4.38 -4.07 2.49
-4.29 -4.16 2.49
-4.21 -4.25 2.49
-4.13 -4.33 2.49
-4.04 -4.41 2.49
-3.95 -4.50 2.49
-3.86 -4.57 2.49
-3.77 -4.65 2.49
-3.67 -4.73 2.49
-3.58 -4.80 2.49
-3.48 -4.88 2.49
-3.38 -4.95 2.49
-3.29 -5.01 2.49
-3.18 -5.08 2.49
-3.08 -5.15 2.49
-2.98 -5.21 2.49
-2.88 -5.27 2.49
-2.77 -5.33 2.49
-2.66 -5.38 2.49
-2.55 -5.44 2.49
-2.45 -5.49 2.49
-2.34 -5.54 2.49
-2.22 -5.59 2.49
-2.11 -5.63 2.49
-2.00 -5.68 2.49
-1.89 -5.72 2.49
-1.77 -5.76 2.49
-1.66 -5.79 2.49
-1.54 -5.83 2.49
-1.42 -5.86 2.49
-1.30 -5.89 2.49
-1.19 -5.92 2.49
-1.07 -5.94 2.49
-0.95 -5.97 2.49
-0.83 -5.99 2.49
-0.71 -6.00 2.49
-0.59 -6.02 2.49
-0.47 -6.03 2.49
-0.35 -6.04 2.49
-0.22 -6.05 2.49
-0.10 -6.06 2.49
0.02 -5.69 2.49
0.13 -5.69 2.49
0.25 -5.69 2.49
0.36 -5.69 2.49
0.48 -5.68 2.49
0.59 -5.67 2.49
0.70 -5.66 2.49
0.82 -5.65 2.49
0.93 -5.64 2.49
1.05 -5.62 2.49
1.16 -5.60 2.49
1.27 -5.58 2.49
1.38 -5.55 2.49
1.50 -5.52 2.49
1.61 -5.50 2.49
1.72 -5.47 2.49
1.83 -5.43 2.49
1.94 -5.40 2.49
2.05 -5.36 2.49
2.15 -5.32 2.49
2.26 -5.28 2.49
2.32 -5.12 2.44
2.37 -4.97 2.39
2.47 -4.92 2.39
2.57 -4.88 2.39
2.67 -4.83 2.39
2.77 -4.77 2.39
2.86 -4.72 2.39
2.96 -4.66 2.39
3.05 -4.60 2.39
3.14 -4.54 2.39
3.24 -4.48 2.39
3.33 -4.42 2.39
3.42 -4.35 2.39
3.50 -4.28 2.39
3.59 -4.21 2.39
3.68 -4.14 2.39
3.76 -4.07 2.39
3.84 -4.00 2.39
3.92 -3.92 2.39
4.00 -3.84 2.39
4.08 -3.76 2.39
4.16 -3.68 2.39
4.23 -3.60 2.39
4.30 -3.51 2.39
4.37 -3.43 2.39
4.44 -3.34 2.39
4.51 -3.25 2.39
4.58 -3.16 2.39
4.64 -3.07 2.39
4.70 -2.98 2.39
4.76 -2.88 2.39
4.82 -2.79 2.39
4.88 -2.69 2.39
4.93 -2.60 2.39
4.98 -2.50 2.39
5.03 -2.40 2.39
5.08 -2.30 2.39
5.13 -2.20 2.39
5.17 -2.09 2.39
5.21 -1.99 2.39
5.25 -1.88 2.39
5.29 -1.78 2.39
5.33 -1.67 2.39
5.36 -1.57 2.39
5.39 -1.46 2.39
5.42 -1.35 2.39
5.45 -1.24 2.39
5.47 -1.13 2.39
5.50 -1.02 2.39
5.52 -0.91 2.39
5.54 -0.80 2.39
5.55 -0.69 2.39
5.57 -0.58 2.39
5.58 -0.47 2.39
5.59 -0.36 2.39
5.59 -0.25 2.39
5.60 -0.14 2.39
5.60 -0.02 2.39
5.60 0.09 2.39
5.60 0.20 2.39
5.59 0.31 2.39
5.59 0.42 2.39
5.58 0.54 2.39
5.56 0.65 2.39
5.55 0.76 2.39
5.53 0.87 2.39
5.52 0.98 2.39
5.50 1.09 2.39
5.47 1.20 2.39
5.45 1.31 2.39
5.42 1.42 2.39
5.39 1.53 2.39
5.36 1.63 2.39
5.33 1.74 2.39
5.29 1.85 2.39
5.25 1.95 2.39
5.21 2.06 2.39
5.17 2.16 2.39
5.12 2.26 2.39
5.08 2.37 2.39
5.03 2.47 2.39
4.98 2.57 2.39
4.92 2.66 2.39
4.87 2.76 2.39
4.81 2.86 2.39
4.75 2.95 2.39
4.69 3.05 2.39
4.63 3.14 2.39
4.57 3.23 2.39
4.50 3.32 2.39
4.43 3.41 2.39
4.36 3.50 2.39
4.29 3.59 2.39
4.22 3.67 2.39
4.14 3.75 2.39
4.07 3.83 2.39
3.99 3.91 2.39
3.91 3.99 2.39
3.83 4.07 2.39
3.74 4.14 2.39
3.66 4.22 2.39
3.57 4.29 2.39
3.48 4.36 2.39
3.40 4.42 2.39
3.30 4.49 2.39
3.21 4.55 2.39
3.12 4.62 2.39
3.03 4.68 2.39
2.93 4.74 2.39
2.84 4.79 2.39
2.74 4.85 2.39
2.64 4.90 2.39
2.54 4.95 2.39
2.44 5.00 2.39
2.43 5.25 2.49
2.33 5.31 2.49
2.23 5.35 2.49
2.12 5.39 2.49
2.01 5.43 2.49
1.90 5.47 2.49
1.79 5.50 2.49
1.68 5.54 2.49
1.56 5.57 2.49
1.45 5.60 2.49
1.34 5.62 2.49
1.23 5.64 2.49
1.11 5.67 2.49
1.00 5.68 2.49
0.88 5.70 2.49
0.77 5.72 2.49
0.65 5.73 2.49
0.54 5.74 2.49
0.42 5.74 2.49
0.31 5.75 2.49
0.19 5.75 2.49
0.08 5.75 2.49
-0.04 5.75 2.49
-0.15 5.75 2.49
-0.27 5.74 2.49
-0.38 5.73 2.49
-0.50 5.72 2.49
-0.61 5.71 2.49
-0.73 5.69 2.49
-0.84 5.67 2.49
-0.95 5.65 2.49
-1.07 5.63 2.49
-1.18 5.60 2.49
-1.29 5.58 2.49
-1.40 5.55 2.49
-1.51 5.52 2.49
-1.62 5.48 2.49
-1.73 5.45 2.49
-1.84 5.41 2.49
-1.95 5.37 2.49
-2.05 5.33 2.49
-2.16 5.28 2.49
-2.26 5.23 2.49
-2.37 5.19 2.49
-2.47 5.13 2.49
-2.57 5.08 2.49
-2.67 5.03 2.49
-2.77 4.97 2.49
-2.87 4.91 2.49
-2.97 4.85 2.49
-3.06 4.79 2.49
-3.16 4.72 2.49
-3.25 4.66 2.49
-3.34 4.59 2.49
-3.43 4.52 2.49
-3.52 4.45 2.49
-3.61 4.38 2.49
-3.69 4.30 2.49
-3.78 4.22 2.49
-3.86 4.15 2.49
-3.94 4.07 2.49
-4.02 3.98 2.49
-4.10 3.90 2.49
-4.17 3.82 2.49
-4.25 3.73 2.49
-4.32 3.64 2.49
-4.39 3.55 2.49
-4.46 3.46 2.49
-4.53 3.37 2.49
-4.59 3.28 2.49
-4.66 3.18 2.49
-4.72 3.09 2.49
-4.78 2.99 2.49
-4.84 2.90 2.49
-4.89 2.80 2.49
-4.95 2.70 2.49
-5.00 2.60 2.49
-5.05 2.49 2.49
-5.10 2.39 2.49
-5.14 2.29 2.49
-5.19 2.18 2.49
-5.23 2.08 2.49
-5.27 1.97 2.49
-5.30 1.87 2.49
-5.34 1.76 2.49
-5.37 1.65 2.49
-5.40 1.54 2.49
-5.43 1.43 2.49
-5.46 1.32 2.49
-5.48 1.21 2.49
-5.51 1.10 2.49
-5.53 0.99 2.49
-5.54 0.88 2.49
-5.56 0.77 2.49
-5.57 0.65 2.49
-5.58 0.54 2.49
-5.59 0.43 2.49
-5.60 0.32 2.49
-5.60 0.20 2.49
-5.61 0.09 2.49
-5.61 -0.02 2.49
-5.60 -0.14 2.49
-5.60 -0.25 2.49
-5.59 -0.36 2.49
-5.58 -0.47 2.49
-5.57 -0.59 2.49
-5.56 -0.70 2.49
-5.54 -0.81 2.49
-5.53 -0.92 2.49
-5.51 -1.03 2.49
-5.49 -1.14 2.49
-5.46 -1.25 2.49
-5.43 -1.36 2.49
-5.41 -1.47 2.49
-5.38 -1.58 2.49
-5.34 -1.69 2.49
-5.31 -1.80 2.49
-5.27 -1.90 2.49
-5.23 -2.01 2.49
-5.19 -2.11 2.49
-5.15 -2.22 2.49
-5.10 -2.32 2.49
-5.05 -2.42 2.49
-5.00 -2.53 2.49
-4.95 -2.63 2.49
-4.90 -2.73 2.49
-4.84 -2.82 2.49
-4.79 -2.92 2.49
-4.73 -3.02 2.49
-4.67 -3.11 2.49
-4.60 -3.21 2.49
-4.54 -3.30 2.49
-4.47 -3.39 2.49
-4.40 -3.48 2.49
-4.33 -3.57 2.49
-4.26 -3.66 2.49
-4.19 -3.74 2.49
-4.11 -3.83 2.49
-4.04 -3.91 2.49
-3.96 -3.99 2.49
-3.88 -4.07 2.49
-3.79 -4.15 2.49
-3.71 -4.23 2.49
-3.63 -4.30 2.49
-3.54 -4.37 2.49
-3.45 -4.44 2.49
-3.36 -4.51 2.49
-3.27 -4.58 2.49
-3.18 -4.65 2.49
-3.09 -4.71 2.49
-2.99 -4.78 2.49
-2.90 -4.84 2.49
-2.80 -4.89 2.49
-2.70 -4.95 2.49
-2.60 -5.01 2.49
-2.50 -5.06 2.49
-2.40 -5.11 2.49
-2.30 -5.16 2.49
-2.19 -5.21 2.49
-2.09 -5.25 2.49
-1.98 -5.29 2.49
-1.88 -5.33 2.49
-1.77 -5.37 2.49
-1.66 -5.41 2.49
-1.55 -5.44 2.49
-1.45 -5.48 2.49
-1.34 -5.51 2.49
-1.22 -5.53 2.49
-1.11 -5.56 2.49
-1.00 -5.58 2.49
-0.89 -5.60 2.49
-0.78 -5.62 2.49
-0.66 -5.64 2.49
-0.55 -5.65 2.49
-0.44 -5.67 2.49
-0.32 -5.68 2.49
-0.21 -5.68 2.49
-0.10 -5.69 2.49
0.02 -5.36 2.49
0.13 -5.36 2.49
0.23 -5.36 2.49
0.34 -5.36 2.49
0.45 -5.35 2.49
0.56 -5.34 2.49
0.66 -5.33 2.49
0.77 -5.32 2.49
0.88 -5.31 2.49
0.99 -5.29 2.49
1.09 -5.27 2.49
1.20 -5.25 2.49
1.30 -5.23 2.49
1.41 -5.20 2.49
1.51 -5.17 2.49
1.62 -5.15 2.49
1.72 -5.11 2.49
1.82 -5.08 2.49
1.93 -5.04 2.49
2.03 -5.01 2.49
2.13 -4.97 2.49
2.23 -4.93 2.49
2.32 -4.86 2.48
2.33 -4.65 2.40
2.42 -4.59 2.39
2.53 -4.58 2.41
2.60 -4.49 2.39
2.70 -4.44 2.39
2.78 -4.39 2.39
2.87 -4.33 2.39
2.96 -4.28 2.39
3.05 -4.22 2.39
3.13 -4.16 2.39
3.22 -4.10 2.39
3.30 -4.03 2.39
3.38 -3.97 2.39
3.46 -3.90 2.39
3.54 -3.83 2.39
3.62 -3.76 2.39
3.69 -3.69 2.39
3.77 -3.61 2.39
3.84 -3.54 2.39
3.91 -3.46 2.39
3.98 -3.39 2.39
4.05 -3.31 2.39
4.12 -3.23 2.39
4.18 -3.14 2.39
4.24 -3.06 2.39
4.31 -2.98 2.39
4.37 -2.89 2.39
4.42 -2.80 2.39
4.48 -2.71 2.39
4.54 -2.62 2.39
4.59 -2.53 2.39
4.64 -2.44 2.39
4.69 -2.35 2.39
4.74 -2.26 2.39
4.78 -2.16 2.39
4.83 -2.06 2.39
4.87 -1.97 2.39
4.91 -1.87 2.39
4.94 -1.77 2.39
4.98 -1.67 2.39
5.01 -1.57 2.39
5.05 -1.47 2.39
5.07 -1.37 2.39
5.10 -1.27 2.39
5.13 -1.17 2.39
5.15 -1.07 2.39
5.17 -0.96 2.39
5.19 -0.86 2.39
5.21 -0.76 2.39
5.22 -0.65 2.39
5.24 -0.55 2.39
5.25 -0.44 2.39
5.25 -0.34 2.39
5.26 -0.23 2.39
5.27 -0.13 2.39
5.27 -0.02 2.39
5.27 0.08 2.39
5.27 0.19 2.39
5.26 0.29 2.39
5.25 0.40 2.39
5.25 0.50 2.39
5.23 0.61 2.39
5.22 0.71 2.39
5.21 0.82 2.39
5.19 0.92 2.39
5.17 1.03 2.39
5.15 1.13 2.39
5.12 1.23 2.39
5.10 1.33 2.39
5.07 1.44 2.39
5.04 1.54 2.39
5.01 1.64 2.39
4.98 1.74 2.39
4.94 1.84 2.39
4.90 1.93 2.39
4.86 2.03 2.39
4.82 2.13 2.39
4.78 2.22 2.39
4.73 2.32 2.39
4.68 2.41 2.39
4.63 2.51 2.39
4.58 2.60 2.39
4.53 2.69 2.39
4.47 2.78 2.39
4.42 2.87 2.39
4.36 2.96 2.39
4.30 3.04 2.39
4.23 3.13 2.39
4.17 3.21 2.39
4.10 3.29 2.39
4.04 3.37 2.39
3.97 3.45 2.39
3.90 3.53 2.39
3.82 3.61 2.39
3.75 3.68 2.39
3.68 3.76 2.39
3.60 3.83 2.39
3.52 3.90 2.39
3.44 3.97 2.39
3.36 4.03 2.39
3.28 4.10 2.39
3.20 4.16 2.39
3.11 4.22 2.39
3.02 4.29 2.39
2.94 4.34 2.39
2.85 4.40 2.39
2.76 4.46 2.39
2.67 4.51 2.39
2.58 4.56 2.39
2.48 4.61 2.39
2.43 4.73 2.43
2.40 4.90 2.49
2.30 4.95 2.49
2.20 4.99 2.49
2.10 5.03 2.49
1.99 5.07 2.49
1.89 5.11 2.49
1.79 5.15 2.49
1.68 5.18 2.49
1.58 5.21 2.49
1.47 5.24 2.49
1.37 5.27 2.49
1.26 5.29 2.49
1.15 5.31 2.49
1.05 5.33 2.49
0.94 5.35 2.49
0.83 5.37 2.49
0.72 5.38 2.49
0.62 5.39 2.49
0.51 5.40 2.49
0.40 5.41 2.49
0.29 5.41 2.49
0.18 5.41 2.49
0.07 5.41 2.49
-0.04 5.41 2.49
-0.14 5.41 2.49
-0.25 5.40 2.49
-0.36 5.39 2.49
-0.47 5.38 2.49
-0.58 5.37 2.49
-0.68 5.36 2.49
-0.79 5.34 2.49
-0.90 5.32 2.49
-1.00 5.30 2.49
-1.11 5.28 2.49
-1.21 5.25 2.49
-1.32 5.22 2.49
-1.42 5.19 2.49
-1.53 5.16 2.49
-1.63 5.13 2.49
-1.73 5.09 2.49
