ply
format ascii 1.0
element vertex 2947
property float32 x
property float32 y
property float32 z
end_header
-9.92 -4.75 1.51
-9.92 -5.00 1.52
-9.91 -5.24 1.54
-9.90 -5.50 1.55
-9.88 -5.75 1.57
-9.89 -6.02 1.59
-9.88 -6.29 1.61
-9.88 -6.57 1.63
-9.87 -6.86 1.65
-9.86 -7.15 1.67
-9.85 -7.45 1.69
-9.85 -7.76 1.72
-9.84 -8.08 1.75
-6.27 -5.36 1.13
-9.82 -8.74 1.80
-9.81 -9.09 1.84
-9.80 -9.46 1.87
-9.73 -9.78 1.89
-9.78 -10.23 1.94
-9.77 -10.64 1.98
-9.76 -11.06 2.03
-9.75 -11.51 2.07
-9.72 -11.96 2.12
-9.67 -12.39 2.16
-8.06 -10.77 1.85
-7.77 -10.83 1.83
-7.64 -11.11 1.86
-9.55 -14.50 2.39
-9.26 -14.68 2.39
-8.96 -14.86 2.39
-8.65 -15.03 2.39
-8.35 -15.20 2.39
-8.04 -15.35 2.39
-7.72 -15.51 2.39
-7.41 -15.65 2.39
-7.09 -15.79 2.39
-6.77 -15.92 2.39
-6.44 -16.05 2.39
-6.12 -16.17 2.39
-5.84 -16.41 2.41
-5.69 -17.09 2.49
-5.35 -17.19 2.49
-5.00 -17.29 2.49
-4.65 -17.37 2.49
-4.30 -17.46 2.49
-3.94 -17.53 2.49
-3.59 -17.60 2.49
-3.23 -17.65 2.49
-2.88 -17.71 2.49
-2.52 -17.75 2.49
-2.16 -17.79 2.49
-1.80 -17.82 2.49
-1.45 -17.84 2.49
-1.09 -17.85 2.49
-0.73 -17.86 2.49
-0.37 -17.86 2.49
-0.01 -15.33 2.49
0.30 -15.32 2.49
0.60 -15.30 2.49
0.91 -15.28 2.49
1.22 -15.25 2.49
1.52 -15.21 2.49
1.82 -15.17 2.49
2.13 -15.12 2.49
2.33 -14.44 2.39
2.62 -14.39 2.39
2.90 -14.32 2.39
3.19 -14.25 2.39
3.47 -14.18 2.39
3.75 -14.10 2.39
4.03 -14.01 2.39
4.31 -13.92 2.39
4.59 -13.82 2.39
4.86 -13.72 2.39
5.13 -13.61 2.39
5.40 -13.50 2.39
5.67 -13.38 2.39
5.93 -13.25 2.39
5.99 -12.70 2.31
5.98 -12.03 2.21
5.96 -11.42 2.12
2.23 -4.08 0.77
5.92 -10.31 1.96
6.10 -10.15 1.96
6.68 -10.63 2.08
6.87 -10.45 2.07
6.61 -9.63 1.93
6.51 -9.09 1.85
6.60 -8.83 1.83
6.74 -8.66 1.82
6.44 -7.94 1.70
6.45 -7.63 1.66
6.35 -7.22 1.60
6.42 -7.00 1.58
6.48 -6.79 1.56
6.68 -6.73 1.58
6.41 -6.20 1.48
6.38 -5.93 1.45
6.34 -5.65 1.42
6.27 -5.37 1.38
6.34 -5.22 1.37
6.34 -5.00 1.35
6.33 -4.79 1.33
6.28 -4.56 1.30
6.28 -4.37 1.28
6.34 -4.23 1.27
6.40 -4.08 1.27
6.40 -3.90 1.26
6.66 -3.88 1.29
11.04 -6.14 2.12
11.04 -5.85 2.09
6.38 -3.22 1.20
6.35 -3.04 1.18
6.35 -2.89 1.17
6.37 -2.75 1.16
6.32 -2.58 1.15
6.38 -2.45 1.15
6.45 -2.33 1.15
6.70 -2.27 1.19
7.37 -2.33 1.30
7.30 -2.15 1.28
7.29 -1.99 1.27
7.27 -1.83 1.26
7.27 -1.67 1.26
7.28 -1.52 1.25
7.28 -1.37 1.25
7.28 -1.22 1.25
7.30 -1.07 1.24
7.36 -0.93 1.25
9.20 -0.98 1.56
10.75 -0.92 1.82
10.76 -0.71 1.82
12.75 -0.58 2.16
13.07 -0.33 2.21
14.15 -0.08 2.39
14.14 0.21 2.39
14.13 0.49 2.39
14.12 0.78 2.39
14.10 1.06 2.39
14.07 1.34 2.39
14.04 1.62 2.39
14.00 1.91 2.39
13.95 2.19 2.39
13.91 2.47 2.39
13.85 2.74 2.39
14.39 3.15 2.49
14.32 3.44 2.49
14.25 3.73 2.49
14.17 4.01 2.49
14.08 4.29 2.49
13.99 4.58 2.49
13.90 4.86 2.49
13.80 5.13 2.49
13.69 5.41 2.49
13.58 5.68 2.49
13.46 5.95 2.49
13.34 6.22 2.49
13.21 6.49 2.49
13.08 6.75 2.49
12.94 7.02 2.49
12.80 7.28 2.49
12.65 7.53 2.49
12.50 7.78 2.49
12.34 8.03 2.49
12.17 8.28 2.49
12.01 8.52 2.49
11.83 8.77 2.49
11.66 9.00 2.49
11.48 9.24 2.49
11.29 9.47 2.49
11.10 9.69 2.49
10.90 9.91 2.49
10.70 10.13 2.49
10.50 10.35 2.49
10.29 10.56 2.49
10.08 10.77 2.49
9.74 10.83 2.46
9.35 10.83 2.42
9.03 10.89 2.39
8.81 11.07 2.39
8.59 11.25 2.39
8.25 11.27 2.36
8.14 11.59 2.39
7.90 11.76 2.39
7.67 11.92 2.39
7.43 12.07 2.39
7.19 12.22 2.39
6.94 12.37 2.39
6.69 12.51 2.39
6.44 12.65 2.39
6.19 12.78 2.39
5.94 12.90 2.39
5.68 13.03 2.39
5.42 13.14 2.39
5.15 13.25 2.39
4.89 13.36 2.39
4.62 13.46 2.39
4.35 13.55 2.39
4.08 13.65 2.39
3.81 13.73 2.39
3.53 13.81 2.39
3.25 13.88 2.39
2.98 13.95 2.39
2.70 14.02 2.39
2.42 14.07 2.39
2.13 14.13 2.39
1.90 14.55 2.46
1.63 14.83 2.49
1.34 14.87 2.49
1.04 14.90 2.49
0.74 14.92 2.49
0.44 14.94 2.49
0.14 14.95 2.49
-0.16 14.96 2.49
-0.46 14.96 2.49
-0.76 14.96 2.49
-1.06 14.95 2.49
-1.36 14.93 2.49
-1.66 14.91 2.49
-1.96 14.88 2.49
-2.26 14.85 2.49
-2.56 14.81 2.49
-2.86 14.76 2.49
-3.16 14.71 2.49
-3.45 14.65 2.49
-3.75 14.59 2.49
-4.04 14.52 2.49
-4.34 14.44 2.49
-4.63 14.36 2.49
-4.92 14.27 2.49
-5.21 14.18 2.49
-5.49 14.08 2.49
-5.78 13.97 2.49
-6.06 13.86 2.49
-6.34 13.75 2.49
-6.59 13.57 2.48
-6.61 12.94 2.39
-6.78 12.63 2.36
-7.13 12.68 2.39
-7.39 12.54 2.39
-6.56 10.63 2.05
-6.55 10.15 1.98
-6.56 9.73 1.92
-6.53 9.28 1.86
-6.51 8.86 1.80
-6.53 8.53 1.76
-9.11 11.42 2.39
-9.34 11.25 2.39
-9.57 11.06 2.39
-9.80 10.87 2.39
-10.02 10.68 2.39
-10.24 10.48 2.39
-10.26 10.09 2.35
-10.25 8.93 2.21
-10.21 8.55 2.17
-10.22 8.21 2.13
-10.25 7.90 2.10
-10.24 7.57 2.07
-10.24 7.26 2.04
-10.23 6.95 2.01
-10.22 6.64 1.98
-10.21 6.35 1.95
-10.20 6.07 1.92
-10.20 5.79 1.90
-10.19 5.52 1.88
-10.18 5.25 1.85
-10.18 4.99 1.83
-10.17 4.74 1.81
-10.16 4.49 1.80
-10.16 4.25 1.78
-10.15 4.01 1.76
-10.14 3.77 1.75
-10.14 3.54 1.73
-10.13 3.31 1.72
-10.13 3.08 1.71
-10.12 2.86 1.70
-10.12 2.64 1.68
-10.11 2.42 1.67
-10.04 2.20 1.65
-10.10 2.00 1.66
-10.09 1.79 1.65
-10.09 1.58 1.64
-10.08 1.37 1.64
-10.08 1.16 1.63
-10.07 0.96 1.63
-10.07 0.76 1.62
-10.06 0.55 1.62
-10.06 0.35 1.62
-10.05 0.15 1.61
-10.05 -0.05 1.61
-10.04 -0.25 1.61
-10.03 -0.46 1.61
-10.03 -0.66 1.61
-10.02 -0.86 1.61
-10.02 -1.06 1.61
-10.01 -1.27 1.62
-10.01 -1.47 1.62
-10.00 -1.67 1.62
-9.93 -1.87 1.62
-9.99 -2.09 1.63
-9.99 -2.30 1.64
-9.98 -2.51 1.65
-9.98 -2.72 1.66
-9.97 -2.93 1.66
-9.96 -3.15 1.67
-9.96 -3.37 1.68
-9.95 -3.59 1.69
-9.95 -3.82 1.71
-9.94 -4.05 1.72
-9.94 -4.28 1.73
-9.93 -4.51 1.75
-9.92 -4.75 1.76
-9.92 -5.00 1.78
-9.91 -5.24 1.79
-9.90 -5.50 1.81
-9.88 -5.75 1.83
-9.89 -6.02 1.85
-9.88 -6.29 1.88
-9.88 -6.57 1.90
-9.87 -6.86 1.92
-9.86 -7.15 1.95
-9.85 -7.45 1.98
-9.85 -7.76 2.01
-9.84 -8.07 2.04
-6.27 -5.36 1.32
-9.82 -8.74 2.11
-9.77 -9.06 2.14
-9.74 -9.40 2.17
-9.73 -9.78 2.21
-9.86 -11.18 2.39
-9.63 -11.37 2.39
-9.40 -11.56 2.39
-9.17 -11.74 2.39
-8.10 -10.81 2.17
-7.79 -10.85 2.14
-7.68 -11.16 2.18
-8.18 -12.42 2.39
-7.93 -12.58 2.39
-7.68 -12.73 2.39
-7.42 -12.88 2.39
-7.15 -13.02 2.39
-6.89 -13.16 2.39
-6.62 -13.29 2.39
-6.35 -13.42 2.39
-6.10 -13.58 2.40
-5.88 -13.83 2.42
-5.76 -14.35 2.49
-5.47 -14.46 2.49
-5.18 -14.56 2.49
-4.88 -14.65 2.49
-4.59 -14.74 2.49
-4.29 -14.82 2.49
-3.99 -14.90 2.49
-3.69 -14.97 2.49
-3.38 -15.03 2.49
-3.08 -15.09 2.49
-2.78 -15.14 2.49
-2.47 -15.19 2.49
-2.16 -15.23 2.49
-1.86 -15.26 2.49
-1.55 -15.29 2.49
-1.24 -15.31 2.49
-0.93 -15.32 2.49
-0.63 -15.33 2.49
-0.32 -15.33 2.49
-0.01 -13.41 2.49
0.26 -13.41 2.49
0.53 -13.39 2.49
0.80 -13.37 2.49
1.06 -13.35 2.49
1.33 -13.32 2.49
1.60 -13.28 2.49
1.86 -13.24 2.49
2.12 -13.17 2.49
2.29 -12.60 2.39
2.54 -12.54 2.39
2.79 -12.48 2.39
3.04 -12.42 2.39
3.29 -12.35 2.39
3.53 -12.27 2.39
3.78 -12.19 2.39
4.02 -12.11 2.39
4.26 -12.02 2.39
4.50 -11.93 2.39
4.73 -11.83 2.39
4.97 -11.72 2.39
5.20 -11.62 2.39
5.43 -11.50 2.39
5.65 -11.39 2.39
5.88 -11.27 2.39
2.23 -4.08 0.88
5.93 -10.33 2.24
5.92 -9.85 2.17
5.91 -9.40 2.09
5.90 -8.97 2.03
5.88 -8.56 1.96
6.03 -8.42 1.96
6.50 -8.71 2.05
6.76 -8.68 2.08
6.45 -7.94 1.93
6.44 -7.61 1.89
6.35 -7.22 1.82
6.44 -7.03 1.81
6.47 -6.78 1.78
6.71 -6.75 1.80
6.43 -6.22 1.70
6.40 -5.95 1.66
6.34 -5.66 1.61
6.36 -5.45 1.59
6.35 -5.22 1.56
6.33 -5.00 1.53
6.34 -4.80 1.51
6.28 -4.56 1.48
6.33 -4.41 1.47
6.35 -4.23 1.45
6.34 -4.05 1.43
6.41 -3.91 1.43
6.61 -3.85 1.46
6.90 -3.84 1.51
6.50 -3.44 1.40
6.41 -3.23 1.37
6.34 -3.04 1.34
6.35 -2.89 1.33
6.37 -2.75 1.33
6.32 -2.58 1.30
6.38 -2.45 1.31
6.45 -2.33 1.31
6.65 -2.26 1.34
7.39 -2.34 1.48
7.33 -2.16 1.46
7.33 -2.00 1.46
7.28 -1.83 1.44
7.27 -1.67 1.43
7.29 -1.53 1.43
7.29 -1.37 1.42
7.28 -1.22 1.42
7.31 -1.07 1.42
7.37 -0.93 1.43
7.62 -0.81 1.47
10.77 -0.93 2.08
10.81 -0.71 2.08
12.43 -0.57 2.39
12.43 -0.32 2.39
12.44 -0.07 2.39
12.43 0.18 2.39
12.42 0.43 2.39
12.41 0.68 2.39
12.39 0.93 2.39
12.37 1.18 2.39
12.34 1.43 2.39
12.31 1.67 2.39
12.27 1.92 2.39
12.23 2.17 2.39
12.18 2.41 2.39
12.13 2.66 2.39
12.59 3.02 2.49
12.53 3.28 2.49
12.46 3.53 2.49
12.38 3.78 2.49
12.30 4.02 2.49
12.22 4.27 2.49
12.13 4.51 2.49
12.04 4.76 2.49
11.94 5.00 2.49
11.84 5.24 2.49
11.73 5.47 2.49
11.62 5.71 2.49
11.50 5.94 2.49
11.38 6.17 2.49
11.25 6.40 2.49
11.12 6.62 2.49
10.99 6.84 2.49
10.85 7.06 2.49
10.70 7.28 2.49
10.56 7.50 2.49
10.41 7.71 2.49
10.25 7.92 2.49
10.09 8.12 2.49
9.93 8.32 2.49
9.76 8.52 2.49
9.59 8.72 2.49
9.41 8.91 2.49
9.23 9.10 2.49
9.05 9.28 2.49
8.86 9.46 2.49
8.67 9.64 2.49
8.48 9.82 2.49
8.28 9.99 2.49
8.08 10.15 2.49
7.88 10.32 2.49
7.67 10.47 2.49
7.46 10.63 2.49
7.24 10.78 2.49
6.97 10.84 2.47
6.69 10.87 2.45
6.41 10.91 2.43
6.16 10.97 2.41
5.92 11.06 2.41
5.68 11.15 2.40
5.44 11.24 2.39
5.21 11.34 2.39
4.99 11.44 2.39
4.76 11.55 2.39
4.53 11.64 2.39
4.30 11.76 2.40
4.09 11.90 2.41
3.87 12.06 2.42
3.65 12.23 2.44
3.44 12.40 2.46
3.21 12.57 2.48
2.98 12.72 2.49
2.73 12.78 2.49
2.47 12.84 2.49
2.21 12.89 2.49
1.95 12.94 2.49
1.69 12.98 2.49
1.43 13.02 2.49
1.17 13.05 2.49
0.91 13.08 2.49
0.65 13.10 2.49
0.38 13.11 2.49
0.12 13.13 2.49
-0.14 13.13 2.49
-0.41 13.13 2.49
-0.67 13.13 2.49
-0.93 13.12 2.49
-1.20 13.10 2.49
-1.46 13.08 2.49
-1.72 13.06 2.49
-1.99 13.02 2.49
-2.25 12.99 2.49
-2.51 12.95 2.49
-2.77 12.90 2.49
-3.03 12.85 2.49
-3.29 12.79 2.49
-3.55 12.73 2.49
-3.81 12.66 2.49
-4.06 12.59 2.49
-4.31 12.51 2.49
-4.57 12.43 2.49
-4.82 12.34 2.49
-5.07 12.25 2.49
-5.31 12.15 2.49
-5.56 12.05 2.49
-5.80 11.94 2.49
-6.05 11.83 2.49
-6.29 11.71 2.49
-6.52 11.59 2.49
-6.53 11.07 2.41
-6.70 10.86 2.39
-6.92 10.73 2.39
-7.14 10.59 2.39
-7.35 10.45 2.39
-6.52 8.89 2.06
-6.50 8.49 2.00
-6.51 8.16 1.95
-6.51 7.83 1.90
-6.47 7.48 1.85
-6.46 7.17 1.80
-6.48 6.90 1.77
-6.62 6.77 1.77
-9.15 9.00 2.39
-9.33 8.82 2.39
-9.51 8.63 2.39
-9.69 8.44 2.39
-9.86 8.25 2.39
-10.03 8.06 2.39
-10.19 7.86 2.39
-10.35 7.65 2.39
-10.20 6.34 2.23
-10.15 6.03 2.19
-10.14 5.75 2.16
-10.15 5.49 2.14
-10.17 5.25 2.12
-10.18 4.99 2.10
-10.17 4.74 2.07
-10.16 4.49 2.05
-10.16 4.24 2.03
-10.15 4.00 2.02
-10.14 3.77 2.00
-10.14 3.54 1.98
-10.13 3.31 1.97
-10.13 3.08 1.95
-10.12 2.86 1.94
-10.12 2.64 1.93
-10.11 2.42 1.92
-10.04 2.19 1.89
-10.10 2.00 1.90
-10.09 1.79 1.89
-10.09 1.58 1.88
-10.08 1.37 1.87
-10.08 1.16 1.87
-10.07 0.96 1.86
-10.07 0.76 1.86
-10.06 0.55 1.85
-10.06 0.35 1.85
-10.05 0.15 1.85
-10.05 -0.05 1.84
-10.04 -0.26 1.84
-10.03 -0.46 1.84
-10.03 -0.66 1.84
-10.02 -0.86 1.85
-10.02 -1.06 1.85
-10.01 -1.27 1.85
-10.01 -1.47 1.86
-10.00 -1.67 1.86
-9.93 -1.87 1.85
-9.99 -2.09 1.87
-9.99 -2.30 1.88
-9.98 -2.51 1.89
-9.98 -2.72 1.90
-9.97 -2.93 1.90
-9.96 -3.15 1.92
-9.96 -3.37 1.93
-9.95 -3.59 1.94
-9.95 -3.82 1.95
-9.94 -4.05 1.97
-9.94 -4.28 1.98
-9.93 -4.51 2.00
-9.92 -4.75 2.02
-9.92 -5.00 2.03
-9.91 -5.24 2.05
-9.90 -5.50 2.08
-9.88 -5.75 2.09
-9.88 -6.01 2.12
-9.84 -6.27 2.14
-9.82 -6.53 2.16
-9.81 -6.82 2.19
-6.27 -5.36 1.51
-9.74 -8.67 2.39
-9.56 -8.86 2.39
-9.38 -9.05 2.39
-9.19 -9.23 2.39
-9.01 -9.42 2.39
-8.81 -9.59 2.39
-8.62 -9.77 2.39
-8.42 -9.93 2.39
-8.21 -10.10 2.39
-8.01 -10.26 2.39
-7.80 -10.42 2.39
-7.59 -10.57 2.39
-7.37 -10.71 2.39
-7.15 -10.86 2.39
-6.93 -11.00 2.39
-6.71 -11.13 2.39
-6.48 -11.26 2.39
-6.25 -11.38 2.39
-6.02 -11.50 2.39
-5.93 -11.89 2.45
-5.79 -12.23 2.49
-5.54 -12.34 2.49
-5.29 -12.45 2.49
-5.04 -12.55 2.49
-4.79 -12.64 2.49
-4.53 -12.73 2.49
-4.27 -12.81 2.49
-4.01 -12.89 2.49
-3.75 -12.96 2.49
-3.49 -13.03 2.49
-3.23 -13.09 2.49
-2.96 -13.15 2.49
-2.70 -13.20 2.49
-2.43 -13.25 2.49
-2.16 -13.29 2.49
-1.89 -13.32 2.49
-1.63 -13.35 2.49
-1.36 -13.38 2.49
-1.09 -13.39 2.49
-0.82 -13.41 2.49
-0.55 -13.42 2.49
-0.28 -13.42 2.49
-0.01 -11.91 2.49
0.23 -11.91 2.49
0.47 -11.90 2.49
0.71 -11.88 2.49
0.94 -11.86 2.49
1.18 -11.83 2.49
1.42 -11.80 2.49
1.65 -11.76 2.49
1.89 -11.72 2.49
2.08 -11.44 2.44
2.26 -11.15 2.39
2.48 -11.09 2.39
2.70 -11.04 2.39
2.92 -10.98 2.39
3.14 -10.91 2.39
3.35 -10.84 2.39
3.57 -10.76 2.39
3.78 -10.69 2.39
4.00 -10.60 2.39
4.21 -10.52 2.39
4.41 -10.42 2.39
4.62 -10.33 2.39
4.82 -10.23 2.39
5.03 -10.13 2.39
5.23 -10.02 2.39
2.23 -4.08 0.98
5.62 -9.79 2.39
5.81 -9.67 2.39
5.91 -9.40 2.35
5.90 -8.98 2.28
5.89 -8.58 2.21
5.88 -8.21 2.14
5.87 -7.86 2.08
5.86 -7.53 2.03
5.84 -7.20 1.97
5.94 -7.03 1.96
6.08 -6.90 1.96
6.45 -7.04 2.03
6.47 -6.78 2.00
6.68 -6.73 2.02
6.94 -6.71 2.06
6.41 -5.95 1.86
6.33 -5.65 1.81
6.33 -5.42 1.78
6.35 -5.22 1.75
6.36 -5.02 1.73
6.35 -4.81 1.70
6.27 -4.56 1.66
6.34 -4.42 1.65
6.33 -4.22 1.63
6.35 -4.05 1.61
6.47 -3.95 1.62
6.61 -3.85 1.64
9.82 -5.46 2.41
6.44 -3.41 1.56
6.44 -3.25 1.55
6.36 -3.05 1.51
6.36 -2.90 1.50
6.37 -2.75 1.49
6.32 -2.58 1.46
6.39 -2.45 1.47
6.33 -2.29 1.44
6.65 -2.26 1.51
7.39 -2.34 1.67
7.35 -2.17 1.65
7.32 -2.00 1.63
7.24 -1.82 1.61
7.31 -1.68 1.61
7.29 -1.53 1.60
7.29 -1.37 1.60
7.29 -1.22 1.59
7.31 -1.08 1.59
7.37 -0.93 1.60
7.62 -0.81 1.65
10.76 -0.93 2.33
10.75 -0.71 2.32
11.08 -0.51 2.39
11.08 -0.28 2.39
11.08 -0.06 2.39
11.08 0.16 2.39
11.07 0.38 2.39
11.06 0.61 2.39
11.04 0.83 2.39
11.02 1.05 2.39
11.00 1.27 2.39
10.97 1.49 2.39
10.94 1.71 2.39
10.90 1.93 2.39
10.86 2.15 2.39
10.81 2.37 2.39
10.76 2.58 2.39
11.17 2.92 2.49
11.10 3.14 2.49
11.04 3.37 2.49
10.97 3.59 2.49
10.89 3.81 2.49
10.81 4.02 2.49
10.73 4.24 2.49
10.64 4.45 2.49
10.55 4.67 2.49
10.46 4.88 2.49
10.36 5.09 2.49
10.25 5.30 2.49
10.14 5.50 2.49
10.03 5.70 2.49
9.91 5.90 2.49
9.79 6.10 2.49
9.67 6.30 2.49
9.54 6.49 2.49
9.41 6.68 2.49
9.28 6.87 2.49
9.14 7.06 2.49
8.99 7.24 2.49
8.85 7.42 2.49
8.70 7.60 2.49
8.54 7.77 2.49
8.39 7.94 2.49
8.23 8.11 2.49
8.06 8.27 2.49
7.90 8.44 2.49
7.73 8.59 2.49
7.55 8.75 2.49
7.38 8.90 2.49
7.20 9.05 2.49
7.02 9.19 2.49
6.83 9.34 2.49
6.65 9.47 2.49
6.46 9.61 2.49
6.26 9.74 2.49
6.07 9.86 2.49
5.87 9.99 2.49
5.67 10.10 2.49
5.47 10.22 2.49
5.26 10.33 2.49
5.05 10.44 2.49
4.85 10.54 2.49
4.63 10.64 2.49
4.42 10.73 2.49
4.21 10.82 2.49
3.99 10.91 2.49
3.77 10.99 2.49
3.55 11.06 2.49
3.33 11.14 2.49
3.10 11.21 2.49
2.88 11.27 2.49
2.65 11.33 2.49
2.43 11.38 2.49
2.20 11.43 2.49
1.97 11.48 2.49
1.74 11.52 2.49
1.51 11.56 2.49
1.28 11.59 2.49
1.04 11.62 2.49
0.81 11.64 2.49
0.58 11.66 2.49
0.34 11.68 2.49
0.11 11.68 2.49
-0.13 11.69 2.49
-0.36 11.69 2.49
-0.60 11.68 2.49
-0.83 11.67 2.49
-1.07 11.66 2.49
-1.30 11.64 2.49
-1.54 11.62 2.49
-1.77 11.59 2.49
-2.00 11.56 2.49
-2.24 11.52 2.49
-2.47 11.48 2.49
-2.70 11.43 2.49
-2.93 11.38 2.49
-3.16 11.32 2.49
-3.39 11.26 2.49
-3.61 11.20 2.49
-3.84 11.13 2.49
-4.06 11.05 2.49
-4.29 10.97 2.49
-4.51 10.89 2.49
-4.73 10.80 2.49
-4.95 10.71 2.49
-5.16 10.62 2.49
-5.38 10.51 2.49
-5.59 10.41 2.49
-5.80 10.30 2.49
-6.01 10.19 2.49
-6.21 10.07 2.49
-6.42 9.95 2.49
-6.49 9.63 2.45
-6.54 9.29 2.39
-6.69 9.11 2.38
-6.91 9.03 2.39
-7.09 8.89 2.39
-6.66 8.01 2.19
-7.45 8.61 2.39
-6.46 7.17 2.03
-6.46 6.88 1.98
-6.47 6.63 1.94
-6.47 6.36 1.90
-6.44 6.09 1.86
-6.43 5.83 1.82
-6.42 5.60 1.78
-6.44 5.39 1.76
-8.91 7.15 2.39
-9.05 6.98 2.39
-9.20 6.80 2.39
-9.33 6.61 2.39
-9.47 6.43 2.39
-9.60 6.24 2.39
-9.73 6.05 2.39
-9.85 5.85 2.39
-9.97 5.66 2.39
-10.08 5.46 2.39
-10.20 5.26 2.39
-10.30 5.05 2.39
-10.09 3.29 2.21
-10.07 3.06 2.19
-10.06 2.84 2.17
-10.06 2.63 2.16
-10.05 2.41 2.15
-10.04 2.19 2.13
-10.07 1.99 2.13
-10.07 1.78 2.12
-10.09 1.58 2.12
-10.08 1.37 2.11
-10.08 1.16 2.10
-10.07 0.96 2.10
-10.07 0.75 2.09
-10.06 0.55 2.09
-10.06 0.35 2.08
-10.05 0.15 2.08
-10.05 -0.05 2.08
-10.04 -0.26 2.08
-10.03 -0.46 2.08
-10.03 -0.66 2.08
-10.02 -0.86 2.08
-10.02 -1.06 2.08
-10.01 -1.27 2.09
-10.01 -1.47 2.09
-10.00 -1.67 2.10
-9.93 -1.87 2.09
-9.99 -2.09 2.11
-9.99 -2.30 2.12
-9.96 -2.50 2.12
-9.95 -2.71 2.13
-9.93 -2.92 2.14
-9.91 -3.13 2.15
-9.90 -3.35 2.16
-9.90 -3.57 2.17
-9.89 -3.80 2.19
-9.90 -4.03 2.21
-10.12 -5.62 2.39
-9.88 -5.75 2.36
-9.88 -6.02 2.39
-9.76 -6.22 2.39
-9.63 -6.41 2.39
-9.50 -6.60 2.39
-9.37 -6.79 2.39
-9.23 -6.98 2.39
-9.09 -7.16 2.39
-8.94 -7.34 2.39
-6.27 -5.36 1.70
-8.64 -7.69 2.39
-8.48 -7.86 2.39
-8.32 -8.03 2.39
-8.16 -8.19 2.39
-7.99 -8.35 2.39
-7.82 -8.51 2.39
-7.64 -8.66 2.39
-7.47 -8.81 2.39
-7.29 -8.96 2.39
-7.11 -9.10 2.39
-6.92 -9.24 2.39
-6.73 -9.37 2.39
-6.54 -9.50 2.39
-6.35 -9.63 2.39
-6.15 -9.75 2.39
-5.98 -9.92 2.40
-5.97 -10.36 2.48
-5.79 -10.53 2.49
-5.57 -10.65 2.49
-5.36 -10.75 2.49
-5.14 -10.85 2.49
-4.92 -10.95 2.49
-4.70 -11.05 2.49
-4.47 -11.13 2.49
-4.25 -11.22 2.49
-4.02 -11.30 2.49
-3.79 -11.37 2.49
-3.56 -11.44 2.49
-3.33 -11.51 2.49
-3.10 -11.57 2.49
-2.86 -11.62 2.49
-2.63 -11.67 2.49
-2.39 -11.72 2.49
-2.16 -11.76 2.49
-1.92 -11.80 2.49
-1.68 -11.83 2.49
-1.44 -11.86 2.49
-1.21 -11.88 2.49
-0.97 -11.89 2.49
-0.73 -11.91 2.49
-0.49 -11.91 2.49
-0.25 -11.92 2.49
-0.01 -10.71 2.49
0.20 -10.70 2.49
0.42 -10.69 2.49
0.63 -10.68 2.49
0.85 -10.66 2.49
1.06 -10.63 2.49
1.27 -10.61 2.49
1.48 -10.57 2.49
1.70 -10.54 2.49
1.91 -10.50 2.49
2.04 -10.10 2.41
2.24 -10.04 2.41
2.43 -9.92 2.39
2.62 -9.87 2.39
2.82 -9.81 2.39
3.02 -9.75 2.39
3.21 -9.68 2.39
3.40 -9.61 2.39
3.59 -9.54 2.39
3.78 -9.46 2.39
3.97 -9.38 2.39
4.15 -9.29 2.39
4.34 -9.20 2.39
4.52 -9.11 2.39
4.70 -9.01 2.39
2.23 -4.08 1.09
5.05 -8.81 2.39
5.23 -8.70 2.39
5.40 -8.59 2.39
5.57 -8.48 2.39
5.73 -8.36 2.39
5.88 -8.21 2.38
5.87 -7.86 2.31
5.86 -7.53 2.25
5.85 -7.21 2.19
5.84 -6.92 2.14
5.83 -6.63 2.09
5.83 -6.36 2.04
5.82 -6.10 1.99
5.82 -5.87 1.96
5.94 -5.75 1.96
6.05 -5.62 1.96
6.34 -5.66 2.01
6.33 -5.43 1.98
6.34 -5.22 1.95
6.33 -5.00 1.91
6.32 -4.79 1.88
6.27 -4.56 1.84
6.36 -4.43 1.84
6.37 -4.24 1.82
6.36 -4.06 1.79
6.40 -3.91 1.78
6.68 -3.90 1.84
8.84 -4.92 2.41
6.47 -3.43 1.74
6.43 -3.25 1.71
6.35 -3.05 1.68
6.38 -2.91 1.67
6.39 -2.76 1.66
6.32 -2.58 1.63
6.40 -2.46 1.63
6.37 -2.30 1.62
6.65 -2.26 1.68
9.62 -3.05 2.41
7.36 -2.17 1.83
7.31 -2.00 1.81
7.24 -1.82 1.78
7.26 -1.67 1.78
7.31 -1.53 1.78
7.22 -1.36 1.76
7.28 -1.22 1.76
7.32 -1.08 1.77
7.36 -0.93 1.77
9.20 -0.98 2.21
9.96 -0.86 2.39
9.97 -0.66 2.39
9.98 -0.46 2.39
9.99 -0.26 2.39
9.99 -0.05 2.39
9.98 0.15 2.39
9.98 0.35 2.39
9.97 0.55 2.39
9.95 0.75 2.39
9.93 0.95 2.39
9.91 1.15 2.39
9.89 1.34 2.39
9.86 1.54 2.39
9.82 1.74 2.39
9.78 1.94 2.39
9.74 2.13 2.39
9.70 2.33 2.39
9.65 2.52 2.39
9.59 2.72 2.39
9.95 3.03 2.49
9.88 3.23 2.49
9.82 3.43 2.49
9.75 3.63 2.49
9.67 3.82 2.49
9.59 4.01 2.49
9.51 4.21 2.49
9.42 4.40 2.49
9.33 4.59 2.49
9.24 4.77 2.49
9.14 4.96 2.49
9.04 5.14 2.49
8.93 5.32 2.49
8.83 5.50 2.49
8.71 5.68 2.49
8.60 5.85 2.49
8.48 6.02 2.49
8.36 6.19 2.49
8.23 6.36 2.49
8.10 6.52 2.49
7.97 6.69 2.49
7.84 6.85 2.49
7.70 7.00 2.49
7.56 7.16 2.49
7.41 7.31 2.49
7.27 7.46 2.49
7.12 7.60 2.49
6.96 7.74 2.49
6.81 7.88 2.49
6.65 8.02 2.49
6.49 8.15 2.49
6.32 8.28 2.49
6.16 8.41 2.49
5.99 8.54 2.49
5.82 8.66 2.49
5.64 8.77 2.49
5.47 8.89 2.49
5.29 9.00 2.49
5.11 9.10 2.49
4.92 9.21 2.49
4.74 9.31 2.49
4.55 9.40 2.49
4.36 9.49 2.49
4.17 9.58 2.49
3.98 9.67 2.49
3.79 9.75 2.49
3.59 9.82 2.49
3.39 9.90 2.49
3.20 9.97 2.49
3.00 10.03 2.49
2.80 10.09 2.49
2.59 10.15 2.49
2.39 10.20 2.49
2.18 10.25 2.49
1.98 10.30 2.49
1.77 10.34 2.49
1.56 10.38 2.49
1.36 10.41 2.49
1.15 10.44 2.49
0.94 10.46 2.49
0.73 10.48 2.49
0.52 10.50 2.49
0.31 10.51 2.49
0.10 10.52 2.49
-0.12 10.52 2.49
-0.33 10.52 2.49
-0.54 10.52 2.49
-0.75 10.51 2.49
-0.96 10.49 2.49
-1.17 10.48 2.49
-1.38 10.46 2.49
-1.59 10.43 2.49
-1.80 10.40 2.49
-2.01 10.37 2.49
-2.22 10.33 2.49
-2.43 10.29 2.49
-2.64 10.24 2.49
-2.84 10.19 2.49
-3.05 10.13 2.49
-3.25 10.07 2.49
-3.45 10.01 2.49
-3.66 9.94 2.49
-3.86 9.87 2.49
-4.06 9.80 2.49
-4.25 9.72 2.49
-4.45 9.63 2.49
-4.64 9.55 2.49
-4.84 9.46 2.49
-5.03 9.36 2.49
-5.22 9.26 2.49
-5.40 9.16 2.49
-5.59 9.05 2.49
-5.77 8.94 2.49
-5.95 8.83 2.49
-6.13 8.71 2.49
-6.31 8.59 2.49
-6.46 8.43 2.49
-6.45 8.08 2.42
-6.54 7.86 2.39
-6.70 7.73 2.39
-6.85 7.60 2.39
-7.01 7.47 2.39
-6.63 6.78 2.21
-7.31 7.18 2.39
-6.46 6.10 2.07
-6.43 5.83 2.02
-6.42 5.60 1.99
-6.43 5.38 1.95
-6.44 5.17 1.92
-6.43 4.95 1.89
-6.41 4.73 1.85
-6.39 4.53 1.82
-6.39 4.34 1.80
-6.40 4.16 1.77
-8.74 5.43 2.39
-6.47 3.85 1.75
-8.96 5.08 2.39
-9.06 4.90 2.39
-9.16 4.72 2.39
-9.25 4.54 2.39
-9.35 4.35 2.39
-9.44 4.17 2.39
-9.52 3.98 2.39
-9.60 3.79 2.39
-9.68 3.59 2.39
-9.75 3.40 2.39
-9.82 3.20 2.39
-9.88 3.01 2.39
-9.95 2.81 2.39
-10.00 2.61 2.39
-10.06 2.41 2.39
-10.05 2.20 2.38
-10.15 2.01 2.39
-10.19 1.80 2.39
-10.23 1.60 2.39
-10.26 1.39 2.39
-10.29 1.19 2.39
-9.93 -1.87 2.33
-10.16 -2.12 2.39
-10.12 -2.33 2.39
-10.07 -2.53 2.39
-10.02 -2.73 2.39
-9.96 -2.93 2.39
-9.90 -3.13 2.39
-9.84 -3.33 2.39
-9.77 -3.53 2.39
-9.70 -3.72 2.39
-9.62 -3.92 2.39
-9.54 -4.11 2.39
-9.46 -4.30 2.39
-9.37 -4.49 2.39
-9.28 -4.67 2.39
-9.18 -4.86 2.39
-9.08 -5.04 2.39
-8.98 -5.22 2.39
-8.87 -5.40 2.39
-6.46 -4.11 1.76
-8.65 -5.75 2.39
-8.53 -5.92 2.39
-6.19 -4.48 1.76
-6.16 -4.66 1.78
-8.16 -6.42 2.39
-8.02 -6.59 2.39
-6.27 -5.36 1.90
-7.75 -6.90 2.39
-7.61 -7.05 2.39
-7.47 -7.20 2.39
-7.32 -7.35 2.39
-7.17 -7.50 2.39
-7.02 -7.64 2.39
-6.86 -7.78 2.39
-6.70 -7.91 2.39
-6.54 -8.04 2.39
-6.38 -8.17 2.39
-6.23 -8.32 2.40
-6.04 -8.42 2.39
-6.01 -8.73 2.45
-5.94 -9.02 2.49
-5.76 -9.14 2.49
-5.58 -9.25 2.49
-5.39 -9.35 2.49
-5.20 -9.46 2.49
-5.01 -9.56 2.49
-4.81 -9.65 2.49
-4.62 -9.75 2.49
-4.42 -9.83 2.49
-4.22 -9.92 2.49
-4.02 -10.00 2.49
-3.82 -10.07 2.49
-3.61 -10.14 2.49
-3.41 -10.21 2.49
-3.20 -10.28 2.49
-2.99 -10.33 2.49
-2.78 -10.39 2.49
-2.57 -10.44 2.49
-2.36 -10.49 2.49
-2.15 -10.53 2.49
-1.94 -10.56 2.49
-1.73 -10.60 2.49
-1.51 -10.63 2.49
-1.30 -10.65 2.49
-1.08 -10.67 2.49
-0.87 -10.69 2.49
-0.66 -10.70 2.49
-0.44 -10.71 2.49
-0.23 -10.71 2.49
-0.01 -9.71 2.49
0.18 -9.71 2.49
0.38 -9.70 2.49
0.57 -9.68 2.49
0.77 -9.67 2.49
0.96 -9.65 2.49
1.15 -9.62 2.49
1.35 -9.59 2.49
1.54 -9.56 2.49
1.73 -9.52 2.49
1.92 -9.48 2.49
2.03 -9.07 2.40
2.20 -9.00 2.39
2.38 -8.95 2.39
2.56 -8.90 2.39
2.74 -8.85 2.39
2.91 -8.79 2.39
3.09 -8.72 2.39
3.26 -8.65 2.39
3.43 -8.58 2.39
3.60 -8.51 2.39
3.77 -8.43 2.39
3.94 -8.35 2.39
4.10 -8.27 2.39
4.27 -8.18 2.39
2.23 -4.08 1.21
4.59 -8.00 2.39
4.74 -7.90 2.39
4.90 -7.80 2.39
5.05 -7.70 2.39
5.21 -7.59 2.39
5.36 -7.48 2.39
5.50 -7.37 2.39
5.65 -7.26 2.39
5.79 -7.14 2.39
5.84 -6.92 2.36
5.84 -6.63 2.30
5.83 -6.36 2.25
5.82 -6.10 2.20
5.81 -5.85 2.15
5.80 -5.62 2.11
5.80 -5.39 2.06
5.79 -5.17 2.03
5.78 -4.96 1.99
5.79 -4.76 1.96
5.88 -4.64 1.96
5.97 -4.52 1.96
6.27 -4.56 2.03
6.36 -4.43 2.02
6.41 -4.27 2.01
6.38 -4.07 1.98
6.40 -3.91 1.96
6.61 -3.86 2.00
8.03 -4.47 2.41
8.12 -4.31 2.41
6.43 -3.25 1.89
6.37 -3.06 1.85
6.35 -2.89 1.83
6.35 -2.74 1.81
6.32 -2.58 1.79
6.40 -2.46 1.80
6.45 -2.33 1.80
6.72 -2.28 1.86
8.79 -2.79 2.42
7.36 -2.17 2.01
7.33 -2.00 2.00
7.30 -1.84 1.98
7.27 -1.68 1.96
7.29 -1.53 1.96
7.28 -1.37 1.95
7.28 -1.22 1.94
7.25 -1.07 1.93
7.36 -0.93 1.95
9.04 -0.96 2.39
9.05 -0.78 2.39
9.06 -0.60 2.39
9.07 -0.42 2.39
9.08 -0.23 2.39
9.08 -0.05 2.39
9.08 0.13 2.39
9.07 0.31 2.39
9.06 0.50 2.39
9.05 0.68 2.39
9.03 0.86 2.39
9.01 1.04 2.39
8.99 1.22 2.39
8.96 1.40 2.39
8.93 1.58 2.39
8.90 1.76 2.39
8.86 1.94 2.39
8.82 2.12 2.39
8.77 2.29 2.39
8.72 2.47 2.39
8.67 2.64 2.39
8.99 2.94 2.49
8.93 3.12 2.49
8.86 3.30 2.49
8.79 3.47 2.49
8.72 3.65 2.49
8.65 3.82 2.49
8.57 4.00 2.49
8.49 4.17 2.49
8.40 4.34 2.49
8.31 4.51 2.49
8.22 4.67 2.49
8.12 4.84 2.49
8.03 5.00 2.49
7.92 5.16 2.49
7.82 5.32 2.49
7.71 5.48 2.49
7.60 5.63 2.49
7.49 5.78 2.49
7.37 5.93 2.49
7.25 6.08 2.49
7.13 6.22 2.49
7.00 6.37 2.49
6.87 6.51 2.49
6.74 6.64 2.49
6.61 6.78 2.49
6.47 6.91 2.49
6.33 7.04 2.49
6.19 7.17 2.49
6.04 7.29 2.49
5.90 7.41 2.49
5.75 7.53 2.49
5.60 7.65 2.49
5.44 7.76 2.49
5.29 7.87 2.49
5.13 7.97 2.49
4.97 8.08 2.49
4.81 8.18 2.49
4.64 8.27 2.49
4.48 8.37 2.49
4.31 8.46 2.49
4.14 8.54 2.49
3.97 8.63 2.49
3.79 8.71 2.49
3.62 8.78 2.49
3.44 8.86 2.49
3.26 8.93 2.49
3.08 8.99 2.49
2.90 9.06 2.49
2.72 9.12 2.49
2.54 9.17 2.49
2.36 9.22 2.49
2.17 9.27 2.49
1.98 9.32 2.49
1.80 9.36 2.49
1.61 9.39 2.49
1.42 9.43 2.49
1.23 9.46 2.49
1.04 9.48 2.49
0.85 9.50 2.49
0.66 9.52 2.49
0.47 9.54 2.49
0.28 9.55 2.49
0.09 9.55 2.49
-0.11 9.56 2.49
-0.30 9.56 2.49
-0.49 9.55 2.49
-0.68 9.54 2.49
-0.87 9.53 2.49
-1.07 9.52 2.49
-1.26 9.50 2.49
-1.45 9.47 2.49
-1.64 9.44 2.49
-1.83 9.41 2.49
-2.02 9.38 2.49
-2.21 9.34 2.49
-2.39 9.30 2.49
-2.58 9.25 2.49
-2.77 9.20 2.49
-2.95 9.15 2.49
-3.14 9.09 2.49
-3.32 9.03 2.49
-3.50 8.96 2.49
-3.68 8.89 2.49
-3.86 8.82 2.49
-4.04 8.74 2.49
-4.22 8.66 2.49
-4.39 8.58 2.49
-4.56 8.49 2.49
-4.74 8.40 2.49
-4.90 8.31 2.49
-5.07 8.21 2.49
-5.24 8.11 2.49
-5.40 8.01 2.49
-5.56 7.90 2.49
-5.72 7.79 2.49
-5.88 7.68 2.49
-6.04 7.56 2.49
-6.19 7.44 2.49
-6.34 7.32 2.49
-6.42 7.12 2.47
-6.41 6.83 2.41
-6.50 6.65 2.39
-6.63 6.52 2.39
-6.76 6.38 2.39
-6.89 6.25 2.39
-7.02 6.11 2.39
-7.14 5.97 2.39
-7.26 5.83 2.39
-7.38 5.69 2.39
-6.40 4.73 2.04
-6.39 4.53 2.01
-6.39 4.34 1.98
-6.40 4.16 1.96
-6.41 3.98 1.93
-6.40 3.80 1.91
-6.39 3.62 1.88
-6.37 3.45 1.85
-6.36 3.28 1.83
-6.36 3.12 1.81
-6.35 2.96 1.79
-6.36 2.81 1.78
-6.37 2.66 1.76
-8.70 3.43 2.39
-8.77 3.26 2.39
-8.84 3.08 2.39
-8.90 2.90 2.39
-8.96 2.73 2.39
-6.61 1.87 1.75
-9.07 2.37 2.39
-9.12 2.18 2.39
-9.16 2.00 2.39
-9.20 1.82 2.39
-9.24 1.63 2.39
-9.27 1.45 2.39
-9.30 1.26 2.39
-9.32 1.08 2.39
-9.35 0.89 2.39
-9.36 0.70 2.39
-9.38 0.51 2.39
-9.39 0.32 2.39
-9.39 0.14 2.39
-9.40 -0.05 2.39
-9.39 -0.24 2.39
-9.39 -0.43 2.39
-9.38 -0.62 2.39
-9.37 -0.80 2.39
-9.35 -0.99 2.39
-9.33 -1.18 2.39
-9.31 -1.37 2.39
-9.28 -1.55 2.39
-9.25 -1.74 2.39
-9.21 -1.92 2.39
-9.17 -2.11 2.39
-9.13 -2.29 2.39
-9.08 -2.48 2.39
-9.03 -2.66 2.39
-6.51 -2.06 1.74
-8.92 -3.02 2.39
-8.85 -3.20 2.39
-8.79 -3.37 2.39
-8.72 -3.55 2.39
-8.65 -3.72 2.39
-8.57 -3.89 2.39
-8.49 -4.07 2.39
-6.21 -3.13 1.77
-6.20 -3.28 1.78
-6.19 -3.43 1.80
-6.18 -3.60 1.82
-6.18 -3.76 1.84
-6.18 -3.94 1.86
-6.19 -4.12 1.89
-6.19 -4.30 1.92
-6.19 -4.48 1.94
-6.17 -4.66 1.96
-7.39 -5.82 2.39
-7.27 -5.97 2.39
-6.27 -5.36 2.10
-7.03 -6.25 2.39
-6.90 -6.39 2.39
-6.77 -6.53 2.39
-6.63 -6.66 2.39
-6.50 -6.79 2.39
-6.36 -6.92 2.39
-6.22 -7.05 2.39
-6.08 -7.17 2.39
-6.05 -7.43 2.44
-6.03 -7.72 2.49
-5.87 -7.84 2.49
-5.71 -7.96 2.49
-5.55 -8.07 2.49
-5.39 -8.18 2.49
-5.22 -8.28 2.49
-5.05 -8.38 2.49
-4.88 -8.48 2.49
-4.71 -8.57 2.49
-4.54 -8.66 2.49
-4.36 -8.75 2.49
-4.18 -8.83 2.49
-4.01 -8.91 2.49
-3.83 -8.99 2.49
-3.64 -9.06 2.49
-3.46 -9.13 2.49
-3.28 -9.20 2.49
-3.09 -9.26 2.49
-2.90 -9.32 2.49
-2.71 -9.37 2.49
-2.52 -9.42 2.49
-2.33 -9.47 2.49
-2.14 -9.51 2.49
-1.95 -9.55 2.49
-1.76 -9.58 2.49
-1.57 -9.61 2.49
-1.37 -9.64 2.49
-1.18 -9.66 2.49
-0.98 -9.68 2.49
-0.79 -9.69 2.49
-0.60 -9.70 2.49
-0.40 -9.71 2.49
-0.21 -9.71 2.49
-0.01 -8.88 2.49
0.17 -8.87 2.49
0.35 -8.86 2.49
0.52 -8.85 2.49
0.70 -8.84 2.49
0.88 -8.82 2.49
1.05 -8.80 2.49
1.23 -8.77 2.49
1.40 -8.74 2.49
1.58 -8.71 2.49
1.75 -8.67 2.49
1.93 -8.63 2.49
2.01 -8.23 2.39
2.18 -8.19 2.39
2.34 -8.14 2.39
2.50 -8.09 2.39
2.66 -8.03 2.39
2.82 -7.98 2.39
2.98 -7.92 2.39
3.14 -7.85 2.39
3.29 -7.78 2.39
3.45 -7.71 2.39
3.60 -7.64 2.39
3.75 -7.56 2.39
2.18 -4.18 1.34
2.23 -4.08 1.32
4.20 -7.32 2.39
4.34 -7.23 2.39
4.48 -7.14 2.39
4.62 -7.04 2.39
4.76 -6.95 2.39
4.90 -6.85 2.39
5.03 -6.74 2.39
5.17 -6.64 2.39
5.30 -6.53 2.39
5.42 -6.42 2.39
5.55 -6.31 2.39
5.67 -6.20 2.39
5.80 -6.08 2.39
5.81 -5.85 2.35
5.80 -5.62 2.30
5.80 -5.39 2.26
5.79 -5.17 2.21
5.79 -4.97 2.18
5.79 -4.77 2.14
5.79 -4.57 2.10
5.78 -4.38 2.07
5.78 -4.20 2.04
5.78 -4.02 2.01
5.76 -3.84 1.98
5.77 -3.68 1.96
5.84 -3.57 1.96
5.91 -3.45 1.96
5.98 -3.33 1.96
6.04 -3.21 1.96
6.44 -3.25 2.06
6.37 -3.06 2.02
6.36 -2.90 2.00
6.37 -2.75 1.99
6.32 -2.58 1.95
6.43 -2.48 1.98
6.45 -2.33 1.97
6.46 -2.19 1.96
6.50 -2.06 1.96
6.54 -1.93 1.96
6.58 -1.80 1.96
6.63 -1.67 1.96
6.80 -1.57 2.00
6.99 -1.47 2.05
7.22 -1.36 2.11
7.28 -1.22 2.12
7.31 -1.08 2.12
7.37 -0.93 2.13
7.62 -0.81 2.20
8.29 -0.71 2.39
8.30 -0.55 2.39
8.31 -0.38 2.39
8.31 -0.21 2.39
8.31 -0.05 2.39
8.31 0.12 2.39
8.31 0.29 2.39
8.30 0.45 2.39
8.29 0.62 2.39
8.27 0.79 2.39
8.25 0.95 2.39
8.23 1.12 2.39
8.21 1.28 2.39
8.18 1.45 2.39
8.15 1.61 2.39
8.11 1.78 2.39
8.07 1.94 2.39
8.03 2.10 2.39
7.99 2.26 2.39
7.94 2.42 2.39
7.89 2.58 2.39
8.17 2.86 2.49
8.12 3.02 2.49
8.05 3.18 2.49
7.99 3.34 2.49
7.92 3.50 2.49
7.85 3.66 2.49
7.77 3.82 2.49
7.69 3.97 2.49
7.61 4.13 2.49
7.53 4.28 2.49
7.44 4.43 2.49
7.35 4.58 2.49
7.26 4.73 2.49
7.16 4.87 2.49
7.06 5.01 2.49
6.96 5.16 2.49
6.86 5.30 2.49
6.75 5.43 2.49
6.64 5.57 2.49
6.53 5.70 2.49
6.41 5.83 2.49
6.29 5.96 2.49
6.17 6.09 2.49
6.05 6.21 2.49
5.92 6.33 2.49
5.80 6.45 2.49
5.67 6.56 2.49
5.53 6.68 2.49
5.40 6.79 2.49
5.26 6.90 2.49
5.12 7.00 2.49
4.98 7.11 2.49
4.84 7.21 2.49
4.70 7.30 2.49
4.55 7.40 2.49
4.40 7.49 2.49
4.25 7.58 2.49
4.10 7.66 2.49
3.94 7.74 2.49
3.79 7.82 2.49
3.63 7.90 2.49
3.47 7.97 2.49
3.31 8.04 2.49
3.15 8.11 2.49
2.99 8.17 2.49
2.82 8.23 2.49
2.66 8.29 2.49
2.49 8.35 2.49
2.32 8.40 2.49
2.16 8.44 2.49
1.99 8.49 2.49
1.82 8.53 2.49
1.64 8.56 2.49
1.47 8.60 2.49
1.30 8.63 2.49
1.13 8.66 2.49
0.95 8.68 2.49
0.78 8.70 2.49
0.60 8.72 2.49
0.43 8.73 2.49
0.25 8.74 2.49
0.08 8.74 2.49
-0.10 8.75 2.49
-0.27 8.75 2.49
-0.45 8.74 2.49
-0.63 8.73 2.49
-0.80 8.72 2.49
-0.98 8.71 2.49
-1.15 8.69 2.49
-1.33 8.67 2.49
-1.50 8.64 2.49
-1.67 8.61 2.49
-1.85 8.58 2.49
-2.02 8.54 2.49
-2.19 8.50 2.49
-2.36 8.46 2.49
-2.53 8.42 2.49
-2.70 8.37 2.49
-2.87 8.31 2.49
-3.04 8.26 2.49
-3.20 8.20 2.49
-3.37 8.13 2.49
-3.53 8.07 2.49
-3.70 8.00 2.49
-3.86 7.92 2.49
-4.02 7.85 2.49
-4.17 7.77 2.49
-4.33 7.69 2.49
-4.49 7.60 2.49
-4.64 7.51 2.49
-4.79 7.42 2.49
-4.94 7.32 2.49
-5.09 7.23 2.49
-5.23 7.12 2.49
-5.38 7.02 2.49
-5.52 6.91 2.49
-5.66 6.80 2.49
-5.80 6.69 2.49
-5.93 6.58 2.49
-6.06 6.46 2.49
-6.19 6.34 2.49
-6.32 6.21 2.49
-6.39 6.03 2.47
-6.39 5.79 2.42
-6.42 5.59 2.39
-6.53 5.46 2.39
-6.64 5.33 2.39
-6.75 5.20 2.39
-6.85 5.06 2.39
-6.70 4.75 2.31
-7.05 4.78 2.39
-7.15 4.64 2.39
-7.24 4.50 2.39
-6.55 3.89 2.14
-6.38 3.62 2.06
-6.36 3.44 2.03
-6.36 3.28 2.00
-6.36 3.12 1.98
-6.37 2.96 1.97
-6.37 2.81 1.95
-6.37 2.66 1.93
-6.37 2.51 1.91
-6.37 2.36 1.90
-6.35 2.21 1.88
-6.34 2.07 1.86
-6.33 1.93 1.85
-6.32 1.78 1.83
-6.32 1.65 1.82
-6.31 1.51 1.81
-6.31 1.38 1.80
-6.31 1.25 1.79
-6.31 1.11 1.79
-6.31 0.98 1.78
-6.31 0.86 1.78
-6.31 0.73 1.77
-6.31 0.60 1.77
-6.31 0.47 1.76
-6.31 0.34 1.76
-6.31 0.22 1.76
-6.31 0.09 1.76
-6.30 -0.04 1.76
-6.30 -0.16 1.76
-6.30 -0.29 1.76
-6.29 -0.41 1.76
-6.29 -0.54 1.76
-6.29 -0.67 1.76
-6.28 -0.79 1.76
-6.27 -0.92 1.77
-6.27 -1.05 1.77
-6.26 -1.18 1.77
-6.25 -1.31 1.78
-6.24 -1.44 1.78
-6.23 -1.57 1.79
-6.23 -1.70 1.80
-6.23 -1.83 1.81
-6.22 -1.97 1.82
-6.22 -2.11 1.83
-6.22 -2.24 1.84
-6.22 -2.39 1.85
-6.22 -2.53 1.87
-6.23 -2.68 1.89
-6.23 -2.83 1.90
-6.23 -2.98 1.92
-6.22 -3.13 1.94
-6.21 -3.29 1.95
-6.20 -3.44 1.97
-6.18 -3.60 1.99
-6.18 -3.76 2.01
-6.17 -3.93 2.04
-6.19 -4.12 2.07
-7.06 -4.90 2.39
-6.96 -5.04 2.39
-6.86 -5.18 2.39
-6.75 -5.32 2.39
-6.64 -5.45 2.39
-6.27 -5.36 2.29
-6.42 -5.71 2.39
-6.30 -5.84 2.39
-6.18 -5.96 2.39
-6.09 -6.11 2.40
-6.07 -6.35 2.45
-6.06 -6.59 2.49
-5.93 -6.71 2.49
-5.79 -6.83 2.49
-5.65 -6.94 2.49
-5.51 -7.05 2.49
-5.37 -7.16 2.49
-5.22 -7.27 2.49
-5.07 -7.37 2.49
-4.92 -7.47 2.49
-4.77 -7.56 2.49
-4.62 -7.66 2.49
-4.46 -7.75 2.49
-4.31 -7.83 2.49
-4.15 -7.91 2.49
-3.99 -7.99 2.49
-3.82 -8.07 2.49
-3.66 -8.14 2.49
-3.50 -8.21 2.49
-3.33 -8.28 2.49
-3.16 -8.34 2.49
-2.99 -8.40 2.49
-2.82 -8.46 2.49
-2.65 -8.51 2.49
-2.48 -8.56 2.49
-2.31 -8.61 2.49
-2.13 -8.65 2.49
-1.96 -8.69 2.49
-1.78 -8.72 2.49
-1.61 -8.75 2.49
-1.43 -8.78 2.49
-1.26 -8.81 2.49
-1.08 -8.83 2.49
-0.90 -8.84 2.49
-0.72 -8.86 2.49
-0.54 -8.87 2.49
-0.37 -8.87 2.49
-0.19 -8.88 2.49
-0.01 -8.17 2.49
0.15 -8.16 2.49
0.32 -8.15 2.49
0.48 -8.14 2.49
0.64 -8.13 2.49
0.81 -8.11 2.49
0.97 -8.09 2.49
1.13 -8.07 2.49
1.29 -8.04 2.49
1.45 -8.01 2.49
1.61 -7.98 2.49
1.77 -7.94 2.49
1.93 -7.90 2.49
2.00 -7.53 2.39
2.15 -7.49 2.39
2.30 -7.44 2.39
2.45 -7.39 2.39
2.60 -7.34 2.39
2.74 -7.28 2.39
2.89 -7.23 2.39
3.03 -7.16 2.39
3.17 -7.10 2.39
3.31 -7.03 2.39
3.45 -6.96 2.39
2.16 -4.14 1.44
2.22 -4.06 1.42
3.86 -6.73 2.39
3.99 -6.65 2.39
4.13 -6.57 2.39
4.25 -6.48 2.39
4.38 -6.40 2.39
4.51 -6.30 2.39
4.63 -6.21 2.39
4.76 -6.11 2.39
4.88 -6.02 2.39
4.99 -5.91 2.39
5.11 -5.81 2.39
5.22 -5.71 2.39
5.34 -5.60 2.39
5.45 -5.49 2.39
5.55 -5.38 2.39
5.66 -5.26 2.39
5.76 -5.14 2.39
5.79 -4.97 2.36
5.79 -4.77 2.32
5.79 -4.57 2.28
5.78 -4.38 2.25
5.78 -4.20 2.21
5.78 -4.02 2.18
5.77 -3.85 2.15
5.77 -3.69 2.13
5.77 -3.53 2.10
5.78 -3.37 2.08
5.78 -3.22 2.06
5.79 -3.07 2.04
5.81 -2.93 2.02
5.83 -2.80 2.01
5.86 -2.67 2.00
5.90 -2.55 2.00
5.95 -2.43 2.00
6.03 -2.32 2.01
6.11 -2.21 2.02
6.20 -2.11 2.04
6.29 -2.00 2.06
6.39 -1.89 2.08
6.51 -1.78 2.10
6.64 -1.67 2.13
6.80 -1.57 2.17
6.99 -1.47 2.23
7.22 -1.36 2.29
7.29 -1.22 2.30
7.32 -1.08 2.31
7.41 -0.94 2.33
7.61 -0.81 2.39
7.64 -0.66 2.39
7.65 -0.50 2.39
7.65 -0.35 2.39
7.66 -0.20 2.39
4.95 -0.03 1.54
4.95 0.07 1.54
4.97 0.17 1.55
5.00 0.27 1.56
5.02 0.38 1.57
5.04 0.48 1.58
5.02 0.58 1.58
4.99 0.68 1.57
4.96 0.78 1.57
4.89 0.87 1.55
4.85 0.96 1.54
4.83 1.06 1.54
7.44 1.79 2.39
7.40 1.93 2.39
7.36 2.08 2.39
7.32 2.23 2.39
7.27 2.38 2.39
7.22 2.52 2.39
7.48 2.78 2.49
7.42 2.93 2.49
7.36 3.08 2.49
7.30 3.23 2.49
7.23 3.37 2.49
7.16 3.52 2.49
7.09 3.66 2.49
7.01 3.80 2.49
6.94 3.94 2.49
6.86 4.08 2.49
6.77 4.22 2.49
6.69 4.36 2.49
6.60 4.49 2.49
6.51 4.62 2.49
6.41 4.75 2.49
6.32 4.88 2.49
6.22 5.01 2.49
6.12 5.13 2.49
6.01 5.25 2.49
5.91 5.37 2.49
5.80 5.49 2.49
5.69 5.61 2.49
5.57 5.72 2.49
5.46 5.83 2.49
5.34 5.94 2.49
5.22 6.05 2.49
5.10 6.15 2.49
4.97 6.26 2.49
4.85 6.35 2.49
4.72 6.45 2.49
4.59 6.55 2.49
4.46 6.64 2.49
4.33 6.73 2.49
4.19 6.81 2.49
4.05 6.90 2.49
3.91 6.98 2.49
3.77 7.06 2.49
3.63 7.13 2.49
3.49 7.21 2.49
3.34 7.28 2.49
3.20 7.35 2.49
3.05 7.41 2.49
2.90 7.47 2.49
2.75 7.53 2.49
2.60 7.58 2.49
2.45 7.64 2.49
2.29 7.69 2.49
2.14 7.73 2.49
1.98 7.78 2.49
1.83 7.82 2.49
1.67 7.85 2.49
1.51 7.89 2.49
1.36 7.92 2.49
1.20 7.95 2.49
1.04 7.97 2.49
0.88 7.99 2.49
0.72 8.01 2.49
0.55 8.03 2.49
0.39 8.04 2.49
0.23 8.05 2.49
0.07 8.05 2.49
-0.09 8.05 2.49
-0.25 8.05 2.49
-0.41 8.05 2.49
-0.58 8.04 2.49
-0.74 8.03 2.49
-0.90 8.02 2.49
-1.06 8.00 2.49
-1.22 7.98 2.49
-1.38 7.96 2.49
-1.54 7.93 2.49
-1.70 7.90 2.49
-1.86 7.87 2.49
-2.02 7.83 2.49
-2.18 7.79 2.49
-2.33 7.75 2.49
-2.49 7.70 2.49
-2.64 7.65 2.49
-2.80 7.60 2.49
-2.95 7.54 2.49
-3.10 7.49 2.49
-3.25 7.42 2.49
-3.40 7.36 2.49
-3.55 7.29 2.49
-3.70 7.22 2.49
-3.84 7.15 2.49
-3.99 7.07 2.49
-4.13 6.99 2.49
-4.27 6.91 2.49
-4.41 6.83 2.49
-4.55 6.74 2.49
-4.68 6.65 2.49
-4.82 6.56 2.49
-4.95 6.46 2.49
-5.08 6.36 2.49
-5.21 6.26 2.49
-5.33 6.16 2.49
-5.46 6.05 2.49
-5.58 5.94 2.49
-5.70 5.83 2.49
-5.82 5.72 2.49
-5.93 5.60 2.49
-6.05 5.48 2.49
-6.16 5.36 2.49
-6.26 5.24 2.49
-6.37 5.11 2.49
-6.36 4.90 2.45
-6.36 4.70 2.41
-6.40 4.53 2.39
-6.49 4.40 2.39
-6.58 4.27 2.39
-6.66 4.14 2.39
-6.55 3.89 2.32
-6.83 3.87 2.39
-6.91 3.73 2.39
-6.98 3.60 2.39
-7.05 3.46 2.39
-7.12 3.31 2.39
-7.19 3.17 2.39
-6.52 2.72 2.15
-7.31 2.88 2.39
-6.35 2.36 2.06
-6.33 2.21 2.04
-6.33 2.06 2.02
-6.32 1.92 2.01
-6.32 1.78 2.00
-6.32 1.65 1.98
-6.32 1.51 1.97
-6.33 1.38 1.97
-6.33 1.25 1.96
-6.33 1.12 1.95
-6.33 0.99 1.94
-6.33 0.86 1.94
-6.32 0.73 1.93
-6.32 0.60 1.93
-6.32 0.47 1.92
-6.31 0.34 1.92
-6.31 0.22 1.91
-6.31 0.09 1.91
-6.30 -0.04 1.91
-6.30 -0.16 1.91
-6.30 -0.29 1.91
-6.29 -0.41 1.91
-6.29 -0.54 1.91
-6.29 -0.67 1.91
-6.28 -0.80 1.92
-6.28 -0.92 1.92
-6.28 -1.05 1.93
-6.27 -1.18 1.93
-6.27 -1.31 1.94
-6.26 -1.44 1.94
-6.26 -1.57 1.95
-6.25 -1.70 1.96
-6.24 -1.84 1.97
-6.23 -1.97 1.98
-6.22 -2.11 1.99
-6.22 -2.24 2.00
-6.21 -2.38 2.01
-6.21 -2.53 2.03
-6.21 -2.67 2.04
-6.23 -2.83 2.07
-7.13 -3.41 2.39
-6.37 -3.21 2.16
-6.99 -3.70 2.39
-6.91 -3.84 2.39
-6.83 -3.97 2.39
-6.75 -4.11 2.39
-6.46 -4.11 2.32
-6.58 -4.38 2.39
-6.49 -4.51 2.39
-6.40 -4.64 2.39
-6.30 -4.76 2.39
-6.21 -4.89 2.39
-6.12 -5.02 2.40
-6.11 -5.22 2.43
-6.10 -5.43 2.47
-6.04 -5.60 2.49
-5.93 -5.72 2.49
-5.81 -5.84 2.49
-5.69 -5.95 2.49
-5.57 -6.06 2.49
-5.45 -6.17 2.49
-5.32 -6.28 2.49
-5.20 -6.38 2.49
-5.07 -6.49 2.49
-4.93 -6.58 2.49
-4.80 -6.68 2.49
-4.66 -6.77 2.49
-4.53 -6.87 2.49
-4.39 -6.95 2.49
-4.25 -7.04 2.49
-4.10 -7.12 2.49
-3.96 -7.20 2.49
-3.81 -7.28 2.49
-3.67 -7.35 2.49
-3.52 -7.42 2.49
-3.37 -7.49 2.49
-3.22 -7.55 2.49
-3.06 -7.61 2.49
-2.91 -7.67 2.49
-2.75 -7.73 2.49
-2.60 -7.78 2.49
-2.44 -7.83 2.49
-2.28 -7.87 2.49
-2.12 -7.92 2.49
-1.96 -7.95 2.49
-1.80 -7.99 2.49
-1.64 -8.02 2.49
-1.48 -8.05 2.49
-1.32 -8.08 2.49
-1.16 -8.10 2.49
-0.99 -8.12 2.49
-0.83 -8.14 2.49
-0.67 -8.15 2.49
-0.50 -8.16 2.49
-0.34 -8.16 2.49
-0.17 -8.17 2.49
-0.01 -7.55 2.49
0.14 -7.55 2.49
0.29 -7.54 2.49
0.44 -7.53 2.49
0.59 -7.52 2.49
0.74 -7.51 2.49
0.90 -7.49 2.49
1.04 -7.46 2.49
1.19 -7.44 2.49
1.34 -7.41 2.49
1.49 -7.38 2.49
1.64 -7.35 2.49
1.78 -7.31 2.49
1.93 -7.27 2.49
1.99 -6.93 2.39
2.13 -6.89 2.39
2.26 -6.84 2.39
2.40 -6.79 2.39
2.54 -6.74 2.39
2.67 -6.69 2.39
2.80 -6.63 2.39
2.93 -6.57 2.39
3.06 -6.51 2.39
3.19 -6.44 2.39
2.16 -4.14 1.55
2.22 -4.05 1.54
3.57 -6.23 2.39
3.70 -6.16 2.39
3.82 -6.08 2.39
3.94 -6.00 2.39
4.06 -5.92 2.39
4.17 -5.83 2.39
4.29 -5.75 2.39
4.40 -5.66 2.39
4.51 -5.57 2.39
4.62 -5.47 2.39
4.73 -5.38 2.39
4.83 -5.28 2.39
4.94 -5.18 2.39
5.04 -5.08 2.39
5.14 -4.98 2.39
5.24 -4.87 2.39
5.33 -4.76 2.39
5.43 -4.65 2.39
5.52 -4.54 2.39
5.60 -4.43 2.39
5.69 -4.32 2.39
5.77 -4.20 2.39
5.78 -4.02 2.36
5.77 -3.85 2.33
5.77 -3.69 2.30
5.77 -3.53 2.27
5.78 -3.37 2.24
5.78 -3.22 2.22
5.79 -3.08 2.20
5.81 -2.93 2.18
5.83 -2.80 2.17
5.86 -2.67 2.16
5.90 -2.55 2.16
5.95 -2.43 2.16
6.03 -2.32 2.17
6.11 -2.21 2.18
6.20 -2.11 2.20
6.29 -2.00 2.22
6.39 -1.89 2.24
6.51 -1.78 2.27
6.64 -1.67 2.30
6.80 -1.57 2.35
6.95 -1.46 2.39
6.98 -1.32 2.39
7.00 -1.18 2.39
7.03 -1.04 2.39
7.04 -0.89 2.39
7.06 -0.75 2.39
7.07 -0.61 2.39
7.08 -0.47 2.39
4.58 -0.21 1.54
4.63 -0.12 1.56
4.78 -0.03 1.61
4.86 0.07 1.64
4.95 0.17 1.67
4.97 0.27 1.68
4.99 0.37 1.69
5.02 0.48 1.70
4.99 0.58 1.70
4.96 0.67 1.69
4.94 0.77 1.69
4.87 0.86 1.67
4.78 0.95 1.65
4.70 1.03 1.62
4.53 1.09 1.57
4.43 1.16 1.54
4.40 1.25 1.54
6.78 2.07 2.39
6.73 2.20 2.39
6.69 2.34 2.39
6.64 2.47 2.39
6.87 2.72 2.49
6.82 2.85 2.49
6.76 2.99 2.49
6.70 3.12 2.49
6.63 3.26 2.49
6.57 3.39 2.49
6.50 3.52 2.49
6.42 3.65 2.49
6.35 3.78 2.49
6.27 3.91 2.49
6.19 4.03 2.49
6.11 4.16 2.49
6.03 4.28 2.49
5.94 4.40 2.49
5.85 4.52 2.49
5.76 4.64 2.49
5.66 4.75 2.49
5.57 4.86 2.49
5.47 4.98 2.49
5.37 5.09 2.49
5.27 5.19 2.49
5.16 5.30 2.49
5.05 5.40 2.49
4.95 5.50 2.49
4.83 5.60 2.49
4.72 5.70 2.49
4.61 5.79 2.49
4.49 5.89 2.49
4.37 5.98 2.49
4.25 6.06 2.49
4.13 6.15 2.49
4.01 6.23 2.49
3.88 6.31 2.49
3.75 6.39 2.49
3.62 6.46 2.49
3.49 6.54 2.49
3.36 6.61 2.49
3.23 6.67 2.49
3.10 6.74 2.49
2.96 6.80 2.49
2.82 6.86 2.49
2.69 6.92 2.49
2.55 6.97 2.49
2.41 7.02 2.49
2.27 7.07 2.49
2.12 7.12 2.49
1.98 7.16 2.49
1.84 7.20 2.49
1.69 7.24 2.49
1.55 7.27 2.49
1.40 7.30 2.49
1.25 7.33 2.49
1.11 7.36 2.49
0.96 7.38 2.49
0.81 7.40 2.49
0.66 7.42 2.49
0.51 7.43 2.49
0.36 7.44 2.49
0.21 7.45 2.49
0.06 7.45 2.49
-0.09 7.46 2.49
-0.23 7.45 2.49
-0.38 7.45 2.49
-0.53 7.44 2.49
-0.68 7.43 2.49
-0.83 7.42 2.49
-0.98 7.40 2.49
-1.13 7.39 2.49
-1.28 7.36 2.49
-1.43 7.34 2.49
-1.58 7.31 2.49
-1.72 7.28 2.49
-1.87 7.25 2.49
-2.01 7.21 2.49
-2.16 7.17 2.49
-2.30 7.13 2.49
-2.45 7.08 2.49
-2.59 7.03 2.49
-2.73 6.98 2.49
-2.87 6.93 2.49
-3.01 6.87 2.49
-3.15 6.81 2.49
-3.29 6.75 2.49
-3.42 6.68 2.49
-3.56 6.61 2.49
-3.69 6.54 2.49
-3.82 6.47 2.49
-3.95 6.39 2.49
-4.08 6.32 2.49
-4.21 6.23 2.49
-4.33 6.15 2.49
-4.46 6.06 2.49
-4.58 5.98 2.49
-4.70 5.88 2.49
-4.82 5.79 2.49
-4.93 5.69 2.49
-5.05 5.60 2.49
-5.16 5.49 2.49
-5.27 5.39 2.49
-5.38 5.29 2.49
-5.49 5.18 2.49
-5.59 5.07 2.49
-5.70 4.96 2.49
-5.79 4.84 2.49
-5.89 4.73 2.49
-5.99 4.61 2.49
-6.08 4.49 2.49
-6.17 4.37 2.49
-6.26 4.24 2.49
-6.34 4.12 2.49
-6.34 3.94 2.46
-6.34 3.76 2.43
-6.34 3.59 2.40
-6.39 3.45 2.39
-6.46 3.32 2.39
-6.53 3.20 2.40
-6.59 3.06 2.39
-6.65 2.93 2.39
-6.52 2.72 2.32
-6.76 2.66 2.39
-6.82 2.53 2.39
-6.87 2.39 2.39
-6.92 2.25 2.39
-6.96 2.12 2.39
-6.50 1.83 2.22
-7.04 1.84 2.39
-7.08 1.69 2.39
-7.11 1.55 2.39
-7.15 1.41 2.39
-7.17 1.27 2.39
-7.20 1.12 2.39
-7.22 0.98 2.39
-6.47 0.74 2.14
-7.26 0.69 2.39
-7.27 0.54 2.39
-6.31 0.34 2.07
-6.30 0.22 2.07
-6.30 0.09 2.06
-6.29 -0.04 2.06
-6.29 -0.16 2.06
-6.28 -0.29 2.06
-6.28 -0.41 2.06
-6.28 -0.54 2.07
-6.28 -0.67 2.07
-6.28 -0.80 2.07
-7.22 -1.06 2.39
-7.20 -1.21 2.39
-6.42 -1.21 2.14
-7.15 -1.49 2.39
-7.12 -1.64 2.39
-7.08 -1.78 2.39
-7.05 -1.92 2.39
-7.01 -2.06 2.39
-6.51 -2.06 2.24
-6.92 -2.34 2.39
-6.87 -2.48 2.39
-6.82 -2.62 2.39
-6.77 -2.75 2.39
-6.71 -2.89 2.39
-6.65 -3.02 2.39
-6.59 -3.16 2.39
-6.37 -3.21 2.33
-6.46 -3.42 2.39
-6.39 -3.55 2.39
-6.31 -3.67 2.39
-6.24 -3.80 2.39
-6.16 -3.92 2.39
-6.14 -4.08 2.41
-6.13 -4.26 2.44
-6.13 -4.44 2.48
-6.08 -4.59 2.49
-5.98 -4.71 2.49
-5.89 -4.83 2.49
-5.79 -4.95 2.49
-5.69 -5.06 2.49
-5.59 -5.18 2.49
-5.48 -5.29 2.49
-5.37 -5.39 2.49
-5.26 -5.50 2.49
-5.15 -5.60 2.49
-5.04 -5.71 2.49
-4.92 -5.80 2.49
-4.80 -5.90 2.49
-4.68 -6.00 2.49
-4.56 -6.09 2.49
-4.44 -6.18 2.49
-4.31 -6.26 2.49
-4.19 -6.35 2.49
-4.06 -6.43 2.49
-3.93 -6.51 2.49
-3.79 -6.58 2.49
-3.66 -6.66 2.49
-3.53 -6.73 2.49
-3.39 -6.80 2.49
-3.25 -6.86 2.49
-3.11 -6.92 2.49
-2.97 -6.98 2.49
-2.83 -7.04 2.49
-2.69 -7.09 2.49
-2.55 -7.15 2.49
-2.40 -7.19 2.49
-2.26 -7.24 2.49
-2.11 -7.28 2.49
-1.96 -7.32 2.49
-1.82 -7.36 2.49
-1.67 -7.39 2.49
-1.52 -7.42 2.49
-1.37 -7.45 2.49
-1.22 -7.47 2.49
-1.07 -7.49 2.49
-0.92 -7.51 2.49
-0.77 -7.52 2.49
-0.62 -7.54 2.49
-0.47 -7.54 2.49
-0.31 -7.55 2.49
-0.16 -7.55 2.49
-0.01 -7.02 2.49
0.13 -7.01 2.49
0.27 -7.01 2.49
0.41 -7.00 2.49
0.55 -6.99 2.49
0.69 -6.97 2.49
0.83 -6.96 2.49
0.97 -6.94 2.49
1.11 -6.91 2.49
1.25 -6.89 2.49
1.38 -6.86 2.49
1.52 -6.83 2.49
1.66 -6.80 2.49
1.79 -6.76 2.49
1.93 -6.72 2.49
1.98 -6.40 2.39
2.10 -6.36 2.39
2.23 -6.31 2.39
2.36 -6.27 2.39
2.48 -6.21 2.39
2.60 -6.16 2.39
2.73 -6.11 2.39
2.85 -6.05 2.39
2.97 -5.99 2.39
2.16 -4.14 1.67
2.22 -4.05 1.65
3.32 -5.79 2.39
3.43 -5.72 2.39
3.55 -5.65 2.39
3.66 -5.58 2.39
3.77 -5.50 2.39
3.88 -5.42 2.39
3.99 -5.34 2.39
4.09 -5.26 2.39
4.19 -5.18 2.39
4.30 -5.09 2.39
4.40 -5.00 2.39
4.49 -4.91 2.39
4.59 -4.82 2.39
4.69 -4.72 2.39
4.78 -4.63 2.39
4.87 -4.53 2.39
4.96 -4.43 2.39
5.04 -4.33 2.39
5.13 -4.22 2.39
5.21 -4.12 2.39
5.29 -4.01 2.39
5.37 -3.90 2.39
5.45 -3.80 2.39
5.52 -3.68 2.39
5.59 -3.57 2.39
5.66 -3.46 2.39
5.73 -3.34 2.39
5.78 -3.22 2.39
5.79 -3.08 2.37
5.81 -2.93 2.35
5.83 -2.80 2.33
5.86 -2.67 2.32
5.90 -2.55 2.32
5.95 -2.43 2.32
6.03 -2.32 2.33
6.11 -2.21 2.35
6.20 -2.11 2.37
6.29 -2.00 2.39
6.34 -1.87 2.39
6.38 -1.75 2.39
6.41 -1.62 2.39
6.44 -1.49 2.39
6.47 -1.36 2.39
6.49 -1.23 2.39
6.52 -1.10 2.39
6.54 -0.96 2.39
6.55 -0.83 2.39
6.57 -0.70 2.39
6.58 -0.57 2.39
4.26 -0.28 1.54
4.26 -0.20 1.54
4.57 -0.12 1.66
4.75 -0.03 1.72
4.83 0.07 1.75
4.92 0.17 1.78
4.95 0.27 1.80
4.97 0.37 1.81
4.98 0.47 1.82
4.96 0.57 1.81
4.94 0.67 1.81
4.91 0.77 1.80
4.84 0.86 1.78
4.76 0.94 1.76
4.67 1.02 1.73
4.48 1.08 1.67
4.12 1.08 1.54
4.10 1.16 1.54
6.30 1.92 2.39
6.26 2.05 2.39
6.22 2.17 2.39
6.18 2.30 2.39
6.39 2.53 2.49
6.34 2.65 2.49
6.29 2.78 2.49
6.23 2.91 2.49
6.17 3.03 2.49
6.11 3.16 2.49
6.04 3.28 2.49
5.98 3.40 2.49
5.91 3.52 2.49
5.84 3.64 2.49
5.76 3.75 2.49
5.69 3.87 2.49
5.61 3.98 2.49
5.53 4.09 2.49
5.44 4.20 2.49
5.36 4.31 2.49
5.27 4.42 2.49
5.18 4.53 2.49
5.09 4.63 2.49
4.99 4.73 2.49
4.90 4.83 2.49
4.80 4.93 2.49
4.70 5.03 2.49
4.60 5.12 2.49
4.50 5.21 2.49
4.39 5.30 2.49
4.29 5.39 2.49
4.18 5.48 2.49
4.07 5.56 2.49
3.95 5.64 2.49
3.84 5.72 2.49
3.73 5.80 2.49
3.61 5.87 2.49
3.49 5.94 2.49
3.37 6.01 2.49
3.25 6.08 2.49
3.13 6.15 2.49
3.00 6.21 2.49
2.88 6.27 2.49
2.75 6.33 2.49
2.63 6.38 2.49
2.50 6.43 2.49
2.37 6.48 2.49
2.24 6.53 2.49
2.11 6.58 2.49
1.97 6.62 2.49
1.84 6.66 2.49
1.71 6.70 2.49
1.57 6.73 2.49
1.44 6.76 2.49
1.30 6.79 2.49
1.17 6.82 2.49
1.03 6.84 2.49
0.89 6.86 2.49
0.75 6.88 2.49
0.61 6.90 2.49
0.48 6.91 2.49
0.34 6.92 2.49
0.20 6.93 2.49
0.06 6.93 2.49
-0.08 6.93 2.49
-0.22 6.93 2.49
-0.36 6.93 2.49
-0.50 6.92 2.49
-0.64 6.91 2.49
-0.78 6.90 2.49
-0.91 6.88 2.49
-1.05 6.87 2.49
-1.19 6.85 2.49
-1.33 6.82 2.49
-1.47 6.80 2.49
-1.60 6.77 2.49
-1.74 6.74 2.49
-1.87 6.70 2.49
-2.01 6.66 2.49
-2.14 6.62 2.49
-2.28 6.58 2.49
-2.41 6.54 2.49
-2.54 6.49 2.49
-2.67 6.44 2.49
-2.80 6.39 2.49
-2.93 6.33 2.49
-3.06 6.27 2.49
-3.18 6.21 2.49
-3.31 6.15 2.49
-3.43 6.08 2.49
-3.55 6.01 2.49
-3.67 5.94 2.49
-3.79 5.87 2.49
-3.91 5.79 2.49
-4.03 5.72 2.49
-4.14 5.64 2.49
-4.26 5.55 2.49
-4.37 5.47 2.49
-4.48 5.38 2.49
-4.59 5.29 2.49
-4.69 5.20 2.49
-4.80 5.11 2.49
-4.90 5.01 2.49
-5.00 4.91 2.49
-5.10 4.81 2.49
-5.20 4.71 2.49
-5.29 4.61 2.49
-5.39 4.50 2.49
-5.48 4.39 2.49
-5.56 4.28 2.49
-5.65 4.17 2.49
-5.73 4.06 2.49
-5.82 3.94 2.49
-5.90 3.83 2.49
-5.97 3.71 2.49
-6.05 3.59 2.49
-6.12 3.47 2.49
-6.19 3.35 2.49
-6.26 3.22 2.49
-6.32 3.10 2.49
-6.32 2.94 2.47
-6.31 2.78 2.44
-6.31 2.63 2.42
-6.31 2.49 2.40
-6.33 2.35 2.39
-6.38 2.22 2.39
-6.43 2.09 2.39
-6.47 1.97 2.39
-6.50 1.83 2.39
-6.54 1.71 2.39
-6.58 1.57 2.39
-6.61 1.44 2.39
-6.64 1.31 2.39
-6.66 1.18 2.39
-6.69 1.04 2.39
-6.71 0.91 2.39
-6.47 0.74 2.30
-6.74 0.64 2.39
-6.75 0.50 2.39
-6.76 0.37 2.39
-6.77 0.23 2.39
-6.77 0.10 2.39
-6.78 -0.04 2.39
-6.77 -0.17 2.39
-6.77 -0.31 2.39
-6.76 -0.45 2.39
-6.75 -0.58 2.39
-6.74 -0.72 2.39
-6.73 -0.85 2.39
-6.71 -0.99 2.39
-6.69 -1.12 2.39
-6.42 -1.21 2.30
-6.64 -1.39 2.39
-6.61 -1.52 2.39
-6.58 -1.65 2.39
-6.54 -1.78 2.39
-6.51 -1.92 2.39
-6.47 -2.05 2.39
-6.43 -2.18 2.39
-6.39 -2.31 2.40
-6.33 -2.43 2.39
-6.28 -2.56 2.39
-6.23 -2.68 2.39
-6.18 -2.81 2.39
-6.17 -2.95 2.41
-6.16 -3.10 2.43
-6.16 -3.26 2.46
-6.15 -3.42 2.48
-6.12 -3.56 2.49
-6.04 -3.68 2.49
-5.97 -3.80 2.49
-5.89 -3.92 2.49
-5.81 -4.04 2.49
-5.73 -4.15 2.49
-5.64 -4.26 2.49
-5.56 -4.38 2.49
-5.47 -4.49 2.49
-5.38 -4.60 2.49
-5.28 -4.70 2.49
-5.19 -4.81 2.49
-5.09 -4.91 2.49
-4.99 -5.01 2.49
-4.89 -5.11 2.49
-4.78 -5.20 2.49
-4.68 -5.30 2.49
-4.57 -5.39 2.49
-4.46 -5.48 2.49
-4.35 -5.57 2.49
-4.24 -5.65 2.49
-4.12 -5.74 2.49
-4.01 -5.82 2.49
-3.89 -5.90 2.49
-3.77 -5.97 2.49
-3.65 -6.04 2.49
-3.52 -6.12 2.49
-3.40 -6.18 2.49
-3.28 -6.25 2.49
-3.15 -6.31 2.49
-3.02 -6.37 2.49
-2.89 -6.43 2.49
-2.76 -6.49 2.49
-2.63 -6.54 2.49
-2.50 -6.59 2.49
-2.37 -6.64 2.49
-2.23 -6.68 2.49
-2.10 -6.72 2.49
-1.96 -6.76 2.49
-1.83 -6.80 2.49
-1.69 -6.83 2.49
-1.55 -6.86 2.49
-1.41 -6.89 2.49
-1.27 -6.92 2.49
-1.13 -6.94 2.49
-0.99 -6.96 2.49
-0.85 -6.98 2.49
-0.71 -6.99 2.49
-0.57 -7.00 2.49
-0.43 -7.01 2.49
-0.29 -7.02 2.49
-0.15 -7.02 2.49
-0.01 -6.55 2.49
0.12 -6.54 2.49
0.25 -6.54 2.49
0.38 -6.53 2.49
0.51 -6.52 2.49
0.64 -6.51 2.49
0.77 -6.49 2.49
0.90 -6.47 2.49
1.03 -6.45 2.49
1.16 -6.43 2.49
1.29 -6.40 2.49
1.42 -6.37 2.49
1.55 -6.34 2.49
1.67 -6.31 2.49
1.80 -6.27 2.49
1.92 -6.23 2.49
1.96 -5.93 2.39
2.08 -5.89 2.39
2.20 -5.85 2.39
2.31 -5.80 2.39
2.43 -5.75 2.39
2.54 -5.70 2.39
2.66 -5.65 2.39
2.77 -5.59 2.39
2.16 -4.14 1.79
2.22 -4.05 1.77
3.10 -5.41 2.39
3.20 -5.34 2.39
3.31 -5.28 2.39
3.41 -5.21 2.39
3.52 -5.14 2.39
3.62 -5.06 2.39
3.72 -4.99 2.39
3.82 -4.91 2.39
3.91 -4.83 2.39
4.01 -4.75 2.39
4.10 -4.67 2.39
4.19 -4.58 2.39
4.28 -4.50 2.39
4.37 -4.41 2.39
4.46 -4.32 2.39
4.54 -4.23 2.39
4.63 -4.14 2.39
4.71 -4.04 2.39
4.79 -3.94 2.39
4.86 -3.85 2.39
4.94 -3.75 2.39
5.01 -3.65 2.39
5.08 -3.54 2.39
5.15 -3.44 2.39
5.22 -3.33 2.39
5.28 -3.23 2.39
5.35 -3.12 2.39
5.41 -3.01 2.39
5.47 -2.90 2.39
5.52 -2.79 2.39
5.57 -2.68 2.39
5.63 -2.57 2.39
5.68 -2.45 2.39
5.72 -2.34 2.39
5.77 -2.22 2.39
5.81 -2.10 2.39
5.85 -1.99 2.39
5.89 -1.87 2.39
5.92 -1.75 2.39
5.96 -1.63 2.39
5.99 -1.51 2.39
6.01 -1.39 2.39
6.04 -1.27 2.39
6.06 -1.15 2.39
6.08 -1.02 2.39
6.10 -0.90 2.39
6.12 -0.78 2.39
6.13 -0.65 2.39
6.14 -0.53 2.39
6.15 -0.41 2.39
3.98 -0.18 1.54
3.98 -0.10 1.54
3.98 -0.02 1.54
4.77 0.07 1.85
4.84 0.17 1.88
4.88 0.27 1.90
4.90 0.37 1.91
4.92 0.47 1.92
4.90 0.56 1.91
4.87 0.66 1.91
4.84 0.76 1.90
4.77 0.84 1.88
4.70 0.93 1.86
4.60 1.01 1.83
3.87 0.93 1.54
3.85 1.01 1.54
5.92 1.68 2.39
5.89 1.79 2.39
5.85 1.91 2.39
5.83 2.04 2.40
5.77 2.15 2.39
5.97 2.36 2.49
5.92 2.48 2.49
5.87 2.60 2.49
5.82 2.71 2.49
5.76 2.83 2.49
5.70 2.95 2.49
5.64 3.06 2.49
5.58 3.17 2.49
5.52 3.29 2.49
5.45 3.40 2.49
5.38 3.50 2.49
5.31 3.61 2.49
5.24 3.72 2.49
