ply
format ascii 1.0
element vertex 2755
property float32 x
property float32 y
property float32 z
end_header
12.65 -3.45 -0.81
12.65 -3.18 -0.81
12.65 -2.91 -0.80
12.65 -2.64 -0.80
12.65 -2.38 -0.80
12.65 -2.11 -0.80
12.65 -1.85 -0.79
12.65 -1.60 -0.79
12.65 -1.34 -0.79
12.65 -1.08 -0.79
12.65 -0.83 -0.79
12.65 -0.57 -0.79
12.65 -0.32 -0.78
12.65 -0.06 -0.78
12.65 0.19 -0.78
12.65 0.44 -0.78
12.65 0.70 -0.79
13.62 1.03 -0.85
12.40 1.19 -0.77
12.28 1.42 -0.77
22.13 3.02 -1.38
22.73 3.57 -1.43
23.28 4.13 -1.47
39.52 13.81 -2.60
38.99 14.51 -2.58
28.38 13.24 -1.94
27.23 13.38 -1.88
27.25 14.08 -1.90
26.90 14.58 -1.90
18.73 13.30 -1.42
17.21 12.74 -1.33
16.99 13.12 -1.33
16.99 13.67 -1.35
16.97 14.22 -1.37
16.43 14.34 -1.35
15.99 14.54 -1.34
15.40 14.57 -1.31
15.73 15.49 -1.37
2.36 4.87 -0.34
-6.51 -16.23 -1.08
-5.74 -16.16 -1.06
-5.40 -16.24 -1.06
11.96 -25.29 -1.10
11.84 -23.80 -1.05
11.74 -22.44 -1.00
11.64 -21.22 -0.95
11.56 -20.09 -0.91
11.48 -19.06 -0.88
11.41 -18.11 -0.84
10.36 -15.73 -0.74
10.19 -14.82 -0.71
10.22 -14.24 -0.69
10.38 -13.87 -0.68
10.73 -13.76 -0.69
11.02 -13.55 -0.69
11.33 -13.38 -0.69
11.56 -13.11 -0.69
11.56 -12.59 -0.67
11.60 -12.14 -0.66
11.65 -11.70 -0.65
11.56 -11.16 -0.63
11.56 -10.72 -0.62
11.51 -10.25 -0.61
11.51 -9.85 -0.60
11.56 -9.49 -0.59
11.56 -9.11 -0.58
10.13 -7.66 -0.50
10.02 -7.26 -0.49
9.99 -6.94 -0.48
10.03 -6.68 -0.48
10.10 -6.43 -0.47
10.21 -6.22 -0.47
10.34 -6.02 -0.47
10.52 -5.84 -0.47
10.73 -5.68 -0.48
10.99 -5.54 -0.49
11.38 -5.45 -0.50
11.92 -5.42 -0.52
12.65 -5.45 -0.54
12.65 -5.15 -0.54
12.65 -4.85 -0.53
12.65 -4.57 -0.53
12.65 -4.28 -0.53
12.65 -4.00 -0.52
12.65 -3.72 -0.52
12.65 -3.45 -0.52
12.65 -3.18 -0.51
12.65 -2.91 -0.51
12.65 -2.64 -0.51
12.65 -2.38 -0.51
12.65 -2.11 -0.51
12.65 -1.85 -0.50
12.65 -1.60 -0.50
12.65 -1.34 -0.50
12.65 -1.08 -0.50
12.65 -0.83 -0.50
12.65 -0.57 -0.50
12.65 -0.32 -0.50
12.65 -0.06 -0.50
12.65 0.19 -0.50
12.65 0.44 -0.50
12.65 0.70 -0.50
17.73 1.34 -0.70
15.73 1.50 -0.62
22.14 2.57 -0.88
22.14 3.02 -0.88
22.73 3.57 -0.91
23.24 4.13 -0.93
39.67 13.87 -1.66
39.06 14.54 -1.64
28.02 13.08 -1.22
27.98 13.75 -1.23
27.38 14.14 -1.21
26.78 14.52 -1.20
17.17 12.72 -0.84
16.68 12.88 -0.83
17.04 13.71 -0.86
16.78 14.06 -0.86
16.45 14.36 -0.86
15.95 14.50 -0.85
16.11 15.24 -0.87
15.68 15.45 -0.87
2.36 4.87 -0.21
-5.54 25.91 -1.04
-6.51 -16.23 -0.69
11.84 -25.04 -0.47
11.66 -23.43 -0.44
11.84 -22.64 -0.43
11.84 -21.57 -0.42
11.84 -20.58 -0.40
11.84 -19.66 -0.39
11.58 -18.39 -0.37
9.76 -14.83 -0.30
10.05 -14.63 -0.30
10.18 -14.19 -0.30
10.38 -13.87 -0.29
10.63 -13.62 -0.29
10.93 -13.45 -0.29
11.29 -13.33 -0.30
11.51 -13.05 -0.29
11.47 -12.49 -0.29
11.51 -12.04 -0.28
11.51 -11.56 -0.28
11.51 -11.11 -0.27
11.51 -10.67 -0.27
11.51 -10.25 -0.26
11.51 -9.84 -0.26
11.35 -9.32 -0.25
11.51 -9.07 -0.25
10.21 -7.72 -0.22
9.64 -6.99 -0.20
9.90 -6.88 -0.20
10.07 -6.70 -0.20
10.14 -6.46 -0.20
10.25 -6.24 -0.20
10.38 -6.04 -0.20
10.56 -5.86 -0.20
10.77 -5.70 -0.21
11.04 -5.56 -0.21
11.44 -5.48 -0.21
12.01 -5.46 -0.22
12.65 -5.45 -0.23
12.65 -5.15 -0.23
12.69 -4.87 -0.23
12.69 -4.58 -0.23
12.69 -4.29 -0.23
12.69 -4.01 -0.22
12.69 -3.73 -0.22
12.65 -3.45 -0.22
12.65 -3.18 -0.22
12.65 -2.91 -0.22
12.65 -2.64 -0.22
12.65 -2.38 -0.22
12.65 -2.11 -0.22
12.65 -1.85 -0.22
12.65 -1.60 -0.22
12.65 -1.34 -0.21
12.69 -1.09 -0.22
12.69 -0.83 -0.21
12.69 -0.57 -0.21
12.69 -0.32 -0.21
12.69 -0.06 -0.21
12.69 0.19 -0.21
12.65 0.44 -0.21
12.65 0.70 -0.21
13.35 1.01 -0.23
22.64 2.16 -0.38
22.64 2.62 -0.38
22.64 3.09 -0.39
22.73 3.57 -0.39
23.07 4.09 -0.40
39.39 12.89 -0.70
39.47 13.79 -0.71
39.39 14.66 -0.71
27.95 13.04 -0.52
27.52 13.52 -0.52
27.51 14.21 -0.52
26.56 14.40 -0.51
39.00 24.29 -0.78
18.13 12.87 -0.38
17.11 12.67 -0.36
17.18 13.26 -0.37
16.78 13.50 -0.36
16.72 14.01 -0.37
16.40 14.32 -0.37
15.86 14.41 -0.36
16.06 15.19 -0.37
2.36 4.87 -0.09
2.40 47.84 -0.81
-6.51 -16.23 -0.30
11.58 -24.49 0.15
11.66 -23.43 0.15
11.09 -21.22 0.13
11.16 -20.33 0.13
11.65 -20.25 0.13
11.84 -19.66 0.13
11.62 -18.45 0.12
9.72 -14.76 0.10
10.11 -14.70 0.10
10.22 -14.25 0.10
10.42 -13.92 0.10
10.66 -13.67 0.10
10.97 -13.50 0.10
11.34 -13.39 0.10
11.56 -13.11 0.10
11.56 -12.59 0.10
11.56 -12.10 0.09
11.56 -11.62 0.09
11.56 -11.16 0.09
11.56 -10.72 0.09
11.56 -10.30 0.09
11.56 -9.89 0.09
11.56 -9.49 0.08
11.56 -9.11 0.08
10.32 -7.81 0.07
9.68 -7.02 0.07
10.08 -7.01 0.07
10.13 -6.74 0.07
10.19 -6.49 0.07
10.30 -6.27 0.07
10.43 -6.07 0.07
10.61 -5.89 0.07
10.84 -5.74 0.07
11.11 -5.60 0.07
11.54 -5.53 0.07
12.15 -5.52 0.08
12.65 -5.45 0.08
12.65 -5.15 0.08
12.69 -4.87 0.08
12.69 -4.58 0.08
12.69 -4.29 0.08
12.69 -4.01 0.07
12.69 -3.73 0.07
12.65 -3.45 0.07
12.65 -3.18 0.07
12.65 -2.91 0.07
12.65 -2.64 0.07
12.65 -2.38 0.07
12.65 -2.11 0.07
12.65 -1.85 0.07
12.65 -1.60 0.07
12.65 -1.34 0.07
12.69 -1.09 0.07
12.69 -0.83 0.07
12.69 -0.57 0.07
12.69 -0.32 0.07
12.69 -0.06 0.07
12.69 0.19 0.07
12.65 0.44 0.07
12.65 0.70 0.07
13.35 1.01 0.08
22.70 2.17 0.13
22.70 2.63 0.13
22.71 3.10 0.13
22.81 3.58 0.13
23.18 4.11 0.13
24.10 4.78 0.14
39.70 12.99 0.24
39.38 13.76 0.23
39.50 14.70 0.24
27.76 12.95 0.17
26.92 13.22 0.17
27.38 14.14 0.17
26.51 14.37 0.17
39.00 24.29 0.26
17.92 13.27 0.13
16.99 13.11 0.12
17.05 13.72 0.12
16.81 14.09 0.12
16.25 14.19 0.12
16.39 14.90 0.12
16.00 15.14 0.12
7.94 13.49 0.09
7.41 13.19 0.09
2.36 4.87 0.03
2.40 47.84 0.27
-6.51 -16.23 0.10
10.11 -21.38 0.67
10.14 -20.39 0.64
10.42 -19.92 0.63
10.85 -19.77 0.63
11.36 -19.75 0.64
11.84 -19.66 0.65
11.84 -18.79 0.63
10.36 -15.74 0.53
10.19 -14.82 0.51
10.22 -14.25 0.49
10.38 -13.88 0.49
10.74 -13.77 0.49
11.02 -13.56 0.49
11.34 -13.39 0.49
11.56 -13.11 0.49
11.56 -12.59 0.48
11.62 -12.16 0.47
11.62 -11.68 0.46
11.54 -11.14 0.45
11.53 -10.69 0.44
11.62 -10.35 0.44
11.62 -9.94 0.43
11.52 -9.46 0.42
11.56 -9.11 0.41
10.32 -7.81 0.36
10.16 -7.36 0.35
10.21 -7.10 0.35
10.08 -6.71 0.34
10.19 -6.49 0.34
10.30 -6.27 0.34
10.39 -6.04 0.34
10.57 -5.87 0.34
10.94 -5.79 0.35
11.05 -5.57 0.35
11.54 -5.53 0.36
12.15 -5.52 0.38
12.65 -5.45 0.39
12.65 -5.15 0.38
12.69 -4.87 0.38
12.69 -4.58 0.38
12.69 -4.29 0.38
12.69 -4.01 0.37
12.69 -3.73 0.37
12.65 -3.45 0.37
12.65 -3.18 0.37
12.65 -2.91 0.37
12.65 -2.64 0.36
12.65 -2.38 0.36
12.65 -2.11 0.36
12.65 -1.85 0.36
12.65 -1.60 0.36
12.65 -1.34 0.36
12.69 -1.09 0.36
12.69 -0.83 0.36
12.69 -0.57 0.36
12.69 -0.32 0.36
12.69 -0.06 0.36
12.69 0.19 0.36
12.65 0.44 0.36
12.65 0.70 0.36
13.35 1.01 0.38
16.48 1.58 0.47
16.49 1.91 0.47
16.79 2.29 0.48
22.75 3.57 0.65
23.27 4.13 0.67
39.32 13.74 1.17
39.13 14.56 1.18
27.00 13.27 0.85
26.98 13.94 0.86
26.18 14.20 0.84
36.21 20.58 1.17
34.60 20.60 1.13
33.14 20.64 1.10
33.15 21.58 1.11
17.82 13.20 0.62
17.53 13.53 0.62
16.86 13.57 0.61
16.65 13.96 0.61
16.62 14.51 0.62
16.23 14.75 0.62
7.92 13.45 0.44
7.41 13.19 0.43
2.36 4.87 0.15
2.40 47.84 1.35
-37.16 -5.45 1.06
-36.58 -6.11 1.04
-36.00 -6.76 1.03
-35.71 -7.45 1.03
-35.49 -8.15 1.03
-35.20 -8.83 1.02
-34.97 -9.53 1.02
-34.74 -10.22 1.02
-34.50 -10.90 1.02
-34.24 -11.58 1.02
-33.97 -12.26 1.02
-33.66 -12.91 1.02
-32.98 -13.42 1.00
-31.32 -13.48 0.96
-31.04 -14.11 0.96
-30.75 -14.73 0.96
-30.45 -15.34 0.96
-30.13 -15.95 0.96
-29.81 -16.55 0.96
-29.56 -17.20 0.96
-29.12 -17.73 0.96
-28.76 -18.31 0.96
-28.38 -18.89 0.96
-28.00 -19.45 0.96
-27.60 -20.01 0.96
-27.20 -20.56 0.96
-26.78 -21.10 0.96
-26.35 -21.64 0.96
-25.91 -22.16 0.96
-25.46 -22.68 0.96
-25.00 -23.18 0.96
-24.53 -23.68 0.96
-24.05 -24.17 0.96
-23.56 -24.65 0.96
-23.06 -25.11 0.96
-22.55 -25.57 0.96
-22.03 -26.02 0.96
-21.50 -26.46 0.96
-20.97 -26.88 0.96
-20.43 -27.30 0.96
-19.87 -27.70 0.96
-19.31 -28.10 0.96
-18.75 -28.48 0.96
-18.17 -28.85 0.96
-17.59 -29.21 0.96
-17.09 -29.71 0.97
-16.76 -30.54 0.98
-16.43 -31.42 1.00
-16.17 -32.49 1.02
-15.83 -33.47 1.04
-15.62 -34.82 1.07
-15.23 -35.88 1.10
-6.51 -16.23 0.49
-16.31 -43.15 1.30
-16.21 -45.63 1.36
9.73 -21.69 1.21
9.73 -20.58 1.15
9.89 -19.88 1.13
10.25 -19.60 1.12
10.68 -19.46 1.13
11.18 -19.44 1.14
11.71 -19.44 1.15
11.84 -18.79 1.13
10.36 -15.74 0.96
10.19 -14.82 0.91
10.22 -14.25 0.89
10.38 -13.88 0.88
10.74 -13.77 0.89
11.02 -13.56 0.89
11.34 -13.39 0.89
11.56 -13.11 0.89
11.56 -12.59 0.87
11.62 -12.16 0.85
11.62 -11.68 0.84
11.54 -11.14 0.81
11.53 -10.69 0.80
11.62 -10.35 0.79
11.62 -9.94 0.78
11.52 -9.46 0.76
11.56 -9.11 0.75
10.32 -7.81 0.66
10.16 -7.36 0.64
10.21 -7.10 0.63
10.21 -6.80 0.62
10.19 -6.49 0.61
10.30 -6.27 0.61
10.39 -6.04 0.61
10.72 -5.95 0.62
10.94 -5.79 0.63
11.05 -5.57 0.63
11.54 -5.53 0.65
12.15 -5.52 0.68
12.65 -5.45 0.70
12.65 -5.15 0.69
12.65 -4.85 0.69
12.65 -4.57 0.68
12.65 -4.28 0.68
12.65 -4.00 0.67
12.65 -3.72 0.67
12.65 -3.45 0.67
12.65 -3.18 0.66
12.65 -2.91 0.66
12.65 -2.64 0.66
12.65 -2.38 0.65
12.65 -2.11 0.65
12.65 -1.85 0.65
12.65 -1.60 0.65
12.65 -1.34 0.65
12.65 -1.08 0.64
12.65 -0.83 0.64
12.65 -0.57 0.64
12.65 -0.32 0.64
12.65 -0.06 0.64
12.65 0.19 0.64
12.65 0.44 0.64
12.65 0.70 0.64
13.35 1.01 0.68
16.03 1.53 0.82
16.03 1.86 0.82
16.13 2.20 0.83
16.25 2.55 0.83
23.27 4.13 1.20
39.30 13.74 2.11
27.43 13.48 1.55
27.07 13.98 1.54
27.19 14.74 1.57
36.27 20.62 2.12
34.65 20.63 2.05
33.24 20.71 1.99
33.25 21.65 2.01
17.41 13.44 1.12
17.21 13.84 1.12
16.43 13.77 1.09
16.46 14.37 1.11
16.07 14.61 1.10
11.56 15.13 0.97
7.91 13.44 0.79
7.41 13.18 0.77
2.36 4.87 0.27
2.40 47.84 2.43
-30.43 2.91 1.55
-29.46 2.22 1.50
-28.02 1.55 1.42
-26.99 0.95 1.37
-26.33 0.40 1.34
-25.70 -0.13 1.30
-24.72 -0.62 1.25
-23.75 -1.07 1.21
-23.27 -1.52 1.18
-22.43 -1.92 1.14
-21.74 -2.30 1.11
-21.26 -2.68 1.09
-20.76 -3.04 1.06
-20.42 -3.41 1.05
-20.08 -3.77 1.04
-19.75 -4.12 1.02
-19.43 -4.46 1.01
-19.07 -4.79 1.00
-18.77 -5.11 0.99
-18.53 -5.45 0.98
-18.28 -5.78 0.97
-18.14 -6.14 0.97
-18.01 -6.50 0.97
-17.87 -6.85 0.97
-17.70 -7.20 0.97
-17.53 -7.55 0.97
-17.35 -7.89 0.97
-17.17 -8.22 0.97
-17.09 -8.61 0.97
-17.07 -9.03 0.98
-17.03 -9.45 0.99
-16.98 -9.88 1.00
-16.93 -10.31 1.01
-16.88 -10.75 1.02
-16.91 -11.25 1.03
-16.88 -11.73 1.04
-16.85 -12.22 1.06
-16.82 -12.72 1.07
-16.79 -13.23 1.08
-16.74 -13.75 1.10
-16.69 -14.28 1.11
-16.64 -14.82 1.13
-16.60 -15.39 1.15
-16.54 -15.97 1.17
-16.46 -16.55 1.18
-16.41 -17.17 1.20
-16.49 -17.96 1.24
-16.44 -18.64 1.26
-16.38 -19.34 1.29
-16.29 -20.04 1.31
-16.20 -20.77 1.34
-16.06 -21.46 1.36
-15.85 -22.10 1.38
-15.67 -22.79 1.40
-15.41 -23.41 1.42
-15.08 -23.95 1.44
-14.87 -24.70 1.46
-14.68 -25.52 1.49
-14.55 -26.52 1.53
-14.45 -27.64 1.58
-14.42 -28.98 1.64
-14.36 -30.36 1.70
-14.31 -31.92 1.77
-14.25 -33.56 1.85
-6.51 -16.23 0.89
-14.08 -37.25 2.02
-14.17 -39.89 2.15
-14.41 -43.30 2.31
-14.32 -46.12 2.45
2.30 -38.14 2.80
8.48 -46.43 3.46
13.77 -44.34 3.40
10.45 -22.09 1.79
11.84 -23.79 1.95
10.45 -19.98 1.65
11.73 -21.38 1.79
11.77 -20.46 1.73
11.84 -19.66 1.68
11.84 -18.79 1.63
10.36 -15.74 1.38
10.19 -14.82 1.32
10.22 -14.25 1.29
10.38 -13.88 1.27
10.74 -13.77 1.28
11.02 -13.56 1.28
11.34 -13.39 1.29
11.56 -13.11 1.28
11.56 -12.59 1.25
11.62 -12.16 1.23
11.62 -11.68 1.21
11.54 -11.14 1.18
11.53 -10.69 1.15
11.62 -10.35 1.14
11.62 -9.94 1.12
11.52 -9.46 1.09
11.56 -9.11 1.08
10.32 -7.81 0.95
10.16 -7.36 0.92
10.21 -7.10 0.91
10.21 -6.80 0.90
10.19 -6.49 0.89
10.30 -6.27 0.88
10.39 -6.04 0.88
10.72 -5.95 0.90
10.94 -5.79 0.91
11.05 -5.57 0.91
11.54 -5.53 0.94
12.15 -5.52 0.98
12.65 -5.45 1.01
12.65 -5.15 1.00
12.65 -4.85 0.99
12.65 -4.57 0.99
12.65 -4.28 0.98
12.65 -4.00 0.97
12.65 -3.72 0.97
12.65 -3.45 0.96
12.65 -3.18 0.96
12.65 -2.91 0.95
12.65 -2.64 0.95
12.65 -2.38 0.94
12.65 -2.11 0.94
12.65 -1.85 0.94
12.65 -1.60 0.94
12.65 -1.34 0.93
12.65 -1.08 0.93
12.65 -0.83 0.93
12.65 -0.57 0.93
12.65 -0.32 0.93
12.65 -0.06 0.93
12.65 0.19 0.93
12.65 0.44 0.93
12.65 0.70 0.93
13.35 1.01 0.98
15.89 1.52 1.17
15.89 1.84 1.17
15.99 2.18 1.18
16.11 2.53 1.20
16.70 2.96 1.24
38.93 24.25 3.36
17.06 13.72 1.60
37.55 31.47 3.59
16.30 14.23 1.59
10.49 9.54 1.04
31.95 31.47 3.29
30.69 31.47 3.22
11.56 15.13 1.40
7.91 13.44 1.14
7.41 13.19 1.11
2.36 4.87 0.40
10.69 27.44 2.16
5.99 34.74 2.58
5.89 38.84 2.88
5.84 44.54 3.29
2.40 47.80 3.51
-10.24 47.86 3.59
-10.24 43.57 3.28
-10.24 39.95 3.02
-10.47 37.70 2.87
-6.15 7.72 0.72
-29.68 3.44 2.19
-28.51 2.73 2.10
-27.64 2.08 2.03
-26.60 1.47 1.95
-25.77 0.91 1.89
-24.92 0.38 1.83
-23.59 -0.12 1.73
-22.69 -0.57 1.66
-22.03 -1.00 1.62
-21.54 -1.41 1.58
-21.00 -1.80 1.55
-20.33 -2.15 1.50
-19.70 -2.49 1.46
-19.16 -2.81 1.42
-18.79 -3.14 1.40
-18.44 -3.46 1.38
-18.09 -3.78 1.35
-17.75 -4.08 1.34
-17.43 -4.37 1.32
-17.11 -4.66 1.30
-16.81 -4.94 1.28
-16.56 -5.23 1.27
-16.31 -5.52 1.26
-16.07 -5.80 1.25
-15.83 -6.07 1.24
-15.59 -6.34 1.23
-15.35 -6.61 1.23
-15.12 -6.87 1.22
-15.08 -7.22 1.23
-15.06 -7.59 1.24
-15.03 -7.96 1.25
-15.01 -8.33 1.26
-14.98 -8.72 1.27
-14.97 -9.12 1.29
-15.01 -9.56 1.30
-15.04 -10.01 1.32
-15.07 -10.47 1.35
-15.11 -10.95 1.37
-15.13 -11.44 1.39
-15.17 -11.96 1.42
-15.23 -12.51 1.45
-15.25 -13.04 1.47
-15.19 -13.53 1.49
-15.14 -14.04 1.51
-15.11 -14.59 1.54
-15.09 -15.17 1.57
-15.07 -15.76 1.60
-15.04 -16.39 1.63
-15.02 -17.03 1.67
-15.04 -17.76 1.71
-15.07 -18.54 1.75
-15.08 -19.34 1.80
-15.03 -20.08 1.84
-14.97 -20.87 1.88
-14.90 -21.67 1.93
-14.79 -22.46 1.97
-14.65 -23.26 2.02
-14.39 -23.90 2.05
-14.17 -24.64 2.08
-13.96 -25.44 2.13
-13.79 -26.37 2.18
-13.64 -27.42 2.25
-13.57 -28.71 2.33
-13.49 -30.08 2.42
-13.40 -31.56 2.51
-6.51 -16.23 1.28
-13.18 -34.87 2.73
-13.05 -36.76 2.86
-12.89 -38.76 2.99
-13.20 -42.50 3.26
-12.83 -44.44 3.39
-12.43 -46.54 3.53
0.00 -39.80 3.82
0.80 -39.79 3.82
1.60 -39.76 3.82
2.33 -38.65 3.72
3.11 -38.60 3.72
3.88 -38.53 3.72
4.65 -38.44 3.72
4.69 -33.12 3.21
5.39 -33.25 3.23
6.96 -38.12 3.72
7.73 -37.97 3.72
8.49 -37.81 3.72
9.24 -37.63 3.72
8.68 -32.51 3.23
10.75 -37.23 3.72
11.49 -37.01 3.72
12.23 -36.77 3.72
12.97 -36.52 3.72
13.70 -36.25 3.72
13.56 -33.81 3.50
15.14 -35.67 3.72
15.86 -35.36 3.72
10.45 -22.09 2.35
11.84 -23.79 2.55
10.45 -19.98 2.17
11.73 -21.38 2.34
11.77 -20.46 2.27
11.84 -19.66 2.20
11.84 -18.79 2.13
10.21 -15.51 1.78
10.06 -14.64 1.71
10.22 -14.25 1.68
10.38 -13.88 1.66
10.69 -13.71 1.67
10.97 -13.49 1.67
10.61 -12.53 1.58
11.56 -13.11 1.68
11.56 -12.59 1.64
11.51 -12.04 1.60
11.62 -11.68 1.58
11.54 -11.14 1.54
11.53 -10.69 1.51
11.62 -10.35 1.49
11.62 -9.94 1.47
11.52 -9.46 1.43
11.56 -9.11 1.41
10.32 -7.81 1.24
10.16 -7.36 1.20
10.21 -7.10 1.19
10.21 -6.80 1.18
10.19 -6.49 1.16
10.30 -6.27 1.16
10.39 -6.04 1.15
10.72 -5.95 1.18
10.94 -5.79 1.19
11.05 -5.57 1.19
11.54 -5.53 1.23
12.15 -5.52 1.28
12.65 -5.45 1.32
12.65 -5.15 1.31
12.65 -4.85 1.30
12.65 -4.57 1.29
12.65 -4.28 1.28
12.65 -4.00 1.27
12.65 -3.72 1.27
12.65 -3.45 1.26
12.65 -3.18 1.25
12.65 -2.91 1.25
12.65 -2.64 1.24
12.65 -2.38 1.24
12.65 -2.11 1.23
12.65 -1.85 1.23
12.65 -1.60 1.22
12.65 -1.34 1.22
12.65 -1.08 1.22
12.65 -0.83 1.22
12.65 -0.57 1.22
12.65 -0.32 1.22
12.65 -0.06 1.21
12.65 0.19 1.21
12.65 0.44 1.22
12.65 0.70 1.22
22.70 1.71 2.19
22.70 2.17 2.19
22.70 2.63 2.19
22.71 3.10 2.20
22.75 3.57 2.21
23.27 4.13 2.27
38.12 7.56 3.73
37.96 8.32 3.73
37.78 9.08 3.73
37.59 9.84 3.73
37.39 10.59 3.73
37.17 11.34 3.73
36.80 12.04 3.72
36.55 12.78 3.72
36.29 13.51 3.72
36.01 14.23 3.72
35.72 14.95 3.72
35.41 15.67 3.72
36.06 16.83 3.82
35.72 17.55 3.82
35.36 18.26 3.82
34.98 18.97 3.82
34.60 19.67 3.82
34.20 20.36 3.82
33.78 21.04 3.82
33.35 21.71 3.82
32.91 22.38 3.82
32.45 23.03 3.82
31.98 23.68 3.82
31.01 23.94 3.76
30.17 24.27 3.72
29.68 24.87 3.72
10.92 9.53 1.39
10.49 9.54 1.36
28.12 26.61 3.72
27.58 27.17 3.72
27.03 27.72 3.72
26.49 28.28 3.72
24.03 26.71 3.45
21.04 24.35 3.09
24.74 29.82 3.72
24.14 30.31 3.72
23.52 30.79 3.72
22.90 31.25 3.72
22.27 31.71 3.72
21.63 32.15 3.72
20.27 31.47 3.59
7.94 13.49 1.50
7.41 13.19 1.45
16.06 31.47 3.39
2.36 4.87 0.52
10.68 27.43 2.83
11.54 31.48 3.22
9.43 31.47 3.15
6.09 31.53 3.08
5.84 33.92 3.30
5.81 38.28 3.72
5.04 38.39 3.72
4.27 38.49 3.72
3.49 38.56 3.72
2.72 38.63 3.72
2.00 39.75 3.82
1.20 39.78 3.82
0.40 39.79 3.82
-0.40 39.79 3.82
-1.20 39.78 3.82
-2.00 39.75 3.82
-2.79 39.70 3.82
-3.59 39.63 3.82
-4.38 39.55 3.82
-5.18 39.46 3.82
-5.97 39.35 3.82
-6.58 38.16 3.72
-7.34 38.02 3.72
-8.10 37.87 3.72
-8.86 37.70 3.72
-9.61 37.51 3.72
-10.24 36.86 3.67
-10.24 34.18 3.43
-9.97 31.00 3.13
-9.97 28.99 2.94
-6.08 7.63 0.94
-6.32 7.62 0.95
-30.03 4.09 2.91
-28.40 3.29 2.74
-27.53 2.63 2.65
-26.45 1.99 2.55
-25.36 1.40 2.44
-24.09 0.85 2.31
-23.07 0.35 2.22
-22.27 -0.11 2.14
-21.51 -0.54 2.07
-20.89 -0.94 2.01
-20.35 -1.33 1.96
-19.85 -1.70 1.91
-19.36 -2.05 1.87
-18.90 -2.38 1.83
-18.47 -2.71 1.79
-18.10 -3.03 1.76
-17.77 -3.34 1.74
-17.45 -3.64 1.71
-17.13 -3.94 1.69
-16.82 -4.22 1.67
-16.52 -4.50 1.64
-16.23 -4.77 1.62
-15.98 -5.05 1.61
-15.74 -5.33 1.60
-15.51 -5.60 1.58
-15.28 -5.86 1.57
-15.07 -6.13 1.56
-14.90 -6.41 1.56
-14.72 -6.69 1.55
-14.58 -6.98 1.55
-14.54 -7.32 1.56
-14.50 -7.67 1.57
-14.47 -8.03 1.59
-14.44 -8.40 1.60
-14.40 -8.77 1.62
-14.40 -9.17 1.64
-14.41 -9.59 1.66
-14.43 -10.03 1.69
-14.45 -10.48 1.71
-14.47 -10.94 1.74
-14.50 -11.43 1.77
-14.52 -11.92 1.80
-14.53 -12.43 1.84
-14.54 -12.95 1.87
-14.65 -13.58 1.92
-14.61 -14.11 1.95
-14.58 -14.65 1.98
-14.55 -15.23 2.02
-14.54 -15.83 2.06
-14.50 -16.45 2.11
-14.47 -17.08 2.15
-14.41 -17.73 2.19
-14.42 -18.49 2.25
-14.44 -19.30 2.31
-14.43 -20.12 2.38
-14.36 -20.89 2.43
-14.31 -21.73 2.50
-14.20 -22.55 2.56
-14.04 -23.32 2.61
-13.78 -23.96 2.65
-13.50 -24.61 2.70
-13.25 -25.35 2.75
-13.06 -26.24 2.81
-12.80 -27.07 2.87
-12.59 -28.09 2.96
-12.44 -29.30 3.06
-6.51 -16.23 1.68
-12.11 -32.05 3.29
-11.95 -33.64 3.43
-11.64 -34.99 3.54
-11.31 -36.42 3.66
-10.88 -37.69 3.77
-9.99 -37.41 3.72
-9.24 -37.60 3.72
-8.48 -37.78 3.72
-7.72 -37.94 3.72
-6.96 -38.09 3.72
-6.19 -38.22 3.72
-5.57 -39.40 3.82
-4.78 -39.51 3.82
-3.99 -39.60 3.82
-3.19 -39.67 3.82
-2.40 -39.72 3.82
-1.60 -39.76 3.82
-0.80 -39.79 3.82
0.00 -32.16 3.82
0.65 -32.16 3.82
1.29 -32.14 3.82
1.94 -32.11 3.82
2.51 -31.20 3.72
3.14 -31.14 3.72
3.76 -31.07 3.72
4.38 -30.99 3.72
5.00 -30.89 3.72
5.62 -30.79 3.72
6.24 -30.69 3.72
6.86 -30.56 3.72
7.47 -30.41 3.72
8.08 -30.26 3.72
8.69 -30.09 3.72
9.29 -29.91 3.72
9.89 -29.72 3.72
10.48 -29.51 3.72
11.07 -29.30 3.72
11.66 -29.07 3.72
12.24 -28.83 3.72
12.81 -28.58 3.72
10.45 -22.09 2.90
11.93 -23.97 3.18
10.45 -19.98 2.68
11.73 -21.38 2.90
11.77 -20.46 2.80
11.84 -19.66 2.73
11.84 -18.79 2.64
10.36 -15.74 2.24
10.19 -14.82 2.14
10.22 -14.25 2.08
10.38 -13.88 2.06
10.74 -13.77 2.07
11.02 -13.56 2.08
10.63 -12.55 1.95
10.97 -12.44 1.97
11.42 -12.44 2.01
10.54 -11.03 1.81
10.63 -10.68 1.79
11.10 -10.72 1.83
11.53 -10.69 1.87
11.62 -10.35 1.85
10.84 -9.28 1.70
11.15 -9.16 1.71
11.56 -9.11 1.75
10.32 -7.81 1.54
10.16 -7.36 1.49
10.21 -7.10 1.48
10.21 -6.80 1.46
10.19 -6.49 1.43
10.30 -6.27 1.43
10.39 -6.04 1.43
10.72 -5.95 1.46
10.94 -5.79 1.47
11.05 -5.57 1.47
11.54 -5.53 1.52
12.15 -5.52 1.59
12.65 -5.45 1.64
12.65 -5.15 1.62
12.65 -4.85 1.61
12.65 -4.57 1.60
12.65 -4.28 1.59
12.65 -4.00 1.58
12.65 -3.72 1.57
12.65 -3.45 1.56
12.65 -3.18 1.55
12.65 -2.91 1.54
12.65 -2.64 1.54
12.65 -2.38 1.53
12.65 -2.11 1.52
12.65 -1.85 1.52
12.65 -1.60 1.51
12.65 -1.34 1.51
12.65 -1.08 1.51
12.65 -0.83 1.51
12.65 -0.57 1.50
12.65 -0.32 1.50
12.65 -0.06 1.50
12.65 0.19 1.50
12.65 0.44 1.50
12.65 0.70 1.50
22.80 1.72 2.72
22.70 2.17 2.71
22.70 2.63 2.71
22.71 3.10 2.72
22.75 3.57 2.73
23.27 4.13 2.81
26.38 5.23 3.19
30.68 6.72 3.73
30.54 7.34 3.73
30.38 7.95 3.73
30.22 8.56 3.73
30.04 9.16 3.73
29.85 9.77 3.73
29.65 10.36 3.73
29.43 10.96 3.73
29.21 11.54 3.73
28.87 12.09 3.72
28.62 12.66 3.72
28.36 13.23 3.72
27.89 13.70 3.69
27.78 14.35 3.71
27.51 14.92 3.72
27.21 15.47 3.72
27.64 16.45 3.82
27.30 17.00 3.82
26.95 17.55 3.82
26.60 18.09 3.82
26.23 18.62 3.82
25.85 19.14 3.82
25.46 19.65 3.82
25.06 20.16 3.82
24.65 20.66 3.82
10.91 9.52 1.72
10.48 9.52 1.68
10.06 9.52 1.65
22.91 22.57 3.82
22.46 23.03 3.82
21.99 23.47 3.82
21.51 23.91 3.82
20.69 23.94 3.76
19.98 24.08 3.72
19.49 24.48 3.72
19.00 24.87 3.72
18.50 25.24 3.72
17.99 25.61 3.72
17.47 25.97 3.72
16.94 26.31 3.72
16.41 26.65 3.72
8.10 13.77 1.90
15.33 27.28 3.72
14.78 27.59 3.72
13.86 27.16 3.62
2.36 4.87 0.64
13.10 28.44 3.72
12.53 28.70 3.72
11.95 28.95 3.72
10.69 27.46 3.50
10.78 29.40 3.72
10.18 29.61 3.72
9.59 29.81 3.72
8.99 30.00 3.72
8.38 30.17 3.72
7.78 30.33 3.72
7.17 30.48 3.72
6.55 30.62 3.72
5.93 30.73 3.72
5.31 30.84 3.72
4.69 30.94 3.72
4.07 31.03 3.72
3.45 31.11 3.72
2.82 31.17 3.72
2.20 31.22 3.72
1.61 32.12 3.82
0.97 32.15 3.82
0.32 32.16 3.82
-0.32 32.16 3.82
-0.97 32.15 3.82
-1.61 32.12 3.82
-2.26 32.08 3.82
-2.90 32.03 3.82
-3.54 31.97 3.82
-4.18 31.89 3.82
-4.82 31.80 3.82
-5.46 31.70 3.82
-6.00 31.08 3.76
-6.55 30.60 3.72
-7.16 30.47 3.72
-7.77 30.32 3.72
-8.38 30.15 3.72
-8.98 29.98 3.72
-9.58 29.79 3.72
-9.97 28.99 3.64
-9.97 27.20 3.44
-9.97 25.60 3.26
-9.97 24.15 3.10
-9.97 22.84 2.96
-10.15 22.05 2.88
-6.08 7.63 1.16
-6.31 7.61 1.17
-47.16 9.35 5.71
-46.92 8.33 5.66
-30.41 4.77 3.66
-28.58 3.90 3.43
-27.40 3.18 3.28
-26.26 2.51 3.13
-25.09 1.89 2.99
-23.54 1.30 2.80
-22.53 0.79 2.68
-21.64 0.33 2.57
-20.98 -0.11 2.49
-20.51 -0.51 2.44
-20.04 -0.91 2.38
-19.55 -1.28 2.33
-19.08 -1.63 2.27
-18.65 -1.97 2.23
-18.23 -2.30 2.18
-17.83 -2.61 2.14
-17.46 -2.92 2.10
-17.15 -3.22 2.07
-16.85 -3.52 2.04
-16.55 -3.80 2.02
-16.26 -4.08 1.99
-15.98 -4.35 1.97
-15.70 -4.62 1.94
-15.43 -4.88 1.92
-15.21 -5.14 1.91
-15.02 -5.42 1.90
-14.85 -5.70 1.89
-14.68 -5.97 1.88
-14.51 -6.25 1.88
-14.34 -6.52 1.87
-14.17 -6.79 1.87
-14.07 -7.09 1.87
-14.03 -7.42 1.89
-13.98 -7.76 1.90
-13.93 -8.11 1.91
-13.89 -8.46 1.93
-13.86 -8.82 1.95
-13.85 -9.22 1.98
-13.85 -9.62 2.00
-13.85 -10.04 2.03
-13.86 -10.48 2.06
-13.87 -10.93 2.10
-13.89 -11.41 2.13
-13.91 -11.89 2.17
-13.91 -12.39 2.21
-13.91 -12.90 2.25
-14.02 -13.53 2.31
-14.11 -14.18 2.38
-14.06 -14.71 2.42
-14.03 -15.28 2.46
-14.01 -15.89 2.52
-13.97 -16.50 2.57
-13.92 -17.13 2.62
-13.86 -17.77 2.68
-13.79 -18.43 2.73
-13.79 -19.23 2.81
-13.81 -20.10 2.90
-13.77 -20.91 2.97
-13.70 -21.74 3.05
-13.63 -22.63 3.14
-13.44 -23.38 3.20
-13.17 -24.01 3.25
-12.81 -24.50 3.28
-12.42 -24.96 3.31
-12.11 -25.62 3.37
-11.88 -26.49 3.45
-11.60 -27.33 3.53
-6.51 -16.23 2.08
-11.09 -29.33 3.73
-10.70 -30.12 3.80
-9.88 -29.69 3.72
-9.28 -29.89 3.72
-8.68 -30.07 3.72
-8.07 -30.24 3.72
-7.47 -30.39 3.72
-6.85 -30.53 3.72
-6.24 -30.67 3.72
-5.78 -31.64 3.82
-5.14 -31.75 3.82
-4.50 -31.85 3.82
-3.86 -31.93 3.82
-3.22 -32.00 3.82
-2.58 -32.06 3.82
-1.94 -32.11 3.82
-1.29 -32.14 3.82
-0.65 -32.16 3.82
0.00 -26.96 3.82
0.54 -26.96 3.82
1.08 -26.94 3.82
1.62 -26.92 3.82
2.10 -26.15 3.72
2.63 -26.11 3.72
3.15 -26.05 3.72
3.67 -25.98 3.72
4.20 -25.90 3.72
4.71 -25.81 3.72
5.23 -25.71 3.72
5.75 -25.60 3.72
6.26 -25.50 3.72
6.77 -25.37 3.72
7.28 -25.23 3.72
7.79 -25.07 3.72
8.29 -24.91 3.72
8.79 -24.74 3.72
9.28 -24.56 3.72
9.77 -24.37 3.72
10.26 -24.17 3.72
10.74 -23.96 3.72
10.44 -22.07 3.46
10.94 -22.00 3.48
10.45 -19.98 3.20
11.73 -21.38 3.46
11.77 -20.46 3.34
11.84 -19.66 3.25
11.84 -18.79 3.15
10.36 -15.74 2.67
10.11 -14.70 2.53
10.22 -14.25 2.49
10.42 -13.92 2.46
10.66 -13.67 2.46
10.08 -12.40 2.26
10.53 -12.44 2.31
10.97 -12.44 2.35
10.21 -11.12 2.14
10.25 -10.72 2.10
10.62 -10.68 2.13
11.10 -10.72 2.19
11.53 -10.69 2.23
11.62 -10.35 2.21
10.71 -9.16 2.00
11.20 -9.20 2.05
11.56 -9.11 2.09
10.14 -7.67 1.80
10.08 -7.31 1.76
10.04 -6.97 1.73
10.08 -6.71 1.72
10.19 -6.49 1.71
10.30 -6.27 1.71
10.39 -6.04 1.70
10.57 -5.87 1.71
10.78 -5.71 1.73
11.05 -5.57 1.75
11.38 -5.45 1.79
12.15 -5.52 1.89
12.65 -5.45 1.95
12.65 -5.15 1.94
12.65 -4.85 1.92
12.65 -4.57 1.91
12.65 -4.28 1.89
12.65 -4.00 1.88
12.65 -3.72 1.87
12.65 -3.45 1.86
12.65 -3.18 1.85
12.65 -2.91 1.84
12.65 -2.64 1.83
12.65 -2.38 1.82
12.65 -2.11 1.82
12.65 -1.85 1.81
12.65 -1.60 1.81
12.65 -1.34 1.80
12.65 -1.08 1.80
12.65 -0.83 1.80
12.65 -0.57 1.79
12.65 -0.32 1.79
12.65 -0.06 1.79
12.65 0.19 1.79
12.65 0.44 1.79
12.65 0.70 1.80
22.80 1.72 3.24
22.70 2.17 3.23
22.70 2.63 3.24
22.71 3.10 3.25
22.75 3.57 3.26
23.24 4.13 3.34
25.75 5.11 3.72
25.65 5.62 3.72
25.60 6.15 3.73
25.47 6.67 3.73
25.33 7.18 3.73
25.18 7.68 3.73
25.02 8.19 3.73
24.86 8.69 3.73
24.68 9.18 3.73
24.49 9.68 3.73
24.29 10.17 3.73
24.08 10.65 3.73
23.86 11.13 3.73
23.63 11.61 3.73
23.31 12.04 3.72
23.07 12.51 3.72
22.81 12.97 3.72
22.54 13.42 3.72
22.27 13.87 3.72
21.99 14.32 3.72
21.70 14.75 3.72
21.40 15.19 3.72
21.09 15.61 3.72
21.34 16.48 3.82
21.01 16.90 3.82
20.67 17.32 3.82
10.91 9.52 2.05
10.48 9.52 2.01
10.06 9.52 1.96
19.21 18.92 3.82
18.83 19.30 3.82
18.43 19.68 3.82
18.04 20.04 3.82
17.63 20.40 3.82
17.22 20.75 3.82
16.80 21.09 3.82
16.37 21.43 3.82
15.94 21.75 3.82
15.50 22.07 3.82
15.05 22.37 3.82
14.60 22.67 3.82
14.14 22.96 3.82
8.41 14.29 2.35
13.21 23.51 3.82
12.73 23.77 3.82
12.21 23.93 3.81
2.36 4.87 0.77
11.03 23.94 3.74
10.49 24.05 3.72
10.01 24.25 3.72
9.52 24.45 3.72
9.03 24.63 3.72
8.53 24.81 3.72
8.03 24.98 3.72
7.53 25.13 3.72
7.02 25.28 3.72
6.51 25.42 3.72
6.00 25.54 3.72
5.49 25.66 3.72
4.97 25.76 3.72
4.46 25.86 3.72
3.94 25.94 3.72
3.45 26.26 3.75
2.97 26.80 3.82
2.43 26.85 3.82
1.89 26.90 3.82
1.35 26.93 3.82
0.81 26.95 3.82
0.27 26.96 3.82
-0.27 26.96 3.82
-0.81 26.95 3.82
-1.35 26.93 3.82
-1.89 26.90 3.82
-2.43 26.85 3.82
-2.97 26.80 3.82
-3.51 26.74 3.82
-4.04 26.66 3.82
-4.58 26.57 3.82
-5.11 26.48 3.82
-5.64 26.37 3.82
-6.01 25.57 3.72
-6.51 25.42 3.72
-7.02 25.28 3.72
-7.53 25.13 3.72
-8.03 24.98 3.72
-8.53 24.81 3.72
-9.03 24.63 3.72
-9.52 24.45 3.72
-9.97 24.15 3.70
-9.97 22.84 3.53
-9.97 21.65 3.38
-9.97 20.55 3.24
-9.97 19.54 3.11
-9.97 18.61 2.99
-9.99 17.78 2.89
-6.08 7.63 1.38
-6.31 7.61 1.40
-48.06 11.55 7.00
-47.25 10.36 6.85
-45.95 9.11 6.64
-30.77 5.46 4.43
-28.76 4.51 4.12
-27.18 3.71 3.89
-26.04 3.02 3.71
-24.77 2.37 3.53
-22.67 1.71 3.22
-21.74 1.20 3.09
-21.04 0.74 2.98
-20.57 0.31 2.92
-20.12 -0.10 2.85
-19.68 -0.49 2.79
-19.25 -0.87 2.73
-18.82 -1.23 2.67
-18.38 -1.57 2.61
-17.96 -1.90 2.56
-17.55 -2.21 2.51
-17.16 -2.51 2.46
-16.85 -2.82 2.42
-16.56 -3.11 2.39
-16.28 -3.40 2.36
-16.00 -3.68 2.33
-15.73 -3.95 2.30
-15.46 -4.21 2.27
-15.20 -4.47 2.24
-14.98 -4.73 2.23
-14.79 -5.00 2.21
-14.63 -5.28 2.20
-14.47 -5.55 2.20
-14.30 -5.82 2.19
-14.14 -6.09 2.18
-13.98 -6.35 2.18
-13.81 -6.61 2.17
-13.65 -6.88 2.16
-13.59 -7.19 2.18
-13.54 -7.52 2.19
-13.49 -7.85 2.21
-13.44 -8.18 2.23
-13.38 -8.52 2.25
-13.33 -8.87 2.27
-13.32 -9.26 2.30
-13.32 -9.65 2.33
-13.31 -10.06 2.36
-13.30 -10.48 2.40
-13.30 -10.92 2.44
-13.30 -11.38 2.48
-13.31 -11.85 2.52
-13.31 -12.34 2.57
-13.31 -12.85 2.62
-13.38 -13.45 2.69
-13.50 -14.12 2.77
-13.56 -14.77 2.84
-13.51 -15.33 2.90
-13.48 -15.92 2.96
-13.45 -16.54 3.02
-13.39 -17.17 3.09
-13.32 -17.80 3.15
-13.24 -18.45 3.22
-13.16 -19.14 3.29
-13.16 -20.00 3.39
-13.16 -20.90 3.50
-13.07 -21.70 3.59
-12.80 -22.25 3.64
-12.52 -22.81 3.69
-12.22 -23.36 3.74
-11.88 -23.88 3.78
-11.54 -24.41 3.83
-11.19 -24.95 3.87
-10.73 -25.28 3.89
-6.51 -16.23 2.48
-9.28 -24.54 3.72
-8.78 -24.72 3.72
-8.28 -24.89 3.72
-7.78 -25.06 3.72
-7.28 -25.21 3.72
-6.77 -25.35 3.72
-6.26 -25.48 3.72
-5.91 -26.31 3.82
-5.38 -26.42 3.82
-4.85 -26.53 3.82
-4.31 -26.62 3.82
-3.78 -26.70 3.82
-3.24 -26.77 3.82
-2.70 -26.83 3.82
-2.16 -26.88 3.82
-1.62 -26.92 3.82
-1.08 -26.94 3.82
-0.54 -26.96 3.82
-0.00 -23.19 3.82
0.47 -23.19 3.82
0.93 -23.17 3.82
1.40 -23.15 3.82
1.86 -23.12 3.82
2.26 -22.45 3.72
2.71 -22.40 3.72
3.16 -22.34 3.72
3.61 -22.28 3.72
4.05 -22.20 3.72
4.50 -22.11 3.72
4.94 -22.02 3.72
5.38 -21.91 3.72
5.82 -21.80 3.72
6.26 -21.70 3.72
6.70 -21.57 3.72
7.13 -21.43 3.72
7.56 -21.28 3.72
7.98 -21.12 3.72
8.41 -20.96 3.72
8.82 -20.79 3.72
9.24 -20.61 3.72
9.65 -20.42 3.72
10.06 -20.22 3.72
10.37 -19.83 3.69
10.86 -19.80 3.72
11.26 -19.58 3.72
11.65 -19.35 3.72
11.84 -18.79 3.66
10.36 -15.74 3.10
10.19 -14.82 2.96
10.22 -14.25 2.89
10.38 -13.88 2.86
9.71 -12.45 2.60
10.11 -12.44 2.64
10.53 -12.44 2.69
9.73 -11.03 2.42
9.91 -10.79 2.41
10.24 -10.72 2.44
10.66 -10.72 2.49
11.10 -10.71 2.54
10.07 -9.34 2.26
10.33 -9.20 2.28
10.75 -9.20 2.33
11.20 -9.20 2.39
11.56 -9.11 2.42
10.32 -7.81 2.13
10.16 -7.36 2.07
10.21 -7.10 2.05
10.21 -6.80 2.02
10.19 -6.49 1.99
10.30 -6.27 1.99
10.39 -6.04 1.98
10.72 -5.95 2.02
10.94 -5.79 2.04
11.05 -5.57 2.04
11.54 -5.53 2.11
12.15 -5.52 2.20
12.65 -5.45 2.27
12.65 -5.15 2.25
11.62 -4.46 2.05
11.77 -4.25 2.06
12.09 -4.09 2.10
12.65 -4.00 2.19
12.65 -3.72 2.17
12.65 -3.45 2.16
12.65 -3.18 2.15
12.65 -2.91 2.14
12.65 -2.64 2.13
12.65 -2.38 2.12
12.65 -2.11 2.11
12.65 -1.85 2.11
12.65 -1.60 2.10
12.65 -1.34 2.10
12.65 -1.08 2.09
12.65 -0.83 2.09
12.65 -0.57 2.09
12.65 -0.32 2.08
12.65 -0.06 2.08
12.65 0.19 2.08
12.65 0.44 2.09
12.65 0.70 2.09
22.52 1.70 3.72
22.48 2.15 3.72
22.43 2.60 3.72
22.38 3.05 3.72
22.31 3.50 3.72
22.23 3.95 3.72
22.15 4.39 3.72
22.06 4.84 3.72
21.96 5.28 3.72
21.85 5.72 3.72
21.79 6.17 3.73
21.66 6.61 3.73
21.52 7.04 3.73
21.38 7.47 3.73
21.22 7.90 3.73
21.06 8.32 3.73
20.89 8.74 3.73
20.71 9.16 3.73
20.52 9.58 3.73
20.32 9.99 3.73
20.12 10.39 3.73
19.91 10.79 3.73
19.69 11.19 3.73
19.46 11.58 3.73
19.15 11.93 3.72
18.91 12.31 3.72
18.66 12.69 3.72
18.40 13.06 3.72
18.14 13.43 3.72
17.86 13.79 3.72
17.02 13.70 3.60
17.21 14.43 3.70
10.91 9.52 2.39
10.48 9.52 2.33
10.06 9.52 2.28
16.08 15.84 3.72
16.19 16.60 3.82
15.86 16.93 3.82
15.51 17.24 3.82
15.16 17.55 3.82
14.81 17.85 3.82
14.45 18.14 3.82
14.08 18.43 3.82
13.71 18.71 3.82
13.33 18.98 3.82
12.95 19.24 3.82
12.56 19.50 3.82
12.16 19.75 3.82
8.11 13.78 2.63
11.36 20.22 3.82
10.95 20.44 3.82
10.54 20.66 3.82
2.36 4.87 0.89
9.70 21.07 3.82
9.28 21.26 3.82
8.85 21.44 3.82
8.42 21.61 3.82
7.98 21.78 3.82
7.54 21.93 3.82
7.10 22.08 3.82
6.66 22.22 3.82
6.21 22.35 3.82
5.76 22.47 3.82
5.31 22.58 3.82
4.85 22.68 3.82
4.40 22.77 3.82
3.94 22.86 3.82
3.48 22.93 3.82
3.02 22.99 3.82
2.56 23.05 3.82
2.09 23.10 3.82
1.63 23.13 3.82
1.16 23.16 3.82
0.70 23.18 3.82
0.23 23.19 3.82
-0.23 23.19 3.82
-0.70 23.18 3.82
-1.16 23.16 3.82
-1.63 23.13 3.82
-2.09 23.10 3.82
-2.56 23.05 3.82
-3.02 22.99 3.82
-3.48 22.93 3.82
-3.94 22.86 3.82
-4.40 22.77 3.82
-4.85 22.68 3.82
-5.31 22.58 3.82
-5.76 22.47 3.82
-6.04 21.74 3.72
-6.48 21.62 3.72
-6.91 21.48 3.72
-7.34 21.34 3.72
-7.77 21.19 3.72
-8.19 21.03 3.72
-8.61 20.86 3.72
-9.03 20.68 3.72
-9.44 20.50 3.72
-9.85 20.30 3.72
-9.97 19.54 3.61
-9.97 18.61 3.48
-9.97 17.74 3.35
-9.97 16.94 3.24
-9.97 16.19 3.13
-9.97 15.48 3.03
-9.97 14.82 2.94
-10.08 14.36 2.89
-6.08 7.63 1.61
-40.65 27.64 8.10
-41.16 26.80 8.09
-41.53 25.87 8.06
-46.76 11.24 7.92
-46.45 10.18 7.83
-31.08 6.16 5.22
-28.52 5.06 4.77
-26.90 4.22 4.49
-25.79 3.52 4.29
-21.20 2.46 3.52
-20.89 2.00 3.46
-20.58 1.55 3.40
-20.23 1.12 3.34
-19.78 0.70 3.26
-19.34 0.29 3.19
-18.99 -0.10 3.13
-18.68 -0.47 3.08
-18.37 -0.83 3.03
-17.95 -1.17 2.96
-17.55 -1.50 2.90
-17.16 -1.82 2.84
-16.86 -2.13 2.80
-16.57 -2.43 2.76
-16.28 -2.72 2.72
-16.00 -3.01 2.68
-15.73 -3.28 2.65
-15.47 -3.55 2.62
-15.21 -3.82 2.58
-15.00 -4.09 2.56
-14.80 -4.35 2.54
-14.60 -4.61 2.52
-14.40 -4.87 2.50
-14.25 -5.14 2.49
-14.09 -5.41 2.49
-13.93 -5.67 2.48
-13.78 -5.93 2.47
-13.62 -6.19 2.46
-13.46 -6.45 2.46
-13.31 -6.70 2.45
-13.17 -6.97 2.45
-13.12 -7.29 2.47
-13.07 -7.60 2.49
-13.02 -7.93 2.51
-12.97 -8.26 2.53
-12.91 -8.59 2.55
-12.85 -8.93 2.58
-12.80 -9.28 2.60
-12.79 -9.67 2.64
-12.77 -10.07 2.68
-12.75 -10.47 2.72
-12.73 -10.89 2.76
-12.67 -11.29 2.80
-12.64 -11.72 2.84
-12.63 -12.19 2.89
-12.62 -12.68 2.95
-12.58 -13.16 3.00
-12.52 -13.64 3.05
-12.76 -14.47 3.18
-12.87 -15.20 3.28
-12.75 -15.68 3.33
-12.63 -16.19 3.38
-12.51 -16.72 3.44
-12.36 -17.23 3.49
-12.18 -17.72 3.54
-11.99 -18.22 3.59
-11.78 -18.70 3.64
-11.57 -19.21 3.69
-11.39 -19.81 3.76
-11.21 -20.43 3.84
-10.98 -21.00 3.90
-10.61 -21.32 3.92
-9.64 -20.40 3.72
-9.23 -20.59 3.72
-8.82 -20.77 3.72
-6.50 -16.21 2.88
-7.98 -21.11 3.72
-7.55 -21.26 3.72
-7.12 -21.41 3.72
-6.69 -21.55 3.72
-6.26 -21.68 3.72
-5.98 -22.41 3.82
-5.53 -22.52 3.82
-5.08 -22.63 3.82
-4.62 -22.73 3.82
-4.17 -22.81 3.82
-3.71 -22.89 3.82
-3.25 -22.96 3.82
-2.79 -23.02 3.82
-2.32 -23.08 3.82
-1.86 -23.12 3.82
-1.40 -23.15 3.82
-0.93 -23.17 3.82
-0.47 -23.19 3.82
-0.00 -20.33 3.82
0.41 -20.32 3.82
0.82 -20.31 3.82
1.22 -20.29 3.82
1.63 -20.26 3.82
2.03 -20.19 3.81
2.38 -19.63 3.72
2.77 -19.58 3.72
3.16 -19.52 3.72
3.55 -19.46 3.72
3.94 -19.38 3.72
4.33 -19.30 3.72
4.72 -19.21 3.72
5.10 -19.11 3.72
5.49 -19.00 3.72
5.87 -18.89 3.72
6.25 -18.78 3.72
6.62 -18.65 3.72
7.00 -18.51 3.72
7.37 -18.37 3.72
7.73 -18.22 3.72
8.10 -18.06 3.72
8.46 -17.89 3.72
8.82 -17.72 3.72
9.17 -17.54 3.72
9.52 -17.35 3.72
9.87 -17.16 3.72
10.21 -16.96 3.72
10.55 -16.75 3.72
10.36 -15.74 3.54
10.19 -14.82 3.38
9.05 -12.61 2.92
9.30 -12.43 2.92
9.70 -12.44 2.97
10.11 -12.44 3.01
10.33 -12.20 3.01
9.58 -10.86 2.72
9.84 -10.72 2.73
10.24 -10.72 2.79
10.52 -10.57 2.80
9.63 -9.29 2.52
9.88 -9.16 2.53
10.33 -9.20 2.60
10.75 -9.20 2.66
11.20 -9.20 2.72
11.56 -9.11 2.77
10.32 -7.81 2.43
10.14 -7.35 2.35
10.04 -6.97 2.30
10.08 -6.71 2.28
10.19 -6.49 2.27
10.30 -6.27 2.27
10.39 -6.04 2.26
10.57 -5.87 2.27
10.78 -5.71 2.29
11.11 -5.60 2.34
11.54 -5.53 2.41
12.15 -5.52 2.51
11.22 -4.83 2.30
11.11 -4.52 2.25
11.11 -4.26 2.24
11.24 -4.05 2.25
11.36 -3.84 2.25
11.53 -3.65 2.27
12.65 -3.72 2.48
12.65 -3.45 2.46
12.65 -3.18 2.45
12.65 -2.91 2.44
12.65 -2.64 2.43
12.65 -2.38 2.42
12.65 -2.11 2.41
12.65 -1.85 2.40
12.65 -1.60 2.40
12.65 -1.34 2.39
12.65 -1.08 2.39
12.65 -0.83 2.38
12.65 -0.57 2.38
12.65 -0.32 2.38
12.65 -0.06 2.38
12.65 0.19 2.38
12.65 0.44 2.38
12.65 0.70 2.38
18.63 1.41 3.51
18.60 1.78 3.51
18.56 2.15 3.51
18.52 2.52 3.51
19.55 3.07 3.72
19.49 3.46 3.72
19.41 3.85 3.72
19.33 4.24 3.72
19.24 4.63 3.72
19.15 5.01 3.72
19.04 5.39 3.72
18.93 5.78 3.72
18.86 6.17 3.73
18.74 6.55 3.73
18.60 6.92 3.73
18.46 7.30 3.73
18.31 7.66 3.73
18.15 8.03 3.73
17.99 8.39 3.73
17.81 8.75 3.73
17.63 9.11 3.73
17.45 9.46 3.73
17.25 9.81 3.73
17.05 10.15 3.73
16.85 10.49 3.73
16.63 10.83 3.73
16.41 11.16 3.73
16.19 11.49 3.73
15.95 11.81 3.73
15.66 12.09 3.72
15.41 12.40 3.72
15.16 12.70 3.72
10.91 9.52 2.72
10.48 9.52 2.66
10.06 9.52 2.60
14.09 13.88 3.72
13.81 14.16 3.72
13.52 14.43 3.72
13.23 14.70 3.72
12.93 14.96 3.72
12.63 15.22 3.72
12.32 15.47 3.72
12.01 15.72 3.72
12.01 16.40 3.82
11.68 16.63 3.82
11.35 16.87 3.82
11.01 17.09 3.82
10.66 17.31 3.82
8.13 13.81 3.01
9.96 17.72 3.82
9.60 17.92 3.82
9.24 18.11 3.82
2.36 4.87 1.02
8.50 18.46 3.82
8.13 18.63 3.82
7.76 18.79 3.82
7.37 18.94 3.82
6.99 19.08 3.82
6.61 19.22 3.82
6.22 19.34 3.82
5.83 19.47 3.82
5.44 19.58 3.82
5.05 19.68 3.82
4.65 19.78 3.82
4.25 19.87 3.82
3.85 19.96 3.82
3.45 20.03 3.82
3.05 20.10 3.82
2.64 20.15 3.82
2.24 20.20 3.82
1.83 20.24 3.82
1.43 20.28 3.82
1.02 20.30 3.82
0.61 20.32 3.82
0.20 20.33 3.82
-0.20 20.33 3.82
-0.61 20.32 3.82
-1.02 20.30 3.82
-1.43 20.28 3.82
-1.83 20.24 3.82
-2.24 20.20 3.82
-2.64 20.15 3.82
-3.05 20.10 3.82
-3.45 20.03 3.82
-3.85 19.96 3.82
-4.25 19.88 3.82
-4.65 19.79 3.82
-5.05 19.69 3.82
-5.44 19.58 3.82
-5.83 19.47 3.82
-6.06 18.83 3.72
-6.43 18.70 3.72
-6.81 18.57 3.72
-7.18 18.43 3.72
-7.55 18.28 3.72
-7.91 18.13 3.72
-8.27 17.96 3.72
-8.63 17.79 3.72
-8.99 17.62 3.72
-9.34 17.43 3.72
-9.69 17.24 3.72
-9.97 16.94 3.69
-9.97 16.19 3.57
-9.97 15.48 3.46
-9.97 14.82 3.36
-9.97 14.20 3.26
-9.97 13.61 3.17
-9.97 13.05 3.09
-9.97 12.52 3.01
-9.97 12.02 2.93
-10.05 11.63 2.89
-10.23 11.37 2.87
-37.70 29.10 8.95
-37.59 27.83 8.79
-37.91 26.91 8.74
-38.32 26.06 8.71
-38.81 25.27 8.70
-39.49 24.60 8.75
-40.33 24.01 8.82
-41.17 23.40 8.90
-41.99 22.77 8.98
-42.83 22.12 9.06
-43.62 21.43 9.14
-47.45 12.42 9.22
-47.75 11.48 9.23
-29.25 6.41 5.63
-27.87 5.53 5.34
-20.73 3.68 3.96
-19.69 3.09 3.75
-19.53 2.66 3.70
-19.37 2.25 3.67
-19.21 1.84 3.63
-19.05 1.44 3.59
-18.88 1.04 3.55
-18.66 0.66 3.51
-18.36 0.28 3.45
-18.08 -0.09 3.40
-17.80 -0.45 3.35
-17.53 -0.79 3.30
-17.15 -1.12 3.23
-16.86 -1.44 3.18
-16.57 -1.75 3.13
-16.28 -2.05 3.09
-16.01 -2.35 3.04
-15.74 -2.63 3.00
-15.48 -2.91 2.96
-15.22 -3.18 2.92
-15.01 -3.45 2.89
-14.81 -3.72 2.87
-14.62 -3.98 2.85
-14.42 -4.24 2.83
-14.23 -4.50 2.81
-14.04 -4.75 2.79
-13.88 -5.01 2.77
-13.73 -5.27 2.76
-13.57 -5.52 2.75
-13.42 -5.78 2.75
-13.27 -6.03 2.74
-13.12 -6.28 2.73
-12.97 -6.54 2.73
-12.82 -6.79 2.73
-12.73 -7.07 2.74
-12.69 -7.38 2.76
-12.64 -7.70 2.78
-12.58 -8.01 2.80
-12.52 -8.33 2.83
-12.46 -8.66 2.85
-12.40 -8.99 2.88
-12.26 -9.27 2.89
-12.28 -9.68 2.94
-12.24 -10.06 2.98
-12.22 -10.45 3.02
-12.19 -10.86 3.07
-12.12 -11.24 3.11
-12.05 -11.63 3.15
-11.96 -12.02 3.19
-11.92 -12.47 3.24
-11.89 -12.95 3.30
-11.81 -13.39 3.36
-11.72 -13.84 3.41
-11.63 -14.30 3.46
-11.67 -14.96 3.57
-11.54 -15.42 3.62
-11.37 -15.85 3.67
-11.20 -16.29 3.72
-10.99 -16.70 3.76
-10.71 -17.00 3.78
-10.44 -17.34 3.80
-9.86 -17.14 3.72
-9.51 -17.34 3.72
-9.16 -17.53 3.72
-8.81 -17.71 3.72
-8.45 -17.88 3.72
-8.09 -18.05 3.72
-7.73 -18.20 3.72
-6.50 -16.20 3.28
-6.99 -18.50 3.72
-6.62 -18.64 3.72
-6.24 -18.77 3.72
-6.01 -19.36 3.81
-5.64 -19.53 3.82
-5.24 -19.64 3.82
-4.85 -19.74 3.82
-4.45 -19.83 3.82
-4.05 -19.92 3.82
-3.65 -20.00 3.82
-3.25 -20.07 3.82
-2.85 -20.13 3.82
-2.44 -20.18 3.82
-2.04 -20.22 3.82
-1.63 -20.26 3.82
-1.22 -20.29 3.82
-0.82 -20.31 3.82
-0.41 -20.32 3.82
-0.00 -18.07 3.82
0.36 -18.07 3.82
0.73 -18.06 3.82
1.09 -18.04 3.82
1.45 -18.02 3.82
1.81 -17.98 3.82
2.11 -17.46 3.72
2.46 -17.41 3.72
2.81 -17.36 3.72
3.16 -17.30 3.72
3.51 -17.23 3.72
3.85 -17.16 3.72
4.20 -17.08 3.72
4.54 -16.99 3.72
4.88 -16.90 3.72
5.22 -16.80 3.72
5.55 -16.69 3.72
5.89 -16.57 3.72
6.22 -16.46 3.72
6.55 -16.33 3.72
6.88 -16.20 3.72
7.20 -16.06 3.72
7.52 -15.91 3.72
7.84 -15.76 3.72
8.15 -15.60 3.72
8.47 -15.43 3.72
8.77 -15.26 3.72
9.08 -15.08 3.72
9.38 -14.89 3.72
9.68 -14.70 3.72
9.97 -14.50 3.72
9.01 -12.56 3.27
9.31 -12.44 3.28
9.70 -12.44 3.34
9.00 -11.07 3.02
9.04 -10.68 2.96
9.45 -10.71 3.02
9.84 -10.72 3.08
10.15 -10.62 3.10
9.26 -9.31 2.78
9.50 -9.17 2.79
9.92 -9.20 2.86
10.33 -9.20 2.92
10.75 -9.20 2.99
11.20 -9.20 3.06
11.56 -9.11 3.11
10.32 -7.81 2.74
10.08 -7.31 2.63
10.04 -6.97 2.58
10.08 -6.71 2.56
10.19 -6.49 2.55
10.30 -6.27 2.55
10.40 -6.05 2.54
10.57 -5.87 2.55
10.78 -5.71 2.58
11.05 -5.57 2.62
11.54 -5.53 2.71
12.15 -5.52 2.82
10.99 -4.73 2.53
10.94 -4.45 2.50
10.96 -4.20 2.48
11.07 -4.00 2.49
11.19 -3.79 2.50
11.40 -3.60 2.53
11.85 -3.48 2.61
12.65 -3.45 2.77
12.65 -3.18 2.76
12.65 -2.91 2.74
12.65 -2.64 2.73
12.65 -2.38 2.72
12.65 -2.11 2.71
12.65 -1.85 2.70
12.65 -1.60 2.70
12.65 -1.34 2.69
12.65 -1.08 2.68
12.65 -0.83 2.68
12.65 -0.57 2.68
12.65 -0.32 2.68
12.65 -0.06 2.67
12.65 0.19 2.67
12.65 0.44 2.68
12.65 0.70 2.68
16.57 1.25 3.51
16.54 1.58 3.51
16.51 1.91 3.51
16.41 2.24 3.50
16.42 2.57 3.51
17.33 3.08 3.72
17.26 3.42 3.72
17.19 3.77 3.72
17.11 4.11 3.72
17.03 4.46 3.72
16.93 4.80 3.72
16.83 5.14 3.72
16.73 5.47 3.72
16.61 5.81 3.72
16.54 6.16 3.73
16.41 6.49 3.73
16.28 6.82 3.73
16.14 7.14 3.73
15.99 7.46 3.73
15.84 7.78 3.73
15.68 8.10 3.73
15.52 8.41 3.73
15.34 8.72 3.73
15.16 9.03 3.73
14.98 9.33 3.73
14.79 9.63 3.73
14.59 9.92 3.73
14.39 10.22 3.73
14.18 10.50 3.73
13.97 10.78 3.73
13.75 11.06 3.73
13.53 11.34 3.73
10.91 9.52 3.06
10.48 9.52 2.99
10.06 9.52 2.93
12.53 12.34 3.72
12.28 12.59 3.72
12.02 12.83 3.72
11.76 13.07 3.72
11.50 13.31 3.72
11.23 13.53 3.72
10.95 13.76 3.72
10.68 13.97 3.72
10.39 14.19 3.72
10.11 14.39 3.72
9.82 14.59 3.72
9.52 14.79 3.72
9.22 14.97 3.72
8.16 13.86 3.40
8.61 15.33 3.72
8.30 15.50 3.72
7.99 15.67 3.72
2.36 4.87 1.14
7.56 16.42 3.82
7.23 16.56 3.82
6.89 16.70 3.82
6.56 16.84 3.82
6.22 16.97 3.82
5.88 17.09 3.82
5.53 17.20 3.82
5.19 17.31 3.82
4.84 17.41 3.82
4.49 17.50 3.82
4.13 17.59 3.82
3.78 17.67 3.82
3.42 17.74 3.82
3.07 17.81 3.82
2.71 17.86 3.82
2.35 17.92 3.82
1.99 17.96 3.82
1.63 18.00 3.82
1.27 18.02 3.82
0.91 18.05 3.82
0.54 18.06 3.82
0.18 18.07 3.82
-0.18 18.07 3.82
-0.54 18.06 3.82
-0.91 18.05 3.82
-1.27 18.02 3.82
-1.63 18.00 3.82
-1.99 17.96 3.82
-2.35 17.92 3.82
-2.71 17.87 3.82
-3.07 17.81 3.82
-3.43 17.75 3.82
-3.78 17.67 3.82
-4.14 17.60 3.82
-4.49 17.51 3.82
-4.84 17.42 3.82
-5.19 17.31 3.82
-5.53 17.21 3.82
-5.88 17.09 3.82
-6.05 16.51 3.72
-6.38 16.39 3.72
-6.71 16.26 3.72
-7.03 16.12 3.72
-7.36 15.97 3.72
-7.68 15.82 3.72
-7.99 15.67 3.72
-8.31 15.50 3.72
-8.61 15.33 3.72
-8.92 15.16 3.72
-9.22 14.97 3.72
-9.52 14.79 3.72
-9.82 14.59 3.72
-9.97 14.20 3.67
-9.97 13.61 3.57
-9.97 13.05 3.47
-9.97 12.52 3.38
-9.97 12.02 3.30
-9.97 11.54 3.22
-9.97 11.08 3.15
-9.97 10.64 3.08
-9.97 10.22 3.02
-9.97 9.82 2.96
-9.96 9.42 2.90
-10.06 9.15 2.87
-34.86 29.22 9.61
-35.09 28.23 9.52
-35.43 27.35 9.46
-35.86 26.55 9.43
-36.26 25.74 9.40
-36.78 25.01 9.40
-37.41 24.35 9.44
-38.04 23.69 9.47
-38.71 23.04 9.52
-39.42 22.41 9.58
-40.19 21.79 9.66
-40.83 21.09 9.71
-41.41 20.34 9.75
-42.05 19.62 9.81
-42.66 18.87 9.86
-43.42 18.18 9.95
-44.41 17.55 10.09
-45.46 16.92 10.25
-46.93 12.28 10.25
-25.88 6.22 5.63
-18.92 4.15 4.09
-18.27 3.62 3.94
-17.79 3.16 3.82
-17.69 2.78 3.79
-17.59 2.40 3.75
-17.49 2.03 3.72
-17.38 1.66 3.69
-17.26 1.30 3.66
-17.12 0.95 3.63
-16.99 0.60 3.59
-16.86 0.25 3.57
-16.73 -0.08 3.54
-16.60 -0.42 3.51
-16.46 -0.74 3.48
-16.23 -1.06 3.44
-15.99 -1.37 3.39
-15.75 -1.67 3.35
-15.52 -1.96 3.31
-15.28 -2.24 3.26
-15.07 -2.52 3.23
-14.90 -2.80 3.20
-14.77 -3.08 3.19
-14.63 -3.36 3.17
-14.44 -3.62 3.15
-14.25 -3.88 3.12
-14.07 -4.14 3.10
-13.88 -4.39 3.08
-13.70 -4.64 3.06
-13.52 -4.88 3.04
-13.38 -5.13 3.03
-13.23 -5.38 3.02
-13.08 -5.63 3.01
-12.94 -5.88 3.00
-12.80 -6.13 3.00
-12.65 -6.37 2.99
-12.51 -6.62 2.99
-12.36 -6.86 2.99
-12.30 -7.16 3.01
-12.26 -7.47 3.03
-12.22 -7.78 3.06
-12.16 -8.09 3.09
-12.10 -8.40 3.11
-12.03 -8.72 3.14
-11.97 -9.05 3.17
-10.74 -8.46 2.89
-10.88 -8.94 2.98
-11.77 -10.07 3.27
-11.70 -10.42 3.31
-11.67 -10.82 3.36
-11.60 -11.20 3.41
-11.51 -11.57 3.45
-11.43 -11.95 3.50
-11.33 -12.34 3.54
-11.24 -12.74 3.59
-11.15 -13.17 3.65
-11.03 -13.57 3.70
-10.82 -13.87 3.72
-10.60 -14.16 3.74
-10.37 -14.46 3.76
-9.96 -14.49 3.72
-9.67 -14.69 3.72
-9.37 -14.88 3.72
-9.07 -15.07 3.72
-8.77 -15.24 3.72
-8.46 -15.42 3.72
-8.15 -15.58 3.72
-7.83 -15.74 3.72
-7.52 -15.90 3.72
-7.20 -16.05 3.72
-6.87 -16.19 3.72
-6.50 -16.20 3.69
-6.22 -16.47 3.72
-6.01 -16.93 3.80
-5.71 -17.15 3.82
-5.36 -17.26 3.82
-5.01 -17.37 3.82
-4.66 -17.46 3.82
-4.31 -17.55 3.82
-3.96 -17.64 3.82
-3.60 -17.71 3.82
-3.25 -17.78 3.82
-2.89 -17.84 3.82
-2.53 -17.90 3.82
-2.17 -17.94 3.82
-1.81 -17.98 3.82
-1.45 -18.02 3.82
-1.09 -18.04 3.82
-0.73 -18.06 3.82
-0.36 -18.07 3.82
-0.00 -16.26 3.82
0.33 -16.25 3.82
0.65 -16.24 3.82
0.98 -16.23 3.82
1.30 -16.20 3.82
1.63 -16.17 3.82
1.95 -16.14 3.82
2.22 -15.72 3.73
2.53 -15.61 3.72
2.84 -15.56 3.72
3.15 -15.50 3.72
3.46 -15.43 3.72
3.77 -15.36 3.72
4.08 -15.28 3.72
4.39 -15.20 3.72
4.69 -15.11 3.72
4.99 -15.01 3.72
5.29 -14.91 3.72
5.59 -14.80 3.72
5.89 -14.68 3.72
6.19 -14.57 3.72
6.48 -14.44 3.72
6.77 -14.31 3.72
7.05 -14.17 3.72
7.33 -14.03 3.72
7.61 -13.88 3.72
7.89 -13.72 3.72
8.17 -13.56 3.72
8.44 -13.39 3.72
8.70 -13.22 3.72
8.97 -13.04 3.72
9.03 -12.58 3.64
9.31 -12.44 3.65
9.50 -12.18 3.63
9.02 -11.09 3.36
9.07 -10.71 3.30
9.45 -10.72 3.36
9.78 -10.65 3.40
9.00 -9.42 3.06
9.15 -9.20 3.05
9.53 -9.20 3.11
9.92 -9.20 3.18
10.33 -9.20 3.25
10.75 -9.20 3.33
11.20 -9.20 3.41
11.56 -9.11 3.46
10.32 -7.81 3.04
10.16 -7.36 2.95
10.19 -7.08 2.91
10.21 -6.80 2.88
10.19 -6.49 2.84
10.30 -6.27 2.83
10.39 -6.04 2.82
10.72 -5.95 2.88
10.94 -5.79 2.91
11.05 -5.57 2.91
11.54 -5.53 3.01
12.15 -5.52 3.14
10.98 -4.72 2.81
10.92 -4.44 2.77
10.93 -4.19 2.75
11.05 -3.99 2.76
11.17 -3.78 2.77
11.39 -3.60 2.81
11.83 -3.48 2.90
12.65 -3.45 3.08
12.65 -3.18 3.07
12.65 -2.91 3.05
12.65 -2.64 3.04
12.65 -2.38 3.03
12.65 -2.11 3.01
12.65 -1.85 3.01
12.65 -1.60 3.00
12.65 -1.34 2.99
12.65 -1.08 2.98
12.65 -0.83 2.98
12.65 -0.57 2.98
12.65 -0.32 2.97
12.65 -0.06 2.97
12.65 0.19 2.97
12.65 0.44 2.98
12.65 0.70 2.98
15.78 1.19 3.72
15.76 1.51 3.72
15.72 1.82 3.72
15.68 2.14 3.72
15.64 2.45 3.72
15.59 2.77 3.72
15.53 3.08 3.72
15.46 3.39 3.72
15.39 3.70 3.72
15.31 4.01 3.72
15.23 4.31 3.72
15.14 4.62 3.72
15.04 4.92 3.72
14.94 5.22 3.72
14.83 5.52 3.72
14.72 5.82 3.72
14.64 6.13 3.73
14.52 6.42 3.73
14.38 6.71 3.73
14.25 7.00 3.73
14.10 7.28 3.73
13.95 7.57 3.73
13.80 7.84 3.73
13.64 8.12 3.73
13.47 8.39 3.73
13.30 8.66 3.73
13.13 8.93 3.73
12.94 9.19 3.73
12.76 9.45 3.73
12.56 9.70 3.73
12.37 9.95 3.73
12.17 10.20 3.73
10.90 9.51 3.40
11.75 10.68 3.73
11.53 10.91 3.73
11.31 11.14 3.73
11.08 11.36 3.73
10.85 11.58 3.73
10.62 11.80 3.73
10.34 11.97 3.72
10.10 12.17 3.72
9.85 12.37 3.72
9.60 12.57 3.72
9.35 12.76 3.72
9.09 12.94 3.72
8.83 13.12 3.72
8.56 13.30 3.72
8.29 13.47 3.72
8.02 13.63 3.72
7.75 13.79 3.72
7.47 13.94 3.72
7.19 14.09 3.72
2.36 4.87 1.27
6.62 14.37 3.72
6.33 14.50 3.72
6.03 14.62 3.72
5.74 14.74 3.72
5.44 14.85 3.72
5.14 14.96 3.72
4.98 15.47 3.82
4.66 15.57 3.82
4.35 15.66 3.82
4.04 15.74 3.82
3.72 15.82 3.82
3.40 15.89 3.82
3.08 15.96 3.82
2.76 16.02 3.82
2.44 16.07 3.82
2.11 16.11 3.82
1.79 16.15 3.82
1.47 16.19 3.82
1.14 16.21 3.82
0.82 16.23 3.82
0.49 16.24 3.82
0.16 16.25 3.82
-0.16 16.25 3.82
-0.49 16.24 3.82
-0.82 16.23 3.82
-1.14 16.21 3.82
-1.47 16.19 3.82
-1.79 16.15 3.82
-2.12 16.12 3.82
-2.44 16.07 3.82
-2.76 16.02 3.82
-3.08 15.96 3.82
-3.40 15.90 3.82
-3.72 15.83 3.82
-4.04 15.75 3.82
-4.35 15.66 3.82
-4.67 15.57 3.82
-4.98 15.48 3.82
-5.29 15.37 3.82
-5.59 15.26 3.82
-5.90 15.15 3.82
-6.03 14.62 3.72
-6.33 14.50 3.72
-6.62 14.37 3.72
-6.90 14.23 3.72
-7.19 14.09 3.72
-7.47 13.94 3.72
-7.75 13.79 3.72
-8.02 13.63 3.72
-8.30 13.47 3.72
-8.56 13.30 3.72
-8.83 13.12 3.72
-9.09 12.94 3.72
-9.35 12.76 3.72
-9.60 12.57 3.72
-9.85 12.37 3.72
-9.97 12.02 3.67
-9.97 11.54 3.58
-9.97 11.08 3.50
-9.97 10.64 3.43
-9.97 10.22 3.36
-9.97 9.82 3.29
-9.97 9.43 3.23
-9.97 9.06 3.17
-9.97 8.70 3.11
-9.97 8.36 3.06
-9.97 8.02 3.01
-9.97 7.70 2.96
-9.97 7.38 2.92
-10.03 7.12 2.89
-10.17 6.91 2.89
-36.04 23.47 10.11
-36.59 22.79 10.13
-37.28 22.19 10.20
-37.95 21.58 10.26
-38.51 20.88 10.29
-39.08 20.18 10.34
-39.64 19.48 10.38
-40.02 18.67 10.38
-40.44 17.89 10.39
-40.82 17.09 10.40
-41.16 16.27 10.40
-41.53 15.46 10.42
-41.38 14.46 10.30
-41.22 13.48 10.19
-18.93 5.77 4.65
-17.58 4.98 4.29
-17.07 4.47 4.15
-16.78 4.03 4.06
-16.49 3.62 3.97
-16.23 3.22 3.89
-16.12 2.86 3.85
-16.01 2.51 3.81
-15.90 2.17 3.77
-15.78 1.83 3.73
-15.69 1.50 3.70
-15.60 1.18 3.68
-15.58 0.86 3.67
-15.55 0.55 3.66
-15.51 0.23 3.65
-15.47 -0.08 3.64
-15.42 -0.39 3.63
-15.34 -0.69 3.61
-15.16 -0.99 3.57
-15.00 -1.28 3.54
-14.84 -1.57 3.51
-14.68 -1.85 3.48
-14.52 -2.13 3.45
-14.36 -2.40 3.42
-14.20 -2.67 3.40
-14.06 -2.93 3.37
-13.94 -3.20 3.36
-13.82 -3.47 3.35
-13.69 -3.73 3.34
-13.57 -3.99 3.32
-13.44 -4.25 3.31
-13.32 -4.50 3.30
-13.19 -4.76 3.29
-13.04 -5.00 3.28
-12.91 -5.25 3.27
-12.77 -5.50 3.27
-12.63 -5.74 3.26
-12.49 -5.98 3.25
-12.35 -6.22 3.25
-12.20 -6.46 3.25
-12.06 -6.70 3.24
-11.93 -6.94 3.24
-11.89 -7.24 3.27
-11.84 -7.54 3.30
-10.18 -6.77 2.87
-10.10 -7.02 2.89
-9.98 -7.23 2.90
-10.26 -7.76 3.02
-10.56 -8.32 3.16
-10.88 -8.94 3.31
-11.41 -9.76 3.53
-11.33 -10.09 3.57
-11.25 -10.44 3.61
-11.17 -10.79 3.65
-11.09 -11.15 3.70
-10.93 -11.43 3.72
-10.73 -11.69 3.73
-10.54 -11.95 3.74
-10.34 -12.21 3.76
-9.98 -12.27 3.72
-9.73 -12.47 3.72
-9.48 -12.66 3.72
-9.22 -12.85 3.72
-8.96 -13.03 3.72
-8.70 -13.21 3.72
-8.43 -13.38 3.72
-8.16 -13.55 3.72
-7.89 -13.71 3.72
-7.61 -13.87 3.72
-7.33 -14.02 3.72
-7.05 -14.16 3.72
-6.76 -14.30 3.72
-6.47 -14.43 3.72
-6.18 -14.56 3.72
-6.01 -14.99 3.80
-5.75 -15.21 3.82
-5.44 -15.32 3.82
-5.13 -15.43 3.82
-4.82 -15.52 3.82
-4.51 -15.62 3.82
-4.19 -15.71 3.82
-3.88 -15.79 3.82
-3.56 -15.86 3.82
-3.24 -15.93 3.82
-2.92 -15.99 3.82
-2.60 -16.05 3.82
-2.28 -16.10 3.82
-1.95 -16.14 3.82
-1.63 -16.17 3.82
-1.30 -16.20 3.82
-0.98 -16.23 3.82
-0.65 -16.24 3.82
-0.33 -16.25 3.82
-0.00 -14.76 3.82
0.30 -14.75 3.82
0.59 -14.74 3.82
0.89 -14.73 3.82
1.18 -14.71 3.82
1.48 -14.68 3.82
1.77 -14.65 3.82
2.03 -14.38 3.76
2.30 -14.17 3.72
