ply
format ascii 1.0
element vertex 2783
property float32 x
property float32 y
property float32 z
end_header
22.88 4.54 0.18
22.86 5.01 0.18
22.84 5.49 0.18
22.82 5.97 0.18
22.81 6.46 0.18
22.79 6.95 0.18
22.77 7.45 0.19
22.75 7.95 0.19
22.73 8.46 0.19
22.71 8.97 0.19
22.69 9.50 0.19
22.67 10.03 0.20
22.65 10.57 0.20
22.59 11.10 0.20
22.26 11.50 0.20
21.94 11.89 0.20
21.61 12.29 0.20
21.29 12.68 0.20
20.79 12.95 0.20
20.31 13.23 0.20
17.94 12.20 0.18
17.15 12.17 0.17
16.40 12.14 0.17
15.69 12.11 0.16
15.03 12.09 0.16
14.39 12.06 0.15
13.79 12.04 0.15
13.22 12.02 0.15
12.68 12.00 0.14
12.16 11.98 0.14
11.66 11.96 0.14
11.64 12.43 0.14
11.63 12.92 0.14
11.61 13.43 0.15
11.58 13.96 0.15
11.56 14.52 0.15
11.54 15.10 0.16
11.52 15.72 0.16
11.41 16.25 0.16
11.37 16.90 0.17
10.10 15.68 0.15
11.41 18.52 0.18
11.38 19.33 0.19
9.99 17.78 0.17
11.31 21.11 0.20
11.01 21.57 0.20
10.48 21.61 0.20
10.13 21.99 0.20
9.72 22.27 0.20
9.60 23.25 0.21
10.45 26.83 0.24
9.83 26.81 0.23
9.81 28.54 0.25
9.63 29.94 0.26
9.30 31.03 0.26
9.15 47.38 0.39
-15.38 28.70 0.22
-15.39 27.40 0.21
-15.52 26.37 0.21
-15.64 25.39 0.20
-15.72 24.42 0.19
-15.77 23.44 0.19
-15.78 22.47 0.18
-15.81 21.58 0.17
-15.86 20.76 0.17
-15.90 19.97 0.16
-16.04 19.33 0.16
-16.21 18.75 0.16
-16.29 18.11 0.15
-16.27 17.37 0.15
-16.23 16.65 0.14
-16.20 15.96 0.14
-16.06 15.20 0.13
-15.86 14.42 0.13
-15.77 13.76 0.12
-15.27 12.80 0.12
-15.09 12.14 0.11
-14.94 11.53 0.11
-14.88 11.02 0.11
-14.83 10.52 0.10
-14.78 10.05 0.10
-14.74 9.60 0.10
-14.74 9.18 0.10
-14.73 8.77 0.09
-14.73 8.37 0.09
-14.73 7.99 0.09
-14.73 7.61 0.09
-14.72 7.23 0.09
-14.70 6.86 0.08
-14.69 6.50 0.08
-14.68 6.14 0.08
-14.66 5.80 0.08
-14.66 5.46 0.08
-14.67 5.13 0.08
-14.67 4.80 0.07
-14.66 4.47 0.07
-14.66 4.15 0.07
-14.65 3.83 0.07
-14.64 3.52 0.07
-14.61 3.20 0.07
-14.61 2.90 0.07
-14.60 2.59 0.07
-14.60 2.29 0.07
-14.59 1.99 0.07
-14.59 1.69 0.06
-14.59 1.40 0.06
-14.59 1.10 0.06
-14.57 0.81 0.06
-14.56 0.51 0.06
-14.55 0.22 0.06
-14.53 -0.07 0.06
-14.52 -0.36 0.06
-14.52 -0.66 0.06
-14.53 -0.95 0.06
-14.54 -1.24 0.06
-14.56 -1.54 0.06
-14.57 -1.84 0.06
-14.59 -2.14 0.06
-14.61 -2.44 0.06
-14.65 -2.75 0.06
-14.68 -3.06 0.06
-14.71 -3.38 0.06
-14.86 -3.73 0.06
-15.17 -4.13 0.06
-15.16 -4.46 0.06
-15.25 -4.82 0.06
-15.41 -5.21 0.06
-15.58 -5.62 0.06
-15.59 -5.98 0.06
-15.58 -6.34 0.06
-15.57 -6.70 0.06
-15.58 -7.08 0.06
-15.60 -7.47 0.06
-15.59 -7.86 0.06
-15.58 -8.25 0.06
-15.56 -8.64 0.06
-15.52 -9.03 0.06
-15.47 -9.42 0.06
-15.43 -9.82 0.06
-15.41 -10.25 0.06
-15.39 -10.69 0.06
-15.36 -11.14 0.06
-15.33 -11.59 0.06
-15.30 -12.06 0.06
-15.28 -12.55 0.06
-15.33 -13.12 0.06
-15.42 -13.73 0.06
-15.42 -14.30 0.06
-15.40 -14.87 0.07
-15.34 -15.41 0.07
-15.28 -15.99 0.07
-15.24 -16.60 0.07
-15.10 -17.12 0.07
-14.90 -17.60 0.07
-14.71 -18.09 0.07
-14.58 -18.69 0.07
-14.30 -19.11 0.07
-14.03 -19.56 0.07
-13.83 -20.12 0.07
-13.62 -20.69 0.07
-13.39 -21.25 0.08
-13.21 -21.94 0.08
-13.10 -22.78 0.08
-12.81 -23.35 0.08
-12.51 -23.92 0.08
-12.21 -24.55 0.08
-12.13 -25.65 0.09
-12.05 -26.87 0.09
-11.74 -27.66 0.09
-11.56 -28.83 0.10
-11.39 -30.15 0.10
-11.29 -31.78 0.10
-11.32 -34.03 0.11
-11.29 -36.34 0.12
-12.03 -41.69 0.14
-11.97 -44.81 0.15
16.92 -44.78 1.28
16.69 -41.62 1.20
16.42 -38.68 1.12
16.69 -37.22 1.09
17.16 -36.31 1.08
16.80 -33.77 1.01
17.23 -32.95 1.00
17.65 -32.16 0.99
18.05 -31.39 0.98
18.45 -30.64 0.97
18.83 -29.91 0.96
19.21 -29.19 0.95
19.58 -28.49 0.94
19.94 -27.80 0.93
20.30 -27.13 0.93
20.64 -26.47 0.92
20.99 -25.82 0.91
21.61 -25.53 0.92
23.28 -26.41 0.97
25.14 -27.39 1.03
27.22 -28.48 1.09
29.56 -29.72 1.16
34.09 -24.72 1.18
34.49 -23.97 1.18
37.68 -25.08 1.28
39.24 -24.99 1.32
40.89 -24.91 1.36
42.65 -24.82 1.40
24.04 -11.51 0.76
24.01 -10.92 0.76
23.99 -10.33 0.75
23.97 -9.76 0.74
23.95 -9.19 0.74
23.90 -8.62 0.73
23.88 -8.08 0.73
23.88 -7.55 0.73
23.85 -7.02 0.72
23.83 -6.49 0.72
23.82 -5.98 0.71
23.80 -5.47 0.71
23.78 -4.97 0.71
24.77 -4.65 0.74
24.81 -4.15 0.74
22.23 -3.26 0.66
22.17 -2.80 0.66
22.11 -2.34 0.65
22.05 -1.89 0.65
22.00 -1.44 0.65
21.94 -0.99 0.65
21.16 -0.53 0.63
20.80 -0.11 0.62
24.06 0.36 0.71
2.60 0.09 0.08
2.59 0.14 0.08
2.65 0.20 0.08
23.26 2.22 0.70
23.24 2.69 0.70
23.23 3.17 0.70
23.21 3.64 0.70
23.19 4.11 0.71
23.17 4.59 0.71
23.15 5.07 0.71
23.13 5.56 0.72
23.11 6.05 0.72
23.10 6.54 0.73
23.08 7.04 0.73
23.06 7.54 0.73
23.04 8.05 0.74
22.99 8.56 0.74
22.97 9.08 0.75
22.90 9.59 0.75
22.95 10.15 0.76
22.92 10.69 0.77
22.59 11.10 0.77
22.26 11.50 0.76
21.94 11.89 0.76
21.61 12.29 0.76
21.29 12.68 0.76
20.79 12.95 0.75
20.31 13.23 0.74
17.94 12.20 0.66
17.15 12.17 0.64
16.40 12.14 0.63
15.69 12.11 0.61
15.03 12.09 0.59
14.39 12.06 0.58
13.79 12.04 0.56
13.22 12.02 0.55
12.68 12.00 0.54
12.16 11.98 0.52
11.66 11.96 0.51
11.64 12.43 0.52
11.63 12.92 0.53
11.61 13.43 0.55
11.58 13.96 0.56
11.56 14.52 0.57
11.54 15.10 0.59
11.52 15.72 0.60
11.41 16.25 0.61
11.37 16.90 0.63
10.10 15.68 0.57
11.41 18.52 0.67
11.38 19.33 0.69
9.99 17.78 0.63
11.31 21.11 0.74
11.01 21.57 0.75
10.48 21.61 0.74
10.13 21.99 0.74
9.72 22.28 0.75
9.60 23.25 0.77
9.81 25.20 0.83
9.79 26.72 0.87
9.22 26.81 0.87
9.59 29.81 0.96
9.17 30.60 0.98
9.15 47.38 1.47
-14.26 29.39 0.96
-14.20 27.83 0.92
-14.33 26.75 0.89
-14.48 25.77 0.87
-14.63 24.86 0.84
-14.75 23.94 0.82
-14.98 23.26 0.81
-15.03 22.33 0.78
-15.05 21.43 0.76
-15.07 20.57 0.74
-15.08 19.74 0.72
-15.11 18.97 0.70
-15.18 18.30 0.69
-15.26 17.65 0.67
-15.26 16.96 0.66
-15.24 16.27 0.64
-15.23 15.62 0.62
-15.18 14.95 0.61
-15.11 14.30 0.59
-15.03 13.66 0.58
-14.79 12.91 0.56
-14.62 12.25 0.54
-14.47 11.64 0.53
-14.41 11.12 0.51
-14.35 10.62 0.50
-14.31 10.16 0.49
-14.27 9.70 0.49
-14.27 9.29 0.48
-14.28 8.89 0.47
-14.28 8.50 0.46
-14.28 8.12 0.46
-14.29 7.74 0.45
-14.28 7.38 0.45
-14.28 7.01 0.44
-14.27 6.66 0.44
-14.26 6.31 0.43
-14.25 5.97 0.43
-14.25 5.63 0.42
-14.26 5.31 0.42
-14.28 4.99 0.41
-14.28 4.67 0.41
-14.28 4.35 0.41
-14.28 4.04 0.40
-14.27 3.73 0.40
-14.26 3.43 0.40
-14.23 3.12 0.40
-14.21 2.82 0.39
-14.21 2.52 0.39
-14.20 2.23 0.39
-14.20 1.93 0.39
-14.20 1.64 0.38
-14.20 1.36 0.38
-14.21 1.07 0.38
-14.21 0.78 0.38
-14.19 0.50 0.38
-14.18 0.21 0.38
-14.17 -0.07 0.38
-14.16 -0.36 0.38
-14.15 -0.64 0.38
-14.15 -0.93 0.38
-14.16 -1.21 0.38
-14.17 -1.50 0.38
-14.19 -1.79 0.38
-14.20 -2.08 0.38
-14.22 -2.38 0.38
-14.25 -2.68 0.38
-14.30 -2.99 0.38
-14.33 -3.29 0.39
-14.36 -3.61 0.39
-14.39 -3.92 0.39
-14.42 -4.24 0.39
-14.45 -4.57 0.40
-14.46 -4.89 0.40
-14.49 -5.23 0.40
-14.53 -5.58 0.40
-14.57 -5.93 0.41
-14.60 -6.29 0.41
-14.65 -6.66 0.42
-14.66 -7.02 0.42
-14.66 -7.39 0.42
-14.67 -7.76 0.43
-14.67 -8.15 0.43
-14.67 -8.54 0.44
-14.62 -8.91 0.44
-14.57 -9.28 0.44
-14.52 -9.66 0.45
-14.47 -10.05 0.45
-14.43 -10.46 0.46
-14.40 -10.89 0.46
-14.37 -11.33 0.47
-14.34 -11.78 0.48
-14.31 -12.24 0.48
-14.28 -12.72 0.49
-14.29 -13.25 0.50
-14.30 -13.81 0.51
-14.32 -14.40 0.52
-14.31 -14.97 0.53
-14.24 -15.51 0.54
-14.19 -16.09 0.55
-14.12 -16.68 0.56
-14.01 -17.23 0.57
-13.88 -17.79 0.58
-13.75 -18.37 0.59
-13.57 -18.92 0.59
-13.33 -19.40 0.60
-13.11 -19.92 0.61
-12.90 -20.47 0.62
-12.66 -21.03 0.63
-12.41 -21.58 0.64
-12.16 -22.15 0.65
-11.90 -22.75 0.66
-11.68 -23.48 0.67
-11.46 -24.23 0.69
-11.25 -25.08 0.70
-11.14 -26.24 0.73
-10.98 -27.37 0.75
-10.77 -28.49 0.78
-10.61 -29.86 0.81
-10.42 -31.33 0.85
-10.34 -33.30 0.89
-10.28 -35.59 0.95
-10.42 -39.01 1.04
-10.40 -42.34 1.12
-10.24 -45.59 1.20
4.20 -41.73 2.04
5.89 -48.69 2.39
6.86 -48.53 2.39
7.83 -48.35 2.39
8.80 -48.21 2.39
9.76 -47.98 2.39
10.71 -47.74 2.39
11.66 -47.48 2.39
12.60 -47.19 2.39
13.53 -46.89 2.39
14.46 -46.57 2.39
15.38 -46.23 2.39
16.29 -45.87 2.39
16.92 -44.78 2.36
16.69 -41.63 2.21
16.42 -38.68 2.07
16.69 -37.22 2.01
17.16 -36.31 1.98
16.80 -33.77 1.87
17.23 -32.96 1.84
17.64 -32.16 1.82
18.05 -31.39 1.80
18.45 -30.64 1.78
18.83 -29.91 1.76
19.21 -29.19 1.74
19.58 -28.49 1.72
19.94 -27.80 1.71
20.30 -27.13 1.69
20.64 -26.47 1.68
20.98 -25.82 1.66
21.61 -25.53 1.67
23.28 -26.41 1.76
25.14 -27.38 1.86
27.21 -28.48 1.98
29.56 -29.71 2.11
34.24 -33.06 2.39
34.86 -32.34 2.39
35.46 -31.60 2.39
36.05 -30.85 2.39
36.63 -30.09 2.39
37.18 -29.31 2.39
37.72 -28.53 2.39
34.09 -24.72 2.13
34.39 -23.90 2.12
37.67 -25.08 2.30
39.23 -24.99 2.36
40.17 -24.47 2.39
40.62 -23.64 2.39
41.04 -22.79 2.39
41.45 -21.94 2.39
41.83 -21.09 2.39
24.04 -11.52 1.36
24.02 -10.92 1.35
23.99 -10.33 1.34
23.66 -9.63 1.31
23.95 -9.19 1.32
23.90 -8.63 1.31
23.88 -8.08 1.30
23.88 -7.55 1.29
23.85 -7.02 1.28
23.83 -6.49 1.27
23.82 -5.98 1.27
23.80 -5.47 1.26
23.78 -4.97 1.26
24.77 -4.66 1.31
24.81 -4.15 1.30
22.04 -3.23 1.16
21.99 -2.78 1.15
21.93 -2.32 1.15
21.87 -1.87 1.14
21.82 -1.43 1.14
21.76 -0.99 1.14
21.17 -0.53 1.10
20.80 -0.11 1.09
24.06 0.36 1.26
2.60 0.09 0.14
2.59 0.14 0.14
2.65 0.20 0.14
23.26 2.22 1.23
23.24 2.69 1.23
23.23 3.16 1.23
23.21 3.64 1.23
23.19 4.11 1.24
23.17 4.59 1.24
23.15 5.07 1.25
23.13 5.56 1.25
23.11 6.05 1.26
23.10 6.54 1.27
23.08 7.04 1.27
23.06 7.54 1.28
23.04 8.05 1.29
22.99 8.56 1.30
22.97 9.08 1.31
22.90 9.59 1.31
22.95 10.15 1.33
22.92 10.69 1.34
22.59 11.10 1.33
22.26 11.50 1.33
21.94 11.89 1.32
21.61 12.29 1.32
21.29 12.68 1.32
20.79 12.95 1.30
20.31 13.22 1.29
17.95 12.20 1.15
17.15 12.17 1.12
16.40 12.14 1.09
15.69 12.11 1.06
15.03 12.09 1.03
14.40 12.06 1.00
13.79 12.04 0.98
13.22 12.02 0.95
12.68 12.00 0.93
12.16 11.98 0.91
11.66 11.96 0.89
11.64 12.43 0.91
11.63 12.92 0.93
11.61 13.43 0.95
11.58 13.96 0.97
11.56 14.52 0.99
11.54 15.10 1.01
11.52 15.72 1.04
11.41 16.25 1.06
11.37 16.90 1.09
10.10 15.68 0.99
11.41 18.52 1.16
11.38 19.33 1.20
9.99 17.78 1.09
11.31 21.11 1.28
11.01 21.57 1.29
10.48 21.61 1.28
10.05 21.83 1.28
9.72 22.28 1.30
9.45 22.89 1.32
9.81 25.20 1.44
9.23 25.18 1.43
8.68 25.25 1.42
8.69 27.02 1.51
8.55 28.54 1.59
12.04 43.35 2.39
11.17 43.60 2.39
10.30 43.83 2.39
9.46 44.24 2.40
8.58 44.44 2.40
7.69 44.62 2.40
6.79 44.78 2.40
5.89 44.93 2.40
4.99 45.06 2.40
4.07 44.93 2.39
3.17 45.02 2.39
2.26 45.10 2.39
1.36 45.16 2.39
0.47 47.16 2.49
-0.48 47.18 2.49
-1.43 47.19 2.49
-2.37 47.18 2.49
-3.32 47.16 2.49
-4.27 47.11 2.49
-5.22 47.05 2.49
-6.17 46.96 2.49
-7.11 46.86 2.49
-7.73 44.81 2.39
-8.63 44.68 2.39
-9.53 44.53 2.39
-10.43 44.36 2.39
-11.33 44.18 2.39
-11.27 40.55 2.20
-11.14 37.17 2.03
-11.03 34.28 1.88
-10.93 31.77 1.76
-10.91 29.75 1.65
-11.28 28.97 1.62
-11.65 28.21 1.59
-12.09 27.70 1.57
-12.75 27.67 1.59
-13.15 27.10 1.57
-13.32 26.10 1.52
-13.45 25.11 1.48
-13.67 24.32 1.45
-13.90 23.60 1.42
-14.14 22.96 1.40
-14.32 22.24 1.37
-14.38 21.36 1.33
-14.44 20.55 1.30
-14.46 19.73 1.26
-14.46 18.93 1.23
-14.53 18.24 1.20
-14.61 17.61 1.18
-14.71 17.02 1.16
-14.71 16.34 1.13
-14.71 15.69 1.10
-14.73 15.10 1.08
-14.68 14.46 1.05
-14.63 13.84 1.03
-14.38 13.07 0.99
-14.17 12.36 0.96
-14.02 11.75 0.93
-13.96 11.23 0.91
-13.91 10.73 0.89
-13.86 10.26 0.88
-13.83 9.81 0.86
-13.83 9.40 0.85
-13.84 9.01 0.84
-13.84 8.62 0.82
-13.85 8.24 0.81
-13.86 7.88 0.80
-13.86 7.51 0.79
-13.87 7.16 0.79
-13.87 6.81 0.78
-13.87 6.47 0.77
-13.86 6.13 0.76
-13.86 5.80 0.75
-13.86 5.48 0.75
-13.88 5.16 0.74
-13.90 4.86 0.74
-13.91 4.55 0.73
-13.91 4.24 0.73
-13.91 3.94 0.72
-13.91 3.64 0.72
-13.89 3.34 0.71
-13.87 3.04 0.71
-13.85 2.74 0.70
-13.83 2.45 0.70
-13.83 2.17 0.69
-13.83 1.88 0.69
-13.82 1.60 0.69
-13.83 1.32 0.69
-13.84 1.04 0.68
-13.84 0.76 0.68
-13.85 0.49 0.68
-13.83 0.21 0.68
-13.82 -0.07 0.68
-13.81 -0.35 0.68
-13.81 -0.63 0.68
-13.81 -0.90 0.68
-13.81 -1.18 0.68
-13.81 -1.46 0.68
-13.82 -1.74 0.68
-13.84 -2.03 0.68
-13.85 -2.32 0.69
-13.87 -2.61 0.69
-13.92 -2.91 0.69
-13.97 -3.21 0.70
-14.00 -3.52 0.70
-14.03 -3.82 0.71
-14.06 -4.14 0.71
-14.08 -4.45 0.72
-14.08 -4.77 0.72
-14.07 -5.08 0.73
-14.10 -5.41 0.73
-14.13 -5.75 0.74
-14.16 -6.10 0.75
-14.19 -6.45 0.75
-14.18 -6.79 0.76
-14.16 -7.13 0.77
-14.15 -7.49 0.77
-14.14 -7.85 0.78
-14.13 -8.22 0.79
-14.12 -8.60 0.80
-14.12 -8.99 0.81
-14.08 -9.37 0.82
-14.04 -9.75 0.82
-13.99 -10.15 0.83
-13.95 -10.55 0.84
-13.96 -11.00 0.86
-13.93 -11.44 0.87
-13.90 -11.89 0.88
-13.86 -12.35 0.89
-13.82 -12.82 0.91
-13.78 -13.30 0.92
-13.78 -13.85 0.94
-13.79 -14.43 0.96
-13.75 -14.98 0.98
-13.68 -15.51 0.99
-13.61 -16.07 1.01
-13.54 -16.66 1.03
-13.42 -17.21 1.05
-13.29 -17.76 1.07
-13.15 -18.33 1.08
-12.98 -18.88 1.10
-12.73 -19.35 1.11
-12.49 -19.82 1.13
-12.23 -20.31 1.14
-11.98 -20.82 1.16
-11.74 -21.40 1.17
-11.50 -22.00 1.19
-11.25 -22.61 1.21
-11.06 -23.38 1.24
-10.83 -24.15 1.27
-10.60 -24.97 1.31
-10.43 -26.00 1.35
-10.26 -27.14 1.40
-10.01 -28.19 1.44
-9.80 -29.44 1.50
-9.61 -30.95 1.56
-9.43 -32.66 1.64
-9.22 -34.53 1.72
-8.99 -36.59 1.82
-9.31 -41.46 2.05
-8.99 -44.15 2.18
-6.93 -48.95 2.39
-5.94 -49.06 2.39
-4.95 -49.14 2.39
-3.96 -49.20 2.39
-0.00 -35.05 2.49
0.70 -35.03 2.49
1.40 -35.00 2.49
2.10 -34.94 2.49
2.80 -34.88 2.49
3.50 -34.80 2.49
4.02 -33.27 2.39
4.69 -33.17 2.39
5.35 -33.05 2.39
6.01 -32.92 2.39
6.66 -32.77 2.39
7.32 -32.61 2.39
7.98 -32.49 2.39
8.62 -32.30 2.39
9.26 -32.10 2.39
9.90 -31.89 2.39
10.53 -31.67 2.39
11.16 -31.43 2.39
11.78 -31.18 2.39
12.39 -30.92 2.39
13.00 -30.65 2.39
13.61 -30.36 2.39
14.21 -30.06 2.39
14.80 -29.75 2.39
15.38 -29.42 2.39
15.95 -29.09 2.39
16.52 -28.74 2.39
17.09 -28.39 2.39
17.64 -28.02 2.39
18.19 -27.64 2.39
18.73 -27.25 2.39
19.26 -26.85 2.39
19.78 -26.44 2.39
20.29 -26.02 2.39
20.79 -25.59 2.39
21.29 -25.15 2.39
21.77 -24.70 2.39
22.25 -24.24 2.39
22.71 -23.77 2.39
23.17 -23.30 2.39
23.62 -22.81 2.39
24.05 -22.31 2.39
24.48 -21.81 2.39
24.89 -21.30 2.39
25.30 -20.78 2.39
25.69 -20.25 2.39
26.07 -19.72 2.39
26.44 -19.18 2.39
26.80 -18.63 2.39
27.15 -18.08 2.39
27.49 -17.51 2.39
27.82 -16.95 2.39
28.13 -16.37 2.39
28.43 -15.79 2.39
28.72 -15.21 2.39
29.00 -14.62 2.39
24.04 -11.52 1.97
24.02 -10.92 1.95
23.99 -10.33 1.93
23.66 -9.63 1.89
23.95 -9.19 1.90
23.89 -8.63 1.88
23.87 -8.08 1.87
23.88 -7.55 1.86
23.84 -7.02 1.84
23.83 -6.50 1.83
23.82 -5.98 1.82
23.80 -5.47 1.82
23.78 -4.97 1.81
24.77 -4.66 1.88
24.81 -4.15 1.87
21.52 -3.16 1.62
21.47 -2.71 1.61
21.41 -2.27 1.61
21.36 -1.83 1.60
21.30 -1.40 1.59
21.26 -0.96 1.59
21.17 -0.53 1.58
20.80 -0.11 1.56
24.06 0.36 1.80
2.60 0.09 0.20
2.59 0.14 0.19
2.65 0.20 0.20
23.26 2.22 1.75
23.24 2.69 1.76
23.23 3.16 1.76
23.21 3.64 1.77
23.19 4.11 1.77
23.17 4.59 1.78
23.15 5.07 1.78
23.13 5.56 1.79
23.11 6.05 1.80
23.10 6.54 1.81
23.08 7.04 1.82
23.06 7.54 1.83
23.04 8.05 1.84
22.99 8.55 1.85
22.97 9.08 1.87
22.90 9.58 1.88
22.95 10.15 1.90
22.92 10.69 1.91
19.65 9.65 1.66
19.26 9.95 1.64
18.88 10.24 1.63
18.72 10.64 1.63
19.44 11.57 1.71
20.79 12.95 1.86
20.32 13.22 1.84
17.95 12.20 1.65
17.15 12.17 1.59
16.40 12.14 1.55
15.69 12.11 1.50
15.03 12.09 1.46
14.40 12.06 1.43
13.80 12.04 1.39
13.22 12.02 1.36
12.68 12.00 1.33
12.16 11.98 1.30
11.66 11.96 1.27
11.64 12.43 1.29
11.63 12.92 1.32
11.61 13.43 1.35
11.67 14.06 1.39
11.56 14.52 1.41
11.54 15.10 1.44
11.52 15.72 1.48
11.41 16.25 1.51
11.37 16.90 1.55
10.10 15.68 1.42
11.41 18.52 1.65
11.46 19.47 1.72
9.99 17.78 1.55
11.31 21.11 1.82
11.01 21.57 1.84
10.48 21.61 1.82
10.13 21.99 1.84
9.72 22.28 1.85
9.60 23.26 1.91
9.81 25.20 2.05
9.23 25.18 2.04
8.65 25.16 2.02
8.58 26.67 2.13
8.51 28.40 2.25
8.45 30.42 2.39
7.84 30.59 2.39
7.23 30.75 2.39
6.61 30.90 2.39
5.99 31.03 2.39
5.37 31.16 2.39
4.74 31.23 2.39
4.11 31.33 2.39
3.48 31.42 2.39
2.85 31.49 2.39
2.22 31.56 2.39
1.58 31.61 2.39
0.99 33.01 2.49
0.33 33.03 2.49
-0.34 33.05 2.49
-1.00 33.05 2.49
-1.66 33.03 2.49
-2.33 33.01 2.49
-2.99 32.97 2.49
-3.65 32.92 2.49
-4.32 32.85 2.49
-4.98 32.78 2.49
-5.64 32.69 2.49
-6.29 32.58 2.49
-6.95 32.47 2.49
-7.29 31.00 2.39
-7.92 30.86 2.39
-8.54 30.71 2.39
-9.16 30.55 2.39
-9.78 30.38 2.39
-10.39 30.20 2.39
-10.91 29.75 2.37
-11.29 28.97 2.32
-11.65 28.21 2.28
-12.10 27.71 2.26
-12.16 26.40 2.17
-12.27 25.28 2.10
-12.39 24.28 2.03
-12.56 23.44 1.98
-12.79 22.76 1.94
-13.17 22.36 1.93
-13.54 21.97 1.92
-13.72 21.29 1.88
-13.80 20.50 1.84
-13.85 19.72 1.79
-13.87 18.93 1.74
-13.90 18.18 1.70
-13.99 17.57 1.66
-14.10 16.99 1.63
-14.19 16.41 1.60
-14.19 15.77 1.57
-14.22 15.18 1.54
-14.25 14.61 1.51
-14.21 13.99 1.47
-14.03 13.27 1.42
-13.79 12.53 1.37
-13.59 11.86 1.33
-13.53 11.34 1.30
-13.49 10.85 1.27
-13.44 10.37 1.25
-13.40 9.92 1.22
-13.40 9.51 1.20
-13.41 9.12 1.19
-13.42 8.74 1.17
-13.44 8.37 1.16
-13.45 8.00 1.14
-13.46 7.65 1.13
-13.46 7.30 1.12
-13.47 6.95 1.11
-13.47 6.62 1.09
-13.48 6.29 1.08
-13.48 5.96 1.07
-13.48 5.64 1.06
-13.50 5.33 1.06
-13.52 5.03 1.05
-13.54 4.73 1.04
-13.55 4.43 1.03
-13.57 4.14 1.03
-13.57 3.84 1.02
-13.57 3.55 1.02
-13.55 3.25 1.01
-13.53 2.96 1.00
-13.51 2.68 1.00
-13.49 2.39 0.99
-13.47 2.11 0.98
-13.47 1.83 0.98
-13.47 1.56 0.98
-13.48 1.29 0.98
-13.49 1.01 0.97
-13.49 0.74 0.97
-13.50 0.47 0.97
-13.50 0.20 0.97
-13.49 -0.07 0.97
-13.48 -0.34 0.97
-13.48 -0.61 0.97
-13.48 -0.88 0.97
-13.48 -1.15 0.97
-13.48 -1.43 0.97
-13.48 -1.70 0.97
-13.48 -1.98 0.97
-13.50 -2.26 0.98
-13.51 -2.54 0.98
-13.56 -2.83 0.99
-13.60 -3.13 1.00
-13.65 -3.43 1.00
-13.68 -3.73 1.01
-13.70 -4.03 1.02
-13.73 -4.34 1.03
-13.74 -4.65 1.03
-13.73 -4.95 1.04
-13.71 -5.26 1.04
-13.72 -5.58 1.05
-13.74 -5.92 1.06
-13.77 -6.26 1.07
-13.78 -6.60 1.09
-13.75 -6.93 1.09
-13.72 -7.26 1.10
-13.69 -7.60 1.11
-13.68 -7.96 1.12
-13.66 -8.32 1.13
-13.65 -8.69 1.15
-13.64 -9.08 1.16
-13.63 -9.47 1.18
-13.58 -9.85 1.19
-13.54 -10.24 1.20
-13.49 -10.63 1.22
-13.50 -11.09 1.24
-13.51 -11.55 1.26
-13.46 -11.99 1.28
-13.42 -12.45 1.29
-13.37 -12.91 1.31
-13.32 -13.39 1.34
-13.28 -13.90 1.36
-13.28 -14.46 1.39
-13.22 -14.99 1.41
-13.14 -15.51 1.44
-13.05 -16.06 1.46
-12.97 -16.63 1.49
-12.85 -17.17 1.52
-12.71 -17.72 1.54
-12.57 -18.29 1.57
-12.40 -18.83 1.59
-12.15 -19.29 1.61
-11.88 -19.73 1.63
-11.59 -20.16 1.64
-11.30 -20.60 1.66
-11.09 -21.21 1.69
-10.88 -21.87 1.73
-10.63 -22.48 1.76
-10.40 -23.20 1.80
-10.20 -24.02 1.85
-9.97 -24.86 1.90
-9.77 -25.85 1.96
-9.48 -26.69 2.00
-9.19 -27.63 2.06
-8.86 -28.53 2.12
-8.61 -29.83 2.20
-8.33 -31.18 2.29
-8.02 -32.64 2.38
-7.39 -32.92 2.39
-6.73 -33.05 2.39
-6.06 -33.17 2.39
-5.39 -33.27 2.39
-4.72 -33.36 2.39
-4.23 -34.88 2.49
-3.52 -34.95 2.49
-2.82 -35.00 2.49
-2.12 -35.03 2.49
-1.41 -35.05 2.49
-0.71 -35.06 2.49
-0.00 -26.58 2.49
0.53 -26.57 2.49
1.06 -26.54 2.49
1.59 -26.51 2.49
2.12 -26.46 2.49
2.65 -26.40 2.49
3.18 -26.34 2.49
3.56 -25.17 2.39
4.06 -25.08 2.39
4.56 -24.99 2.39
5.06 -24.88 2.39
5.55 -24.76 2.39
6.05 -24.64 2.39
6.54 -24.50 2.39
7.03 -24.35 2.39
7.52 -24.22 2.39
8.00 -24.06 2.39
8.48 -23.88 2.39
8.95 -23.70 2.39
9.42 -23.50 2.39
9.88 -23.30 2.39
10.34 -23.08 2.39
10.80 -22.86 2.39
11.25 -22.62 2.39
11.70 -22.38 2.39
12.14 -22.13 2.39
12.57 -21.87 2.39
13.00 -21.61 2.39
13.43 -21.33 2.39
13.85 -21.04 2.39
14.26 -20.75 2.39
14.66 -20.45 2.39
15.06 -20.14 2.39
15.46 -19.82 2.39
15.84 -19.50 2.39
16.22 -19.17 2.39
16.59 -18.83 2.39
16.96 -18.48 2.39
17.32 -18.13 2.39
17.67 -17.77 2.39
18.01 -17.40 2.39
18.35 -17.02 2.39
18.67 -16.64 2.39
18.99 -16.26 2.39
19.31 -15.86 2.39
19.61 -15.46 2.39
19.90 -15.06 2.39
20.19 -14.65 2.39
20.47 -14.23 2.39
20.74 -13.81 2.39
21.00 -13.38 2.39
21.25 -12.95 2.39
21.50 -12.52 2.39
21.73 -12.07 2.39
21.96 -11.63 2.39
22.18 -11.18 2.39
22.38 -10.73 2.39
22.58 -10.27 2.39
22.77 -9.81 2.39
22.95 -9.35 2.39
23.12 -8.88 2.39
23.28 -8.41 2.39
23.43 -7.93 2.39
23.58 -7.46 2.39
23.71 -6.98 2.39
23.83 -6.50 2.39
23.82 -5.99 2.38
23.80 -5.47 2.37
23.78 -4.97 2.36
24.23 -4.56 2.39
24.30 -4.07 2.39
21.52 -3.16 2.11
21.47 -2.71 2.10
21.41 -2.27 2.09
21.36 -1.83 2.09
21.30 -1.40 2.08
21.26 -0.97 2.07
21.17 -0.54 2.06
20.80 -0.11 2.03
24.06 0.36 2.35
2.60 0.09 0.25
2.59 0.14 0.25
2.65 0.20 0.26
23.26 2.22 2.28
23.24 2.69 2.29
23.23 3.16 2.29
23.21 3.64 2.30
23.19 4.11 2.31
23.17 4.59 2.31
23.15 5.07 2.32
23.13 5.56 2.33
23.11 6.04 2.34
23.10 6.54 2.35
23.08 7.04 2.37
23.06 7.54 2.38
23.02 8.04 2.39
22.85 8.50 2.39
22.67 8.95 2.39
22.47 9.41 2.39
22.28 9.85 2.39
22.07 10.29 2.39
19.89 9.77 2.18
19.49 10.06 2.16
19.10 10.35 2.14
18.75 10.65 2.12
19.44 11.57 2.23
20.64 12.85 2.39
20.37 13.26 2.39
17.95 12.20 2.14
17.15 12.17 2.07
16.40 12.14 2.01
15.70 12.11 1.95
15.03 12.09 1.90
14.40 12.06 1.85
13.80 12.04 1.81
13.22 12.02 1.76
12.68 12.00 1.72
12.16 11.98 1.68
11.66 11.96 1.65
11.64 12.43 1.68
11.71 13.01 1.73
11.69 13.53 1.76
11.67 14.06 1.80
11.56 14.52 1.83
11.54 15.10 1.88
11.52 15.72 1.92
11.41 16.25 1.96
11.37 16.90 2.01
10.10 15.68 1.84
11.41 18.52 2.15
11.38 19.33 2.21
9.98 17.77 2.01
11.31 21.11 2.36
11.01 21.57 2.39
10.50 21.65 2.37
10.08 21.88 2.38
9.71 22.25 2.39
9.26 22.44 2.39
8.81 22.63 2.39
8.36 22.80 2.39
7.90 22.97 2.39
7.44 23.13 2.39
6.97 23.27 2.39
6.50 23.41 2.39
6.03 23.54 2.39
5.56 23.67 2.39
5.08 23.75 2.39
4.60 23.85 2.39
4.12 23.95 2.39
3.64 24.03 2.39
3.16 24.10 2.39
2.68 24.17 2.39
2.19 24.22 2.39
1.70 24.27 2.39
1.27 25.35 2.49
0.76 25.38 2.49
0.25 25.40 2.49
-0.26 25.41 2.49
-0.77 25.41 2.49
-1.28 25.39 2.49
-1.79 25.37 2.49
-2.30 25.34 2.49
-2.81 25.30 2.49
-3.32 25.24 2.49
-3.82 25.18 2.49
-4.33 25.11 2.49
-4.84 25.03 2.49
-5.34 24.94 2.49
-5.84 24.83 2.49
-6.34 24.72 2.49
-6.67 23.99 2.43
-7.03 23.45 2.39
-7.50 23.32 2.39
-7.97 23.17 2.39
-8.44 23.02 2.39
-8.91 22.86 2.39
-9.37 22.68 2.39
-9.83 22.50 2.39
-10.28 22.31 2.39
-10.94 22.55 2.44
-11.33 22.19 2.42
-11.68 21.78 2.40
-11.87 21.12 2.35
-12.06 20.48 2.31
-12.31 19.97 2.28
-12.52 19.43 2.24
-12.71 18.88 2.21
-12.85 18.29 2.17
-13.00 17.74 2.13
-13.24 17.32 2.11
-13.51 16.96 2.10
-13.62 16.41 2.06
-13.69 15.84 2.02
-13.73 15.25 1.98
-13.77 14.69 1.94
-13.80 14.14 1.91
-13.69 13.48 1.85
-13.45 12.73 1.79
-13.11 11.91 1.71
-13.02 11.36 1.66
-12.98 10.87 1.63
-12.94 10.40 1.60
-12.89 9.95 1.57
-12.87 9.52 1.54
-12.89 9.15 1.52
-12.93 8.79 1.50
-12.96 8.44 1.48
-13.00 8.09 1.47
-13.03 7.75 1.45
-13.06 7.42 1.44
-13.08 7.09 1.42
-13.09 6.76 1.41
-13.10 6.43 1.40
-13.11 6.11 1.38
-13.12 5.80 1.37
-13.13 5.49 1.36
-13.15 5.19 1.35
-13.17 4.90 1.34
-13.19 4.61 1.33
-13.21 4.32 1.32
-13.23 4.03 1.32
-13.24 3.75 1.31
-13.23 3.46 1.30
-13.22 3.17 1.29
-13.20 2.89 1.28
-13.18 2.61 1.28
-13.17 2.33 1.27
-13.15 2.06 1.26
-13.13 1.79 1.26
-13.14 1.52 1.25
-13.14 1.25 1.25
-13.15 0.99 1.25
-13.16 0.72 1.25
-13.16 0.46 1.25
-13.17 0.20 1.24
-13.17 -0.07 1.24
-13.16 -0.33 1.24
-13.16 -0.60 1.24
-13.16 -0.86 1.24
-13.16 -1.13 1.25
-13.16 -1.39 1.25
-13.16 -1.66 1.25
-13.16 -1.93 1.25
-13.16 -2.20 1.26
-13.17 -2.48 1.26
-13.21 -2.76 1.27
-13.25 -3.05 1.28
-13.29 -3.34 1.29
-13.33 -3.64 1.30
-13.37 -3.93 1.31
-13.39 -4.23 1.32
-13.41 -4.54 1.33
-13.39 -4.83 1.34
-13.38 -5.14 1.34
-13.37 -5.44 1.35
-13.35 -5.75 1.36
-13.37 -6.08 1.38
-13.39 -6.41 1.39
-13.37 -6.74 1.40
-13.34 -7.06 1.41
-13.30 -7.39 1.42
-13.26 -7.72 1.44
-13.23 -8.06 1.45
-13.21 -8.42 1.47
-13.19 -8.78 1.48
-13.18 -9.16 1.50
-13.17 -9.55 1.52
-13.15 -9.94 1.54
-13.09 -10.32 1.56
-13.06 -10.72 1.58
-13.06 -11.17 1.61
-13.06 -11.63 1.63
-13.04 -12.10 1.66
-12.99 -12.54 1.69
-12.94 -13.00 1.71
-12.88 -13.47 1.74
-12.81 -13.96 1.77
-12.78 -14.49 1.80
-12.71 -15.01 1.84
-12.62 -15.52 1.87
-12.52 -16.05 1.90
-12.42 -16.60 1.94
-12.29 -17.13 1.97
-12.15 -17.67 2.00
-11.93 -18.12 2.02
-11.70 -18.57 2.05
-11.48 -19.07 2.08
-11.24 -19.55 2.11
-10.96 -19.97 2.13
-10.66 -20.39 2.15
-10.40 -20.91 2.18
-10.20 -21.57 2.23
-9.98 -22.26 2.28
-9.71 -22.86 2.32
-9.40 -23.44 2.36
-9.08 -24.03 2.40
-8.57 -24.11 2.39
-8.08 -24.27 2.39
-7.59 -24.43 2.39
-7.10 -24.57 2.39
-6.60 -24.70 2.39
-6.10 -24.83 2.39
-5.60 -24.94 2.39
-5.10 -25.04 2.39
-4.73 -25.88 2.46
-4.26 -26.30 2.49
-3.73 -26.37 2.49
-3.20 -26.44 2.49
-2.67 -26.49 2.49
-2.14 -26.53 2.49
-1.60 -26.56 2.49
-1.07 -26.58 2.49
-0.54 -26.59 2.49
-0.00 -21.39 2.49
0.43 -21.38 2.49
0.85 -21.36 2.49
1.28 -21.34 2.49
1.71 -21.30 2.49
2.14 -21.25 2.49
2.56 -21.20 2.49
2.99 -21.14 2.49
3.27 -20.20 2.39
3.67 -20.12 2.39
4.07 -20.04 2.39
4.47 -19.94 2.39
4.87 -19.84 2.39
5.27 -19.73 2.39
5.66 -19.62 2.39
6.05 -19.49 2.39
6.44 -19.36 2.39
6.82 -19.22 2.39
7.21 -19.09 2.39
7.59 -18.94 2.39
7.97 -18.78 2.39
8.34 -18.60 2.39
8.71 -18.43 2.39
9.07 -18.24 2.39
9.43 -18.05 2.39
9.79 -17.85 2.39
10.14 -17.64 2.39
10.49 -17.43 2.39
10.83 -17.20 2.39
11.17 -16.98 2.39
11.50 -16.74 2.39
11.83 -16.50 2.39
12.15 -16.25 2.39
12.47 -16.00 2.39
12.78 -15.74 2.39
13.09 -15.47 2.39
13.39 -15.20 2.39
13.69 -14.92 2.39
13.98 -14.64 2.39
14.27 -14.35 2.39
14.54 -14.05 2.39
14.82 -13.75 2.39
15.08 -13.44 2.39
15.34 -13.13 2.39
15.60 -12.82 2.39
15.84 -12.49 2.39
13.77 -10.42 2.05
14.01 -10.16 2.05
14.58 -10.14 2.11
16.76 -11.16 2.39
16.98 -10.82 2.39
17.18 -10.47 2.39
17.38 -10.12 2.39
17.57 -9.77 2.39
17.76 -9.41 2.39
17.94 -9.04 2.39
18.11 -8.68 2.39
14.63 -6.66 1.92
18.42 -7.94 2.39
18.57 -7.56 2.39
18.71 -7.19 2.39
18.84 -6.81 2.39
18.97 -6.42 2.39
19.08 -6.04 2.39
19.19 -5.65 2.39
19.30 -5.26 2.39
19.39 -4.87 2.39
19.47 -4.48 2.39
19.55 -4.09 2.39
19.62 -3.69 2.39
19.68 -3.30 2.39
19.74 -2.90 2.39
19.79 -2.50 2.39
19.82 -2.10 2.39
19.85 -1.70 2.39
19.88 -1.30 2.39
19.89 -0.90 2.39
19.90 -0.50 2.39
19.90 -0.11 2.39
19.89 0.29 2.39
2.60 0.09 0.31
2.59 0.14 0.31
2.65 0.20 0.32
19.77 1.89 2.39
19.72 2.28 2.39
19.67 2.68 2.39
19.60 3.07 2.39
19.53 3.46 2.39
19.45 3.85 2.39
19.37 4.24 2.39
19.27 4.63 2.39
19.17 5.01 2.39
19.06 5.39 2.39
18.94 5.77 2.39
18.82 6.15 2.39
18.68 6.53 2.39
18.54 6.90 2.39
18.40 7.27 2.39
18.24 7.63 2.39
18.08 8.00 2.39
17.91 8.36 2.39
17.74 8.71 2.39
17.56 9.06 2.39
14.08 7.63 1.94
13.80 7.84 1.92
16.97 10.10 2.39
16.76 10.44 2.39
16.54 10.77 2.39
16.32 11.10 2.39
16.09 11.42 2.39
15.86 11.74 2.39
15.62 12.05 2.39
15.03 12.09 2.34
14.40 12.06 2.28
13.80 12.04 2.22
13.23 12.02 2.17
12.68 12.00 2.12
12.16 11.98 2.07
11.66 11.96 2.03
11.64 12.43 2.07
11.63 12.92 2.11
11.61 13.43 2.16
11.58 13.96 2.20
11.56 14.52 2.25
11.54 15.10 2.31
11.41 15.57 2.34
10.92 15.55 2.31
10.45 15.54 2.27
9.99 15.52 2.24
9.82 15.94 2.27
9.79 16.64 2.34
9.65 17.19 2.39
9.31 17.38 2.39
8.96 17.56 2.39
8.60 17.74 2.39
8.25 17.91 2.39
7.89 18.07 2.39
7.52 18.23 2.39
7.16 18.38 2.39
6.79 18.52 2.39
6.41 18.65 2.39
6.04 18.78 2.39
5.66 18.90 2.39
5.27 18.99 2.39
4.89 19.10 2.39
4.51 19.20 2.39
4.12 19.29 2.39
3.74 19.37 2.39
3.35 19.44 2.39
2.96 19.51 2.39
2.57 19.57 2.39
2.17 19.62 2.39
1.78 19.67 2.39
1.44 20.55 2.49
1.03 20.58 2.49
0.62 20.60 2.49
0.20 20.62 2.49
-0.21 20.62 2.49
-0.62 20.62 2.49
-1.04 20.61 2.49
-1.45 20.59 2.49
-1.87 20.56 2.49
-2.28 20.52 2.49
-2.69 20.48 2.49
-3.10 20.43 2.49
-3.51 20.37 2.49
-3.92 20.30 2.49
-4.33 20.22 2.49
-4.74 20.14 2.49
-5.14 20.05 2.49
-5.55 19.95 2.49
-5.95 19.84 2.49
-6.35 19.72 2.49
-6.48 18.82 2.40
-6.84 18.66 2.39
-7.22 18.52 2.39
-7.59 18.38 2.39
-7.96 18.23 2.39
-8.33 18.08 2.39
-8.70 17.91 2.39
-9.06 17.74 2.39
-9.42 17.56 2.39
-9.77 17.38 2.39
-10.12 17.18 2.39
-11.01 17.87 2.51
-11.32 17.57 2.50
-11.59 17.22 2.49
-11.79 16.78 2.46
-12.00 16.37 2.43
-12.27 16.06 2.42
-12.50 15.68 2.40
-12.64 15.22 2.36
-12.83 14.84 2.34
-13.03 14.47 2.33
-13.23 14.11 2.31
-13.29 13.62 2.27
-12.71 12.51 2.13
-12.34 11.67 2.02
-12.37 11.23 1.99
-12.38 10.80 1.96
-12.35 10.34 1.92
-12.32 9.90 1.88
-12.31 9.50 1.85
-12.31 9.11 1.82
-12.33 8.75 1.80
-12.37 8.41 1.78
-12.41 8.07 1.76
-12.45 7.75 1.74
-12.50 7.44 1.72
-12.55 7.13 1.71
-12.58 6.81 1.69
-12.60 6.50 1.68
-12.62 6.19 1.66
-12.63 5.89 1.65
-12.65 5.59 1.64
-12.67 5.30 1.62
-12.71 5.02 1.61
-12.75 4.74 1.61
-12.79 4.47 1.60
-12.82 4.19 1.59
-12.86 3.92 1.59
-12.90 3.65 1.58
-12.88 3.37 1.57
-12.87 3.09 1.56
-12.85 2.81 1.55
-12.83 2.54 1.54
-12.82 2.27 1.53
-12.80 2.00 1.52
-12.78 1.74 1.52
-12.76 1.48 1.51
-12.78 1.22 1.51
-12.80 0.96 1.51
-12.82 0.71 1.51
-12.84 0.45 1.51
-12.85 0.19 1.51
-12.85 -0.07 1.51
-12.86 -0.33 1.51
-12.86 -0.58 1.51
-12.86 -0.84 1.51
-12.86 -1.10 1.51
-12.86 -1.36 1.51
-12.85 -1.62 1.52
-12.85 -1.89 1.52
-12.85 -2.15 1.52
-12.85 -2.42 1.53
-12.88 -2.69 1.54
-12.92 -2.97 1.55
-12.96 -3.25 1.56
-12.99 -3.54 1.57
-13.03 -3.84 1.59
-13.07 -4.13 1.60
-13.08 -4.43 1.61
-13.08 -4.72 1.62
-13.06 -5.01 1.63
-13.05 -5.31 1.64
-13.03 -5.61 1.65
-13.01 -5.92 1.66
-13.00 -6.23 1.68
-13.01 -6.56 1.70
-12.98 -6.87 1.71
-12.94 -7.18 1.72
-12.89 -7.50 1.74
-12.85 -7.83 1.75
-12.81 -8.16 1.77
-12.78 -8.50 1.78
-12.76 -8.87 1.81
-12.74 -9.24 1.83
-12.71 -9.62 1.85
-12.69 -10.00 1.88
-12.66 -10.40 1.90
-12.63 -10.81 1.93
-12.63 -11.25 1.96
-12.62 -11.71 2.00
-12.61 -12.18 2.04
-12.57 -12.64 2.07
-12.51 -13.09 2.10
-12.44 -13.55 2.14
-12.37 -14.03 2.17
-12.30 -14.53 2.21
-12.17 -14.97 2.24
-12.00 -15.38 2.27
-11.82 -15.80 2.29
-11.64 -16.22 2.32
-11.45 -16.66 2.35
-11.25 -17.10 2.38
-11.05 -17.55 2.41
-10.83 -17.99 2.44
-10.60 -18.43 2.47
-10.37 -18.89 2.50
-10.14 -19.39 2.54
-9.86 -19.82 2.57
-8.80 -18.61 2.39
-8.42 -18.78 2.39
-8.04 -18.94 2.39
-7.66 -19.10 2.39
-7.28 -19.25 2.39
-6.89 -19.39 2.39
-6.50 -19.52 2.39
-6.10 -19.64 2.39
-5.71 -19.76 2.39
-5.31 -19.87 2.39
-4.96 -20.17 2.42
-4.70 -20.92 2.49
-4.28 -21.01 2.49
-3.85 -21.09 2.49
-3.43 -21.16 2.49
-3.00 -21.22 2.49
-2.58 -21.27 2.49
-2.15 -21.31 2.49
-1.72 -21.34 2.49
-1.29 -21.37 2.49
-0.86 -21.39 2.49
-0.43 -21.39 2.49
-0.00 -17.88 2.49
0.35 -17.87 2.49
0.71 -17.86 2.49
1.07 -17.84 2.49
1.43 -17.81 2.49
1.79 -17.77 2.49
2.14 -17.73 2.49
2.50 -17.68 2.49
2.85 -17.62 2.49
3.07 -16.83 2.39
3.40 -16.76 2.39
3.74 -16.68 2.39
4.07 -16.60 2.39
4.40 -16.51 2.39
4.73 -16.41 2.39
5.06 -16.31 2.39
5.38 -16.20 2.39
5.71 -16.08 2.39
6.03 -15.96 2.39
6.34 -15.83 2.39
6.66 -15.69 2.39
6.98 -15.57 2.39
7.28 -15.42 2.39
7.59 -15.27 2.39
7.89 -15.11 2.39
8.19 -14.94 2.39
8.49 -14.77 2.39
8.78 -14.59 2.39
9.07 -14.40 2.39
9.35 -14.21 2.39
9.63 -14.02 2.39
9.91 -13.82 2.39
10.18 -13.61 2.39
10.44 -13.40 2.39
10.71 -13.18 2.39
10.97 -12.96 2.39
11.22 -12.73 2.39
11.47 -12.50 2.39
11.71 -12.26 2.39
11.95 -12.02 2.39
12.19 -11.77 2.39
12.42 -11.52 2.39
12.64 -11.27 2.39
12.86 -11.01 2.39
13.07 -10.74 2.39
13.28 -10.47 2.39
13.48 -10.20 2.39
13.68 -9.92 2.39
13.87 -9.64 2.39
14.06 -9.36 2.39
14.23 -9.07 2.39
14.41 -8.78 2.39
14.58 -8.49 2.39
14.74 -8.19 2.39
14.89 -7.89 2.39
15.04 -7.59 2.39
13.62 -6.53 2.15
13.94 -6.34 2.18
15.46 -6.66 2.39
15.58 -6.35 2.39
15.70 -6.03 2.39
15.81 -5.71 2.39
15.92 -5.39 2.39
16.02 -5.07 2.39
16.11 -4.74 2.39
16.20 -4.42 2.39
16.27 -4.09 2.39
13.49 -3.10 1.97
13.47 -2.82 1.97
14.18 -2.67 2.06
16.53 -2.77 2.39
16.57 -2.44 2.39
16.61 -2.10 2.39
16.65 -1.77 2.39
16.67 -1.43 2.39
16.69 -1.10 2.39
16.71 -0.76 2.39
16.71 -0.42 2.39
16.71 -0.09 2.39
16.71 0.25 2.39
2.60 0.09 0.37
2.59 0.14 0.37
2.65 0.20 0.38
16.61 1.58 2.39
16.57 1.92 2.39
16.53 2.25 2.39
16.47 2.58 2.39
16.42 2.91 2.39
16.35 3.24 2.39
16.28 3.56 2.39
16.20 3.89 2.39
16.11 4.21 2.39
13.22 3.74 1.98
13.21 4.03 1.99
15.82 5.17 2.39
15.71 5.49 2.39
15.59 5.80 2.39
15.47 6.11 2.39
15.34 6.42 2.39
15.20 6.72 2.39
15.06 7.03 2.39
14.92 7.33 2.39
14.76 7.62 2.39
13.75 7.45 2.25
13.08 7.43 2.17
13.06 7.77 2.19
14.10 8.78 2.39
13.91 9.06 2.39
13.73 9.33 2.39
13.54 9.61 2.39
13.34 9.87 2.39
13.14 10.14 2.39
12.93 10.40 2.39
12.72 10.66 2.39
12.50 10.91 2.39
12.28 11.16 2.39
12.05 11.40 2.39
11.82 11.64 2.39
11.58 11.87 2.39
11.34 12.10 2.39
11.09 12.33 2.39
10.84 12.55 2.39
10.59 12.76 2.39
10.33 12.97 2.39
10.07 13.18 2.39
9.80 13.37 2.39
9.53 13.57 2.39
9.25 13.76 2.39
8.98 13.94 2.39
8.70 14.12 2.39
8.41 14.29 2.39
8.12 14.46 2.39
7.83 14.62 2.39
7.54 14.77 2.39
7.24 14.92 2.39
6.94 15.07 2.39
6.63 15.20 2.39
6.33 15.33 2.39
6.02 15.46 2.39
5.70 15.56 2.39
5.39 15.67 2.39
5.07 15.78 2.39
4.76 15.88 2.39
4.44 15.98 2.39
4.12 16.06 2.39
3.79 16.14 2.39
3.47 16.22 2.39
3.14 16.29 2.39
2.81 16.35 2.39
2.49 16.41 2.39
2.16 16.46 2.39
1.83 16.50 2.39
1.56 17.25 2.49
1.21 17.28 2.49
0.87 17.30 2.49
0.52 17.32 2.49
0.17 17.33 2.49
-0.18 17.34 2.49
-0.53 17.33 2.49
-0.87 17.32 2.49
-1.22 17.31 2.49
-1.57 17.28 2.49
-1.92 17.25 2.49
-2.26 17.21 2.49
-2.61 17.17 2.49
-2.95 17.12 2.49
-3.30 17.06 2.49
-3.64 16.99 2.49
-3.98 16.92 2.49
-4.32 16.84 2.49
-4.66 16.76 2.49
-5.00 16.67 2.49
-5.33 16.57 2.49
-5.67 16.46 2.49
-6.00 16.35 2.49
-6.33 16.23 2.49
-6.38 15.44 2.39
-6.69 15.31 2.39
-7.00 15.18 2.39
-7.30 15.04 2.39
-7.61 14.90 2.39
-7.91 14.75 2.39
-8.20 14.59 2.39
-8.50 14.43 2.39
-8.79 14.26 2.39
-9.08 14.08 2.39
-9.36 13.90 2.39
-9.64 13.72 2.39
-9.92 13.53 2.39
-10.19 13.33 2.39
-11.19 14.04 2.56
-11.40 13.73 2.54
-11.58 13.39 2.52
-11.75 13.05 2.50
-11.92 12.72 2.48
-11.79 12.08 2.40
-11.70 11.51 2.33
-11.73 11.10 2.29
-11.77 10.69 2.26
-11.79 10.28 2.22
-11.77 9.86 2.18
-11.78 9.47 2.14
-11.79 9.09 2.11
-11.80 8.73 2.08
-11.81 8.38 2.05
-11.85 8.05 2.03
-11.90 7.74 2.01
-11.96 7.44 1.99
-12.02 7.15 1.98
-12.07 6.86 1.96
-12.11 6.56 1.95
-12.13 6.26 1.93
-12.16 5.97 1.91
-12.18 5.68 1.90
-12.20 5.39 1.88
-12.21 5.11 1.87
-12.24 4.83 1.86
-12.28 4.56 1.85
-12.32 4.30 1.84
-12.35 4.04 1.83
-12.39 3.78 1.82
-12.40 3.51 1.82
-12.40 3.24 1.80
-12.39 2.97 1.79
-12.38 2.71 1.78
-12.37 2.45 1.77
-12.35 2.19 1.76
-12.33 1.93 1.75
-12.32 1.68 1.75
-12.31 1.42 1.74
-12.29 1.17 1.73
-12.30 0.92 1.73
-12.31 0.68 1.73
-12.33 0.43 1.73
-12.35 0.18 1.73
-12.36 -0.07 1.73
-12.37 -0.31 1.73
-12.36 -0.56 1.73
-12.33 -0.81 1.73
-12.33 -1.06 1.73
-12.33 -1.31 1.74
-12.34 -1.56 1.74
-12.34 -1.81 1.74
-12.35 -2.07 1.75
-12.35 -2.32 1.76
-12.33 -2.58 1.76
-12.31 -2.83 1.76
-12.44 -3.12 1.79
-12.58 -3.43 1.82
-12.70 -3.74 1.85
-12.73 -4.03 1.86
-12.77 -4.32 1.88
-12.77 -4.61 1.89
-12.75 -4.90 1.91
-12.74 -5.19 1.92
-12.72 -5.48 1.93
-12.70 -5.77 1.94
-12.68 -6.08 1.96
-12.66 -6.38 1.97
-12.63 -6.69 1.99
-12.59 -6.99 2.01
-12.54 -7.30 2.02
-12.44 -7.58 2.03
-12.34 -7.86 2.04
-12.24 -8.15 2.05
-12.13 -8.43 2.06
-12.12 -8.79 2.08
-12.10 -9.15 2.11
-12.06 -9.51 2.14
-12.01 -9.87 2.16
-11.96 -10.23 2.19
-11.91 -10.61 2.22
-11.85 -10.99 2.25
-11.82 -11.41 2.28
-11.80 -11.87 2.33
-11.79 -12.33 2.37
-11.72 -12.77 2.41
-11.60 -13.16 2.44
-11.46 -13.54 2.47
-11.30 -13.91 2.49
-11.14 -14.28 2.52
-10.98 -14.67 2.55
-10.83 -15.10 2.58
-10.68 -15.54 2.62
-10.52 -15.99 2.66
-9.17 -14.55 2.39
-8.87 -14.74 2.39
-8.58 -14.91 2.39
-8.27 -15.08 2.39
-7.97 -15.24 2.39
-7.66 -15.40 2.39
-7.35 -15.55 2.39
-7.04 -15.69 2.39
-6.72 -15.83 2.39
-6.40 -15.96 2.39
-6.08 -16.08 2.39
-5.75 -16.20 2.39
-5.43 -16.31 2.39
-5.11 -16.44 2.40
-4.97 -17.22 2.49
-4.63 -17.32 2.49
-4.28 -17.40 2.49
-3.93 -17.48 2.49
-3.57 -17.55 2.49
-3.22 -17.62 2.49
-2.87 -17.68 2.49
-2.51 -17.73 2.49
-2.15 -17.77 2.49
-1.80 -17.81 2.49
-1.44 -17.84 2.49
-1.08 -17.86 2.49
-0.72 -17.87 2.49
-0.36 -17.88 2.49
-0.00 -15.35 2.49
0.30 -15.34 2.49
0.61 -15.33 2.49
0.92 -15.31 2.49
1.23 -15.29 2.49
1.53 -15.25 2.49
1.84 -15.22 2.49
2.14 -15.17 2.49
2.45 -15.12 2.49
2.75 -15.07 2.49
2.92 -14.39 2.39
3.21 -14.32 2.39
3.50 -14.25 2.39
3.78 -14.17 2.39
4.06 -14.09 2.39
4.34 -14.00 2.39
4.62 -13.91 2.39
4.90 -13.81 2.39
5.17 -13.71 2.39
5.45 -13.60 2.39
5.72 -13.48 2.39
5.98 -13.36 2.39
6.25 -13.23 2.39
6.51 -13.10 2.39
6.77 -12.96 2.39
7.04 -12.84 2.39
7.29 -12.69 2.39
5.94 -9.87 1.89
6.13 -9.75 1.89
6.44 -9.79 1.92
8.27 -12.05 2.39
8.51 -11.88 2.39
8.75 -11.70 2.39
8.98 -11.52 2.39
9.20 -11.33 2.39
9.42 -11.14 2.39
9.64 -10.95 2.39
9.86 -10.75 2.39
10.07 -10.54 2.39
10.27 -10.33 2.39
8.25 -7.97 1.89
8.41 -7.80 1.89
10.87 -9.69 2.39
11.06 -9.47 2.39
11.24 -9.24 2.39
11.42 -9.01 2.39
11.59 -8.77 2.39
11.76 -8.54 2.39
11.93 -8.30 2.39
12.09 -8.05 2.39
12.24 -7.81 2.39
12.39 -7.56 2.39
12.54 -7.30 2.39
12.68 -7.05 2.39
12.81 -6.79 2.39
12.94 -6.53 2.39
13.07 -6.27 2.39
13.19 -6.00 2.39
13.30 -5.73 2.39
13.41 -5.46 2.39
13.51 -5.19 2.39
13.61 -4.92 2.39
13.70 -4.64 2.39
13.79 -4.36 2.39
13.87 -4.08 2.39
13.94 -3.80 2.39
14.01 -3.52 2.39
14.07 -3.24 2.39
13.50 -2.82 2.29
14.18 -2.67 2.39
14.23 -2.38 2.39
14.27 -2.10 2.39
14.31 -1.81 2.39
14.34 -1.52 2.39
14.36 -1.23 2.39
14.38 -0.94 2.39
14.39 -0.66 2.39
14.40 -0.37 2.39
14.40 -0.08 2.39
14.39 0.21 2.39
2.60 0.09 0.43
2.59 0.14 0.43
2.65 0.20 0.44
14.31 1.36 2.39
14.28 1.65 2.39
14.24 1.94 2.39
14.19 2.22 2.39
14.14 2.51 2.39
14.09 2.79 2.39
14.03 3.07 2.39
13.96 3.35 2.39
13.88 3.63 2.39
13.30 3.76 2.31
13.23 4.03 2.31
13.63 4.46 2.39
13.54 4.73 2.39
13.44 5.00 2.39
13.33 5.27 2.39
13.22 5.53 2.39
13.11 5.79 2.39
12.98 6.06 2.39
12.86 6.31 2.39
12.73 6.57 2.39
12.59 6.82 2.39
12.45 7.07 2.39
12.30 7.32 2.39
12.15 7.57 2.39
12.00 7.81 2.39
11.84 8.05 2.39
11.67 8.28 2.39
11.50 8.51 2.39
11.33 8.74 2.39
11.15 8.97 2.39
10.96 9.19 2.39
10.78 9.40 2.39
10.58 9.62 2.39
10.39 9.83 2.39
10.19 10.03 2.39
9.98 10.24 2.39
9.78 10.43 2.39
9.56 10.63 2.39
9.35 10.82 2.39
9.13 11.00 2.39
8.91 11.18 2.39
8.68 11.36 2.39
8.45 11.53 2.39
8.22 11.70 2.39
7.98 11.86 2.39
7.74 12.02 2.39
7.50 12.17 2.39
7.25 12.32 2.39
7.00 12.47 2.39
6.75 12.60 2.39
6.50 12.74 2.39
6.24 12.87 2.39
5.98 12.99 2.39
5.71 13.09 2.39
5.45 13.21 2.39
5.18 13.31 2.39
4.92 13.42 2.39
4.65 13.51 2.39
4.37 13.61 2.39
4.10 13.69 2.39
3.82 13.77 2.39
3.55 13.85 2.39
3.27 13.92 2.39
2.99 13.98 2.39
2.71 14.04 2.39
2.43 14.10 2.39
2.14 14.14 2.39
1.86 14.19 2.39
1.64 14.84 2.49
1.34 14.87 2.49
1.04 14.89 2.49
0.75 14.91 2.49
0.45 14.93 2.49
0.15 14.94 2.49
-0.15 14.94 2.49
-0.45 14.94 2.49
-0.75 14.93 2.49
-1.05 14.91 2.49
-1.35 14.89 2.49
-1.65 14.87 2.49
-1.95 14.83 2.49
-2.25 14.79 2.49
-2.55 14.75 2.49
-2.84 14.70 2.49
-3.14 14.64 2.49
-3.43 14.58 2.49
-3.72 14.51 2.49
-4.02 14.44 2.49
-4.31 14.36 2.49
-4.59 14.27 2.49
-4.88 14.18 2.49
-5.17 14.08 2.49
-5.45 13.98 2.49
-5.73 13.87 2.49
-6.01 13.76 2.49
-6.26 13.59 2.49
-6.29 12.95 2.39
-6.55 12.83 2.39
-6.81 12.70 2.39
-7.06 12.56 2.39
-7.32 12.42 2.39
-7.57 12.28 2.39
-7.81 12.12 2.39
-8.06 11.97 2.39
-8.30 11.81 2.39
-8.54 11.64 2.39
-8.77 11.47 2.39
-9.00 11.30 2.39
-9.23 11.12 2.39
-9.46 10.93 2.39
-9.68 10.75 2.39
-9.89 10.55 2.39
-10.11 10.36 2.39
-10.92 10.74 2.53
-11.10 10.49 2.52
-11.22 10.19 2.50
-11.25 9.81 2.46
-11.27 9.44 2.43
-11.29 9.07 2.39
-11.31 8.72 2.35
-11.32 8.37 2.32
-11.33 8.04 2.29
-11.38 7.73 2.27
-11.44 7.44 2.25
-11.50 7.16 2.23
-11.56 6.88 2.21
-11.62 6.60 2.20
-11.67 6.32 2.18
-11.70 6.04 2.16
-11.73 5.76 2.15
-11.75 5.48 2.13
-11.77 5.20 2.11
-11.79 4.93 2.10
-11.81 4.66 2.08
-11.84 4.40 2.07
-11.88 4.15 2.06
-11.91 3.89 2.05
-11.94 3.64 2.05
-11.95 3.38 2.03
-11.95 3.12 2.02
-11.94 2.87 2.01
-11.94 2.61 2.00
-11.93 2.36 1.99
-11.92 2.11 1.98
-11.90 1.86 1.97
-11.89 1.62 1.96
-11.88 1.37 1.95
-11.87 1.13 1.95
-11.86 0.89 1.94
-11.85 0.65 1.94
-11.86 0.41 1.94
-11.87 0.17 1.94
-11.89 -0.06 1.94
-11.90 -0.30 1.94
-11.89 -0.54 1.94
-11.86 -0.78 1.94
-11.83 -1.02 1.94
-11.80 -1.25 1.93
-11.79 -1.49 1.94
-11.79 -1.73 1.94
-11.79 -1.97 1.95
-11.79 -2.22 1.95
-11.78 -2.46 1.96
-11.76 -2.70 1.96
-11.73 -2.95 1.97
-11.70 -3.19 1.97
-11.67 -3.44 1.98
-11.79 -3.73 2.01
-11.91 -4.03 2.04
-12.03 -4.34 2.08
-12.05 -4.62 2.10
-12.00 -4.89 2.11
-11.96 -5.15 2.12
-11.92 -5.42 2.13
-11.87 -5.69 2.14
-11.83 -5.96 2.15
-11.78 -6.24 2.16
-11.72 -6.51 2.18
-11.64 -6.78 2.19
-11.56 -7.04 2.20
-11.47 -7.31 2.21
-11.38 -7.58 2.22
-11.28 -7.84 2.23
-11.17 -8.10 2.24
-11.06 -8.37 2.25
-11.02 -8.69 2.28
-11.04 -9.07 2.32
-11.05 -9.45 2.36
-11.05 -9.85 2.40
-11.00 -10.20 2.43
-10.93 -10.55 2.46
-10.85 -10.91 2.49
-10.77 -11.27 2.53
-10.69 -11.65 2.56
-10.60 -12.03 2.60
-10.52 -12.42 2.64
-9.31 -11.45 2.39
-9.08 -11.64 2.39
-8.84 -11.82 2.39
-8.60 -11.99 2.39
-8.36 -12.16 2.39
-8.11 -12.33 2.39
-7.86 -12.49 2.39
-7.61 -12.64 2.39
-7.36 -12.79 2.39
-7.10 -12.94 2.39
-6.84 -13.07 2.39
-6.57 -13.21 2.39
-6.31 -13.34 2.39
-6.04 -13.46 2.39
-5.77 -13.58 2.39
-5.49 -13.69 2.39
-5.22 -13.80 2.39
-5.15 -14.50 2.49
-4.86 -14.60 2.49
-4.56 -14.69 2.49
-4.27 -14.78 2.49
-3.97 -14.86 2.49
-3.67 -14.93 2.49
-3.37 -15.00 2.49
-3.07 -15.06 2.49
-2.76 -15.12 2.49
-2.46 -15.17 2.49
-2.16 -15.21 2.49
-1.85 -15.25 2.49
-1.54 -15.28 2.49
-1.24 -15.31 2.49
-0.93 -15.33 2.49
-0.62 -15.34 2.49
-0.31 -15.35 2.49
-0.00 -13.43 2.49
0.27 -13.42 2.49
0.53 -13.41 2.49
0.80 -13.40 2.49
1.07 -13.38 2.49
1.34 -13.35 2.49
1.61 -13.32 2.49
1.87 -13.28 2.49
2.14 -13.24 2.49
2.40 -13.19 2.49
2.67 -13.14 2.49
2.81 -12.56 2.40
3.06 -12.47 2.39
3.31 -12.41 2.39
3.56 -12.34 2.39
3.80 -12.26 2.39
4.05 -12.18 2.39
4.29 -12.09 2.39
4.53 -12.00 2.39
4.77 -11.90 2.39
5.00 -11.80 2.39
5.24 -11.70 2.39
5.47 -11.59 2.39
5.70 -11.47 2.39
5.93 -11.35 2.39
6.15 -11.23 2.39
6.38 -11.10 2.39
5.47 -9.10 1.98
6.26 -9.96 2.20
7.04 -10.70 2.39
7.25 -10.55 2.39
7.45 -10.40 2.39
7.66 -10.25 2.39
7.86 -10.09 2.39
8.06 -9.93 2.39
8.26 -9.76 2.39
8.45 -9.59 2.39
8.64 -9.41 2.39
8.82 -9.24 2.39
9.00 -9.06 2.39
9.18 -8.87 2.39
9.35 -8.68 2.39
9.52 -8.49 2.39
9.69 -8.29 2.39
9.85 -8.10 2.39
10.01 -7.89 2.39
10.16 -7.69 2.39
10.31 -7.48 2.39
10.45 -7.27 2.39
10.60 -7.06 2.39
10.73 -6.84 2.39
10.86 -6.62 2.39
10.99 -6.40 2.39
11.11 -6.18 2.39
11.23 -5.95 2.39
11.35 -5.72 2.39
11.46 -5.49 2.39
11.56 -5.26 2.39
11.66 -5.03 2.39
11.76 -4.79 2.39
11.85 -4.55 2.39
11.93 -4.31 2.39
12.01 -4.07 2.39
12.09 -3.83 2.39
12.16 -3.58 2.39
12.23 -3.34 2.39
12.29 -3.09 2.39
12.34 -2.84 2.39
12.39 -2.59 2.39
12.44 -2.34 2.39
12.48 -2.09 2.39
12.52 -1.84 2.39
12.55 -1.59 2.39
12.58 -1.34 2.39
12.60 -1.08 2.39
12.61 -0.83 2.39
12.62 -0.58 2.39
12.63 -0.32 2.39
12.63 -0.07 2.39
12.63 0.18 2.39
2.60 0.09 0.49
2.59 0.14 0.49
2.65 0.20 0.50
12.56 1.20 2.39
12.53 1.45 2.39
12.50 1.70 2.39
12.46 1.95 2.39
12.41 2.20 2.39
12.36 2.45 2.39
12.31 2.69 2.39
12.25 2.94 2.39
12.19 3.18 2.39
12.12 3.43 2.39
12.04 3.67 2.39
11.97 3.91 2.39
11.88 4.15 2.39
11.80 4.39 2.39
11.70 4.62 2.39
11.61 4.86 2.39
11.51 5.09 2.39
11.40 5.32 2.39
11.29 5.54 2.39
11.17 5.77 2.39
11.05 5.99 2.39
10.93 6.21 2.39
8.51 5.06 1.89
8.40 5.23 1.89
8.29 5.40 1.89
8.19 5.57 1.89
8.07 5.73 1.89
7.95 5.89 1.89
7.83 6.04 1.89
7.71 6.20 1.89
9.63 8.07 2.39
9.46 8.26 2.39
9.29 8.45 2.39
9.12 8.63 2.39
8.95 8.81 2.39
8.77 8.99 2.39
8.58 9.16 2.39
8.40 9.33 2.39
8.21 9.50 2.39
8.02 9.66 2.39
7.82 9.82 2.39
7.62 9.98 2.39
7.42 10.13 2.39
7.21 10.27 2.39
7.01 10.42 2.39
6.80 10.55 2.39
6.58 10.69 2.39
6.37 10.82 2.39
6.15 10.95 2.39
5.93 11.07 2.39
5.70 11.17 2.39
5.47 11.28 2.39
5.25 11.39 2.39
5.02 11.50 2.39
4.78 11.60 2.39
4.55 11.69 2.39
4.32 11.78 2.39
4.08 11.87 2.39
3.84 11.95 2.39
3.60 12.02 2.39
3.36 12.09 2.39
3.11 12.16 2.39
2.87 12.22 2.39
2.62 12.28 2.39
2.38 12.33 2.39
2.13 12.38 2.39
1.88 12.42 2.39
1.70 12.99 2.49
1.44 13.02 2.49
1.18 13.05 2.49
0.92 13.08 2.49
0.65 13.09 2.49
0.39 13.11 2.49
0.13 13.11 2.49
-0.14 13.11 2.49
-0.40 13.11 2.49
-0.66 13.10 2.49
-0.93 13.09 2.49
-1.19 13.07 2.49
-1.45 13.05 2.49
-1.71 13.02 2.49
-1.97 12.98 2.49
-2.23 12.94 2.49
-2.49 12.90 2.49
-2.75 12.85 2.49
-3.01 12.79 2.49
-3.27 12.73 2.49
-3.52 12.67 2.49
-3.78 12.60 2.49
-4.03 12.52 2.49
-4.28 12.44 2.49
-4.53 12.36 2.49
-4.78 12.27 2.49
-5.03 12.17 2.49
-5.27 12.07 2.49
-5.52 11.96 2.49
-5.76 11.85 2.49
-6.00 11.74 2.49
-6.18 11.53 2.48
-6.20 11.02 2.39
-6.42 10.89 2.39
-6.64 10.77 2.39
-6.85 10.63 2.39
-7.07 10.50 2.39
-7.28 10.36 2.39
-7.49 10.21 2.39
-7.69 10.06 2.39
-7.90 9.91 2.39
-8.10 9.75 2.39
-8.29 9.59 2.39
-8.49 9.42 2.39
-8.68 9.25 2.39
-8.86 9.08 2.39
-9.05 8.90 2.39
-9.22 8.72 2.39
-9.40 8.54 2.39
-9.57 8.35 2.39
-9.74 8.16 2.39
-9.91 7.96 2.39
-10.35 7.98 2.46
-10.45 7.73 2.44
-10.60 7.52 2.44
-10.76 7.31 2.44
-10.93 7.11 2.45
-11.08 6.90 2.45
-11.14 6.63 2.43
-11.20 6.36 2.42
-11.26 6.10 2.40
-11.30 5.83 2.38
-11.32 5.56 2.37
-11.35 5.29 2.35
-11.37 5.02 2.33
-11.39 4.76 2.31
-11.41 4.50 2.30
-11.43 4.25 2.28
-11.46 4.00 2.27
-11.50 3.76 2.26
-11.51 3.51 2.25
-11.52 3.26 2.24
-11.52 3.01 2.23
-11.52 2.76 2.21
-11.52 2.52 2.20
-11.52 2.28 2.19
-11.51 2.04 2.18
-11.49 1.80 2.17
-11.49 1.56 2.16
-11.48 1.33 2.16
-11.47 1.09 2.15
-11.46 0.86 2.14
-11.45 0.63 2.14
-11.44 0.40 2.13
-11.43 0.17 2.13
-11.45 -0.06 2.13
-11.46 -0.29 2.14
-11.44 -0.52 2.13
-11.42 -0.75 2.13
-11.39 -0.98 2.13
-11.37 -1.21 2.13
-11.34 -1.43 2.13
-11.31 -1.66 2.13
-11.28 -1.89 2.13
-11.28 -2.12 2.13
-11.27 -2.36 2.14
-11.25 -2.59 2.15
-11.22 -2.82 2.15
-11.19 -3.05 2.16
-11.16 -3.29 2.16
-11.13 -3.52 2.17
-11.10 -3.76 2.18
-11.06 -3.99 2.18
-11.15 -4.28 2.22
-11.17 -4.55 2.24
-11.13 -4.79 2.25
-11.08 -5.04 2.26
-11.03 -5.29 2.27
-10.98 -5.53 2.28
-10.92 -5.78 2.29
-10.86 -6.03 2.31
-10.80 -6.29 2.32
-10.73 -6.54 2.33
-10.65 -6.78 2.34
-10.56 -7.03 2.35
-10.47 -7.28 2.36
-10.37 -7.52 2.37
-10.27 -7.77 2.39
-10.16 -8.01 2.40
-10.05 -8.26 2.41
-9.95 -8.51 2.43
-9.89 -8.81 2.45
-9.84 -9.12 2.49
-9.28 -8.96 2.39
-9.10 -9.15 2.39
-8.92 -9.33 2.39
-8.73 -9.51 2.39
-8.54 -9.68 2.39
-8.34 -9.85 2.39
-8.14 -10.02 2.39
-7.94 -10.18 2.39
-7.73 -10.34 2.39
-7.52 -10.49 2.39
-7.31 -10.64 2.39
-7.10 -10.78 2.39
-6.88 -10.92 2.39
-6.66 -11.06 2.39
-6.44 -11.19 2.39
-6.21 -11.32 2.39
-5.98 -11.44 2.39
-5.75 -11.55 2.39
-5.52 -11.67 2.39
-5.29 -11.79 2.39
-5.26 -12.37 2.49
-5.01 -12.49 2.49
-4.76 -12.59 2.49
-4.51 -12.68 2.49
-4.25 -12.77 2.49
-3.99 -12.85 2.49
-3.73 -12.93 2.49
-3.47 -13.00 2.49
-3.21 -13.06 2.49
-2.95 -13.12 2.49
-2.68 -13.18 2.49
-2.42 -13.23 2.49
-2.15 -13.27 2.49
-1.89 -13.31 2.49
-1.62 -13.34 2.49
-1.35 -13.37 2.49
-1.08 -13.39 2.49
-0.81 -13.41 2.49
-0.54 -13.42 2.49
-0.27 -13.43 2.49
-0.00 -11.93 2.49
0.24 -11.92 2.49
0.47 -11.91 2.49
0.71 -11.90 2.49
0.95 -11.88 2.49
1.19 -11.86 2.49
1.43 -11.83 2.49
1.66 -11.80 2.49
1.90 -11.76 2.49
2.14 -11.72 2.49
2.37 -11.67 2.49
2.60 -11.62 2.49
2.76 -11.24 2.43
2.94 -11.02 2.39
3.16 -10.96 2.39
3.38 -10.89 2.39
3.59 -10.82 2.39
3.81 -10.74 2.39
4.02 -10.66 2.39
4.24 -10.58 2.39
4.45 -10.49 2.39
4.65 -10.39 2.39
4.86 -10.30 2.39
5.07 -10.19 2.39
5.27 -10.09 2.39
5.47 -9.98 2.39
5.67 -9.86 2.39
5.47 -9.10 2.23
6.05 -9.62 2.39
6.24 -9.50 2.39
6.43 -9.37 2.39
6.62 -9.23 2.39
6.81 -9.11 2.39
6.99 -8.97 2.39
7.16 -8.82 2.39
7.34 -8.68 2.39
7.51 -8.52 2.39
7.68 -8.37 2.39
7.84 -8.21 2.39
8.00 -8.05 2.39
8.12 -7.85 2.38
8.29 -7.70 2.39
8.46 -7.55 2.39
8.61 -7.38 2.39
8.76 -7.20 2.39
8.90 -7.02 2.39
9.03 -6.84 2.39
9.17 -6.65 2.39
9.30 -6.47 2.39
9.42 -6.28 2.39
9.54 -6.09 2.39
9.66 -5.89 2.39
9.77 -5.69 2.39
9.88 -5.50 2.39
9.99 -5.29 2.39
10.09 -5.09 2.39
10.19 -4.89 2.39
8.26 -3.76 1.92
8.17 -3.52 1.89
8.25 -3.36 1.89
8.30 -3.19 1.89
10.61 -3.84 2.39
10.69 -3.62 2.39
10.75 -3.41 2.39
10.82 -3.19 2.39
10.88 -2.97 2.39
10.93 -2.75 2.39
10.98 -2.53 2.39
11.03 -2.31 2.39
11.07 -2.09 2.39
11.11 -1.86 2.39
11.14 -1.64 2.39
11.17 -1.41 2.39
11.19 -1.19 2.39
11.21 -0.96 2.39
11.22 -0.74 2.39
11.23 -0.51 2.39
11.24 -0.29 2.39
11.24 -0.06 2.39
11.24 0.16 2.39
2.60 0.09 0.56
2.59 0.14 0.55
2.65 0.20 0.57
8.80 0.84 1.89
11.15 1.29 2.39
11.12 1.51 2.39
11.09 1.73 2.39
11.05 1.96 2.39
11.01 2.18 2.39
10.96 2.40 2.39
10.91 2.62 2.39
10.85 2.83 2.39
10.79 3.05 2.39
10.72 3.27 2.39
10.65 3.48 2.39
10.58 3.69 2.39
10.50 3.91 2.39
10.42 4.11 2.39
10.33 4.32 2.39
10.24 4.53 2.39
10.15 4.73 2.39
10.05 4.93 2.39
9.95 5.14 2.39
9.84 5.33 2.39
9.73 5.53 2.39
9.62 5.72 2.39
9.50 5.91 2.39
9.38 6.10 2.39
9.25 6.29 2.39
9.12 6.47 2.39
8.99 6.66 2.39
8.86 6.83 2.39
8.72 7.01 2.39
8.57 7.18 2.39
8.43 7.35 2.39
8.28 7.52 2.39
8.12 7.68 2.39
7.97 7.85 2.39
7.81 8.00 2.39
7.64 8.16 2.39
7.48 8.31 2.39
7.31 8.46 2.39
7.14 8.60 2.39
6.96 8.75 2.39
6.79 8.88 2.39
6.61 9.02 2.39
6.42 9.15 2.39
6.24 9.28 2.39
6.05 9.40 2.39
5.86 9.51 2.39
5.66 9.62 2.39
5.47 9.74 2.39
5.27 9.84 2.39
5.07 9.95 2.39
4.87 10.05 2.39
4.67 10.15 2.39
4.47 10.24 2.39
4.26 10.33 2.39
4.05 10.41 2.39
3.84 10.49 2.39
3.63 10.57 2.39
3.42 10.64 2.39
3.20 10.70 2.39
2.99 10.77 2.39
2.77 10.83 2.39
2.56 10.88 2.39
2.34 10.93 2.39
2.12 10.98 2.39
1.90 11.03 2.39
1.75 11.53 2.49
1.51 11.57 2.49
1.28 11.60 2.49
1.05 11.62 2.49
0.82 11.64 2.49
0.58 11.66 2.49
0.35 11.67 2.49
0.11 11.67 2.49
-0.12 11.68 2.49
-0.36 11.67 2.49
-0.59 11.67 2.49
-0.82 11.65 2.49
-1.06 11.64 2.49
-1.29 11.61 2.49
-1.53 11.59 2.49
-1.76 11.56 2.49
-1.99 11.52 2.49
-2.22 11.48 2.49
-2.45 11.44 2.49
-2.68 11.39 2.49
-2.91 11.33 2.49
-3.14 11.27 2.49
-3.36 11.21 2.49
-3.59 11.14 2.49
-3.81 11.07 2.49
-4.04 11.00 2.49
-4.26 10.91 2.49
-4.48 10.83 2.49
-4.69 10.74 2.49
-4.91 10.65 2.49
-5.12 10.55 2.49
-5.34 10.44 2.49
-5.54 10.34 2.49
-5.75 10.23 2.49
-5.96 10.11 2.49
-6.12 9.93 2.48
-6.12 9.49 2.40
