ply
format ascii 1.0
element vertex 2997
property float32 x
property float32 y
property float32 z
end_header
4.45 -6.27 2.09
4.55 -6.15 2.08
4.65 -6.02 2.07
4.80 -5.96 2.09
4.86 -5.80 2.07
4.97 -5.69 2.07
5.15 -5.67 2.10
5.29 -5.60 2.11
4.93 -5.01 1.93
4.84 -4.72 1.86
4.39 -4.12 1.66
4.41 -3.97 1.64
4.42 -3.83 1.62
4.41 -3.66 1.59
4.34 -3.46 1.54
4.41 -3.38 1.54
4.46 -3.27 1.54
4.44 -3.12 1.51
4.44 -2.99 1.49
4.50 -2.90 1.49
4.54 -2.80 1.49
4.56 -2.69 1.48
4.57 -2.57 1.47
4.58 -2.46 1.46
4.63 -2.37 1.46
4.66 -2.26 1.46
4.68 -2.16 1.46
4.71 -2.06 1.45
4.76 -1.97 1.46
4.90 -1.91 1.49
5.05 -1.86 1.53
5.16 -1.78 1.55
5.14 -1.66 1.54
5.24 -1.57 1.56
5.36 -1.49 1.59
5.45 -1.40 1.61
5.16 -1.22 1.52
5.20 -1.12 1.53
5.29 -1.03 1.55
5.18 -0.90 1.51
5.18 -0.79 1.51
5.23 -0.69 1.52
5.34 -0.60 1.55
6.00 -0.55 1.74
5.87 -0.42 1.71
5.81 -0.30 1.69
5.88 -0.18 1.71
5.10 -0.05 1.49
5.06 0.05 1.48
4.84 0.14 1.42
4.80 0.24 1.41
4.77 0.33 1.40
4.79 0.43 1.41
4.67 0.52 1.38
4.51 0.59 1.34
4.44 0.67 1.32
4.41 0.76 1.32
4.38 0.85 1.32
4.35 0.93 1.32
4.32 1.02 1.31
4.29 1.10 1.31
4.29 1.19 1.32
4.30 1.29 1.33
4.39 1.41 1.37
4.51 1.55 1.42
4.52 1.66 1.44
4.55 1.78 1.46
4.57 1.89 1.48
4.56 2.00 1.49
4.54 2.10 1.50
4.49 2.19 1.50
4.45 2.27 1.50
4.47 2.40 1.52
4.62 2.61 1.60
4.67 2.76 1.63
4.55 2.81 1.61
4.42 2.86 1.59
4.29 2.90 1.56
4.17 2.94 1.54
4.07 3.00 1.53
4.03 3.09 1.53
3.99 3.19 1.55
3.94 3.29 1.55
3.89 3.38 1.56
3.84 3.47 1.57
3.86 3.63 1.61
3.89 3.81 1.65
3.89 3.97 1.69
4.09 4.34 1.81
5.07 5.62 2.30
5.16 5.94 2.39
5.03 6.04 2.39
4.91 6.14 2.39
4.78 6.24 2.39
4.65 6.33 2.39
4.52 6.42 2.39
4.39 6.51 2.39
4.26 6.59 2.39
4.12 6.67 2.39
3.98 6.76 2.39
3.85 6.83 2.39
3.71 6.91 2.39
3.57 6.98 2.39
3.42 7.05 2.39
3.28 7.12 2.39
3.14 7.18 2.39
2.99 7.24 2.39
2.84 7.30 2.39
2.70 7.36 2.39
2.55 7.41 2.39
2.40 7.46 2.39
2.25 7.51 2.39
2.09 7.56 2.39
1.94 7.60 2.39
1.79 7.64 2.39
1.66 7.79 2.43
1.54 8.04 2.50
1.38 8.07 2.50
1.22 8.10 2.50
1.05 8.13 2.50
0.89 8.15 2.50
0.73 8.17 2.50
0.56 8.19 2.50
0.40 8.20 2.50
0.23 8.21 2.50
0.06 8.22 2.50
-0.10 8.22 2.50
-0.27 8.22 2.50
-0.43 8.22 2.50
-0.60 8.22 2.50
-0.77 8.21 2.50
-0.93 8.20 2.50
-1.10 8.18 2.50
-1.26 8.16 2.50
-1.43 8.14 2.50
-1.59 8.12 2.50
-1.76 8.09 2.50
-1.92 8.06 2.50
-2.09 8.03 2.50
-2.25 7.99 2.50
-2.41 7.95 2.50
-2.58 7.91 2.50
-2.74 7.86 2.50
-2.90 7.82 2.50
-3.06 7.76 2.50
-3.22 7.71 2.50
-3.38 7.65 2.50
-3.53 7.59 2.50
-3.69 7.52 2.50
-3.85 7.46 2.50
-4.00 7.39 2.50
-4.15 7.31 2.50
-4.30 7.24 2.50
-4.45 7.16 2.50
-4.60 7.07 2.50
-4.75 6.99 2.50
-4.90 6.90 2.50
-5.04 6.81 2.50
-5.18 6.72 2.50
-5.33 6.62 2.50
-5.47 6.52 2.50
-5.60 6.42 2.50
-5.74 6.31 2.50
-5.87 6.20 2.50
-6.00 6.09 2.50
-6.13 5.98 2.50
-6.26 5.86 2.50
-6.39 5.74 2.50
-6.41 5.53 2.46
-6.41 5.32 2.41
-6.47 5.15 2.39
-6.60 5.04 2.40
-6.70 4.90 2.39
-6.80 4.77 2.39
-6.91 4.64 2.39
-7.01 4.51 2.39
-7.11 4.37 2.39
-7.21 4.24 2.39
-7.30 4.10 2.39
-7.39 3.95 2.39
-7.48 3.81 2.39
-7.57 3.67 2.39
-7.65 3.52 2.39
-7.74 3.37 2.39
-7.81 3.22 2.39
-7.89 3.07 2.39
-7.96 2.91 2.39
-8.03 2.76 2.39
-8.10 2.60 2.39
-8.16 2.44 2.39
-8.22 2.28 2.39
-8.28 2.12 2.39
-8.33 1.95 2.39
-8.38 1.79 2.39
-8.43 1.62 2.39
-8.47 1.46 2.39
-8.51 1.29 2.39
-8.55 1.12 2.39
-8.59 0.95 2.39
-8.62 0.78 2.39
-8.64 0.61 2.39
-8.67 0.43 2.39
-8.69 0.26 2.39
-8.70 0.09 2.39
-8.72 -0.09 2.39
-8.73 -0.26 2.39
-8.73 -0.44 2.39
-8.73 -0.61 2.39
-8.73 -0.79 2.39
-8.73 -0.97 2.39
-8.72 -1.14 2.39
-8.71 -1.32 2.39
-8.69 -1.49 2.39
-8.67 -1.67 2.39
-8.65 -1.85 2.39
-8.62 -2.02 2.39
-8.59 -2.20 2.39
-8.55 -2.37 2.39
-8.52 -2.54 2.39
-8.47 -2.72 2.39
-8.43 -2.89 2.39
-8.38 -3.06 2.39
-8.33 -3.23 2.39
-8.27 -3.40 2.39
-8.21 -3.57 2.39
-8.14 -3.74 2.39
-8.08 -3.91 2.39
-8.01 -4.07 2.39
-7.93 -4.23 2.39
-7.85 -4.40 2.39
-7.77 -4.56 2.39
-7.69 -4.72 2.39
-7.60 -4.87 2.39
-7.51 -5.03 2.39
-7.41 -5.18 2.39
-7.31 -5.33 2.39
-7.21 -5.48 2.39
-7.11 -5.63 2.39
-7.00 -5.78 2.39
-6.89 -5.92 2.39
-6.77 -6.06 2.39
-6.67 -6.21 2.40
-6.53 -6.34 2.39
-6.48 -6.54 2.42
-6.48 -6.81 2.47
-6.42 -7.02 2.50
-6.28 -7.15 2.50
-6.14 -7.28 2.50
-6.00 -7.40 2.50
-5.85 -7.52 2.50
-5.70 -7.64 2.50
-5.55 -7.76 2.50
-5.40 -7.87 2.50
-5.24 -7.98 2.50
-5.08 -8.08 2.50
-4.92 -8.19 2.50
-4.76 -8.28 2.50
-4.59 -8.38 2.50
-4.42 -8.47 2.50
-4.25 -8.56 2.50
-4.08 -8.64 2.50
-3.91 -8.72 2.50
-3.74 -8.80 2.50
-3.56 -8.87 2.50
-3.38 -8.94 2.50
-3.20 -9.01 2.50
-3.02 -9.07 2.50
-2.84 -9.12 2.50
-2.66 -9.18 2.50
-2.47 -9.23 2.50
-2.29 -9.27 2.50
-2.10 -9.31 2.50
-1.91 -9.35 2.50
-1.73 -9.38 2.50
-1.54 -9.41 2.50
-1.35 -9.44 2.50
-1.16 -9.46 2.50
-0.97 -9.48 2.50
-0.78 -9.49 2.50
-0.59 -9.50 2.50
-0.40 -9.50 2.50
-0.21 -9.50 2.50
-0.02 -8.70 2.50
0.15 -8.69 2.50
0.33 -8.68 2.50
0.50 -8.67 2.50
0.67 -8.65 2.50
0.84 -8.63 2.50
1.01 -8.60 2.50
1.19 -8.57 2.50
1.36 -8.54 2.50
1.52 -8.51 2.50
1.62 -8.12 2.39
1.78 -8.08 2.39
1.94 -8.03 2.39
2.10 -7.98 2.39
2.26 -7.93 2.39
2.41 -7.88 2.39
2.57 -7.82 2.39
2.72 -7.76 2.39
2.87 -7.70 2.39
3.02 -7.63 2.39
3.17 -7.56 2.39
3.32 -7.49 2.39
3.46 -7.41 2.39
3.61 -7.33 2.39
3.75 -7.25 2.39
3.89 -7.17 2.39
4.02 -7.08 2.39
4.16 -6.99 2.39
4.29 -6.89 2.39
4.43 -6.80 2.39
4.30 -6.33 2.26
4.36 -6.15 2.23
4.51 -6.10 2.25
4.65 -6.03 2.26
4.78 -5.95 2.26
4.83 -5.77 2.24
4.95 -5.67 2.24
5.12 -5.64 2.27
5.24 -5.55 2.28
4.84 -4.92 2.06
4.28 -4.18 1.79
4.32 -4.05 1.77
4.35 -3.92 1.76
4.38 -3.79 1.74
4.38 -3.64 1.72
4.32 -3.45 1.67
4.33 -3.32 1.65
4.36 -3.20 1.63
4.35 -3.06 1.61
4.39 -2.96 1.61
4.45 -2.87 1.61
4.50 -2.78 1.61
4.54 -2.68 1.60
4.55 -2.56 1.59
4.56 -2.45 1.58
4.57 -2.34 1.57
4.61 -2.24 1.57
4.64 -2.15 1.57
4.68 -2.05 1.57
4.76 -1.97 1.58
4.90 -1.92 1.62
5.06 -1.86 1.66
5.12 -1.77 1.67
5.11 -1.65 1.66
5.11 -1.54 1.65
5.25 -1.47 1.69
5.08 -1.31 1.63
5.03 -1.19 1.61
5.05 -1.09 1.61
5.07 -0.99 1.61
5.04 -0.87 1.60
5.06 -0.77 1.60
5.08 -0.67 1.60
5.12 -0.57 1.62
4.93 -0.45 1.56
4.90 -0.35 1.54
4.85 -0.25 1.53
4.85 -0.15 1.53
4.86 -0.05 1.54
4.76 0.04 1.51
4.71 0.14 1.49
4.67 0.23 1.48
4.65 0.32 1.48
4.66 0.42 1.49
4.61 0.51 1.48
4.44 0.58 1.43
4.36 0.66 1.41
4.33 0.74 1.40
4.27 0.82 1.39
4.25 0.91 1.39
4.23 0.99 1.39
4.20 1.07 1.39
4.19 1.16 1.40
4.19 1.26 1.41
4.23 1.36 1.43
4.25 1.46 1.45
4.43 1.62 1.52
4.47 1.74 1.55
4.50 1.86 1.57
4.49 1.96 1.59
4.45 2.05 1.59
4.41 2.14 1.59
4.39 2.24 1.60
4.38 2.35 1.61
4.61 2.59 1.72
4.63 2.73 1.75
4.50 2.78 1.72
4.37 2.82 1.70
4.26 2.87 1.68
4.14 2.92 1.65
4.05 2.98 1.64
3.97 3.05 1.64
3.89 3.11 1.63
3.81 3.17 1.62
3.78 3.28 1.64
3.82 3.45 1.69
3.83 3.61 1.73
3.85 3.77 1.77
3.87 3.95 1.82
4.98 5.29 2.39
4.88 5.40 2.39
4.77 5.49 2.39
4.65 5.59 2.39
4.54 5.68 2.39
4.42 5.77 2.39
4.30 5.85 2.39
4.18 5.94 2.39
4.06 6.02 2.39
3.94 6.10 2.39
3.81 6.17 2.39
3.69 6.25 2.39
3.56 6.32 2.39
3.43 6.39 2.39
3.30 6.46 2.39
3.17 6.52 2.39
3.03 6.58 2.39
2.90 6.64 2.39
2.77 6.70 2.39
2.63 6.75 2.39
2.49 6.81 2.39
2.36 6.86 2.39
2.22 6.90 2.39
2.08 6.95 2.39
1.94 6.99 2.39
1.80 7.03 2.39
1.66 7.09 2.40
1.58 7.40 2.50
1.43 7.44 2.50
1.28 7.47 2.50
1.13 7.49 2.50
0.97 7.52 2.50
0.82 7.54 2.50
0.67 7.55 2.50
0.52 7.57 2.50
0.36 7.58 2.50
0.21 7.59 2.50
0.06 7.60 2.50
-0.10 7.60 2.50
-0.25 7.60 2.50
-0.40 7.60 2.50
-0.56 7.60 2.50
-0.71 7.59 2.50
-0.86 7.58 2.50
-1.02 7.56 2.50
-1.17 7.55 2.50
-1.32 7.53 2.50
-1.48 7.50 2.50
-1.63 7.48 2.50
-1.78 7.45 2.50
-1.93 7.42 2.50
-2.08 7.38 2.50
-2.23 7.35 2.50
-2.38 7.31 2.50
-2.53 7.26 2.50
-2.68 7.22 2.50
-2.83 7.17 2.50
-2.98 7.12 2.50
-3.12 7.06 2.50
-3.27 7.01 2.50
-3.41 6.95 2.50
-3.55 6.88 2.50
-3.70 6.82 2.50
-3.84 6.75 2.50
-3.98 6.68 2.50
-4.12 6.61 2.50
-4.25 6.53 2.50
-4.39 6.45 2.50
-4.52 6.37 2.50
-4.66 6.28 2.50
-4.79 6.19 2.50
-4.92 6.10 2.50
-5.04 6.01 2.50
-5.17 5.92 2.50
-5.30 5.82 2.50
-5.42 5.72 2.50
-5.54 5.62 2.50
-5.66 5.51 2.50
-5.78 5.40 2.50
-5.89 5.29 2.50
-6.01 5.18 2.50
-6.12 5.06 2.50
-6.23 4.95 2.50
-6.33 4.83 2.50
-6.41 4.69 2.49
-6.41 4.49 2.45
-6.42 4.31 2.41
-6.46 4.15 2.39
-6.55 4.02 2.39
-6.64 3.90 2.39
-6.73 3.77 2.39
-6.81 3.64 2.39
-6.89 3.51 2.39
-6.97 3.37 2.39
-7.05 3.24 2.39
-7.12 3.10 2.39
-7.19 2.96 2.39
-7.26 2.82 2.39
-7.33 2.68 2.39
-7.39 2.53 2.39
-7.45 2.39 2.39
-7.51 2.24 2.39
-7.56 2.09 2.39
-7.61 1.94 2.39
-7.66 1.79 2.39
-7.71 1.64 2.39
-7.75 1.49 2.39
-7.79 1.33 2.39
-7.83 1.18 2.39
-7.86 1.02 2.39
-7.89 0.87 2.39
-7.92 0.71 2.39
-7.94 0.55 2.39
-7.96 0.39 2.39
-7.98 0.23 2.39
-7.99 0.07 2.39
-8.01 -0.09 2.39
-8.01 -0.25 2.39
-8.02 -0.41 2.39
-8.02 -0.57 2.39
-8.02 -0.73 2.39
-8.01 -0.89 2.39
-8.00 -1.05 2.39
-7.99 -1.21 2.39
-7.97 -1.38 2.39
-7.95 -1.54 2.39
-7.93 -1.70 2.39
-7.91 -1.86 2.39
-7.88 -2.02 2.39
-7.85 -2.18 2.39
-7.81 -2.34 2.39
-7.77 -2.50 2.39
-7.73 -2.65 2.39
-7.68 -2.81 2.39
-7.63 -2.97 2.39
-7.58 -3.12 2.39
-7.52 -3.28 2.39
-7.47 -3.43 2.39
-7.40 -3.58 2.39
-7.34 -3.73 2.39
-7.27 -3.88 2.39
-7.20 -4.03 2.39
-7.12 -4.18 2.39
-7.04 -4.32 2.39
-6.96 -4.47 2.39
-6.88 -4.61 2.39
-6.79 -4.75 2.39
-6.70 -4.89 2.39
-6.60 -5.02 2.39
-6.51 -5.16 2.39
-6.48 -5.35 2.42
-6.47 -5.57 2.46
-6.47 -5.79 2.50
-6.35 -5.92 2.50
-6.24 -6.05 2.50
-6.12 -6.18 2.50
-6.00 -6.30 2.50
-5.88 -6.43 2.50
-5.75 -6.55 2.50
-5.62 -6.66 2.50
-5.49 -6.78 2.50
-5.35 -6.89 2.50
-5.22 -7.00 2.50
-5.08 -7.10 2.50
-4.94 -7.20 2.50
-4.80 -7.30 2.50
-4.65 -7.40 2.50
-4.50 -7.49 2.50
-4.35 -7.58 2.50
-4.20 -7.67 2.50
-4.05 -7.75 2.50
-3.89 -7.83 2.50
-3.74 -7.91 2.50
-3.58 -7.98 2.50
-3.42 -8.05 2.50
-3.26 -8.12 2.50
-3.09 -8.18 2.50
-2.93 -8.24 2.50
-2.77 -8.30 2.50
-2.60 -8.35 2.50
-2.43 -8.40 2.50
-2.26 -8.44 2.50
-2.09 -8.49 2.50
-1.92 -8.52 2.50
-1.75 -8.56 2.50
-1.58 -8.59 2.50
-1.41 -8.62 2.50
-1.24 -8.64 2.50
-1.06 -8.66 2.50
-0.89 -8.67 2.50
-0.72 -8.69 2.50
-0.54 -8.70 2.50
-0.37 -8.70 2.50
-0.19 -8.70 2.50
-0.02 -8.01 2.50
0.14 -8.01 2.50
0.30 -8.00 2.50
0.46 -7.99 2.50
0.62 -7.97 2.50
0.78 -7.95 2.50
0.93 -7.93 2.50
1.09 -7.90 2.50
1.25 -7.87 2.50
1.40 -7.84 2.50
1.56 -7.80 2.50
1.64 -7.44 2.39
1.79 -7.40 2.39
1.93 -7.36 2.39
2.08 -7.31 2.39
2.22 -7.26 2.39
2.36 -7.21 2.39
2.51 -7.16 2.39
2.65 -7.10 2.39
2.78 -7.04 2.39
2.92 -6.97 2.39
3.06 -6.91 2.39
3.19 -6.84 2.39
3.32 -6.76 2.39
3.45 -6.69 2.39
3.58 -6.61 2.39
3.71 -6.53 2.39
3.84 -6.45 2.39
3.96 -6.36 2.39
4.08 -6.28 2.39
4.20 -6.19 2.39
4.32 -6.09 2.39
4.43 -6.00 2.39
4.55 -5.90 2.39
4.66 -5.80 2.39
4.77 -5.70 2.39
4.88 -5.60 2.39
4.98 -5.49 2.39
5.08 -5.38 2.39
4.71 -4.79 2.17
4.24 -4.15 1.92
4.27 -4.01 1.90
4.30 -3.88 1.88
4.32 -3.74 1.86
4.30 -3.58 1.82
4.23 -3.38 1.77
4.22 -3.23 1.74
4.24 -3.12 1.72
4.23 -2.98 1.70
4.29 -2.89 1.70
4.40 -2.84 1.72
4.46 -2.76 1.73
4.50 -2.66 1.72
4.51 -2.54 1.71
4.52 -2.43 1.69
4.53 -2.32 1.68
4.57 -2.23 1.68
4.62 -2.14 1.69
4.65 -2.04 1.69
4.76 -1.98 1.71
4.91 -1.92 1.76
5.07 -1.87 1.80
5.09 -1.76 1.80
5.08 -1.64 1.78
5.07 -1.53 1.77
5.17 -1.45 1.80
4.97 -1.28 1.72
4.75 -1.13 1.64
4.76 -1.03 1.64
4.78 -0.93 1.64
4.82 -0.84 1.65
4.85 -0.74 1.66
4.88 -0.65 1.67
4.70 -0.53 1.60
4.68 -0.43 1.59
4.66 -0.34 1.59
4.64 -0.24 1.58
4.62 -0.15 1.57
4.59 -0.05 1.56
4.56 0.04 1.56
4.54 0.13 1.55
4.52 0.22 1.55
4.51 0.31 1.55
4.53 0.41 1.56
4.53 0.50 1.57
4.34 0.57 1.51
4.29 0.65 1.49
4.23 0.72 1.48
4.16 0.80 1.46
4.15 0.88 1.47
4.14 0.97 1.47
4.11 1.05 1.47
4.10 1.14 1.48
4.15 1.24 1.50
4.22 1.36 1.54
4.24 1.46 1.56
4.26 1.56 1.58
4.34 1.69 1.62
4.39 1.81 1.65
4.40 1.92 1.68
4.41 2.03 1.70
4.36 2.12 1.70
4.30 2.19 1.69
4.31 2.31 1.71
4.56 2.57 1.83
4.60 2.71 1.87
4.42 2.72 1.82
4.30 2.78 1.80
4.20 2.83 1.78
4.12 2.90 1.77
4.03 2.96 1.76
3.95 3.03 1.75
3.86 3.08 1.74
3.78 3.15 1.74
3.74 3.24 1.75
3.75 3.39 1.78
3.75 3.53 1.82
3.78 3.70 1.87
3.81 3.89 1.93
3.93 4.17 2.03
4.53 5.01 2.39
4.43 5.10 2.39
4.32 5.19 2.39
4.22 5.27 2.39
4.11 5.36 2.39
4.00 5.44 2.39
3.89 5.51 2.39
3.77 5.59 2.39
3.66 5.66 2.39
3.54 5.74 2.39
3.42 5.80 2.39
3.31 5.87 2.39
3.19 5.94 2.39
3.07 6.00 2.39
2.94 6.06 2.39
2.82 6.12 2.39
2.70 6.17 2.39
2.57 6.23 2.39
2.44 6.28 2.39
2.32 6.32 2.39
2.19 6.37 2.39
2.06 6.41 2.39
1.93 6.45 2.39
1.80 6.49 2.39
1.67 6.53 2.39
1.60 6.85 2.50
1.46 6.88 2.50
1.32 6.91 2.50
1.18 6.94 2.50
1.04 6.96 2.50
0.90 6.98 2.50
0.76 7.00 2.50
0.62 7.02 2.50
0.48 7.03 2.50
0.34 7.04 2.50
0.20 7.05 2.50
0.05 7.06 2.50
-0.09 7.06 2.50
-0.23 7.06 2.50
-0.38 7.06 2.50
-0.52 7.05 2.50
-0.66 7.05 2.50
-0.80 7.04 2.50
-0.95 7.02 2.50
-1.09 7.01 2.50
-1.23 6.99 2.50
-1.37 6.97 2.50
-1.51 6.94 2.50
-1.66 6.92 2.50
-1.80 6.89 2.50
-1.94 6.86 2.50
-2.08 6.82 2.50
-2.21 6.78 2.50
-2.35 6.74 2.50
-2.49 6.70 2.50
-2.63 6.65 2.50
-2.76 6.61 2.50
-2.90 6.56 2.50
-3.03 6.50 2.50
-3.17 6.45 2.50
-3.30 6.39 2.50
-3.43 6.33 2.50
-3.56 6.26 2.50
-3.69 6.19 2.50
-3.82 6.13 2.50
-3.95 6.05 2.50
-4.07 5.98 2.50
-4.20 5.90 2.50
-4.32 5.82 2.50
-4.44 5.74 2.50
-4.56 5.66 2.50
-4.68 5.57 2.50
-4.80 5.48 2.50
-4.91 5.39 2.50
-5.03 5.30 2.50
-5.14 5.20 2.50
-5.25 5.10 2.50
-5.36 5.00 2.50
-5.46 4.90 2.50
-5.57 4.80 2.50
-5.67 4.69 2.50
-5.77 4.58 2.50
-5.87 4.47 2.50
-5.97 4.36 2.50
-6.06 4.24 2.50
-6.15 4.12 2.50
-6.24 4.01 2.50
-6.33 3.88 2.50
-6.42 3.76 2.50
-6.42 3.59 2.46
-6.42 3.43 2.44
-6.43 3.26 2.41
-6.45 3.12 2.39
-6.52 2.99 2.39
-6.61 2.87 2.40
-6.66 2.73 2.39
-6.72 2.60 2.39
-6.78 2.47 2.39
-6.84 2.34 2.39
-6.89 2.20 2.39
-6.95 2.07 2.39
-7.00 1.93 2.39
-7.04 1.79 2.39
-7.09 1.65 2.39
-7.13 1.51 2.39
-7.17 1.37 2.39
-7.20 1.23 2.39
-7.24 1.09 2.39
-7.27 0.94 2.39
-7.29 0.80 2.39
-7.32 0.65 2.39
-7.34 0.51 2.39
-7.36 0.36 2.39
-7.37 0.21 2.39
-7.38 0.07 2.39
-7.39 -0.08 2.39
-7.40 -0.23 2.39
-7.40 -0.38 2.39
-7.40 -0.53 2.39
-7.40 -0.68 2.39
-7.40 -0.83 2.39
-7.39 -0.97 2.39
-7.37 -1.12 2.39
-7.36 -1.27 2.39
-7.34 -1.42 2.39
-7.32 -1.57 2.39
-7.30 -1.72 2.39
-7.27 -1.87 2.39
-7.24 -2.01 2.39
-7.20 -2.16 2.39
-7.17 -2.30 2.39
-7.13 -2.45 2.39
-7.08 -2.60 2.39
-7.04 -2.74 2.39
-6.99 -2.88 2.39
-6.94 -3.02 2.39
-6.88 -3.17 2.39
-6.82 -3.31 2.39
-6.76 -3.44 2.39
-6.70 -3.58 2.39
-6.65 -3.73 2.40
-6.56 -3.85 2.39
-6.49 -3.99 2.39
-6.47 -4.16 2.41
-6.47 -4.34 2.44
-6.47 -4.53 2.47
-6.44 -4.70 2.50
-6.35 -4.83 2.50
-6.25 -4.96 2.50
-6.16 -5.09 2.50
-6.06 -5.21 2.50
-5.96 -5.34 2.50
-5.85 -5.46 2.50
-5.75 -5.58 2.50
-5.64 -5.69 2.50
-5.53 -5.81 2.50
-5.41 -5.92 2.50
-5.29 -6.03 2.50
-5.18 -6.14 2.50
-5.05 -6.24 2.50
-4.93 -6.34 2.50
-4.81 -6.44 2.50
-4.68 -6.54 2.50
-4.55 -6.63 2.50
-4.42 -6.73 2.50
-4.28 -6.81 2.50
-4.15 -6.90 2.50
-4.01 -6.98 2.50
-3.87 -7.06 2.50
-3.73 -7.14 2.50
-3.59 -7.21 2.50
-3.44 -7.28 2.50
-3.30 -7.35 2.50
-3.15 -7.42 2.50
-3.00 -7.48 2.50
-2.85 -7.53 2.50
-2.70 -7.59 2.50
-2.55 -7.64 2.50
-2.39 -7.69 2.50
-2.24 -7.73 2.50
-2.08 -7.78 2.50
-1.93 -7.82 2.50
-1.77 -7.85 2.50
-1.61 -7.88 2.50
-1.46 -7.91 2.50
-1.30 -7.94 2.50
-1.14 -7.96 2.50
-0.98 -7.98 2.50
-0.82 -7.99 2.50
-0.66 -8.00 2.50
-0.50 -8.01 2.50
-0.34 -8.01 2.50
-0.18 -8.01 2.50
-0.02 -7.42 2.50
0.13 -7.41 2.50
0.28 -7.41 2.50
0.42 -7.40 2.50
0.57 -7.38 2.50
0.72 -7.36 2.50
0.86 -7.34 2.50
1.01 -7.32 2.50
1.15 -7.29 2.50
1.30 -7.26 2.50
1.44 -7.23 2.50
1.56 -7.11 2.46
1.65 -6.86 2.39
1.79 -6.82 2.39
1.92 -6.78 2.39
2.06 -6.73 2.39
2.19 -6.68 2.39
2.32 -6.63 2.39
2.45 -6.58 2.39
2.58 -6.52 2.39
2.71 -6.46 2.39
2.83 -6.40 2.39
2.96 -6.34 2.39
3.08 -6.27 2.39
3.20 -6.20 2.39
3.32 -6.13 2.39
3.44 -6.06 2.39
3.55 -5.98 2.39
3.67 -5.90 2.39
3.78 -5.82 2.39
3.89 -5.74 2.39
4.00 -5.65 2.39
4.11 -5.57 2.39
4.22 -5.48 2.39
4.32 -5.39 2.39
4.42 -5.29 2.39
4.52 -5.20 2.39
4.62 -5.10 2.39
4.71 -5.00 2.39
4.34 -4.42 2.16
4.25 -4.15 2.07
4.26 -4.00 2.04
4.19 -3.78 1.98
4.06 -3.53 1.89
4.02 -3.35 1.83
4.04 -3.23 1.82
4.06 -3.12 1.80
4.09 -3.01 1.79
4.12 -2.91 1.78
4.19 -2.83 1.78
4.29 -2.78 1.81
4.40 -2.72 1.83
4.45 -2.64 1.83
4.46 -2.52 1.82
4.47 -2.41 1.81
4.49 -2.30 1.79
4.53 -2.21 1.80
4.58 -2.12 1.80
4.65 -2.04 1.81
4.79 -1.99 1.85
4.95 -1.94 1.90
5.11 -1.89 1.95
5.06 -1.75 1.92
5.03 -1.63 1.90
5.02 -1.52 1.89
5.06 -1.42 1.89
4.89 -1.27 1.82
4.62 -1.10 1.72
4.55 -0.98 1.68
4.58 -0.90 1.69
4.61 -0.81 1.70
4.67 -0.72 1.72
4.67 -0.62 1.71
4.60 -0.52 1.69
4.57 -0.42 1.67
4.55 -0.33 1.67
4.52 -0.24 1.65
4.46 -0.14 1.63
4.40 -0.05 1.61
4.35 0.04 1.59
4.30 0.12 1.58
4.34 0.21 1.60
4.35 0.30 1.61
4.35 0.39 1.61
4.35 0.48 1.61
4.25 0.55 1.58
4.19 0.63 1.56
4.12 0.70 1.55
4.06 0.78 1.53
4.05 0.86 1.54
4.04 0.94 1.54
4.03 1.03 1.54
4.07 1.13 1.57
4.15 1.24 1.61
4.21 1.35 1.65
4.22 1.45 1.67
4.24 1.55 1.68
4.27 1.66 1.71
4.24 1.75 1.72
4.23 1.85 1.73
4.24 1.95 1.75
4.25 2.06 1.77
4.24 2.16 1.78
4.27 2.29 1.82
4.48 2.52 1.93
4.52 2.66 1.97
4.33 2.67 1.92
4.24 2.73 1.90
4.15 2.79 1.88
4.07 2.86 1.88
4.00 2.94 1.87
3.92 3.00 1.86
3.85 3.07 1.86
3.77 3.14 1.86
3.70 3.21 1.85
3.70 3.34 1.89
3.68 3.46 1.91
3.66 3.58 1.94
3.75 3.82 2.03
3.86 4.09 2.13
4.23 4.68 2.39
4.13 4.76 2.39
4.03 4.84 2.39
3.93 4.92 2.39
3.83 5.00 2.39
3.73 5.07 2.39
3.63 5.14 2.39
3.52 5.21 2.39
3.41 5.28 2.39
3.30 5.35 2.39
3.19 5.41 2.39
3.08 5.48 2.39
2.97 5.54 2.39
2.86 5.60 2.39
2.75 5.65 2.39
2.63 5.71 2.39
2.51 5.76 2.39
2.40 5.81 2.39
2.28 5.85 2.39
2.16 5.90 2.39
2.04 5.94 2.39
1.92 5.98 2.39
1.80 6.02 2.39
1.68 6.06 2.39
1.62 6.35 2.50
1.49 6.39 2.50
1.36 6.42 2.50
1.23 6.44 2.50
1.10 6.47 2.50
0.97 6.49 2.50
0.84 6.51 2.50
0.71 6.53 2.50
0.58 6.55 2.50
0.45 6.56 2.50
0.31 6.57 2.50
0.18 6.58 2.50
0.05 6.58 2.50
-0.09 6.59 2.50
-0.22 6.59 2.50
-0.35 6.58 2.50
-0.48 6.58 2.50
-0.62 6.57 2.50
-0.75 6.56 2.50
-0.88 6.55 2.50
-1.02 6.53 2.50
-1.15 6.52 2.50
-1.28 6.50 2.50
-1.41 6.47 2.50
-1.54 6.45 2.50
-1.68 6.42 2.50
-1.81 6.39 2.50
-1.94 6.36 2.50
-2.07 6.32 2.50
-2.20 6.28 2.50
-2.32 6.24 2.50
-2.45 6.20 2.50
-2.58 6.16 2.50
-2.70 6.11 2.50
-2.83 6.06 2.50
-2.95 6.00 2.50
-3.08 5.95 2.50
-3.20 5.89 2.50
-3.32 5.83 2.50
-3.44 5.77 2.50
-3.56 5.70 2.50
-3.68 5.64 2.50
-3.80 5.57 2.50
-3.91 5.50 2.50
-4.03 5.42 2.50
-4.14 5.35 2.50
-4.25 5.27 2.50
-4.36 5.19 2.50
-4.47 5.10 2.50
-4.58 5.02 2.50
-4.68 4.93 2.50
-4.79 4.84 2.50
-4.89 4.75 2.50
-4.99 4.66 2.50
-5.09 4.56 2.50
-5.18 4.46 2.50
-5.28 4.36 2.50
-5.37 4.26 2.50
-5.46 4.16 2.50
-5.55 4.05 2.50
-5.64 3.94 2.50
-5.73 3.83 2.50
-5.81 3.72 2.50
-5.89 3.61 2.50
-5.97 3.50 2.50
-6.04 3.38 2.50
-6.12 3.26 2.50
-6.19 3.14 2.50
-6.26 3.02 2.50
-6.33 2.90 2.50
-6.39 2.77 2.50
-6.42 2.63 2.48
-6.42 2.49 2.46
-6.43 2.34 2.44
-6.43 2.20 2.42
-6.44 2.05 2.40
-6.46 1.92 2.39
-6.50 1.79 2.39
-6.54 1.66 2.39
-6.58 1.53 2.39
-6.62 1.40 2.39
-6.66 1.27 2.39
-6.69 1.14 2.39
-6.72 1.01 2.39
-6.75 0.87 2.39
-6.77 0.74 2.39
-6.79 0.60 2.39
-6.81 0.47 2.39
-6.83 0.33 2.39
-6.84 0.19 2.39
-6.85 0.06 2.39
-6.86 -0.08 2.39
-6.87 -0.22 2.39
-6.87 -0.36 2.39
-6.87 -0.49 2.39
-6.87 -0.63 2.39
-6.86 -0.77 2.39
-6.85 -0.91 2.39
-6.84 -1.05 2.39
-6.83 -1.18 2.39
-6.81 -1.32 2.39
-6.79 -1.46 2.39
-6.77 -1.60 2.39
-6.74 -1.73 2.39
-6.71 -1.87 2.39
-6.68 -2.00 2.39
-6.64 -2.14 2.39
-6.61 -2.27 2.39
-6.57 -2.41 2.39
-6.52 -2.54 2.39
-6.48 -2.67 2.39
-6.46 -2.82 2.41
-6.46 -2.97 2.42
-6.46 -3.13 2.44
-6.46 -3.29 2.47
-6.46 -3.46 2.49
-6.41 -3.60 2.50
-6.34 -3.73 2.50
-6.27 -3.85 2.50
-6.20 -3.98 2.50
-6.12 -4.11 2.50
-6.04 -4.23 2.50
-5.96 -4.36 2.50
-5.88 -4.48 2.50
-5.79 -4.60 2.50
-5.70 -4.71 2.50
-5.61 -4.83 2.50
-5.52 -4.94 2.50
-5.42 -5.06 2.50
-5.32 -5.17 2.50
-5.22 -5.27 2.50
-5.12 -5.38 2.50
-5.01 -5.48 2.50
-4.90 -5.58 2.50
-4.79 -5.68 2.50
-4.68 -5.78 2.50
-4.56 -5.87 2.50
-4.45 -5.97 2.50
-4.33 -6.06 2.50
-4.21 -6.14 2.50
-4.09 -6.23 2.50
-3.96 -6.31 2.50
-3.84 -6.39 2.50
-3.71 -6.46 2.50
-3.58 -6.54 2.50
-3.45 -6.61 2.50
-3.32 -6.68 2.50
-3.19 -6.74 2.50
-3.05 -6.81 2.50
-2.91 -6.86 2.50
-2.78 -6.92 2.50
-2.64 -6.98 2.50
-2.50 -7.03 2.50
-2.36 -7.07 2.50
-2.22 -7.12 2.50
-2.07 -7.16 2.50
-1.93 -7.20 2.50
-1.79 -7.23 2.50
-1.64 -7.27 2.50
-1.50 -7.30 2.50
-1.35 -7.32 2.50
-1.20 -7.35 2.50
-1.06 -7.37 2.50
-0.91 -7.38 2.50
-0.76 -7.40 2.50
-0.61 -7.41 2.50
-0.46 -7.42 2.50
-0.32 -7.42 2.50
-0.17 -7.42 2.50
-0.02 -6.90 2.50
0.12 -6.90 2.50
0.25 -6.89 2.50
0.39 -6.88 2.50
0.53 -6.87 2.50
0.66 -6.85 2.50
0.80 -6.83 2.50
0.94 -6.81 2.50
1.07 -6.79 2.50
1.21 -6.76 2.50
1.34 -6.73 2.50
1.47 -6.70 2.50
1.57 -6.51 2.44
1.66 -6.35 2.39
1.79 -6.31 2.39
1.91 -6.27 2.39
2.04 -6.22 2.39
2.16 -6.17 2.39
2.28 -6.13 2.39
2.40 -6.07 2.39
2.52 -6.02 2.39
2.63 -5.96 2.39
2.75 -5.90 2.39
2.86 -5.84 2.39
2.98 -5.78 2.39
3.09 -5.71 2.39
3.20 -5.64 2.39
3.31 -5.57 2.39
3.42 -5.50 2.39
3.52 -5.42 2.39
3.62 -5.35 2.39
3.73 -5.27 2.39
3.83 -5.19 2.39
3.93 -5.10 2.39
4.02 -5.02 2.39
4.12 -4.93 2.39
4.21 -4.84 2.39
4.30 -4.75 2.39
4.39 -4.66 2.39
4.03 -4.11 2.15
3.95 -3.87 2.07
3.88 -3.65 2.00
3.82 -3.45 1.93
3.84 -3.34 1.91
3.86 -3.22 1.89
3.88 -3.11 1.87
3.92 -3.01 1.86
3.96 -2.92 1.86
4.01 -2.84 1.86
4.09 -2.77 1.87
4.20 -2.72 1.89
4.30 -2.67 1.92
4.40 -2.61 1.94
4.44 -2.51 1.94
4.45 -2.40 1.92
4.46 -2.29 1.91
4.56 -2.23 1.94
4.62 -2.15 1.95
4.69 -2.06 1.96
4.84 -2.01 2.01
4.99 -1.96 2.06
5.07 -1.87 2.07
5.01 -1.74 2.04
4.99 -1.62 2.02
4.98 -1.51 2.01
4.92 -1.38 1.97
4.80 -1.24 1.92
4.54 -1.08 1.81
4.48 -0.97 1.78
4.48 -0.88 1.77
4.52 -0.79 1.78
4.60 -0.71 1.81
4.69 -0.63 1.84
4.58 -0.52 1.80
4.53 -0.42 1.77
4.50 -0.33 1.76
4.47 -0.24 1.75
4.43 -0.14 1.74
4.39 -0.05 1.72
4.34 0.03 1.70
4.30 0.12 1.69
4.26 0.20 1.68
4.22 0.29 1.66
4.18 0.37 1.65
4.19 0.46 1.66
4.16 0.54 1.66
4.11 0.62 1.64
4.05 0.69 1.63
4.00 0.76 1.61
3.97 0.84 1.61
3.96 0.92 1.61
3.95 1.01 1.62
3.99 1.10 1.65
4.07 1.21 1.69
4.14 1.33 1.73
4.17 1.43 1.76
4.19 1.53 1.78
4.15 1.61 1.78
4.12 1.70 1.78
4.09 1.78 1.78
4.08 1.88 1.80
4.08 1.98 1.82
4.07 2.08 1.83
4.07 2.18 1.86
4.31 2.42 1.99
4.42 2.60 2.06
4.27 2.63 2.02
4.18 2.70 2.00
4.12 2.77 2.00
4.05 2.85 1.99
3.98 2.92 1.99
3.91 3.00 1.99
3.84 3.07 1.99
3.76 3.12 1.97
3.67 3.18 1.96
3.66 3.30 1.99
3.65 3.43 2.03
3.63 3.56 2.06
3.69 3.76 2.14
3.81 4.05 2.25
3.96 4.38 2.39
3.87 4.45 2.39
3.78 4.53 2.39
3.68 4.60 2.39
3.59 4.67 2.39
3.49 4.74 2.39
3.39 4.81 2.39
3.29 4.88 2.39
3.19 4.94 2.39
3.09 5.01 2.39
2.99 5.07 2.39
2.89 5.13 2.39
2.78 5.18 2.39
2.68 5.24 2.39
2.57 5.29 2.39
2.46 5.34 2.39
2.35 5.39 2.39
2.24 5.44 2.39
2.13 5.48 2.39
2.02 5.52 2.39
1.91 5.56 2.39
1.80 5.60 2.39
1.68 5.64 2.39
1.64 5.91 2.50
1.52 5.95 2.50
1.40 5.98 2.50
1.28 6.01 2.50
1.15 6.03 2.50
1.03 6.06 2.50
0.91 6.08 2.50
0.79 6.10 2.50
0.66 6.11 2.50
0.54 6.13 2.50
0.42 6.14 2.50
0.29 6.15 2.50
0.17 6.16 2.50
0.04 6.16 2.50
-0.08 6.16 2.50
-0.21 6.16 2.50
-0.33 6.16 2.50
-0.46 6.16 2.50
-0.58 6.15 2.50
-0.70 6.14 2.50
-0.83 6.13 2.50
-0.95 6.11 2.50
-1.08 6.10 2.50
-1.20 6.08 2.50
-1.32 6.06 2.50
-1.45 6.03 2.50
-1.57 6.01 2.50
-1.69 5.98 2.50
-1.81 5.95 2.50
-1.93 5.91 2.50
-2.06 5.88 2.50
-2.18 5.84 2.50
-2.29 5.80 2.50
-2.41 5.76 2.50
-2.53 5.71 2.50
-2.65 5.66 2.50
-2.76 5.61 2.50
-2.88 5.56 2.50
-2.99 5.51 2.50
-3.11 5.45 2.50
-3.22 5.39 2.50
-3.33 5.33 2.50
-3.44 5.27 2.50
-3.55 5.20 2.50
-3.66 5.14 2.50
-3.77 5.07 2.50
-3.87 4.99 2.50
-3.97 4.92 2.50
-4.08 4.85 2.50
-4.18 4.77 2.50
-4.28 4.69 2.50
-4.38 4.61 2.50
-4.47 4.52 2.50
-4.57 4.44 2.50
-4.66 4.35 2.50
-4.75 4.26 2.50
-4.84 4.17 2.50
-4.93 4.07 2.50
-5.02 3.98 2.50
-5.10 3.88 2.50
-5.19 3.78 2.50
-5.27 3.68 2.50
-5.35 3.58 2.50
-5.43 3.47 2.50
-5.50 3.37 2.50
-5.57 3.26 2.50
-5.64 3.15 2.50
-5.71 3.04 2.50
-5.78 2.93 2.50
-5.85 2.82 2.50
-5.91 2.70 2.50
-5.97 2.59 2.50
-6.03 2.47 2.50
-6.08 2.35 2.50
-6.14 2.23 2.50
-6.19 2.11 2.50
-6.24 1.99 2.50
-6.28 1.86 2.50
-6.33 1.74 2.50
-6.37 1.61 2.50
-6.41 1.49 2.50
-6.43 1.36 2.49
-6.43 1.22 2.48
-6.43 1.09 2.47
-6.43 0.96 2.46
-6.43 0.83 2.45
-6.44 0.70 2.44
-6.44 0.57 2.43
-6.44 0.44 2.43
-6.44 0.31 2.42
-6.44 0.18 2.42
-6.45 0.05 2.41
-6.45 -0.08 2.41
-6.45 -0.21 2.41
-6.45 -0.34 2.41
-6.45 -0.47 2.41
-6.45 -0.60 2.41
-6.45 -0.73 2.41
-6.45 -0.86 2.42
-6.45 -0.99 2.42
-6.45 -1.12 2.43
-6.45 -1.25 2.43
-6.45 -1.39 2.44
-6.45 -1.52 2.45
-6.45 -1.66 2.46
-6.45 -1.80 2.47
-6.45 -1.94 2.48
-6.45 -2.08 2.50
-6.42 -2.21 2.50
-6.38 -2.34 2.50
-6.33 -2.47 2.50
-6.29 -2.60 2.50
-6.24 -2.73 2.50
-6.19 -2.85 2.50
-6.14 -2.98 2.50
-6.08 -3.10 2.50
-6.02 -3.23 2.50
-5.96 -3.35 2.50
-5.90 -3.47 2.50
-5.83 -3.59 2.50
-5.77 -3.71 2.50
-5.70 -3.82 2.50
-5.62 -3.94 2.50
-5.55 -4.05 2.50
-5.47 -4.17 2.50
-5.39 -4.28 2.50
-5.30 -4.39 2.50
-5.22 -4.49 2.50
-5.13 -4.60 2.50
-5.04 -4.70 2.50
-4.95 -4.81 2.50
-4.85 -4.91 2.50
-4.76 -5.00 2.50
-4.66 -5.10 2.50
-4.56 -5.19 2.50
-4.46 -5.29 2.50
-4.35 -5.38 2.50
-4.24 -5.46 2.50
-4.14 -5.55 2.50
-4.03 -5.63 2.50
-3.91 -5.71 2.50
-3.80 -5.79 2.50
-3.69 -5.87 2.50
-3.57 -5.94 2.50
-3.45 -6.01 2.50
-3.33 -6.08 2.50
-3.21 -6.15 2.50
-3.09 -6.21 2.50
-2.96 -6.27 2.50
-2.84 -6.33 2.50
-2.71 -6.38 2.50
-2.58 -6.44 2.50
-2.45 -6.49 2.50
-2.32 -6.53 2.50
-2.19 -6.58 2.50
-2.06 -6.62 2.50
-1.93 -6.66 2.50
-1.80 -6.69 2.50
-1.66 -6.73 2.50
-1.53 -6.76 2.50
-1.39 -6.79 2.50
-1.26 -6.81 2.50
-1.12 -6.83 2.50
-0.98 -6.85 2.50
-0.85 -6.87 2.50
-0.71 -6.88 2.50
-0.57 -6.89 2.50
-0.43 -6.90 2.50
-0.30 -6.90 2.50
-0.16 -6.90 2.50
-0.02 -6.44 2.50
0.11 -6.44 2.50
0.24 -6.43 2.50
0.36 -6.42 2.50
0.49 -6.41 2.50
0.62 -6.40 2.50
0.75 -6.38 2.50
0.87 -6.36 2.50
1.00 -6.34 2.50
1.12 -6.31 2.50
1.25 -6.28 2.50
1.37 -6.25 2.50
1.50 -6.22 2.50
1.57 -6.02 2.43
1.67 -5.89 2.39
1.78 -5.86 2.39
1.90 -5.81 2.39
2.01 -5.77 2.39
2.13 -5.72 2.39
2.24 -5.68 2.39
2.35 -5.62 2.39
2.46 -5.57 2.39
2.57 -5.52 2.39
2.67 -5.46 2.39
2.78 -5.40 2.39
2.88 -5.34 2.39
2.99 -5.28 2.39
3.09 -5.21 2.39
3.19 -5.14 2.39
3.29 -5.07 2.39
3.39 -5.00 2.39
3.48 -4.93 2.39
3.58 -4.85 2.39
3.67 -4.77 2.39
3.76 -4.69 2.39
3.85 -4.61 2.39
3.94 -4.53 2.39
4.02 -4.45 2.39
4.10 -4.36 2.39
3.89 -3.97 2.22
3.77 -3.70 2.12
3.71 -3.50 2.04
3.72 -3.37 2.01
3.73 -3.24 1.99
3.74 -3.12 1.96
3.78 -3.03 1.95
3.83 -2.95 1.95
3.89 -2.87 1.95
3.94 -2.79 1.95
4.02 -2.72 1.96
4.10 -2.66 1.98
4.20 -2.61 2.01
4.30 -2.55 2.03
4.39 -2.49 2.05
4.43 -2.39 2.05
4.44 -2.28 2.03
4.54 -2.22 2.06
4.65 -2.16 2.09
4.74 -2.09 2.12
4.88 -2.03 2.16
5.01 -1.97 2.21
5.00 -1.85 2.19
4.95 -1.72 2.15
4.93 -1.60 2.13
4.94 -1.50 2.13
4.83 -1.36 2.07
4.70 -1.22 2.01
4.56 -1.09 1.94
4.48 -0.98 1.90
4.46 -0.88 1.88
4.50 -0.79 1.89
4.59 -0.71 1.93
4.63 -0.62 1.94
4.60 -0.52 1.93
4.53 -0.42 1.89
4.47 -0.33 1.87
4.42 -0.24 1.85
4.38 -0.14 1.83
4.35 -0.06 1.82
4.32 0.03 1.81
4.28 0.12 1.79
4.25 0.20 1.78
4.20 0.28 1.77
4.17 0.37 1.76
4.17 0.45 1.76
4.08 0.52 1.73
4.04 0.60 1.72
3.98 0.68 1.70
3.93 0.75 1.69
3.90 0.83 1.69
3.88 0.90 1.69
3.87 0.98 1.69
3.91 1.08 1.72
3.99 1.19 1.77
4.07 1.30 1.82
4.10 1.40 1.84
4.08 1.49 1.85
4.05 1.57 1.85
4.01 1.65 1.85
3.98 1.73 1.85
3.94 1.81 1.85
3.93 1.90 1.86
3.93 2.00 1.89
3.95 2.11 1.92
3.97 2.23 1.95
4.14 2.44 2.06
4.24 2.61 2.13
4.18 2.69 2.13
4.11 2.77 2.13
4.05 2.85 2.13
3.99 2.93 2.13
3.92 3.00 2.12
3.84 3.07 2.12
3.76 3.12 2.10
3.66 3.17 2.09
3.63 3.28 2.11
3.60 3.38 2.13
3.63 3.55 2.19
3.72 3.79 2.29
3.80 4.03 2.39
3.72 4.11 2.39
3.63 4.18 2.39
3.55 4.25 2.39
3.46 4.32 2.39
3.37 4.39 2.39
3.28 4.45 2.39
3.19 4.52 2.39
3.09 4.58 2.39
3.00 4.64 2.39
2.90 4.70 2.39
2.81 4.76 2.39
2.71 4.81 2.39
2.61 4.87 2.39
2.51 4.92 2.39
2.41 4.97 2.39
2.31 5.01 2.39
2.21 5.06 2.39
2.11 5.10 2.39
2.00 5.15 2.39
1.90 5.18 2.39
1.79 5.22 2.39
1.69 5.26 2.39
1.64 5.49 2.48
1.54 5.55 2.50
1.42 5.58 2.50
1.31 5.61 2.50
1.20 5.64 2.50
1.08 5.66 2.50
0.97 5.69 2.50
0.85 5.71 2.50
0.74 5.72 2.50
0.62 5.74 2.50
0.51 5.75 2.50
0.39 5.76 2.50
0.27 5.77 2.50
0.16 5.78 2.50
0.04 5.78 2.50
-0.08 5.79 2.50
-0.19 5.78 2.50
-0.31 5.78 2.50
-0.43 5.78 2.50
-0.55 5.77 2.50
-0.66 5.76 2.50
-0.78 5.75 2.50
-0.90 5.74 2.50
-1.01 5.72 2.50
-1.13 5.70 2.50
-1.24 5.68 2.50
-1.36 5.66 2.50
-1.47 5.64 2.50
-1.59 5.61 2.50
-1.70 5.58 2.50
-1.82 5.55 2.50
-1.93 5.51 2.50
-2.04 5.48 2.50
-2.16 5.44 2.50
-2.27 5.40 2.50
-2.38 5.36 2.50
-2.49 5.31 2.50
-2.60 5.27 2.50
-2.70 5.22 2.50
-2.81 5.17 2.50
-2.92 5.11 2.50
-3.02 5.06 2.50
-3.13 5.00 2.50
-3.23 4.94 2.50
-3.33 4.88 2.50
-3.43 4.81 2.50
-3.53 4.75 2.50
-3.63 4.68 2.50
-3.73 4.61 2.50
-3.82 4.54 2.50
-3.92 4.47 2.50
-4.01 4.39 2.50
-4.10 4.31 2.50
-4.20 4.24 2.50
-4.28 4.15 2.50
-4.37 4.07 2.50
-4.46 3.99 2.50
-4.54 3.90 2.50
-4.62 3.81 2.50
-4.71 3.72 2.50
-4.78 3.63 2.50
-4.86 3.54 2.50
-4.94 3.44 2.50
-5.01 3.35 2.50
-5.08 3.25 2.50
-5.15 3.15 2.50
-5.22 3.05 2.50
-5.29 2.95 2.50
-5.35 2.85 2.50
-5.42 2.74 2.50
-5.48 2.63 2.50
-5.53 2.53 2.50
-5.59 2.42 2.50
-5.64 2.31 2.50
-5.70 2.20 2.50
-5.75 2.08 2.50
-5.79 1.97 2.50
-5.84 1.86 2.50
-5.88 1.74 2.50
-5.92 1.63 2.50
-5.96 1.51 2.50
-6.00 1.39 2.50
-6.03 1.27 2.50
-6.06 1.15 2.50
-6.09 1.03 2.50
-6.12 0.91 2.50
-6.14 0.79 2.50
-6.16 0.67 2.50
-6.18 0.54 2.50
-6.20 0.42 2.50
-6.21 0.30 2.50
-6.22 0.17 2.50
-6.23 0.05 2.50
-6.24 -0.08 2.50
-6.24 -0.20 2.50
-6.24 -0.33 2.50
-6.24 -0.45 2.50
-6.24 -0.58 2.50
-6.23 -0.70 2.50
-6.22 -0.83 2.50
-6.21 -0.96 2.50
-6.20 -1.08 2.50
-6.18 -1.21 2.50
-6.16 -1.33 2.50
-6.14 -1.45 2.50
-6.12 -1.58 2.50
-6.09 -1.70 2.50
-6.06 -1.82 2.50
-6.03 -1.95 2.50
-5.99 -2.07 2.50
-5.96 -2.19 2.50
-5.92 -2.31 2.50
-5.88 -2.43 2.50
-5.83 -2.55 2.50
-5.78 -2.67 2.50
-5.73 -2.78 2.50
-5.68 -2.90 2.50
-5.63 -3.02 2.50
-5.57 -3.13 2.50
-5.51 -3.24 2.50
-5.45 -3.35 2.50
-5.38 -3.46 2.50
-5.32 -3.57 2.50
-5.25 -3.68 2.50
-5.18 -3.79 2.50
-5.10 -3.89 2.50
-5.03 -4.00 2.50
-4.95 -4.10 2.50
-4.87 -4.20 2.50
-4.79 -4.30 2.50
-4.71 -4.39 2.50
-4.62 -4.49 2.50
-4.53 -4.58 2.50
-4.44 -4.67 2.50
-4.35 -4.76 2.50
-4.25 -4.85 2.50
-4.16 -4.94 2.50
-4.06 -5.02 2.50
-3.96 -5.10 2.50
-3.86 -5.18 2.50
-3.76 -5.26 2.50
-3.65 -5.33 2.50
-3.55 -5.41 2.50
-3.44 -5.48 2.50
-3.33 -5.55 2.50
-3.22 -5.61 2.50
-3.11 -5.68 2.50
-2.99 -5.74 2.50
-2.88 -5.80 2.50
-2.76 -5.85 2.50
-2.65 -5.91 2.50
-2.53 -5.96 2.50
-2.41 -6.01 2.50
-2.29 -6.05 2.50
-2.17 -6.10 2.50
-2.05 -6.14 2.50
-1.92 -6.18 2.50
-1.80 -6.22 2.50
-1.68 -6.25 2.50
-1.55 -6.28 2.50
-1.43 -6.31 2.50
-1.30 -6.33 2.50
-1.17 -6.36 2.50
-1.05 -6.38 2.50
-0.92 -6.40 2.50
-0.79 -6.41 2.50
-0.66 -6.42 2.50
-0.53 -6.43 2.50
-0.41 -6.44 2.50
-0.28 -6.44 2.50
-0.15 -6.45 2.50
-0.02 -6.04 2.50
0.10 -6.03 2.50
0.22 -6.03 2.50
0.34 -6.02 2.50
0.46 -6.01 2.50
0.58 -5.99 2.50
0.70 -5.98 2.50
0.82 -5.96 2.50
0.93 -5.94 2.50
1.05 -5.92 2.50
1.17 -5.89 2.50
1.28 -5.86 2.50
1.40 -5.83 2.50
1.52 -5.80 2.50
1.58 -5.59 2.42
1.67 -5.49 2.39
1.79 -5.47 2.40
1.89 -5.41 2.39
1.99 -5.37 2.39
2.10 -5.32 2.39
2.20 -5.27 2.39
2.30 -5.22 2.39
2.40 -5.17 2.39
2.51 -5.12 2.39
2.60 -5.06 2.39
2.70 -5.01 2.39
2.80 -4.95 2.39
2.90 -4.89 2.39
2.99 -4.82 2.39
3.08 -4.76 2.39
3.17 -4.69 2.39
3.26 -4.62 2.39
3.35 -4.55 2.39
3.44 -4.48 2.39
3.52 -4.41 2.39
3.61 -4.33 2.39
3.69 -4.25 2.39
3.77 -4.17 2.39
3.85 -4.09 2.39
3.83 -3.91 2.33
3.61 -3.54 2.16
3.61 -3.41 2.12
3.62 -3.28 2.09
3.63 -3.16 2.06
3.65 -3.05 2.04
3.71 -2.97 2.04
3.76 -2.90 2.04
3.82 -2.82 2.04
3.87 -2.74 2.04
3.94 -2.67 2.05
4.02 -2.61 2.07
4.11 -2.55 2.09
4.20 -2.50 2.11
4.29 -2.43 2.13
4.38 -2.37 2.16
4.42 -2.28 2.16
4.52 -2.21 2.18
4.63 -2.16 2.22
4.78 -2.11 2.27
4.89 -2.04 2.31
4.95 -1.95 2.32
4.91 -1.82 2.29
4.90 -1.71 2.27
4.90 -1.60 2.26
4.92 -1.50 2.25
4.78 -1.35 2.18
4.65 -1.21 2.11
4.55 -1.09 2.06
4.50 -0.98 2.03
4.48 -0.88 2.01
4.51 -0.80 2.02
4.55 -0.71 2.03
4.59 -0.62 2.05
4.61 -0.53 2.05
4.50 -0.42 2.00
4.42 -0.33 1.97
4.36 -0.23 1.94
4.32 -0.15 1.92
4.28 -0.06 1.91
4.23 0.03 1.89
4.21 0.11 1.88
4.18 0.20 1.87
4.16 0.28 1.86
4.15 0.36 1.86
4.03 0.43 1.82
3.99 0.51 1.80
3.96 0.59 1.79
3.91 0.66 1.78
3.87 0.74 1.77
3.84 0.81 1.76
3.81 0.89 1.76
3.79 0.96 1.76
3.83 1.06 1.79
3.91 1.16 1.84
3.99 1.28 1.89
4.01 1.37 1.92
3.98 1.45 1.92
3.94 1.53 1.92
3.91 1.61 1.92
3.87 1.68 1.92
3.84 1.76 1.92
3.82 1.85 1.93
3.83 1.95 1.95
3.84 2.05 1.98
3.86 2.16 2.01
3.87 2.28 2.05
3.91 2.41 2.09
4.21 2.71 2.29
4.15 2.79 2.28
4.08 2.87 2.28
3.99 2.92 2.26
3.92 3.00 2.26
3.85 3.07 2.25
3.78 3.14 2.25
3.68 3.19 2.23
3.66 3.30 2.26
3.69 3.46 2.32
3.70 3.62 2.37
3.66 3.72 2.39
3.58 3.79 2.39
3.50 3.86 2.39
3.42 3.93 2.39
3.34 4.00 2.39
3.26 4.07 2.39
3.17 4.13 2.39
3.09 4.19 2.39
3.00 4.25 2.39
2.91 4.31 2.39
2.82 4.37 2.39
2.73 4.42 2.39
2.64 4.48 2.39
2.55 4.53 2.39
2.46 4.58 2.39
2.37 4.63 2.39
2.27 4.68 2.39
2.18 4.72 2.39
2.08 4.76 2.39
1.98 4.80 2.39
1.89 4.84 2.39
1.79 4.88 2.39
1.69 4.92 2.39
1.64 5.11 2.47
1.55 5.20 2.50
1.45 5.23 2.50
1.34 5.26 2.50
1.23 5.28 2.50
1.13 5.31 2.50
1.02 5.33 2.50
0.91 5.35 2.50
0.80 5.37 2.50
0.69 5.39 2.50
0.59 5.40 2.50
0.48 5.41 2.50
0.37 5.42 2.50
0.26 5.43 2.50
0.15 5.44 2.50
0.04 5.44 2.50
-0.07 5.44 2.50
-0.18 5.44 2.50
-0.29 5.44 2.50
-0.40 5.44 2.50
-0.51 5.43 2.50
-0.62 5.42 2.50
-0.73 5.41 2.50
-0.84 5.40 2.50
-0.95 5.38 2.50
-1.06 5.37 2.50
-1.17 5.35 2.50
-1.28 5.33 2.50
-1.39 5.30 2.50
-1.50 5.28 2.50
-1.60 5.25 2.50
-1.71 5.22 2.50
-1.82 5.19 2.50
-1.92 5.15 2.50
-2.03 5.12 2.50
-2.13 5.08 2.50
-2.24 5.04 2.50
-2.34 5.00 2.50
-2.44 4.95 2.50
-2.54 4.91 2.50
-2.65 4.86 2.50
-2.75 4.81 2.50
-2.84 4.75 2.50
-2.94 4.70 2.50
-3.04 4.64 2.50
-3.14 4.59 2.50
-3.23 4.53 2.50
-3.32 4.46 2.50
-3.42 4.40 2.50
-3.51 4.33 2.50
-3.60 4.27 2.50
-3.69 4.20 2.50
-3.77 4.13 2.50
-3.86 4.05 2.50
-3.95 3.98 2.50
-4.03 3.90 2.50
-4.11 3.83 2.50
-4.19 3.75 2.50
-4.27 3.66 2.50
-4.35 3.58 2.50
-4.42 3.50 2.50
-4.50 3.41 2.50
-4.57 3.32 2.50
-4.64 3.23 2.50
-4.71 3.14 2.50
-4.78 3.05 2.50
-4.84 2.96 2.50
-4.91 2.86 2.50
-4.97 2.77 2.50
-5.03 2.67 2.50
-5.09 2.57 2.50
-5.14 2.47 2.50
-5.20 2.37 2.50
-5.25 2.27 2.50
-5.30 2.16 2.50
-5.35 2.06 2.50
-5.40 1.95 2.50
-5.44 1.85 2.50
-5.48 1.74 2.50
-5.52 1.63 2.50
-5.56 1.52 2.50
-5.60 1.41 2.50
-5.63 1.30 2.50
-5.66 1.19 2.50
-5.69 1.08 2.50
-5.72 0.96 2.50
-5.74 0.85 2.50
-5.76 0.74 2.50
-5.78 0.62 2.50
-5.80 0.51 2.50
-5.82 0.39 2.50
-5.83 0.27 2.50
-5.84 0.16 2.50
-5.85 0.04 2.50
-5.85 -0.08 2.50
-5.86 -0.19 2.50
-5.86 -0.31 2.50
-5.86 -0.43 2.50
-5.85 -0.55 2.50
-5.85 -0.66 2.50
-5.84 -0.78 2.50
-5.83 -0.90 2.50
-5.81 -1.02 2.50
-5.80 -1.13 2.50
-5.78 -1.25 2.50
-5.76 -1.37 2.50
-5.74 -1.48 2.50
-5.71 -1.60 2.50
-5.68 -1.71 2.50
-5.65 -1.83 2.50
-5.62 -1.94 2.50
-5.58 -2.06 2.50
-5.55 -2.17 2.50
-5.51 -2.28 2.50
-5.46 -2.39 2.50
-5.42 -2.50 2.50
-5.37 -2.61 2.50
-5.32 -2.72 2.50
-5.27 -2.83 2.50
-5.22 -2.93 2.50
-5.16 -3.04 2.50
-5.11 -3.14 2.50
-5.04 -3.25 2.50
-4.98 -3.35 2.50
-4.92 -3.45 2.50
-4.85 -3.55 2.50
-4.78 -3.65 2.50
-4.71 -3.75 2.50
-4.64 -3.84 2.50
-4.56 -3.93 2.50
-4.49 -4.03 2.50
-4.41 -4.12 2.50
-4.33 -4.21 2.50
-4.24 -4.29 2.50
-4.16 -4.38 2.50
-4.07 -4.46 2.50
-3.99 -4.54 2.50
-3.90 -4.62 2.50
-3.80 -4.70 2.50
-3.71 -4.78 2.50
-3.62 -4.85 2.50
-3.52 -4.93 2.50
-3.42 -5.00 2.50
-3.32 -5.06 2.50
-3.22 -5.13 2.50
-3.12 -5.19 2.50
-3.02 -5.26 2.50
-2.91 -5.32 2.50
-2.80 -5.37 2.50
-2.70 -5.43 2.50
-2.59 -5.48 2.50
-2.48 -5.53 2.50
-2.37 -5.58 2.50
-2.26 -5.63 2.50
-2.15 -5.67 2.50
-2.03 -5.71 2.50
-1.92 -5.75 2.50
-1.80 -5.79 2.50
-1.69 -5.82 2.50
-1.57 -5.85 2.50
-1.45 -5.88 2.50
-1.34 -5.91 2.50
-1.22 -5.93 2.50
-1.10 -5.95 2.50
-0.98 -5.97 2.50
-0.86 -5.99 2.50
-0.74 -6.00 2.50
-0.62 -6.02 2.50
-0.50 -6.03 2.50
-0.38 -6.03 2.50
-0.26 -6.04 2.50
-0.14 -6.04 2.50
-0.02 -5.67 2.50
0.09 -5.67 2.50
0.21 -5.66 2.50
0.32 -5.66 2.50
0.43 -5.64 2.50
0.54 -5.63 2.50
0.65 -5.62 2.50
0.77 -5.60 2.50
0.88 -5.58 2.50
0.99 -5.56 2.50
1.10 -5.53 2.50
1.21 -5.51 2.50
1.31 -5.48 2.50
1.42 -5.45 2.50
1.53 -5.42 2.50
1.58 -5.21 2.41
1.67 -5.12 2.39
1.78 -5.13 2.41
1.87 -5.04 2.39
1.97 -5.00 2.39
2.07 -4.96 2.39
2.16 -4.91 2.39
2.26 -4.86 2.39
2.35 -4.81 2.39
2.45 -4.76 2.39
2.54 -4.71 2.39
2.63 -4.65 2.39
2.72 -4.60 2.39
2.81 -4.54 2.39
2.90 -4.48 2.39
2.98 -4.41 2.39
3.07 -4.35 2.39
3.15 -4.28 2.39
3.23 -4.21 2.39
3.31 -4.14 2.39
3.39 -4.07 2.39
3.47 -4.00 2.39
3.54 -3.93 2.39
3.62 -3.85 2.39
3.69 -3.77 2.39
3.53 -3.47 2.24
3.52 -3.32 2.20
3.53 -3.20 2.17
3.54 -3.08 2.14
3.57 -2.99 2.12
3.63 -2.92 2.12
3.69 -2.84 2.13
3.74 -2.77 2.13
3.80 -2.69 2.13
3.87 -2.63 2.14
3.95 -2.57 2.16
4.02 -2.50 2.17
4.11 -2.44 2.20
4.19 -2.38 2.22
4.31 -2.33 2.25
4.43 -2.29 2.30
4.54 -2.23 2.33
4.67 -2.18 2.38
4.73 -2.09 2.39
4.77 -1.99 2.39
4.80 -1.90 2.39
4.84 -1.80 2.39
4.87 -1.70 2.39
4.88 -1.59 2.38
4.89 -1.49 2.38
4.79 -1.35 2.32
4.61 -1.20 2.22
4.52 -1.08 2.17
4.50 -0.98 2.15
4.48 -0.88 2.14
4.51 -0.80 2.14
4.54 -0.71 2.15
4.55 -0.62 2.16
4.57 -0.53 2.16
4.48 -0.42 2.12
4.36 -0.32 2.06
4.33 -0.24 2.04
4.29 -0.15 2.03
4.21 -0.06 1.99
4.16 0.03 1.97
4.12 0.11 1.95
4.08 0.19 1.93
4.06 0.27 1.93
4.06 0.35 1.93
4.00 0.43 1.91
3.94 0.50 1.89
3.88 0.58 1.87
3.84 0.65 1.85
3.80 0.72 1.85
3.78 0.80 1.84
3.75 0.87 1.84
3.73 0.95 1.84
3.79 1.04 1.88
3.88 1.15 1.94
3.93 1.25 1.98
3.90 1.33 1.98
3.87 1.41 1.97
3.83 1.48 1.97
3.80 1.56 1.97
3.77 1.64 1.98
3.76 1.72 1.99
3.75 1.81 2.00
3.73 1.90 2.02
3.74 2.00 2.05
3.75 2.10 2.08
3.77 2.21 2.11
3.78 2.32 2.14
4.16 2.68 2.39
4.11 2.76 2.39
4.05 2.84 2.39
3.99 2.92 2.39
3.92 3.00 2.39
3.86 3.07 2.39
3.79 3.15 2.39
3.73 3.23 2.39
3.66 3.30 2.39
3.59 3.37 2.39
3.52 3.44 2.39
3.45 3.51 2.39
3.38 3.58 2.39
3.30 3.65 2.39
3.23 3.71 2.39
3.15 3.77 2.39
3.07 3.84 2.39
2.99 3.90 2.39
2.91 3.95 2.39
2.83 4.01 2.39
2.75 4.07 2.39
2.66 4.12 2.39
2.58 4.17 2.39
2.49 4.22 2.39
2.41 4.27 2.39
2.32 4.32 2.39
2.23 4.37 2.39
2.14 4.41 2.39
2.05 4.45 2.39
1.96 4.49 2.39
1.87 4.53 2.39
1.78 4.57 2.39
1.69 4.60 2.39
1.64 4.77 2.46
1.56 4.87 2.50
1.46 4.90 2.50
1.36 4.93 2.50
1.26 4.96 2.50
1.16 4.98 2.50
1.06 5.01 2.50
0.96 5.03 2.50
0.86 5.05 2.50
0.76 5.07 2.50
0.65 5.08 2.50
0.55 5.10 2.50
0.45 5.11 2.50
0.34 5.12 2.50
0.24 5.12 2.50
0.14 5.13 2.50
0.03 5.13 2.50
-0.07 5.14 2.50
-0.17 5.14 2.50
-0.28 5.13 2.50
-0.38 5.13 2.50
-0.49 5.12 2.50
-0.59 5.11 2.50
-0.69 5.10 2.50
-0.80 5.09 2.50
-0.90 5.08 2.50
-1.00 5.06 2.50
-1.11 5.04 2.50
-1.21 5.02 2.50
-1.31 5.00 2.50
-1.41 4.98 2.50
-1.52 4.95 2.50
-1.62 4.92 2.50
-1.72 4.89 2.50
-1.82 4.86 2.50
-1.92 4.82 2.50
-2.01 4.79 2.50
-2.11 4.75 2.50
-2.21 4.71 2.50
-2.31 4.67 2.50
-2.40 4.62 2.50
-2.50 4.58 2.50
-2.59 4.53 2.50
-2.68 4.48 2.50
-2.78 4.43 2.50
-2.87 4.38 2.50
-2.96 4.32 2.50
-3.05 4.26 2.50
-3.13 4.21 2.50
-3.22 4.15 2.50
-3.31 4.08 2.50
-3.39 4.02 2.50
-3.48 3.95 2.50
-3.56 3.89 2.50
-3.64 3.82 2.50
-3.72 3.75 2.50
-3.80 3.68 2.50
-3.88 3.60 2.50
-3.95 3.53 2.50
-4.03 3.45 2.50
-4.10 3.37 2.50
-4.17 3.29 2.50
-4.24 3.21 2.50
-4.31 3.13 2.50
-4.37 3.04 2.50
-4.44 2.96 2.50
-4.50 2.87 2.50
-4.56 2.78 2.50
-4.62 2.69 2.50
-4.68 2.60 2.50
-4.74 2.51 2.50
-4.79 2.42 2.50
-4.85 2.32 2.50
-4.90 2.23 2.50
-4.95 2.13 2.50
-4.99 2.04 2.50
-5.04 1.94 2.50
-5.08 1.84 2.50
-5.12 1.74 2.50
-5.16 1.64 2.50
-5.20 1.53 2.50
-5.24 1.43 2.50
-5.27 1.33 2.50
-5.30 1.22 2.50
-5.33 1.12 2.50
-5.36 1.01 2.50
-5.38 0.90 2.50
-5.40 0.80 2.50
-5.42 0.69 2.50
-5.44 0.58 2.50
-5.46 0.47 2.50
-5.47 0.36 2.50
-5.48 0.25 2.50
-5.49 0.15 2.50
-5.50 0.04 2.50
-5.51 -0.07 2.50
-5.51 -0.19 2.50
-5.51 -0.30 2.50
-5.51 -0.41 2.50
-5.50 -0.52 2.50
-5.50 -0.63 2.50
-5.49 -0.74 2.50
-5.48 -0.85 2.50
-5.47 -0.96 2.50
-5.45 -1.07 2.50
-5.43 -1.18 2.50
-5.41 -1.29 2.50
-5.39 -1.40 2.50
-5.37 -1.50 2.50
-5.34 -1.61 2.50
-5.31 -1.72 2.50
-5.28 -1.83 2.50
-5.25 -1.93 2.50
-5.21 -2.04 2.50
-5.18 -2.15 2.50
-5.14 -2.25 2.50
-5.09 -2.35 2.50
-5.05 -2.46 2.50
-5.00 -2.56 2.50
-4.95 -2.66 2.50
-4.90 -2.76 2.50
-4.85 -2.86 2.50
-4.80 -2.96 2.50
-4.74 -3.05 2.50
-4.68 -3.15 2.50
-4.62 -3.24 2.50
-4.56 -3.34 2.50
-4.49 -3.43 2.50
-4.43 -3.52 2.50
-4.36 -3.61 2.50
-4.29 -3.70 2.50
-4.21 -3.78 2.50
-4.14 -3.87 2.50
-4.06 -3.95 2.50
-3.99 -4.03 2.50
-3.91 -4.11 2.50
-3.83 -4.19 2.50
-3.74 -4.27 2.50
-3.66 -4.34 2.50
-3.57 -4.42 2.50
-3.49 -4.49 2.50
-3.40 -4.56 2.50
-3.31 -4.63 2.50
-3.21 -4.69 2.50
-3.12 -4.76 2.50
-3.03 -4.82 2.50
-2.93 -4.88 2.50
-2.83 -4.94 2.50
-2.73 -4.99 2.50
-2.63 -5.05 2.50
-2.53 -5.10 2.50
-2.43 -5.15 2.50
-2.33 -5.20 2.50
-2.23 -5.24 2.50
-2.12 -5.29 2.50
-2.02 -5.33 2.50
-1.91 -5.37 2.50
-1.80 -5.40 2.50
-1.69 -5.44 2.50
-1.58 -5.47 2.50
-1.48 -5.50 2.50
-1.37 -5.53 2.50
-1.26 -5.55 2.50
-1.14 -5.57 2.50
-1.03 -5.59 2.50
-0.92 -5.61 2.50
-0.81 -5.63 2.50
-0.70 -5.64 2.50
-0.58 -5.65 2.50
-0.47 -5.66 2.50
-0.36 -5.67 2.50
-0.25 -5.67 2.50
-0.13 -5.67 2.50
-0.02 -5.34 2.50
0.09 -5.34 2.50
0.19 -5.33 2.50
0.30 -5.33 2.50
0.40 -5.32 2.50
0.51 -5.31 2.50
0.61 -5.29 2.50
0.72 -5.28 2.50
0.82 -5.26 2.50
0.93 -5.24 2.50
1.03 -5.21 2.50
1.13 -5.19 2.50
1.24 -5.16 2.50
1.34 -5.13 2.50
1.44 -5.10 2.50
1.54 -5.07 2.50
1.58 -4.87 2.41
1.67 -4.79 2.39
1.76 -4.75 2.39
1.85 -4.71 2.39
1.94 -4.67 2.39
2.04 -4.63 2.39
2.13 -4.58 2.39
2.22 -4.54 2.39
2.30 -4.49 2.39
2.39 -4.44 2.39
2.48 -4.39 2.39
2.56 -4.33 2.39
2.65 -4.28 2.39
2.73 -4.22 2.39
2.81 -4.16 2.39
2.89 -4.10 2.39
2.97 -4.04 2.39
3.04 -3.97 2.39
3.12 -3.91 2.39
3.20 -3.84 2.39
3.27 -3.77 2.39
3.34 -3.70 2.39
3.41 -3.63 2.39
3.48 -3.56 2.39
3.49 -3.43 2.35
3.48 -3.29 2.30
3.47 -3.15 2.26
3.47 -3.02 2.22
3.52 -2.95 2.22
3.58 -2.88 2.22
3.64 -2.80 2.22
3.69 -2.73 2.23
3.76 -2.67 2.24
3.85 -2.62 2.26
3.94 -2.56 2.28
4.06 -2.53 2.32
4.22 -2.51 2.39
4.27 -2.43 2.39
4.31 -2.34 2.39
4.35 -2.25 2.39
4.39 -2.16 2.39
4.43 -2.07 2.39
4.47 -1.98 2.39
4.50 -1.88 2.39
4.53 -1.79 2.39
4.56 -1.70 2.39
4.59 -1.60 2.39
4.62 -1.51 2.39
4.64 -1.42 2.39
4.66 -1.32 2.39
4.61 -1.21 2.35
4.52 -1.09 2.30
4.50 -0.99 2.28
4.49 -0.89 2.27
4.52 -0.80 2.27
4.53 -0.71 2.28
4.55 -0.62 2.28
4.58 -0.53 2.30
4.49 -0.43 2.25
4.31 -0.32 2.15
4.29 -0.23 2.14
4.27 -0.15 2.13
4.16 -0.06 2.08
4.10 0.02 2.05
4.06 0.10 2.04
4.03 0.19 2.02
4.01 0.27 2.02
4.01 0.35 2.02
4.00 0.43 2.02
3.96 0.50 2.01
3.89 0.58 1.98
3.81 0.64 1.95
3.78 0.72 1.94
3.77 0.79 1.95
3.75 0.87 1.95
3.73 0.94 1.95
3.79 1.04 1.99
3.85 1.14 2.03
3.82 1.22 2.03
3.79 1.29 2.03
3.76 1.37 2.03
3.73 1.44 2.03
3.71 1.52 2.04
3.70 1.61 2.05
3.69 1.69 2.07
3.67 1.77 2.08
3.66 1.86 2.09
3.64 1.94 2.11
3.65 2.05 2.14
3.69 2.16 2.19
3.73 2.29 2.24
3.93 2.53 2.39
3.88 2.61 2.39
3.82 2.68 2.39
3.77 2.76 2.39
3.71 2.83 2.39
3.65 2.91 2.39
3.59 2.98 2.39
3.53 3.05 2.39
3.46 3.12 2.39
3.40 3.19 2.39
3.33 3.25 2.39
3.26 3.32 2.39
3.19 3.38 2.39
3.12 3.45 2.39
3.05 3.51 2.39
2.98 3.57 2.39
2.90 3.63 2.39
2.83 3.68 2.39
2.75 3.74 2.39
2.68 3.79 2.39
2.60 3.84 2.39
2.52 3.90 2.39
2.44 3.95 2.39
2.36 3.99 2.39
2.28 4.04 2.39
2.19 4.08 2.39
2.11 4.13 2.39
2.03 4.17 2.39
1.94 4.21 2.39
1.86 4.25 2.39
1.77 4.28 2.39
1.68 4.32 2.39
1.63 4.46 2.45
1.57 4.57 2.50
1.48 4.61 2.50
1.38 4.63 2.50
1.29 4.66 2.50
1.19 4.69 2.50
1.10 4.71 2.50
1.00 4.73 2.50
0.91 4.75 2.50
0.81 4.77 2.50
0.71 4.79 2.50
0.62 4.80 2.50
0.52 4.82 2.50
0.42 4.83 2.50
0.32 4.84 2.50
0.23 4.84 2.50
0.13 4.85 2.50
0.03 4.85 2.50
-0.07 4.85 2.50
-0.17 4.85 2.50
-0.26 4.85 2.50
-0.36 4.85 2.50
-0.46 4.84 2.50
-0.56 4.83 2.50
-0.66 4.82 2.50
-0.76 4.81 2.50
-0.85 4.80 2.50
-0.95 4.78 2.50
-1.05 4.77 2.50
-1.15 4.75 2.50
-1.24 4.72 2.50
-1.34 4.70 2.50
-1.43 4.68 2.50
-1.53 4.65 2.50
-1.62 4.62 2.50
-1.72 4.59 2.50
-1.81 4.56 2.50
-1.90 4.52 2.50
-2.00 4.49 2.50
-2.09 4.45 2.50
-2.18 4.41 2.50
-2.27 4.37 2.50
-2.36 4.32 2.50
-2.45 4.28 2.50
-2.54 4.23 2.50
-2.62 4.18 2.50
-2.71 4.13 2.50
-2.80 4.08 2.50
-2.88 4.03 2.50
-2.96 3.97 2.50
-3.05 3.91 2.50
-3.13 3.86 2.50
-3.21 3.80 2.50
-3.29 3.73 2.50
-3.36 3.67 2.50
-3.44 3.60 2.50
-3.51 3.54 2.50
-3.59 3.47 2.50
-3.66 3.40 2.50
-3.73 3.33 2.50
-3.80 3.26 2.50
-3.87 3.18 2.50
-3.94 3.11 2.50
-4.00 3.03 2.50
-4.07 2.95 2.50
-4.13 2.87 2.50
-4.19 2.79 2.50
-4.25 2.71 2.50
-4.31 2.63 2.50
-4.37 2.54 2.50
-4.42 2.46 2.50
-4.47 2.37 2.50
-4.53 2.28 2.50
-4.57 2.19 2.50
-4.62 2.10 2.50
-4.67 2.01 2.50
-4.71 1.92 2.50
-4.76 1.82 2.50
-4.80 1.73 2.50
-4.83 1.64 2.50
-4.87 1.54 2.50
-4.91 1.44 2.50
-4.94 1.35 2.50
-4.97 1.25 2.50
-5.00 1.15 2.50
-5.03 1.05 2.50
-5.05 0.95 2.50
-5.08 0.85 2.50
-5.10 0.75 2.50
-5.12 0.65 2.50
-5.13 0.55 2.50
-5.15 0.44 2.50
-5.16 0.34 2.50
-5.17 0.24 2.50
-5.18 0.13 2.50
-5.19 0.03 2.50
-5.19 -0.07 2.50
-5.19 -0.18 2.50
-5.20 -0.28 2.50
-5.19 -0.39 2.50
-5.19 -0.49 2.50
-5.18 -0.59 2.50
-5.18 -0.70 2.50
-5.17 -0.80 2.50
-5.15 -0.91 2.50
-5.14 -1.01 2.50
-5.12 -1.11 2.50
-5.10 -1.22 2.50
-5.08 -1.32 2.50
-5.06 -1.42 2.50
-5.03 -1.52 2.50
-5.01 -1.62 2.50
-4.98 -1.72 2.50
-4.95 -1.82 2.50
-4.91 -1.92 2.50
-4.88 -2.02 2.50
-4.84 -2.12 2.50
-4.80 -2.22 2.50
-4.76 -2.32 2.50
-4.71 -2.41 2.50
-4.67 -2.51 2.50
-4.62 -2.60 2.50
-4.57 -2.69 2.50
-4.52 -2.79 2.50
-4.46 -2.88 2.50
-4.41 -2.97 2.50
-4.35 -3.06 2.50
-4.29 -3.15 2.50
-4.23 -3.23 2.50
-4.17 -3.32 2.50
-4.10 -3.40 2.50
-4.04 -3.48 2.50
-3.97 -3.57 2.50
-3.90 -3.65 2.50
-3.83 -3.72 2.50
-3.75 -3.80 2.50
-3.68 -3.88 2.50
-3.60 -3.95 2.50
-3.52 -4.02 2.50
-3.45 -4.09 2.50
-3.36 -4.16 2.50
-3.28 -4.23 2.50
-3.20 -4.29 2.50
-3.11 -4.36 2.50
-3.03 -4.42 2.50
-2.94 -4.48 2.50
-2.85 -4.54 2.50
-2.76 -4.60 2.50
-2.67 -4.65 2.50
-2.57 -4.70 2.50
-2.48 -4.75 2.50
-2.39 -4.80 2.50
-2.29 -4.85 2.50
-2.19 -4.89 2.50
-2.10 -4.94 2.50
-2.00 -4.98 2.50
-1.90 -5.02 2.50
-1.80 -5.05 2.50
-1.70 -5.09 2.50
-1.60 -5.12 2.50
-1.49 -5.15 2.50
-1.39 -5.18 2.50
-1.29 -5.20 2.50
-1.18 -5.23 2.50
-1.08 -5.25 2.50
-0.97 -5.27 2.50
-0.87 -5.29 2.50
-0.76 -5.30 2.50
-0.66 -5.31 2.50
-0.55 -5.32 2.50
-0.45 -5.33 2.50
-0.34 -5.34 2.50
-0.23 -5.34 2.50
-0.13 -5.34 2.50
-0.02 -5.04 2.50
0.08 -5.04 2.50
0.18 -5.04 2.50
0.28 -5.03 2.50
0.38 -5.02 2.50
0.48 -5.01 2.50
0.58 -5.00 2.50
0.68 -4.98 2.50
0.78 -4.96 2.50
0.87 -4.94 2.50
0.97 -4.92 2.50
1.07 -4.90 2.50
1.17 -4.88 2.50
1.26 -4.85 2.50
1.36 -4.82 2.50
1.45 -4.79 2.50
1.55 -4.75 2.50
1.59 -4.57 2.42
1.66 -4.49 2.39
1.75 -4.45 2.39
1.83 -4.41 2.39
1.92 -4.37 2.39
2.01 -4.33 2.39
2.09 -4.29 2.39
2.17 -4.24 2.39
2.26 -4.19 2.39
2.34 -4.14 2.39
2.42 -4.09 2.39
2.50 -4.04 2.39
2.57 -3.99 2.39
2.65 -3.93 2.39
2.73 -3.87 2.39
2.80 -3.82 2.39
2.87 -3.76 2.39
2.95 -3.69 2.39
3.02 -3.63 2.39
3.09 -3.57 2.39
3.15 -3.50 2.39
3.22 -3.44 2.39
3.29 -3.37 2.39
3.35 -3.30 2.39
3.41 -3.23 2.39
3.47 -3.15 2.39
3.50 -3.05 2.37
3.54 -2.97 2.36
3.60 -2.90 2.36
3.66 -2.83 2.37
3.73 -2.76 2.38
3.80 -2.70 2.39
3.85 -2.62 2.39
3.90 -2.54 2.39
3.95 -2.46 2.39
3.99 -2.38 2.39
4.03 -2.30 2.39
4.07 -2.21 2.39
4.11 -2.13 2.39
4.15 -2.04 2.39
4.19 -1.96 2.39
4.22 -1.87 2.39
4.25 -1.78 2.39
4.28 -1.70 2.39
4.31 -1.61 2.39
4.34 -1.52 2.39
4.37 -1.43 2.39
4.39 -1.34 2.39
4.41 -1.25 2.39
4.43 -1.16 2.39
4.45 -1.07 2.39
4.46 -0.98 2.39
4.48 -0.89 2.39
4.49 -0.80 2.39
4.50 -0.71 2.39
4.51 -0.62 2.39
4.52 -0.53 2.39
4.52 -0.43 2.39
4.41 -0.33 2.33
4.28 -0.24 2.26
4.26 -0.15 2.25
4.17 -0.06 2.20
4.07 0.02 2.15
4.02 0.10 2.13
3.98 0.18 2.11
3.96 0.26 2.11
3.95 0.34 2.10
3.93 0.42 2.10
3.92 0.50 2.10
3.87 0.57 2.08
3.79 0.64 2.05
3.75 0.71 2.04
3.75 0.79 2.05
3.75 0.87 2.06
3.74 0.94 2.06
3.77 1.03 2.09
3.74 1.11 2.09
3.71 1.18 2.09
3.68 1.25 2.09
3.67 1.33 2.09
3.66 1.41 2.10
3.64 1.49 2.12
3.63 1.57 2.13
3.62 1.66 2.14
3.61 1.74 2.16
3.61 1.83 2.18
3.60 1.92 2.20
3.60 2.02 2.23
3.64 2.13 2.28
3.78 2.32 2.39
3.73 2.39 2.39
3.68 2.47 2.39
3.62 2.54 2.39
3.57 2.61 2.39
3.51 2.68 2.39
3.46 2.75 2.39
3.40 2.82 2.39
3.34 2.89 2.39
3.28 2.95 2.39
3.22 3.02 2.39
3.15 3.08 2.39
3.09 3.14 2.39
3.02 3.20 2.39
2.96 3.26 2.39
2.89 3.32 2.39
2.82 3.38 2.39
2.75 3.43 2.39
2.68 3.49 2.39
2.61 3.54 2.39
2.54 3.59 2.39
2.46 3.64 2.39
2.39 3.69 2.39
2.31 3.74 2.39
2.23 3.78 2.39
2.16 3.83 2.39
2.08 3.87 2.39
2.00 3.91 2.39
1.92 3.95 2.39
1.84 4.00 2.40
1.76 4.02 2.39
1.68 4.06 2.39
1.63 4.19 2.45
1.57 4.30 2.50
1.49 4.33 2.50
1.40 4.36 2.50
1.31 4.39 2.50
1.22 4.42 2.50
1.13 4.44 2.50
1.04 4.46 2.50
0.95 4.48 2.50
0.86 4.50 2.50
0.77 4.52 2.50
0.68 4.54 2.50
0.58 4.55 2.50
0.49 4.56 2.50
0.40 4.57 2.50
0.31 4.58 2.50
0.21 4.59 2.50
0.12 4.59 2.50
0.03 4.60 2.50
-0.07 4.60 2.50
-0.16 4.60 2.50
-0.25 4.59 2.50
-0.35 4.59 2.50
-0.44 4.58 2.50
-0.53 4.58 2.50
-0.62 4.57 2.50
-0.72 4.56 2.50
-0.81 4.54 2.50
-0.90 4.53 2.50
-0.99 4.51 2.50
-1.09 4.49 2.50
-1.18 4.47 2.50
-1.27 4.45 2.50
-1.36 4.43 2.50
-1.45 4.40 2.50
-1.54 4.37 2.50
-1.63 4.34 2.50
-1.72 4.31 2.50
-1.80 4.28 2.50
-1.89 4.25 2.50
-1.98 4.21 2.50
-2.07 4.17 2.50
-2.15 4.13 2.50
-2.24 4.09 2.50
-2.32 4.05 2.50
-2.40 4.00 2.50
-2.49 3.96 2.50
-2.57 3.91 2.50
-2.65 3.86 2.50
-2.73 3.81 2.50
-2.81 3.76 2.50
-2.88 3.70 2.50
-2.96 3.65 2.50
-3.04 3.59 2.50
-3.11 3.53 2.50
-3.18 3.47 2.50
-3.26 3.41 2.50
-3.33 3.35 2.50
-3.40 3.28 2.50
-3.47 3.21 2.50
-3.53 3.15 2.50
-3.60 3.08 2.50
-3.66 3.01 2.50
-3.73 2.94 2.50
-3.79 2.86 2.50
-3.85 2.79 2.50
-3.91 2.71 2.50
-3.97 2.64 2.50
-4.02 2.56 2.50
-4.08 2.48 2.50
-4.13 2.40 2.50
-4.18 2.32 2.50
-4.23 2.24 2.50
