ply
format ascii 1.0
element vertex 2993
property float32 x
property float32 y
property float32 z
end_header
-6.00 -4.40 2.45
-6.01 -4.60 2.49
-5.94 -4.74 2.49
-5.85 -4.86 2.49
-5.76 -4.98 2.49
-5.67 -5.11 2.49
-5.57 -5.23 2.49
-5.47 -5.34 2.49
-5.37 -5.46 2.49
-5.26 -5.57 2.49
-5.16 -5.69 2.49
-5.05 -5.80 2.49
-4.94 -5.91 2.49
-4.82 -6.01 2.49
-4.71 -6.12 2.49
-4.59 -6.22 2.49
-4.47 -6.32 2.49
-4.35 -6.42 2.49
-4.22 -6.52 2.49
-4.10 -6.61 2.49
-3.97 -6.70 2.49
-3.84 -6.79 2.49
-3.71 -6.88 2.49
-3.58 -6.96 2.49
-3.44 -7.04 2.49
-3.30 -7.12 2.49
-3.16 -7.20 2.49
-3.02 -7.27 2.49
-2.88 -7.34 2.49
-2.74 -7.41 2.49
-2.59 -7.48 2.49
-2.45 -7.54 2.49
-2.30 -7.60 2.49
-2.15 -7.66 2.49
-2.00 -7.72 2.49
-1.85 -7.77 2.49
-1.69 -7.82 2.49
-1.54 -7.86 2.49
-1.38 -7.91 2.49
-1.22 -7.95 2.49
-1.07 -7.98 2.49
-0.91 -8.02 2.49
-0.75 -8.05 2.49
-0.59 -8.08 2.49
-0.43 -8.10 2.49
-0.26 -8.12 2.49
-0.10 -8.14 2.49
0.06 -7.54 2.49
0.21 -7.55 2.49
0.37 -7.56 2.49
0.52 -7.57 2.49
0.67 -7.57 2.49
0.82 -7.56 2.49
0.98 -7.56 2.49
1.13 -7.55 2.49
1.28 -7.54 2.49
1.44 -7.52 2.49
1.59 -7.51 2.49
1.74 -7.48 2.49
1.87 -7.36 2.46
1.96 -7.13 2.39
2.11 -7.10 2.39
2.25 -7.06 2.39
2.40 -7.03 2.39
2.54 -6.99 2.39
2.69 -6.95 2.39
2.83 -6.90 2.39
2.97 -6.86 2.39
3.11 -6.81 2.39
3.25 -6.75 2.39
3.39 -6.70 2.39
3.53 -6.64 2.39
3.67 -6.58 2.39
3.80 -6.51 2.39
3.94 -6.44 2.39
4.07 -6.37 2.39
4.20 -6.30 2.39
4.34 -6.22 2.39
4.47 -6.14 2.39
4.59 -6.06 2.39
4.72 -5.98 2.39
4.84 -5.89 2.39
4.97 -5.80 2.39
5.09 -5.70 2.39
5.21 -5.61 2.39
5.32 -5.51 2.39
5.44 -5.41 2.39
5.55 -5.31 2.39
5.66 -5.20 2.39
5.77 -5.09 2.39
5.88 -4.98 2.39
5.91 -4.81 2.36
5.92 -4.62 2.33
2.69 -2.01 1.04
2.75 -1.97 1.05
5.94 -4.09 2.23
5.97 -3.94 2.21
5.98 -3.78 2.18
5.99 -3.62 2.15
6.00 -3.46 2.13
6.01 -3.31 2.11
6.02 -3.16 2.09
6.02 -3.01 2.07
6.03 -2.87 2.05
6.04 -2.73 2.03
6.05 -2.59 2.02
6.06 -2.45 2.00
6.07 -2.31 1.99
6.07 -2.18 1.97
6.08 -2.04 1.96
6.09 -1.91 1.95
6.10 -1.78 1.94
6.10 -1.65 1.93
6.11 -1.52 1.92
6.14 -1.40 1.92
6.15 -1.28 1.91
6.15 -1.15 1.91
6.16 -1.02 1.91
6.17 -0.90 1.90
6.18 -0.78 1.90
6.19 -0.65 1.90
6.20 -0.53 1.90
6.21 -0.41 1.90
6.21 -0.28 1.90
6.22 -0.16 1.90
6.23 -0.03 1.90
6.24 0.09 1.90
6.25 0.21 1.91
6.26 0.34 1.91
6.27 0.47 1.92
6.27 0.59 1.92
6.28 0.72 1.93
6.30 0.85 1.94
6.31 0.98 1.95
6.32 1.11 1.96
6.33 1.24 1.97
6.34 1.38 1.98
6.35 1.51 2.00
6.36 1.65 2.01
6.37 1.79 2.03
6.38 1.93 2.04
6.39 2.07 2.06
6.40 2.21 2.08
6.40 2.36 2.10
6.41 2.51 2.12
6.42 2.66 2.14
6.43 2.82 2.16
6.44 2.98 2.19
6.45 3.14 2.21
6.46 3.30 2.24
6.47 3.47 2.27
6.49 3.65 2.30
6.50 3.83 2.33
6.51 4.01 2.37
6.48 4.17 2.39
6.39 4.30 2.39
6.29 4.42 2.39
6.20 4.54 2.39
6.10 4.66 2.39
6.00 4.77 2.39
5.89 4.88 2.39
5.79 4.99 2.39
5.68 5.10 2.39
5.57 5.21 2.39
5.46 5.31 2.39
5.34 5.41 2.39
5.23 5.51 2.39
5.11 5.61 2.39
4.99 5.70 2.39
4.87 5.79 2.39
4.74 5.88 2.39
4.62 5.96 2.39
4.49 6.04 2.39
4.36 6.12 2.39
4.23 6.20 2.39
4.10 6.27 2.39
3.97 6.35 2.39
3.84 6.41 2.39
3.70 6.48 2.39
3.57 6.54 2.39
3.43 6.60 2.39
3.29 6.66 2.39
3.15 6.71 2.39
3.01 6.76 2.39
2.87 6.81 2.39
2.81 7.04 2.46
2.70 7.20 2.49
2.55 7.24 2.49
2.40 7.27 2.49
2.25 7.31 2.49
2.10 7.34 2.49
1.95 7.37 2.49
1.80 7.39 2.49
1.65 7.42 2.49
1.50 7.43 2.49
1.35 7.45 2.49
1.20 7.46 2.49
1.04 7.47 2.49
0.89 7.48 2.49
0.74 7.48 2.49
0.59 7.49 2.49
0.44 7.48 2.49
0.29 7.48 2.49
0.14 7.47 2.49
-0.01 7.46 2.49
-0.16 7.44 2.49
-0.31 7.43 2.49
-0.46 7.41 2.49
-0.61 7.38 2.49
-0.75 7.36 2.49
-0.90 7.33 2.49
-1.05 7.30 2.49
-1.19 7.26 2.49
-1.33 7.23 2.49
-1.48 7.19 2.49
-1.62 7.14 2.49
-1.76 7.10 2.49
-1.90 7.05 2.49
-2.04 7.00 2.49
-2.17 6.95 2.49
-2.31 6.89 2.49
-2.44 6.83 2.49
-2.58 6.77 2.49
-2.71 6.71 2.49
-2.84 6.64 2.49
-2.97 6.58 2.49
-3.10 6.51 2.49
-3.22 6.43 2.49
-3.35 6.36 2.49
-3.47 6.28 2.49
-3.59 6.20 2.49
-3.71 6.12 2.49
-3.83 6.03 2.49
-3.94 5.95 2.49
-4.06 5.86 2.49
-4.17 5.77 2.49
-4.28 5.68 2.49
-4.39 5.58 2.49
-4.49 5.49 2.49
-4.60 5.39 2.49
-4.70 5.29 2.49
-4.80 5.19 2.49
-4.90 5.08 2.49
-5.00 4.98 2.49
-5.09 4.87 2.49
-5.18 4.76 2.49
-5.27 4.65 2.49
-5.36 4.54 2.49
-5.43 4.41 2.48
-5.44 4.24 2.45
-5.45 4.08 2.42
-5.47 3.92 2.40
-5.53 3.79 2.39
-5.60 3.68 2.39
-5.68 3.57 2.39
-5.73 3.44 2.39
-5.80 3.33 2.39
-5.86 3.21 2.39
-5.92 3.08 2.39
-5.98 2.96 2.39
-6.03 2.84 2.39
-6.09 2.71 2.39
-6.14 2.59 2.39
-6.18 2.46 2.39
-6.23 2.34 2.39
-6.27 2.21 2.39
-6.31 2.08 2.39
-6.35 1.95 2.39
-6.39 1.82 2.39
-6.42 1.69 2.39
-6.45 1.56 2.39
-6.48 1.43 2.39
-6.51 1.30 2.39
-6.53 1.17 2.39
-6.55 1.03 2.39
-6.57 0.90 2.39
-6.59 0.77 2.39
-6.60 0.63 2.39
-6.61 0.50 2.39
-6.62 0.37 2.39
-6.63 0.23 2.39
-6.63 0.10 2.39
-6.63 -0.04 2.39
-6.63 -0.17 2.39
-6.63 -0.31 2.39
-6.62 -0.44 2.39
-6.61 -0.57 2.39
-6.60 -0.71 2.39
-6.59 -0.84 2.39
-6.57 -0.98 2.39
-6.55 -1.11 2.39
-6.53 -1.24 2.39
-6.51 -1.37 2.39
-6.48 -1.51 2.39
-6.45 -1.64 2.39
-6.42 -1.77 2.39
-6.39 -1.90 2.39
-6.35 -2.03 2.39
-6.31 -2.16 2.39
-6.27 -2.29 2.39
-6.23 -2.42 2.39
-6.18 -2.54 2.39
-6.13 -2.67 2.39
-6.09 -2.80 2.39
-6.03 -2.92 2.39
-5.97 -3.04 2.39
-5.93 -3.17 2.40
-5.94 -3.33 2.42
-5.94 -3.50 2.45
-5.95 -3.67 2.48
-5.91 -3.80 2.49
-5.83 -3.93 2.49
-5.76 -4.05 2.49
-5.68 -4.17 2.49
-5.60 -4.29 2.49
-5.52 -4.40 2.49
-5.44 -4.52 2.49
-5.35 -4.63 2.49
-5.26 -4.74 2.49
-5.17 -4.86 2.49
-5.08 -4.96 2.49
-4.98 -5.07 2.49
-4.88 -5.18 2.49
-4.78 -5.28 2.49
-4.68 -5.38 2.49
-4.58 -5.48 2.49
-4.47 -5.58 2.49
-4.37 -5.68 2.49
-4.26 -5.77 2.49
-4.14 -5.87 2.49
-4.03 -5.96 2.49
-3.92 -6.05 2.49
-3.80 -6.13 2.49
-3.68 -6.22 2.49
-3.56 -6.30 2.49
-3.44 -6.38 2.49
-3.31 -6.46 2.49
-3.19 -6.53 2.49
-3.06 -6.60 2.49
-2.93 -6.68 2.49
-2.80 -6.74 2.49
-2.67 -6.81 2.49
-2.53 -6.87 2.49
-2.40 -6.93 2.49
-2.26 -6.99 2.49
-2.12 -7.05 2.49
-1.99 -7.10 2.49
-1.85 -7.15 2.49
-1.70 -7.20 2.49
-1.56 -7.24 2.49
-1.42 -7.28 2.49
-1.27 -7.32 2.49
-1.13 -7.36 2.49
-0.98 -7.39 2.49
-0.84 -7.42 2.49
-0.69 -7.45 2.49
-0.54 -7.47 2.49
-0.39 -7.50 2.49
-0.24 -7.52 2.49
-0.09 -7.53 2.49
0.06 -7.01 2.49
0.20 -7.02 2.49
0.34 -7.02 2.49
0.49 -7.03 2.49
0.63 -7.03 2.49
0.77 -7.02 2.49
0.91 -7.02 2.49
1.05 -7.01 2.49
1.20 -7.00 2.49
1.34 -6.98 2.49
1.48 -6.97 2.49
1.62 -6.95 2.49
1.76 -6.92 2.49
1.90 -6.88 2.49
1.96 -6.58 2.39
2.09 -6.55 2.39
2.23 -6.52 2.39
2.36 -6.48 2.39
2.50 -6.45 2.39
2.63 -6.40 2.39
2.76 -6.36 2.39
2.89 -6.31 2.39
3.02 -6.26 2.39
3.15 -6.21 2.39
3.28 -6.15 2.39
3.40 -6.09 2.39
3.53 -6.03 2.39
3.65 -5.97 2.39
3.78 -5.90 2.39
3.90 -5.84 2.39
4.02 -5.76 2.39
4.14 -5.69 2.39
4.26 -5.61 2.39
4.37 -5.53 2.39
4.49 -5.45 2.39
4.60 -5.37 2.39
4.71 -5.28 2.39
4.82 -5.19 2.39
4.93 -5.10 2.39
5.04 -5.01 2.39
5.14 -4.91 2.39
5.25 -4.81 2.39
5.35 -4.71 2.39
5.44 -4.61 2.39
5.54 -4.50 2.39
5.64 -4.40 2.39
2.69 -2.01 1.12
2.75 -1.97 1.13
5.90 -4.06 2.39
5.97 -3.94 2.38
5.98 -3.77 2.35
5.99 -3.61 2.33
6.00 -3.46 2.30
6.01 -3.31 2.28
6.02 -3.16 2.26
6.03 -3.01 2.23
6.03 -2.87 2.21
6.04 -2.72 2.20
6.05 -2.58 2.18
6.06 -2.45 2.16
6.07 -2.31 2.15
6.07 -2.18 2.13
6.08 -2.04 2.12
6.09 -1.91 2.11
6.10 -1.78 2.10
6.10 -1.65 2.09
6.11 -1.52 2.08
6.14 -1.40 2.08
6.15 -1.27 2.07
6.15 -1.15 2.06
6.16 -1.02 2.06
6.17 -0.90 2.06
6.18 -0.78 2.05
6.19 -0.65 2.05
6.20 -0.53 2.05
6.21 -0.41 2.05
6.21 -0.28 2.05
6.22 -0.16 2.05
6.23 -0.03 2.05
6.24 0.09 2.06
6.25 0.21 2.06
6.26 0.34 2.07
6.27 0.47 2.07
6.27 0.59 2.08
6.28 0.72 2.09
6.30 0.85 2.10
6.31 0.98 2.11
6.32 1.11 2.12
6.33 1.24 2.13
6.34 1.37 2.15
6.35 1.51 2.16
6.36 1.65 2.17
6.37 1.78 2.19
6.38 1.93 2.21
6.39 2.07 2.23
6.40 2.21 2.25
6.40 2.36 2.26
6.41 2.51 2.29
6.42 2.66 2.31
6.43 2.81 2.34
6.44 2.97 2.36
6.45 3.14 2.39
6.38 3.26 2.39
6.31 3.38 2.39
6.24 3.51 2.39
6.16 3.63 2.39
6.08 3.74 2.39
6.00 3.86 2.39
5.91 3.98 2.39
5.83 4.09 2.39
5.74 4.20 2.39
5.65 4.31 2.39
5.56 4.42 2.39
5.46 4.52 2.39
5.36 4.62 2.39
5.26 4.72 2.39
5.16 4.82 2.39
5.06 4.92 2.39
4.95 5.01 2.39
4.85 5.10 2.39
4.74 5.19 2.39
4.63 5.28 2.39
4.51 5.36 2.39
4.40 5.45 2.39
4.28 5.52 2.39
4.17 5.60 2.39
4.05 5.68 2.39
3.93 5.75 2.39
3.81 5.82 2.39
3.69 5.88 2.39
3.56 5.95 2.39
3.44 6.01 2.39
3.31 6.07 2.39
3.19 6.12 2.39
3.06 6.18 2.39
2.93 6.23 2.39
2.80 6.27 2.39
2.78 6.57 2.48
2.65 6.64 2.49
2.51 6.68 2.49
2.37 6.72 2.49
2.24 6.75 2.49
2.10 6.78 2.49
1.96 6.81 2.49
1.82 6.84 2.49
1.68 6.87 2.49
1.54 6.89 2.49
1.40 6.91 2.49
1.26 6.92 2.49
1.12 6.93 2.49
0.97 6.94 2.49
0.83 6.95 2.49
0.69 6.96 2.49
0.55 6.96 2.49
0.41 6.96 2.49
0.27 6.95 2.49
0.13 6.94 2.49
-0.01 6.93 2.49
-0.15 6.92 2.49
-0.29 6.91 2.49
-0.42 6.89 2.49
-0.56 6.87 2.49
-0.70 6.85 2.49
-0.83 6.82 2.49
-0.97 6.79 2.49
-1.10 6.76 2.49
-1.24 6.73 2.49
-1.37 6.69 2.49
-1.50 6.65 2.49
-1.63 6.61 2.49
-1.76 6.57 2.49
-1.89 6.52 2.49
-2.02 6.47 2.49
-2.15 6.42 2.49
-2.27 6.37 2.49
-2.40 6.31 2.49
-2.52 6.25 2.49
-2.64 6.19 2.49
-2.76 6.13 2.49
-2.88 6.06 2.49
-3.00 5.99 2.49
-3.12 5.93 2.49
-3.23 5.85 2.49
-3.34 5.78 2.49
-3.45 5.70 2.49
-3.56 5.63 2.49
-3.67 5.55 2.49
-3.78 5.46 2.49
-3.88 5.38 2.49
-3.99 5.29 2.49
-4.09 5.21 2.49
-4.19 5.12 2.49
-4.29 5.03 2.49
-4.38 4.93 2.49
-4.48 4.84 2.49
-4.57 4.74 2.49
-4.66 4.64 2.49
-4.75 4.55 2.49
-4.83 4.44 2.49
-4.92 4.34 2.49
-5.00 4.24 2.49
-5.08 4.13 2.49
-5.16 4.02 2.49
-5.23 3.92 2.49
-5.31 3.81 2.49
-5.38 3.70 2.49
-5.45 3.58 2.49
-5.49 3.45 2.48
-5.50 3.31 2.46
-5.51 3.16 2.43
-5.52 3.02 2.41
-5.54 2.89 2.40
-5.58 2.77 2.39
-5.63 2.65 2.39
-5.68 2.53 2.39
-5.73 2.42 2.39
-5.77 2.30 2.39
-5.81 2.18 2.39
-5.86 2.06 2.39
-5.89 1.94 2.39
-5.93 1.82 2.39
-5.96 1.70 2.39
-5.99 1.58 2.39
-6.02 1.46 2.39
-6.05 1.34 2.39
-6.08 1.21 2.39
-6.10 1.09 2.39
-6.12 0.96 2.39
-6.13 0.84 2.39
-6.15 0.72 2.39
-6.16 0.59 2.39
-6.17 0.47 2.39
-6.18 0.34 2.39
-6.19 0.22 2.39
-6.19 0.09 2.39
-6.19 -0.04 2.39
-6.19 -0.16 2.39
-6.19 -0.29 2.39
-6.18 -0.41 2.39
-6.17 -0.54 2.39
-6.16 -0.66 2.39
-6.15 -0.79 2.39
-6.13 -0.91 2.39
-6.12 -1.04 2.39
-6.10 -1.16 2.39
-6.07 -1.28 2.39
-6.05 -1.41 2.39
-6.02 -1.53 2.39
-6.01 -1.66 2.40
-5.96 -1.77 2.39
-5.93 -1.90 2.39
-5.89 -2.02 2.39
-5.86 -2.14 2.40
-5.87 -2.28 2.41
-5.87 -2.42 2.43
-5.88 -2.56 2.46
-5.89 -2.71 2.48
-5.87 -2.84 2.49
-5.81 -2.96 2.49
-5.76 -3.08 2.49
-5.70 -3.20 2.49
-5.64 -3.32 2.49
-5.57 -3.44 2.49
-5.51 -3.55 2.49
-5.44 -3.66 2.49
-5.37 -3.78 2.49
-5.30 -3.89 2.49
-5.22 -4.00 2.49
-5.15 -4.11 2.49
-5.07 -4.22 2.49
-4.99 -4.32 2.49
-4.90 -4.43 2.49
-4.82 -4.53 2.49
-4.73 -4.63 2.49
-4.64 -4.73 2.49
-4.55 -4.83 2.49
-4.46 -4.93 2.49
-4.36 -5.02 2.49
-4.27 -5.11 2.49
-4.17 -5.21 2.49
-4.07 -5.30 2.49
-3.96 -5.38 2.49
-3.86 -5.47 2.49
-3.75 -5.55 2.49
-3.65 -5.63 2.49
-3.54 -5.71 2.49
-3.42 -5.79 2.49
-3.31 -5.87 2.49
-3.20 -5.94 2.49
-3.08 -6.01 2.49
-2.96 -6.08 2.49
-2.84 -6.15 2.49
-2.72 -6.22 2.49
-2.60 -6.28 2.49
-2.48 -6.34 2.49
-2.35 -6.40 2.49
-2.23 -6.45 2.49
-2.10 -6.51 2.49
-1.97 -6.56 2.49
-1.84 -6.61 2.49
-1.71 -6.65 2.49
-1.58 -6.70 2.49
-1.45 -6.74 2.49
-1.32 -6.77 2.49
-1.18 -6.81 2.49
-1.05 -6.84 2.49
-0.91 -6.87 2.49
-0.77 -6.90 2.49
-0.63 -6.93 2.49
-0.50 -6.95 2.49
-0.36 -6.97 2.49
-0.22 -6.99 2.49
-0.08 -7.00 2.49
0.06 -6.54 2.49
0.19 -6.55 2.49
0.33 -6.55 2.49
0.46 -6.55 2.49
0.59 -6.55 2.49
0.72 -6.55 2.49
0.85 -6.54 2.49
0.99 -6.54 2.49
1.12 -6.52 2.49
1.25 -6.51 2.49
1.38 -6.49 2.49
1.52 -6.47 2.49
1.65 -6.45 2.49
1.78 -6.43 2.49
1.91 -6.40 2.49
1.96 -6.12 2.40
2.08 -6.07 2.39
2.20 -6.04 2.39
2.33 -6.00 2.39
2.45 -5.96 2.39
2.57 -5.92 2.39
2.69 -5.88 2.39
2.82 -5.83 2.39
2.93 -5.78 2.39
3.05 -5.73 2.39
3.17 -5.67 2.39
3.29 -5.62 2.39
3.40 -5.56 2.39
3.52 -5.49 2.39
3.63 -5.43 2.39
3.74 -5.36 2.39
3.86 -5.29 2.39
3.97 -5.22 2.39
4.07 -5.15 2.39
4.18 -5.07 2.39
4.29 -4.99 2.39
4.39 -4.91 2.39
4.49 -4.83 2.39
4.59 -4.74 2.39
4.69 -4.66 2.39
4.79 -4.57 2.39
4.88 -4.47 2.39
4.97 -4.38 2.39
5.07 -4.28 2.39
5.15 -4.19 2.39
5.24 -4.09 2.39
2.69 -2.01 1.21
2.75 -1.97 1.21
5.49 -3.78 2.39
5.57 -3.67 2.39
5.64 -3.56 2.39
5.72 -3.45 2.39
5.79 -3.34 2.39
5.86 -3.22 2.39
5.93 -3.11 2.39
5.99 -2.99 2.39
6.03 -2.86 2.38
6.04 -2.72 2.36
6.05 -2.58 2.34
6.06 -2.44 2.33
6.07 -2.31 2.31
6.07 -2.17 2.30
6.08 -2.04 2.28
6.09 -1.91 2.27
6.10 -1.78 2.26
6.10 -1.65 2.25
6.11 -1.52 2.24
6.14 -1.40 2.24
6.15 -1.27 2.23
6.15 -1.15 2.22
6.16 -1.02 2.22
6.17 -0.90 2.21
6.18 -0.78 2.21
6.19 -0.65 2.21
6.20 -0.53 2.21
6.21 -0.41 2.21
6.21 -0.28 2.21
6.22 -0.16 2.21
6.23 -0.03 2.21
6.24 0.09 2.21
6.25 0.21 2.22
6.26 0.34 2.22
6.27 0.46 2.23
6.27 0.59 2.24
6.28 0.72 2.25
6.30 0.85 2.26
6.31 0.98 2.27
6.32 1.11 2.28
6.33 1.24 2.29
6.34 1.37 2.31
6.35 1.51 2.32
6.36 1.64 2.34
6.37 1.78 2.36
6.38 1.92 2.38
6.38 2.06 2.39
6.33 2.19 2.39
6.28 2.31 2.39
6.23 2.43 2.39
6.18 2.56 2.39
6.12 2.68 2.39
6.06 2.80 2.39
6.00 2.91 2.39
5.93 3.03 2.39
5.87 3.14 2.39
5.80 3.26 2.39
5.73 3.37 2.39
5.66 3.48 2.39
5.58 3.59 2.39
5.50 3.70 2.39
5.42 3.80 2.39
5.34 3.90 2.39
5.26 4.01 2.39
5.17 4.11 2.39
5.08 4.20 2.39
4.99 4.30 2.39
4.90 4.39 2.39
4.80 4.48 2.39
4.71 4.57 2.39
4.61 4.66 2.39
4.51 4.75 2.39
4.41 4.83 2.39
4.31 4.91 2.39
4.20 4.99 2.39
4.10 5.07 2.39
3.99 5.14 2.39
3.88 5.21 2.39
3.77 5.28 2.39
3.66 5.35 2.39
3.55 5.41 2.39
3.44 5.48 2.39
3.32 5.54 2.39
3.21 5.59 2.39
3.09 5.65 2.39
2.97 5.70 2.39
2.85 5.75 2.39
2.74 5.81 2.39
2.73 6.10 2.49
2.60 6.14 2.49
2.47 6.18 2.49
2.35 6.22 2.49
2.22 6.26 2.49
2.09 6.29 2.49
1.96 6.32 2.49
1.83 6.35 2.49
1.70 6.38 2.49
1.57 6.40 2.49
1.44 6.42 2.49
1.31 6.44 2.49
1.18 6.46 2.49
1.04 6.47 2.49
0.91 6.48 2.49
0.78 6.49 2.49
0.65 6.49 2.49
0.52 6.49 2.49
0.39 6.49 2.49
0.26 6.49 2.49
0.13 6.48 2.49
-0.00 6.47 2.49
-0.13 6.46 2.49
-0.26 6.45 2.49
-0.39 6.43 2.49
-0.52 6.41 2.49
-0.65 6.39 2.49
-0.77 6.37 2.49
-0.90 6.34 2.49
-1.03 6.31 2.49
-1.15 6.28 2.49
-1.28 6.25 2.49
-1.40 6.21 2.49
-1.52 6.18 2.49
-1.64 6.14 2.49
-1.76 6.09 2.49
-1.88 6.05 2.49
-2.00 6.00 2.49
-2.12 5.95 2.49
-2.24 5.90 2.49
-2.35 5.84 2.49
-2.47 5.79 2.49
-2.58 5.73 2.49
-2.69 5.67 2.49
-2.80 5.61 2.49
-2.91 5.54 2.49
-3.02 5.48 2.49
-3.12 5.41 2.49
-3.23 5.34 2.49
-3.33 5.26 2.49
-3.43 5.19 2.49
-3.53 5.11 2.49
-3.63 5.04 2.49
-3.73 4.96 2.49
-3.82 4.87 2.49
-3.92 4.79 2.49
-4.01 4.71 2.49
-4.10 4.62 2.49
-4.19 4.53 2.49
-4.27 4.44 2.49
-4.36 4.35 2.49
-4.44 4.26 2.49
-4.52 4.16 2.49
-4.60 4.07 2.49
-4.68 3.97 2.49
-4.75 3.87 2.49
-4.83 3.77 2.49
-4.90 3.67 2.49
-4.97 3.56 2.49
-5.03 3.46 2.49
-5.10 3.36 2.49
-5.16 3.25 2.49
-5.22 3.14 2.49
-5.28 3.03 2.49
-5.34 2.92 2.49
-5.40 2.81 2.49
-5.45 2.70 2.49
-5.50 2.59 2.49
-5.55 2.48 2.49
-5.56 2.35 2.48
-5.57 2.22 2.46
-5.58 2.09 2.45
-5.59 1.97 2.44
-5.60 1.85 2.42
-5.61 1.72 2.41
-5.62 1.60 2.40
-5.63 1.48 2.40
-5.64 1.37 2.39
-5.67 1.25 2.39
-5.69 1.14 2.39
-5.71 1.02 2.39
-5.73 0.90 2.39
-5.75 0.79 2.39
-5.76 0.67 2.39
-5.77 0.55 2.39
-5.78 0.44 2.39
-5.79 0.32 2.39
-5.80 0.20 2.39
-5.80 0.08 2.39
-5.80 -0.03 2.39
-5.80 -0.15 2.39
-5.80 -0.27 2.39
-5.79 -0.39 2.39
-5.78 -0.50 2.39
-5.77 -0.62 2.39
-5.77 -0.74 2.40
-5.78 -0.86 2.40
-5.78 -0.98 2.41
-5.79 -1.10 2.42
-5.80 -1.23 2.44
-5.80 -1.35 2.45
-5.81 -1.48 2.46
-5.82 -1.61 2.48
-5.82 -1.73 2.49
-5.79 -1.85 2.49
-5.75 -1.97 2.49
-5.72 -2.09 2.49
-5.68 -2.20 2.49
-5.63 -2.32 2.49
-5.59 -2.44 2.49
-5.54 -2.55 2.49
-5.49 -2.66 2.49
-5.44 -2.78 2.49
-5.39 -2.89 2.49
-5.33 -3.00 2.49
-5.28 -3.11 2.49
-5.22 -3.22 2.49
-5.15 -3.33 2.49
-5.09 -3.43 2.49
-5.02 -3.54 2.49
-4.96 -3.64 2.49
-4.89 -3.74 2.49
-4.81 -3.85 2.49
-4.74 -3.95 2.49
-4.66 -4.05 2.49
-4.59 -4.14 2.49
-4.51 -4.24 2.49
-4.42 -4.33 2.49
-4.34 -4.43 2.49
-4.25 -4.52 2.49
-4.17 -4.61 2.49
-4.08 -4.70 2.49
-3.99 -4.79 2.49
-3.89 -4.87 2.49
-3.80 -4.95 2.49
-3.70 -5.04 2.49
-3.61 -5.12 2.49
-3.51 -5.19 2.49
-3.41 -5.27 2.49
-3.30 -5.34 2.49
-3.20 -5.42 2.49
-3.09 -5.49 2.49
-2.99 -5.56 2.49
-2.88 -5.62 2.49
-2.77 -5.69 2.49
-2.65 -5.75 2.49
-2.54 -5.81 2.49
-2.43 -5.87 2.49
-2.31 -5.92 2.49
-2.20 -5.98 2.49
-2.08 -6.03 2.49
-1.96 -6.08 2.49
-1.84 -6.13 2.49
-1.72 -6.17 2.49
-1.60 -6.21 2.49
-1.47 -6.25 2.49
-1.35 -6.29 2.49
-1.22 -6.33 2.49
-1.10 -6.36 2.49
-0.97 -6.39 2.49
-0.84 -6.42 2.49
-0.72 -6.44 2.49
-0.59 -6.47 2.49
-0.46 -6.49 2.49
-0.33 -6.50 2.49
-0.20 -6.52 2.49
-0.07 -6.53 2.49
0.06 -6.12 2.49
0.19 -6.13 2.49
0.31 -6.13 2.49
0.43 -6.13 2.49
0.56 -6.13 2.49
0.68 -6.13 2.49
0.80 -6.12 2.49
0.93 -6.11 2.49
1.05 -6.10 2.49
1.17 -6.09 2.49
1.30 -6.07 2.49
1.42 -6.05 2.49
1.54 -6.03 2.49
1.67 -6.01 2.49
1.79 -5.98 2.49
1.91 -5.95 2.49
1.98 -5.76 2.43
2.06 -5.65 2.39
2.19 -5.64 2.40
2.29 -5.57 2.39
2.41 -5.53 2.39
2.52 -5.49 2.39
2.63 -5.45 2.39
2.75 -5.40 2.39
2.86 -5.35 2.39
2.97 -5.30 2.39
3.08 -5.25 2.39
3.18 -5.19 2.39
3.29 -5.13 2.39
3.40 -5.07 2.39
3.50 -5.01 2.39
3.60 -4.94 2.39
3.71 -4.88 2.39
3.81 -4.81 2.39
3.91 -4.73 2.39
4.00 -4.66 2.39
4.10 -4.58 2.39
4.20 -4.51 2.39
4.29 -4.43 2.39
4.38 -4.34 2.39
4.47 -4.26 2.39
4.56 -4.17 2.39
4.65 -4.09 2.39
4.73 -4.00 2.39
4.81 -3.91 2.39
2.72 -2.12 1.33
2.69 -2.01 1.29
2.75 -1.97 1.30
5.12 -3.52 2.39
5.20 -3.42 2.39
5.27 -3.32 2.39
5.34 -3.22 2.39
5.40 -3.11 2.39
5.47 -3.01 2.39
5.53 -2.90 2.39
5.59 -2.79 2.39
5.65 -2.68 2.39
5.70 -2.57 2.39
5.76 -2.46 2.39
5.81 -2.34 2.39
5.86 -2.23 2.39
5.90 -2.11 2.39
5.94 -1.99 2.39
5.98 -1.88 2.39
6.02 -1.76 2.39
6.06 -1.64 2.39
6.09 -1.52 2.39
6.12 -1.40 2.39
6.15 -1.27 2.39
6.15 -1.15 2.38
6.16 -1.02 2.38
6.17 -0.90 2.37
6.18 -0.78 2.37
6.19 -0.65 2.37
6.20 -0.53 2.37
6.21 -0.41 2.37
6.21 -0.28 2.37
6.22 -0.16 2.37
6.23 -0.03 2.37
6.24 0.09 2.37
6.25 0.21 2.38
6.26 0.34 2.38
6.26 0.46 2.39
6.25 0.59 2.39
6.24 0.71 2.39
6.22 0.84 2.39
6.20 0.96 2.39
6.18 1.08 2.39
6.15 1.20 2.39
6.13 1.33 2.39
6.10 1.45 2.39
6.06 1.57 2.39
6.03 1.69 2.39
5.99 1.80 2.39
5.95 1.92 2.39
5.91 2.04 2.39
5.86 2.15 2.39
5.81 2.27 2.39
5.76 2.38 2.39
5.71 2.50 2.39
5.66 2.61 2.39
5.60 2.72 2.39
5.54 2.83 2.39
5.48 2.93 2.39
5.41 3.04 2.39
5.35 3.14 2.39
5.28 3.25 2.39
5.21 3.35 2.39
5.14 3.45 2.39
5.06 3.55 2.39
4.99 3.64 2.39
4.91 3.74 2.39
4.83 3.83 2.39
4.75 3.92 2.39
4.66 4.01 2.39
4.58 4.10 2.39
4.49 4.19 2.39
4.40 4.27 2.39
4.31 4.35 2.39
4.22 4.43 2.39
4.12 4.51 2.39
4.03 4.59 2.39
3.93 4.66 2.39
3.83 4.73 2.39
3.73 4.80 2.39
3.63 4.87 2.39
3.53 4.93 2.39
3.43 5.00 2.39
3.32 5.06 2.39
3.22 5.12 2.39
3.11 5.17 2.39
3.00 5.23 2.39
2.90 5.30 2.40
2.78 5.33 2.39
2.71 5.45 2.42
2.67 5.66 2.49
2.55 5.70 2.49
2.43 5.74 2.49
2.32 5.78 2.49
2.20 5.82 2.49
2.08 5.85 2.49
1.96 5.89 2.49
1.84 5.92 2.49
1.71 5.94 2.49
1.59 5.97 2.49
1.47 5.99 2.49
1.35 6.01 2.49
1.23 6.03 2.49
1.10 6.04 2.49
0.98 6.05 2.49
0.86 6.06 2.49
0.74 6.07 2.49
0.61 6.08 2.49
0.49 6.08 2.49
0.37 6.08 2.49
0.25 6.08 2.49
0.12 6.07 2.49
0.00 6.06 2.49
-0.12 6.05 2.49
-0.24 6.04 2.49
-0.36 6.03 2.49
-0.48 6.01 2.49
-0.60 5.99 2.49
-0.72 5.97 2.49
-0.84 5.94 2.49
-0.96 5.92 2.49
-1.08 5.89 2.49
-1.19 5.86 2.49
-1.31 5.83 2.49
-1.42 5.79 2.49
-1.54 5.75 2.49
-1.65 5.71 2.49
-1.76 5.67 2.49
-1.87 5.63 2.49
-1.99 5.58 2.49
-2.09 5.53 2.49
-2.20 5.48 2.49
-2.31 5.43 2.49
-2.42 5.38 2.49
-2.52 5.32 2.49
-2.62 5.26 2.49
-2.73 5.20 2.49
-2.83 5.14 2.49
-2.93 5.07 2.49
-3.03 5.01 2.49
-3.12 4.94 2.49
-3.22 4.87 2.49
-3.31 4.80 2.49
-3.40 4.73 2.49
-3.50 4.65 2.49
-3.59 4.58 2.49
-3.67 4.50 2.49
-3.76 4.42 2.49
-3.84 4.34 2.49
-3.93 4.25 2.49
-4.01 4.17 2.49
-4.09 4.08 2.49
-4.17 4.00 2.49
-4.24 3.91 2.49
-4.32 3.82 2.49
-4.39 3.73 2.49
-4.46 3.63 2.49
-4.53 3.54 2.49
-4.60 3.45 2.49
-4.66 3.35 2.49
-4.73 3.25 2.49
-4.79 3.15 2.49
-4.85 3.05 2.49
-4.91 2.95 2.49
-4.96 2.85 2.49
-5.01 2.75 2.49
-5.07 2.64 2.49
-5.12 2.54 2.49
-5.16 2.43 2.49
-5.21 2.33 2.49
-5.25 2.22 2.49
-5.30 2.11 2.49
-5.33 2.00 2.49
-5.37 1.89 2.49
-5.41 1.78 2.49
-5.44 1.67 2.49
-5.47 1.56 2.49
-5.50 1.45 2.49
-5.53 1.34 2.49
-5.55 1.23 2.49
-5.58 1.11 2.49
-5.60 1.00 2.49
-5.61 0.89 2.49
-5.63 0.77 2.49
-5.64 0.66 2.49
-5.66 0.54 2.49
-5.67 0.43 2.49
-5.67 0.31 2.49
-5.68 0.20 2.49
-5.68 0.08 2.49
-5.68 -0.03 2.49
-5.68 -0.15 2.49
-5.68 -0.26 2.49
-5.67 -0.38 2.49
-5.67 -0.49 2.49
-5.66 -0.61 2.49
-5.64 -0.72 2.49
-5.63 -0.84 2.49
-5.61 -0.95 2.49
-5.59 -1.07 2.49
-5.57 -1.18 2.49
-5.55 -1.29 2.49
-5.52 -1.41 2.49
-5.50 -1.52 2.49
-5.47 -1.63 2.49
-5.44 -1.74 2.49
-5.40 -1.85 2.49
-5.37 -1.96 2.49
-5.33 -2.07 2.49
-5.29 -2.18 2.49
-5.25 -2.29 2.49
-5.20 -2.40 2.49
-5.16 -2.50 2.49
-5.11 -2.61 2.49
-5.06 -2.71 2.49
-5.01 -2.82 2.49
-4.95 -2.92 2.49
-4.90 -3.02 2.49
-4.84 -3.12 2.49
-4.78 -3.22 2.49
-4.72 -3.32 2.49
-4.65 -3.42 2.49
-4.58 -3.52 2.49
-4.52 -3.61 2.49
-4.45 -3.71 2.49
-4.38 -3.80 2.49
-4.30 -3.89 2.49
-4.23 -3.98 2.49
-4.15 -4.07 2.49
-4.07 -4.16 2.49
-3.99 -4.24 2.49
-3.91 -4.33 2.49
-3.82 -4.41 2.49
-3.74 -4.49 2.49
-3.65 -4.57 2.49
-3.56 -4.65 2.49
-3.47 -4.73 2.49
-3.38 -4.80 2.49
-3.29 -4.87 2.49
-3.19 -4.94 2.49
-3.09 -5.01 2.49
-3.00 -5.08 2.49
-2.90 -5.15 2.49
-2.80 -5.21 2.49
-2.69 -5.27 2.49
-2.59 -5.33 2.49
-2.49 -5.39 2.49
-2.38 -5.45 2.49
-2.27 -5.50 2.49
-2.16 -5.55 2.49
-2.05 -5.60 2.49
-1.94 -5.65 2.49
-1.83 -5.70 2.49
-1.72 -5.74 2.49
-1.61 -5.78 2.49
-1.49 -5.82 2.49
-1.38 -5.86 2.49
-1.26 -5.89 2.49
-1.14 -5.93 2.49
-1.03 -5.96 2.49
-0.91 -5.99 2.49
-0.79 -6.01 2.49
-0.67 -6.03 2.49
-0.55 -6.05 2.49
-0.43 -6.07 2.49
-0.30 -6.09 2.49
-0.18 -6.10 2.49
-0.06 -6.11 2.49
0.06 -5.75 2.49
0.18 -5.75 2.49
0.29 -5.76 2.49
0.41 -5.76 2.49
0.53 -5.76 2.49
0.64 -5.75 2.49
0.76 -5.75 2.49
0.87 -5.74 2.49
0.99 -5.73 2.49
1.11 -5.71 2.49
1.22 -5.70 2.49
1.34 -5.68 2.49
1.45 -5.66 2.49
1.57 -5.64 2.49
1.68 -5.61 2.49
1.80 -5.58 2.49
1.91 -5.55 2.49
1.99 -5.44 2.46
2.05 -5.26 2.39
2.15 -5.23 2.39
2.26 -5.19 2.39
2.37 -5.15 2.39
2.47 -5.11 2.39
2.58 -5.06 2.39
2.68 -5.02 2.39
2.78 -4.97 2.39
2.89 -4.92 2.39
2.99 -4.86 2.39
3.09 -4.81 2.39
3.19 -4.75 2.39
3.28 -4.69 2.39
3.38 -4.63 2.39
3.48 -4.57 2.39
3.57 -4.50 2.39
3.66 -4.43 2.39
3.75 -4.37 2.39
3.84 -4.29 2.39
3.93 -4.22 2.39
4.02 -4.15 2.39
4.11 -4.07 2.39
4.19 -3.99 2.39
4.27 -3.91 2.39
4.35 -3.83 2.39
4.43 -3.74 2.39
4.51 -3.66 2.39
2.66 -2.07 1.39
2.67 -1.99 1.37
2.73 -1.95 1.38
4.80 -3.30 2.39
4.87 -3.20 2.39
4.93 -3.11 2.39
5.00 -3.01 2.39
5.06 -2.91 2.39
5.12 -2.81 2.39
5.18 -2.71 2.39
5.24 -2.61 2.39
5.29 -2.51 2.39
5.34 -2.40 2.39
5.39 -2.30 2.39
5.44 -2.19 2.39
5.48 -2.08 2.39
5.52 -1.97 2.39
5.56 -1.87 2.39
5.60 -1.76 2.39
5.64 -1.64 2.39
5.67 -1.53 2.39
5.70 -1.42 2.39
5.73 -1.31 2.39
5.76 -1.19 2.39
5.78 -1.08 2.39
5.80 -0.96 2.39
5.82 -0.85 2.39
5.84 -0.73 2.39
5.85 -0.62 2.39
5.86 -0.50 2.39
5.87 -0.38 2.39
5.88 -0.27 2.39
5.88 -0.15 2.39
5.88 -0.03 2.39
5.88 0.08 2.39
5.88 0.20 2.39
5.87 0.32 2.39
5.86 0.43 2.39
5.85 0.55 2.39
5.84 0.67 2.39
5.82 0.78 2.39
5.80 0.90 2.39
5.78 1.01 2.39
5.76 1.13 2.39
5.73 1.24 2.39
5.71 1.35 2.39
5.68 1.47 2.39
5.64 1.58 2.39
5.61 1.69 2.39
5.57 1.80 2.39
5.53 1.91 2.39
5.49 2.02 2.39
5.44 2.12 2.39
5.40 2.23 2.39
5.35 2.34 2.39
5.30 2.44 2.39
5.24 2.54 2.39
5.19 2.64 2.39
5.13 2.75 2.39
5.07 2.84 2.39
5.01 2.94 2.39
4.95 3.04 2.39
4.88 3.13 2.39
4.81 3.23 2.39
4.74 3.32 2.39
4.67 3.41 2.39
4.60 3.50 2.39
4.53 3.59 2.39
4.45 3.67 2.39
4.37 3.76 2.39
4.29 3.84 2.39
4.21 3.92 2.39
4.13 4.00 2.39
4.04 4.08 2.39
3.95 4.15 2.39
3.87 4.23 2.39
3.78 4.30 2.39
3.69 4.37 2.39
3.59 4.43 2.39
3.50 4.50 2.39
3.41 4.56 2.39
3.31 4.62 2.39
3.21 4.68 2.39
3.12 4.74 2.39
3.02 4.80 2.39
2.92 4.85 2.39
2.82 4.90 2.39
2.71 4.95 2.39
2.68 5.13 2.45
2.62 5.26 2.49
2.51 5.30 2.49
2.40 5.35 2.49
2.29 5.39 2.49
2.18 5.42 2.49
2.06 5.46 2.49
1.95 5.49 2.49
1.84 5.52 2.49
1.73 5.55 2.49
1.61 5.58 2.49
1.50 5.60 2.49
1.38 5.62 2.49
1.27 5.64 2.49
1.16 5.66 2.49
1.04 5.67 2.49
0.93 5.68 2.49
0.81 5.69 2.49
0.69 5.70 2.49
0.58 5.70 2.49
0.46 5.71 2.49
0.35 5.71 2.49
0.23 5.71 2.49
0.12 5.70 2.49
0.00 5.69 2.49
-0.11 5.69 2.49
-0.22 5.68 2.49
-0.34 5.66 2.49
-0.45 5.65 2.49
-0.56 5.63 2.49
-0.67 5.61 2.49
-0.79 5.59 2.49
-0.90 5.56 2.49
-1.01 5.54 2.49
-1.12 5.51 2.49
-1.23 5.48 2.49
-1.33 5.44 2.49
-1.44 5.41 2.49
-1.55 5.37 2.49
-1.65 5.33 2.49
-1.76 5.29 2.49
-1.86 5.25 2.49
-1.97 5.20 2.49
-2.07 5.16 2.49
-2.17 5.11 2.49
-2.27 5.06 2.49
-2.37 5.00 2.49
-2.47 4.95 2.49
-2.56 4.89 2.49
-2.66 4.83 2.49
-2.75 4.77 2.49
-2.84 4.71 2.49
-2.94 4.65 2.49
-3.03 4.58 2.49
-3.11 4.52 2.49
-3.20 4.45 2.49
-3.29 4.38 2.49
-3.37 4.31 2.49
-3.45 4.23 2.49
-3.54 4.16 2.49
-3.62 4.08 2.49
-3.69 4.00 2.49
-3.77 3.93 2.49
-3.85 3.85 2.49
-3.92 3.76 2.49
-3.99 3.68 2.49
-4.06 3.60 2.49
-4.13 3.51 2.49
-4.20 3.42 2.49
-4.26 3.33 2.49
-4.33 3.24 2.49
-4.39 3.15 2.49
-4.45 3.06 2.49
-4.51 2.97 2.49
-4.56 2.88 2.49
-4.62 2.78 2.49
-4.67 2.69 2.49
-4.72 2.59 2.49
-4.77 2.49 2.49
-4.82 2.39 2.49
-4.86 2.29 2.49
-4.91 2.19 2.49
-4.95 2.09 2.49
-4.99 1.99 2.49
-5.02 1.89 2.49
-5.06 1.79 2.49
-5.09 1.68 2.49
-5.12 1.58 2.49
-5.15 1.47 2.49
-5.18 1.37 2.49
-5.21 1.26 2.49
-5.23 1.16 2.49
-5.25 1.05 2.49
-5.27 0.94 2.49
-5.29 0.83 2.49
-5.30 0.73 2.49
-5.32 0.62 2.49
-5.33 0.51 2.49
-5.34 0.40 2.49
-5.34 0.29 2.49
-5.35 0.19 2.49
-5.35 0.08 2.49
-5.35 -0.03 2.49
-5.35 -0.14 2.49
-5.35 -0.25 2.49
-5.34 -0.36 2.49
-5.34 -0.47 2.49
-5.33 -0.57 2.49
-5.31 -0.68 2.49
-5.30 -0.79 2.49
-5.29 -0.90 2.49
-5.27 -1.00 2.49
-5.25 -1.11 2.49
-5.23 -1.22 2.49
-5.20 -1.32 2.49
-5.18 -1.43 2.49
-5.15 -1.54 2.49
-5.12 -1.64 2.49
-5.09 -1.75 2.49
-5.05 -1.85 2.49
-5.02 -1.95 2.49
-4.98 -2.05 2.49
-4.94 -2.16 2.49
-4.90 -2.26 2.49
-4.85 -2.36 2.49
-4.81 -2.46 2.49
-4.76 -2.56 2.49
-4.71 -2.65 2.49
-4.66 -2.75 2.49
-4.61 -2.85 2.49
-4.55 -2.94 2.49
-4.50 -3.04 2.49
-4.44 -3.13 2.49
-4.38 -3.22 2.49
-4.31 -3.31 2.49
-4.25 -3.40 2.49
-4.18 -3.49 2.49
-4.12 -3.58 2.49
-4.05 -3.66 2.49
-3.98 -3.75 2.49
-3.90 -3.83 2.49
-3.83 -3.91 2.49
-3.75 -3.99 2.49
-3.67 -4.07 2.49
-3.60 -4.15 2.49
-3.51 -4.23 2.49
-3.43 -4.30 2.49
-3.35 -4.38 2.49
-3.26 -4.45 2.49
-3.18 -4.52 2.49
-3.09 -4.59 2.49
-3.00 -4.65 2.49
-2.91 -4.72 2.49
-2.81 -4.78 2.49
-2.72 -4.84 2.49
-2.63 -4.90 2.49
-2.53 -4.96 2.49
-2.43 -5.02 2.49
-2.33 -5.07 2.49
-2.23 -5.12 2.49
-2.13 -5.17 2.49
-2.03 -5.22 2.49
-1.93 -5.27 2.49
-1.82 -5.31 2.49
-1.72 -5.36 2.49
-1.61 -5.40 2.49
-1.51 -5.44 2.49
-1.40 -5.47 2.49
-1.29 -5.51 2.49
-1.18 -5.54 2.49
-1.07 -5.57 2.49
-0.96 -5.60 2.49
-0.85 -5.62 2.49
-0.74 -5.65 2.49
-0.62 -5.67 2.49
-0.51 -5.69 2.49
-0.40 -5.70 2.49
-0.28 -5.72 2.49
-0.17 -5.73 2.49
-0.05 -5.74 2.49
0.06 -5.41 2.49
0.17 -5.42 2.49
0.28 -5.42 2.49
0.39 -5.42 2.49
0.50 -5.42 2.49
0.61 -5.41 2.49
0.72 -5.41 2.49
0.83 -5.40 2.49
0.94 -5.39 2.49
1.04 -5.38 2.49
1.15 -5.36 2.49
1.26 -5.34 2.49
1.37 -5.32 2.49
1.48 -5.30 2.49
1.59 -5.28 2.49
1.69 -5.25 2.49
1.80 -5.22 2.49
1.91 -5.19 2.49
2.01 -5.16 2.49
2.04 -4.93 2.40
2.13 -4.88 2.39
2.24 -4.87 2.40
2.33 -4.80 2.39
2.43 -4.76 2.39
2.52 -4.71 2.39
2.62 -4.67 2.39
2.72 -4.62 2.39
2.81 -4.57 2.39
2.90 -4.52 2.39
3.00 -4.46 2.39
3.09 -4.41 2.39
3.18 -4.35 2.39
3.27 -4.29 2.39
3.36 -4.23 2.39
3.44 -4.17 2.39
3.53 -4.10 2.39
3.61 -4.03 2.39
3.70 -3.96 2.39
3.78 -3.89 2.39
3.86 -3.82 2.39
3.94 -3.75 2.39
4.01 -3.67 2.39
4.09 -3.59 2.39
4.16 -3.51 2.39
4.24 -3.43 2.39
2.66 -2.07 1.47
2.67 -1.99 1.46
2.73 -1.95 1.47
4.51 -3.09 2.39
4.57 -3.01 2.39
4.64 -2.92 2.39
4.70 -2.83 2.39
4.75 -2.73 2.39
4.81 -2.64 2.39
4.86 -2.55 2.39
4.92 -2.45 2.39
4.97 -2.35 2.39
5.02 -2.26 2.39
5.06 -2.16 2.39
5.11 -2.06 2.39
5.15 -1.96 2.39
5.19 -1.85 2.39
5.22 -1.75 2.39
5.26 -1.65 2.39
5.29 -1.54 2.39
5.32 -1.44 2.39
5.35 -1.33 2.39
5.38 -1.23 2.39
5.40 -1.12 2.39
5.43 -1.01 2.39
5.45 -0.90 2.39
5.46 -0.80 2.39
5.48 -0.69 2.39
5.49 -0.58 2.39
5.50 -0.47 2.39
5.51 -0.36 2.39
5.52 -0.25 2.39
5.52 -0.14 2.39
5.52 -0.03 2.39
5.52 0.08 2.39
5.52 0.19 2.39
5.51 0.30 2.39
5.50 0.41 2.39
5.49 0.52 2.39
5.48 0.62 2.39
5.47 0.73 2.39
5.45 0.84 2.39
5.43 0.95 2.39
5.41 1.06 2.39
5.38 1.16 2.39
5.36 1.27 2.39
5.33 1.37 2.39
5.30 1.48 2.39
5.27 1.58 2.39
5.23 1.69 2.39
5.19 1.79 2.39
5.15 1.89 2.39
5.11 1.99 2.39
5.07 2.09 2.39
5.02 2.19 2.39
4.98 2.29 2.39
4.93 2.39 2.39
4.87 2.48 2.39
4.82 2.58 2.39
4.76 2.67 2.39
4.71 2.76 2.39
4.65 2.85 2.39
4.59 2.94 2.39
4.52 3.03 2.39
4.46 3.12 2.39
4.39 3.20 2.39
4.32 3.29 2.39
4.25 3.37 2.39
4.18 3.45 2.39
4.11 3.53 2.39
4.03 3.61 2.39
3.96 3.68 2.39
3.88 3.76 2.39
3.80 3.83 2.39
3.72 3.90 2.39
3.64 3.97 2.39
3.55 4.04 2.39
3.47 4.10 2.39
3.38 4.17 2.39
3.29 4.23 2.39
3.21 4.29 2.39
3.12 4.35 2.39
3.02 4.40 2.39
2.93 4.46 2.39
2.85 4.53 2.40
2.75 4.56 2.39
2.66 4.62 2.40
2.66 4.85 2.49
2.57 4.90 2.49
2.46 4.95 2.49
2.36 4.99 2.49
2.26 5.03 2.49
2.16 5.07 2.49
2.05 5.10 2.49
1.95 5.13 2.49
1.84 5.17 2.49
1.73 5.19 2.49
1.63 5.22 2.49
1.52 5.25 2.49
1.41 5.27 2.49
1.31 5.29 2.49
1.20 5.31 2.49
1.09 5.32 2.49
0.98 5.34 2.49
0.87 5.35 2.49
0.77 5.36 2.49
0.66 5.37 2.49
0.55 5.37 2.49
0.44 5.37 2.49
0.33 5.37 2.49
0.22 5.37 2.49
0.12 5.37 2.49
0.01 5.36 2.49
-0.10 5.36 2.49
-0.21 5.35 2.49
-0.31 5.33 2.49
-0.42 5.32 2.49
-0.53 5.30 2.49
-0.63 5.28 2.49
-0.74 5.26 2.49
-0.84 5.24 2.49
-0.95 5.22 2.49
-1.05 5.19 2.49
-1.15 5.16 2.49
-1.25 5.13 2.49
-1.36 5.10 2.49
-1.46 5.06 2.49
-1.56 5.03 2.49
-1.65 4.99 2.49
-1.75 4.95 2.49
-1.85 4.91 2.49
-1.95 4.86 2.49
-2.04 4.82 2.49
-2.14 4.77 2.49
-2.23 4.72 2.49
-2.32 4.67 2.49
-2.41 4.61 2.49
-2.50 4.56 2.49
-2.59 4.50 2.49
-2.68 4.45 2.49
-2.77 4.39 2.49
-2.85 4.32 2.49
-2.93 4.26 2.49
-3.02 4.20 2.49
-3.10 4.13 2.49
-3.18 4.06 2.49
-3.26 3.99 2.49
-3.33 3.92 2.49
-3.41 3.85 2.49
-3.48 3.78 2.49
-3.56 3.70 2.49
-3.63 3.63 2.49
-3.70 3.55 2.49
-3.76 3.47 2.49
-3.83 3.39 2.49
-3.90 3.31 2.49
-3.96 3.23 2.49
-4.02 3.15 2.49
-4.08 3.06 2.49
-4.14 2.98 2.49
-4.20 2.89 2.49
-4.25 2.80 2.49
-4.30 2.72 2.49
-4.36 2.63 2.49
-4.41 2.54 2.49
-4.45 2.44 2.49
-4.50 2.35 2.49
-4.55 2.26 2.49
-4.59 2.17 2.49
-4.63 2.07 2.49
-4.67 1.98 2.49
-4.71 1.88 2.49
-4.74 1.78 2.49
-4.77 1.69 2.49
-4.81 1.59 2.49
-4.84 1.49 2.49
-4.86 1.39 2.49
-4.89 1.29 2.49
-4.91 1.19 2.49
-4.94 1.09 2.49
-4.96 0.99 2.49
-4.97 0.89 2.49
-4.99 0.79 2.49
-5.01 0.69 2.49
-5.02 0.58 2.49
-5.03 0.48 2.49
-5.04 0.38 2.49
-5.04 0.28 2.49
-5.05 0.18 2.49
-5.05 0.07 2.49
-5.05 -0.03 2.49
-5.05 -0.13 2.49
-5.05 -0.23 2.49
-5.04 -0.34 2.49
-5.04 -0.44 2.49
-5.03 -0.54 2.49
-5.02 -0.64 2.49
-5.00 -0.75 2.49
-4.99 -0.85 2.49
-4.97 -0.95 2.49
-4.95 -1.05 2.49
-4.93 -1.15 2.49
-4.91 -1.25 2.49
-4.89 -1.35 2.49
-4.86 -1.45 2.49
-4.83 -1.55 2.49
-4.80 -1.65 2.49
-4.77 -1.75 2.49
-4.73 -1.84 2.49
-4.70 -1.94 2.49
-4.66 -2.04 2.49
-4.62 -2.13 2.49
-4.58 -2.23 2.49
-4.54 -2.32 2.49
-4.49 -2.41 2.49
-4.44 -2.51 2.49
-4.40 -2.60 2.49
-4.35 -2.69 2.49
-4.29 -2.78 2.49
-4.24 -2.87 2.49
-4.18 -2.95 2.49
-4.13 -3.04 2.49
-4.07 -3.13 2.49
-4.01 -3.21 2.49
-3.94 -3.29 2.49
-3.88 -3.38 2.49
-3.82 -3.46 2.49
-3.75 -3.54 2.49
-3.68 -3.62 2.49
-3.61 -3.69 2.49
-3.54 -3.77 2.49
-3.46 -3.84 2.49
-3.39 -3.92 2.49
-3.31 -3.99 2.49
-3.23 -4.06 2.49
-3.15 -4.13 2.49
-3.07 -4.19 2.49
-2.99 -4.26 2.49
-2.91 -4.32 2.49
-2.82 -4.39 2.49
-2.74 -4.45 2.49
-2.65 -4.51 2.49
-2.56 -4.57 2.49
-2.47 -4.62 2.49
-2.38 -4.68 2.49
-2.29 -4.73 2.49
-2.20 -4.78 2.49
-2.10 -4.83 2.49
-2.01 -4.88 2.49
-1.91 -4.92 2.49
-1.81 -4.97 2.49
-1.72 -5.01 2.49
-1.62 -5.05 2.49
-1.52 -5.09 2.49
-1.42 -5.12 2.49
-1.31 -5.16 2.49
-1.21 -5.19 2.49
-1.11 -5.22 2.49
-1.00 -5.25 2.49
-0.90 -5.27 2.49
-0.79 -5.30 2.49
-0.69 -5.32 2.49
-0.58 -5.34 2.49
-0.48 -5.36 2.49
-0.37 -5.37 2.49
-0.26 -5.38 2.49
-0.15 -5.40 2.49
-0.05 -5.40 2.49
0.06 -5.11 2.49
0.17 -5.11 2.49
0.27 -5.11 2.49
0.37 -5.11 2.49
0.47 -5.11 2.49
0.58 -5.11 2.49
0.68 -5.10 2.49
0.78 -5.09 2.49
0.89 -5.08 2.49
0.99 -5.07 2.49
1.09 -5.05 2.49
1.19 -5.04 2.49
1.30 -5.02 2.49
1.40 -5.00 2.49
1.50 -4.98 2.49
1.60 -4.95 2.49
1.70 -4.92 2.49
1.80 -4.89 2.49
1.90 -4.86 2.49
2.00 -4.83 2.49
2.05 -4.68 2.43
2.10 -4.56 2.39
2.20 -4.52 2.39
2.29 -4.48 2.39
2.38 -4.44 2.39
2.47 -4.40 2.39
2.56 -4.35 2.39
2.65 -4.31 2.39
2.74 -4.26 2.39
2.83 -4.20 2.39
2.91 -4.15 2.39
3.00 -4.10 2.39
3.08 -4.04 2.39
3.16 -3.98 2.39
3.25 -3.92 2.39
3.33 -3.86 2.39
3.41 -3.80 2.39
3.48 -3.73 2.39
3.56 -3.67 2.39
3.64 -3.60 2.39
3.71 -3.53 2.39
3.78 -3.46 2.39
3.85 -3.38 2.39
3.92 -3.31 2.39
3.99 -3.23 2.39
2.66 -2.06 1.56
2.67 -1.99 1.55
2.73 -1.95 1.56
4.25 -2.91 2.39
4.31 -2.83 2.39
4.37 -2.75 2.39
4.42 -2.66 2.39
4.48 -2.57 2.39
4.53 -2.48 2.39
4.58 -2.40 2.39
4.63 -2.31 2.39
4.68 -2.21 2.39
4.72 -2.12 2.39
4.77 -2.03 2.39
4.81 -1.93 2.39
4.85 -1.84 2.39
4.88 -1.74 2.39
4.92 -1.65 2.39
4.95 -1.55 2.39
4.98 -1.45 2.39
5.01 -1.35 2.39
5.04 -1.25 2.39
5.06 -1.15 2.39
5.09 -1.05 2.39
5.11 -0.95 2.39
5.13 -0.85 2.39
5.14 -0.75 2.39
5.16 -0.65 2.39
5.17 -0.54 2.39
5.18 -0.44 2.39
5.19 -0.34 2.39
5.19 -0.24 2.39
5.20 -0.13 2.39
5.20 -0.03 2.39
5.20 0.07 2.39
5.19 0.18 2.39
5.19 0.28 2.39
5.18 0.38 2.39
5.17 0.48 2.39
5.16 0.59 2.39
5.15 0.69 2.39
5.13 0.79 2.39
5.11 0.89 2.39
5.09 0.99 2.39
5.07 1.09 2.39
5.04 1.19 2.39
5.02 1.29 2.39
4.99 1.39 2.39
4.96 1.49 2.39
4.93 1.59 2.39
4.89 1.68 2.39
4.85 1.78 2.39
4.81 1.87 2.39
4.77 1.97 2.39
4.73 2.06 2.39
4.69 2.15 2.39
4.64 2.25 2.39
4.59 2.34 2.39
4.54 2.42 2.39
4.49 2.51 2.39
4.43 2.60 2.39
4.38 2.69 2.39
4.32 2.77 2.39
4.26 2.85 2.39
4.20 2.93 2.39
4.14 3.01 2.39
4.07 3.09 2.39
4.01 3.17 2.39
3.94 3.25 2.39
3.87 3.32 2.39
3.80 3.40 2.39
3.73 3.47 2.39
3.66 3.54 2.39
3.58 3.61 2.39
3.51 3.67 2.39
3.43 3.74 2.39
3.35 3.80 2.39
3.27 3.86 2.39
3.19 3.92 2.39
3.11 3.98 2.39
3.02 4.04 2.39
2.94 4.09 2.39
2.85 4.15 2.39
2.77 4.20 2.39
2.68 4.25 2.39
2.64 4.37 2.43
2.61 4.53 2.49
2.52 4.58 2.49
2.42 4.62 2.49
2.33 4.66 2.49
2.23 4.70 2.49
2.13 4.74 2.49
2.04 4.78 2.49
1.94 4.81 2.49
1.84 4.84 2.49
1.74 4.87 2.49
1.64 4.90 2.49
1.54 4.92 2.49
1.44 4.95 2.49
1.34 4.97 2.49
1.24 4.99 2.49
1.13 5.01 2.49
1.03 5.02 2.49
0.93 5.03 2.49
0.83 5.05 2.49
0.73 5.06 2.49
0.62 5.06 2.49
0.52 5.07 2.49
0.42 5.07 2.49
0.32 5.07 2.49
0.22 5.07 2.49
0.11 5.07 2.49
0.01 5.06 2.49
-0.09 5.05 2.49
-0.19 5.05 2.49
-0.29 5.03 2.49
-0.39 5.02 2.49
-0.49 5.01 2.49
-0.59 4.99 2.49
-0.69 4.97 2.49
-0.79 4.95 2.49
-0.89 4.93 2.49
-0.99 4.90 2.49
-1.08 4.87 2.49
-1.18 4.85 2.49
-1.28 4.81 2.49
-1.37 4.78 2.49
-1.47 4.75 2.49
-1.56 4.71 2.49
-1.65 4.67 2.49
-1.74 4.63 2.49
-1.84 4.59 2.49
-1.93 4.55 2.49
-2.02 4.51 2.49
-2.10 4.46 2.49
-2.19 4.41 2.49
-2.28 4.36 2.49
-2.36 4.31 2.49
-2.45 4.26 2.49
-2.53 4.20 2.49
-2.61 4.15 2.49
-2.69 4.09 2.49
-2.77 4.03 2.49
-2.85 3.97 2.49
-2.93 3.91 2.49
-3.00 3.84 2.49
-3.08 3.78 2.49
-3.15 3.71 2.49
-3.22 3.64 2.49
-3.29 3.57 2.49
-3.36 3.50 2.49
-3.43 3.43 2.49
-3.49 3.36 2.49
-3.56 3.28 2.49
-3.62 3.21 2.49
-3.68 3.13 2.49
-3.74 3.06 2.49
-3.80 2.98 2.49
-3.86 2.90 2.49
-3.91 2.82 2.49
-3.97 2.73 2.49
-4.02 2.65 2.49
-4.07 2.57 2.49
-4.12 2.48 2.49
-4.17 2.40 2.49
-4.21 2.31 2.49
-4.26 2.23 2.49
-4.30 2.14 2.49
-4.34 2.05 2.49
-4.38 1.96 2.49
-4.41 1.87 2.49
-4.45 1.78 2.49
-4.48 1.69 2.49
-4.51 1.60 2.49
-4.54 1.50 2.49
-4.57 1.41 2.49
-4.60 1.32 2.49
-4.62 1.22 2.49
-4.65 1.13 2.49
-4.67 1.03 2.49
-4.69 0.94 2.49
-4.70 0.84 2.49
-4.72 0.75 2.49
-4.73 0.65 2.49
-4.75 0.55 2.49
-4.76 0.46 2.49
-4.76 0.36 2.49
-4.77 0.26 2.49
-4.77 0.17 2.49
-4.78 0.07 2.49
-4.78 -0.03 2.49
-4.78 -0.13 2.49
-4.77 -0.22 2.49
-4.77 -0.32 2.49
-4.76 -0.42 2.49
-4.75 -0.51 2.49
-4.74 -0.61 2.49
-4.73 -0.71 2.49
-4.72 -0.80 2.49
-4.70 -0.90 2.49
-4.68 -0.99 2.49
-4.66 -1.09 2.49
-4.64 -1.18 2.49
-4.62 -1.28 2.49
-4.59 -1.37 2.49
-4.57 -1.47 2.49
-4.54 -1.56 2.49
-4.51 -1.65 2.49
-4.48 -1.74 2.49
-4.44 -1.84 2.49
-4.41 -1.93 2.49
-4.37 -2.02 2.49
-4.33 -2.11 2.49
-4.29 -2.20 2.49
-4.25 -2.28 2.49
-4.20 -2.37 2.49
-4.16 -2.46 2.49
-4.11 -2.54 2.49
-4.06 -2.63 2.49
-4.01 -2.71 2.49
-3.95 -2.79 2.49
-3.90 -2.88 2.49
-3.84 -2.96 2.49
-3.79 -3.04 2.49
-3.73 -3.12 2.49
-3.67 -3.19 2.49
-3.60 -3.27 2.49
-3.54 -3.34 2.49
-3.48 -3.42 2.49
-3.41 -3.49 2.49
-3.34 -3.56 2.49
-3.27 -3.63 2.49
-3.20 -3.70 2.49
-3.13 -3.77 2.49
-3.05 -3.84 2.49
-2.98 -3.90 2.49
-2.90 -3.96 2.49
-2.82 -4.03 2.49
-2.75 -4.09 2.49
-2.67 -4.15 2.49
-2.58 -4.20 2.49
-2.50 -4.26 2.49
-2.42 -4.31 2.49
-2.33 -4.37 2.49
-2.25 -4.42 2.49
-2.16 -4.47 2.49
-2.07 -4.52 2.49
-1.98 -4.56 2.49
-1.89 -4.61 2.49
-1.80 -4.65 2.49
-1.71 -4.69 2.49
-1.62 -4.73 2.49
-1.52 -4.77 2.49
-1.43 -4.80 2.49
-1.33 -4.84 2.49
-1.24 -4.87 2.49
-1.14 -4.90 2.49
-1.04 -4.93 2.49
-0.94 -4.95 2.49
-0.85 -4.98 2.49
-0.75 -5.00 2.49
-0.65 -5.02 2.49
-0.55 -5.04 2.49
-0.45 -5.05 2.49
-0.35 -5.07 2.49
-0.24 -5.08 2.49
-0.14 -5.09 2.49
-0.04 -5.10 2.49
0.06 -4.83 2.49
0.16 -4.83 2.49
0.26 -4.83 2.49
0.35 -4.83 2.49
0.45 -4.83 2.49
0.55 -4.83 2.49
0.65 -4.82 2.49
0.74 -4.81 2.49
0.84 -4.80 2.49
0.94 -4.79 2.49
1.03 -4.78 2.49
1.13 -4.76 2.49
1.23 -4.74 2.49
1.32 -4.72 2.49
1.42 -4.70 2.49
1.51 -4.68 2.49
1.61 -4.65 2.49
1.70 -4.62 2.49
1.80 -4.59 2.49
1.89 -4.56 2.49
1.98 -4.53 2.49
2.06 -4.45 2.47
2.08 -4.28 2.39
2.16 -4.23 2.39
2.25 -4.19 2.39
2.34 -4.15 2.39
2.42 -4.11 2.39
2.51 -4.06 2.39
2.59 -4.02 2.39
2.67 -3.97 2.39
2.75 -3.92 2.39
2.83 -3.87 2.39
2.91 -3.81 2.39
2.99 -3.76 2.39
3.07 -3.70 2.39
3.14 -3.64 2.39
3.22 -3.58 2.39
3.29 -3.52 2.39
3.36 -3.46 2.39
3.43 -3.39 2.39
3.50 -3.33 2.39
3.57 -3.26 2.39
3.64 -3.19 2.39
3.70 -3.12 2.39
3.77 -3.05 2.39
2.65 -2.06 1.66
2.67 -1.99 1.64
2.73 -1.95 1.65
4.01 -2.75 2.39
4.07 -2.67 2.39
4.12 -2.59 2.39
4.17 -2.51 2.39
4.23 -2.43 2.39
4.27 -2.34 2.39
4.32 -2.26 2.39
4.37 -2.17 2.39
4.41 -2.09 2.39
4.46 -2.00 2.39
4.50 -1.91 2.39
4.54 -1.82 2.39
4.57 -1.73 2.39
4.61 -1.64 2.39
4.64 -1.55 2.39
4.67 -1.46 2.39
4.70 -1.37 2.39
4.73 -1.28 2.39
4.75 -1.18 2.39
4.78 -1.09 2.39
4.80 -0.99 2.39
4.82 -0.90 2.39
4.84 -0.80 2.39
4.85 -0.71 2.39
4.87 -0.61 2.39
4.88 -0.51 2.39
4.89 -0.42 2.39
4.89 -0.32 2.39
4.90 -0.22 2.39
4.90 -0.13 2.39
4.90 -0.03 2.39
4.90 0.07 2.39
4.90 0.17 2.39
4.90 0.26 2.39
4.89 0.36 2.39
4.88 0.46 2.39
4.87 0.55 2.39
4.86 0.65 2.39
4.84 0.75 2.39
4.82 0.84 2.39
4.80 0.94 2.39
4.78 1.03 2.39
4.76 1.13 2.39
4.73 1.22 2.39
4.71 1.31 2.39
4.68 1.40 2.39
4.65 1.50 2.39
4.61 1.59 2.39
4.58 1.68 2.39
4.54 1.77 2.39
4.51 1.86 2.39
4.46 1.94 2.39
4.42 2.03 2.39
4.38 2.12 2.39
4.33 2.20 2.39
4.29 2.29 2.39
4.24 2.37 2.39
4.19 2.45 2.39
4.13 2.53 2.39
4.08 2.61 2.39
4.02 2.69 2.39
3.97 2.77 2.39
3.91 2.84 2.39
3.85 2.92 2.39
3.78 2.99 2.39
3.72 3.06 2.39
3.66 3.13 2.39
3.59 3.20 2.39
3.52 3.27 2.39
3.45 3.34 2.39
3.38 3.40 2.39
3.31 3.47 2.39
3.24 3.53 2.39
3.16 3.59 2.39
3.09 3.65 2.39
3.01 3.70 2.39
2.94 3.76 2.39
2.86 3.81 2.39
2.78 3.87 2.39
2.70 3.92 2.39
2.62 3.97 2.39
2.62 4.15 2.47
2.56 4.23 2.49
2.47 4.28 2.49
2.38 4.32 2.49
2.29 4.36 2.49
2.20 4.40 2.49
2.11 4.44 2.49
2.02 4.48 2.49
1.93 4.51 2.49
1.83 4.54 2.49
1.74 4.57 2.49
1.65 4.60 2.49
1.55 4.63 2.49
1.46 4.65 2.49
1.36 4.68 2.49
1.27 4.70 2.49
1.17 4.71 2.49
1.08 4.73 2.49
0.98 4.75 2.49
0.88 4.76 2.49
0.79 4.77 2.49
0.69 4.78 2.49
0.59 4.79 2.49
0.50 4.79 2.49
0.40 4.79 2.49
0.30 4.79 2.49
0.21 4.79 2.49
0.11 4.79 2.49
0.01 4.79 2.49
-0.08 4.78 2.49
-0.18 4.77 2.49
-0.27 4.76 2.49
-0.37 4.75 2.49
-0.46 4.74 2.49
-0.56 4.72 2.49
-0.65 4.70 2.49
-0.75 4.68 2.49
-0.84 4.66 2.49
-0.93 4.64 2.49
-1.02 4.61 2.49
-1.11 4.58 2.49
-1.21 4.56 2.49
-1.30 4.53 2.49
-1.38 4.49 2.49
-1.47 4.46 2.49
-1.56 4.42 2.49
-1.65 4.39 2.49
-1.73 4.35 2.49
-1.82 4.31 2.49
-1.90 4.27 2.49
-1.99 4.22 2.49
-2.07 4.18 2.49
-2.15 4.13 2.49
-2.23 4.08 2.49
-2.31 4.03 2.49
-2.39 3.98 2.49
-2.47 3.93 2.49
-2.55 3.87 2.49
-2.62 3.82 2.49
-2.69 3.76 2.49
-2.77 3.70 2.49
-2.84 3.64 2.49
-2.91 3.58 2.49
-2.98 3.51 2.49
-3.05 3.45 2.49
-3.11 3.39 2.49
-3.18 3.32 2.49
-3.24 3.25 2.49
-3.31 3.18 2.49
-3.37 3.11 2.49
-3.43 3.04 2.49
-3.49 2.97 2.49
-3.54 2.90 2.49
-3.60 2.82 2.49
-3.65 2.75 2.49
-3.70 2.67 2.49
-3.76 2.59 2.49
-3.81 2.51 2.49
-3.85 2.43 2.49
-3.90 2.35 2.49
-3.94 2.27 2.49
-3.99 2.19 2.49
-4.03 2.11 2.49
-4.07 2.03 2.49
-4.11 1.94 2.49
-4.15 1.86 2.49
-4.18 1.77 2.49
-4.21 1.69 2.49
-4.25 1.60 2.49
-4.28 1.51 2.49
-4.30 1.42 2.49
-4.33 1.34 2.49
-4.36 1.25 2.49
-4.38 1.16 2.49
-4.40 1.07 2.49
-4.42 0.98 2.49
-4.44 0.89 2.49
-4.46 0.80 2.49
-4.47 0.71 2.49
-4.48 0.62 2.49
-4.50 0.52 2.49
-4.50 0.43 2.49
-4.51 0.34 2.49
-4.52 0.25 2.49
-4.52 0.16 2.49
-4.53 0.07 2.49
-4.53 -0.03 2.49
-4.53 -0.12 2.49
-4.52 -0.21 2.49
-4.52 -0.30 2.49
-4.51 -0.40 2.49
-4.50 -0.49 2.49
-4.49 -0.58 2.49
-4.48 -0.67 2.49
-4.47 -0.76 2.49
-4.45 -0.85 2.49
-4.44 -0.94 2.49
-4.42 -1.03 2.49
-4.40 -1.12 2.49
-4.38 -1.21 2.49
-4.35 -1.30 2.49
-4.33 -1.39 2.49
-4.30 -1.48 2.49
-4.27 -1.57 2.49
-4.24 -1.65 2.49
-4.21 -1.74 2.49
-4.17 -1.83 2.49
-4.14 -1.91 2.49
-4.10 -2.00 2.49
-4.06 -2.08 2.49
-4.02 -2.16 2.49
-3.98 -2.25 2.49
-3.93 -2.33 2.49
-3.89 -2.41 2.49
-3.84 -2.49 2.49
-3.79 -2.57 2.49
-3.74 -2.65 2.49
-3.69 -2.73 2.49
-3.64 -2.80 2.49
-3.58 -2.88 2.49
-3.53 -2.95 2.49
-3.47 -3.02 2.49
-3.41 -3.10 2.49
-3.35 -3.17 2.49
-3.29 -3.24 2.49
-3.23 -3.31 2.49
-3.16 -3.38 2.49
-3.09 -3.44 2.49
-3.03 -3.51 2.49
-2.96 -3.57 2.49
-2.89 -3.63 2.49
-2.82 -3.69 2.49
-2.74 -3.75 2.49
-2.67 -3.81 2.49
-2.60 -3.87 2.49
-2.52 -3.93 2.49
-2.44 -3.98 2.49
-2.36 -4.03 2.49
-2.29 -4.08 2.49
-2.20 -4.13 2.49
-2.12 -4.18 2.49
-2.04 -4.23 2.49
-1.96 -4.27 2.49
-1.87 -4.32 2.49
-1.79 -4.36 2.49
-1.70 -4.40 2.49
-1.61 -4.44 2.49
-1.53 -4.48 2.49
-1.44 -4.51 2.49
-1.35 -4.54 2.49
-1.26 -4.58 2.49
-1.17 -4.61 2.49
-1.08 -4.63 2.49
-0.98 -4.66 2.49
-0.89 -4.68 2.49
-0.80 -4.71 2.49
-0.70 -4.73 2.49
-0.61 -4.75 2.49
-0.51 -4.76 2.49
-0.42 -4.78 2.49
-0.32 -4.79 2.49
-0.23 -4.80 2.49
-0.13 -4.81 2.49
-0.03 -4.82 2.49
0.06 -4.57 2.49
0.15 -4.58 2.49
0.25 -4.58 2.49
0.34 -4.58 2.49
0.43 -4.57 2.49
0.52 -4.57 2.49
0.61 -4.56 2.49
0.71 -4.56 2.49
0.80 -4.55 2.49
0.89 -4.53 2.49
0.98 -4.52 2.49
1.07 -4.51 2.49
1.16 -4.49 2.49
1.26 -4.47 2.49
1.35 -4.45 2.49
1.44 -4.43 2.49
1.53 -4.40 2.49
1.62 -4.37 2.49
1.70 -4.35 2.49
1.79 -4.32 2.49
1.88 -4.28 2.49
1.97 -4.25 2.49
2.05 -4.21 2.49
2.09 -4.07 2.43
2.13 -3.97 2.39
2.21 -3.93 2.39
2.31 -3.91 2.40
2.37 -3.84 2.39
2.45 -3.80 2.39
2.53 -3.75 2.39
2.61 -3.71 2.39
2.68 -3.66 2.39
2.76 -3.61 2.39
2.83 -3.55 2.39
2.90 -3.50 2.39
2.97 -3.44 2.39
3.05 -3.39 2.39
3.11 -3.33 2.39
3.18 -3.27 2.39
3.25 -3.21 2.39
3.32 -3.15 2.39
3.38 -3.08 2.39
3.44 -3.02 2.39
3.50 -2.95 2.39
3.57 -2.88 2.39
2.65 -2.06 1.75
2.67 -1.99 1.73
2.73 -1.95 1.75
3.79 -2.60 2.39
3.85 -2.52 2.39
3.90 -2.45 2.39
3.95 -2.37 2.39
4.00 -2.29 2.39
4.04 -2.21 2.39
4.09 -2.14 2.39
4.13 -2.05 2.39
4.17 -1.97 2.39
4.21 -1.89 2.39
4.25 -1.81 2.39
4.29 -1.72 2.39
4.32 -1.64 2.39
4.36 -1.55 2.39
4.39 -1.47 2.39
4.42 -1.38 2.39
4.45 -1.29 2.39
4.47 -1.21 2.39
4.50 -1.12 2.39
4.52 -1.03 2.39
4.54 -0.94 2.39
4.56 -0.85 2.39
4.57 -0.76 2.39
4.59 -0.67 2.39
4.60 -0.58 2.39
4.61 -0.49 2.39
4.62 -0.39 2.39
4.63 -0.30 2.39
4.63 -0.21 2.39
4.63 -0.12 2.39
4.64 -0.03 2.39
4.64 0.07 2.39
4.63 0.16 2.39
4.63 0.25 2.39
4.62 0.34 2.39
4.61 0.43 2.39
4.60 0.52 2.39
4.59 0.61 2.39
4.58 0.70 2.39
4.56 0.79 2.39
4.54 0.88 2.39
4.52 0.97 2.39
4.50 1.06 2.39
4.48 1.15 2.39
4.45 1.24 2.39
4.42 1.33 2.39
4.39 1.41 2.39
4.36 1.50 2.39
4.33 1.59 2.39
4.30 1.67 2.39
4.26 1.75 2.39
4.22 1.84 2.39
4.18 1.92 2.39
4.14 2.00 2.39
4.10 2.08 2.39
4.05 2.16 2.39
4.01 2.24 2.39
3.96 2.32 2.39
3.91 2.39 2.39
3.86 2.47 2.39
3.81 2.54 2.39
3.75 2.62 2.39
3.70 2.69 2.39
3.64 2.76 2.39
3.58 2.83 2.39
3.52 2.90 2.39
3.46 2.96 2.39
3.40 3.03 2.39
3.33 3.09 2.39
3.27 3.16 2.39
3.20 3.22 2.39
3.13 3.28 2.39
3.07 3.34 2.39
3.00 3.39 2.39
2.93 3.45 2.39
2.85 3.50 2.39
2.79 3.57 2.40
2.71 3.61 2.39
2.63 3.66 2.39
2.60 3.76 2.43
2.58 3.91 2.49
2.50 3.96 2.49
2.42 4.00 2.49
2.34 4.05 2.49
2.26 4.09 2.49
2.17 4.13 2.49
2.09 4.17 2.49
2.00 4.20 2.49
1.91 4.24 2.49
1.83 4.27 2.49
1.74 4.30 2.49
1.65 4.33 2.49
1.56 4.36 2.49
1.47 4.38 2.49
1.38 4.40 2.49
1.29 4.43 2.49
1.20 4.45 2.49
1.11 4.46 2.49
1.02 4.48 2.49
0.93 4.49 2.49
0.84 4.51 2.49
0.75 4.52 2.49
0.66 4.53 2.49
0.57 4.53 2.49
0.47 4.54 2.49
0.38 4.54 2.49
0.29 4.54 2.49
0.20 4.54 2.49
0.11 4.54 2.49
0.02 4.53 2.49
-0.07 4.53 2.49
-0.17 4.52 2.49
-0.26 4.51 2.49
-0.35 4.50 2.49
-0.44 4.49 2.49
-0.53 4.47 2.49
-0.61 4.46 2.49
-0.70 4.44 2.49
-0.79 4.42 2.49
-0.88 4.39 2.49
-0.97 4.37 2.49
-1.05 4.35 2.49
-1.14 4.32 2.49
-1.22 4.29 2.49
-1.31 4.26 2.49
-1.39 4.23 2.49
-1.48 4.19 2.49
-1.56 4.16 2.49
-1.64 4.12 2.49
-1.72 4.08 2.49
-1.80 4.04 2.49
-1.88 4.00 2.49
-1.96 3.96 2.49
-2.04 3.92 2.49
-2.12 3.87 2.49
-2.19 3.82 2.49
-2.27 3.77 2.49
-2.34 3.72 2.49
-2.41 3.67 2.49
-2.48 3.62 2.49
-2.55 3.56 2.49
-2.62 3.51 2.49
-2.69 3.45 2.49
-2.76 3.39 2.49
-2.82 3.33 2.49
-2.89 3.27 2.49
-2.95 3.21 2.49
-3.01 3.15 2.49
-3.07 3.09 2.49
-3.13 3.02 2.49
-3.19 2.95 2.49
-3.25 2.89 2.49
-3.31 2.82 2.49
-3.36 2.75 2.49
-3.41 2.68 2.49
-3.46 2.61 2.49
-3.51 2.53 2.49
-3.56 2.46 2.49
-3.61 2.39 2.49
-3.65 2.31 2.49
-3.70 2.23 2.49
-3.74 2.16 2.49
-3.78 2.08 2.49
-3.82 2.00 2.49
-3.86 1.92 2.49
-3.90 1.84 2.49
-3.93 1.76 2.49
-3.97 1.68 2.49
-4.00 1.60 2.49
-4.03 1.52 2.49
-4.06 1.44 2.49
-4.08 1.35 2.49
-4.11 1.27 2.49
-4.13 1.18 2.49
-4.16 1.10 2.49
-4.18 1.01 2.49
-4.20 0.93 2.49
-4.21 0.84 2.49
-4.23 0.76 2.49
-4.24 0.67 2.49
-4.25 0.58 2.49
-4.27 0.50 2.49
-4.27 0.41 2.49
-4.28 0.32 2.49
-4.29 0.24 2.49
-4.29 0.15 2.49
-4.29 0.06 2.49
-4.29 -0.03 2.49
-4.29 -0.11 2.49
-4.29 -0.20 2.49
-4.29 -0.29 2.49
-4.28 -0.38 2.49
-4.27 -0.46 2.49
-4.26 -0.55 2.49
-4.25 -0.64 2.49
-4.24 -0.72 2.49
-4.22 -0.81 2.49
-4.21 -0.90 2.49
-4.19 -0.98 2.49
-4.17 -1.07 2.49
-4.15 -1.15 2.49
-4.13 -1.24 2.49
-4.10 -1.32 2.49
-4.08 -1.40 2.49
-4.05 -1.49 2.49
-4.02 -1.57 2.49
-3.99 -1.65 2.49
-3.96 -1.73 2.49
-3.92 -1.82 2.49
-3.89 -1.90 2.49
-3.85 -1.98 2.49
-3.81 -2.05 2.49
-3.77 -2.13 2.49
-3.73 -2.21 2.49
-3.69 -2.29 2.49
-3.64 -2.36 2.49
-3.60 -2.44 2.49
-3.55 -2.51 2.49
-3.50 -2.59 2.49
-3.45 -2.66 2.49
-3.40 -2.73 2.49
-3.34 -2.80 2.49
-3.29 -2.87 2.49
-3.23 -2.94 2.49
-3.18 -3.01 2.49
-3.12 -3.07 2.49
-3.06 -3.14 2.49
-3.00 -3.20 2.49
-2.93 -3.27 2.49
-2.87 -3.33 2.49
-2.80 -3.39 2.49
-2.74 -3.45 2.49
-2.67 -3.50 2.49
-2.60 -3.56 2.49
-2.53 -3.62 2.49
-2.46 -3.67 2.49
-2.39 -3.72 2.49
-2.31 -3.78 2.49
-2.24 -3.83 2.49
-2.16 -3.87 2.49
-2.09 -3.92 2.49
-2.01 -3.97 2.49
-1.93 -4.01 2.49
-1.85 -4.05 2.49
-1.77 -4.09 2.49
-1.69 -4.13 2.49
-1.61 -4.17 2.49
-1.53 -4.21 2.49
-1.44 -4.24 2.49
-1.36 -4.28 2.49
-1.27 -4.31 2.49
-1.19 -4.34 2.49
-1.10 -4.37 2.49
-1.02 -4.39 2.49
-0.93 -4.42 2.49
-0.84 -4.44 2.49
-0.75 -4.46 2.49
-0.66 -4.48 2.49
-0.57 -4.50 2.49
-0.48 -4.51 2.49
-0.39 -4.53 2.49
-0.30 -4.54 2.49
-0.21 -4.55 2.49
-0.12 -4.56 2.49
-0.03 -4.57 2.49
0.06 -4.34 2.49
0.15 -4.34 2.49
0.24 -4.34 2.49
0.32 -4.34 2.49
0.41 -4.34 2.49
0.50 -4.33 2.49
0.59 -4.33 2.49
0.67 -4.32 2.49
0.76 -4.31 2.49
0.85 -4.30 2.49
0.93 -4.29 2.49
1.02 -4.27 2.49
1.11 -4.26 2.49
1.19 -4.24 2.49
1.28 -4.22 2.49
1.36 -4.20 2.49
1.45 -4.17 2.49
1.53 -4.15 2.49
1.62 -4.12 2.49
1.70 -4.09 2.49
1.79 -4.06 2.49
1.87 -4.03 2.49
1.95 -3.99 2.49
2.03 -3.96 2.49
2.10 -3.89 2.47
2.11 -3.74 2.41
2.18 -3.68 2.39
2.25 -3.64 2.39
2.33 -3.60 2.39
2.40 -3.56 2.39
2.47 -3.51 2.39
2.54 -3.46 2.39
2.61 -3.42 2.39
2.68 -3.37 2.39
2.75 -3.32 2.39
2.82 -3.26 2.39
2.89 -3.21 2.39
2.95 -3.15 2.39
3.02 -3.10 2.39
3.08 -3.04 2.39
3.14 -2.98 2.39
3.20 -2.92 2.39
3.26 -2.86 2.39
3.32 -2.79 2.39
3.38 -2.73 2.39
2.65 -2.05 1.84
2.67 -1.99 1.83
2.73 -1.95 1.84
3.59 -2.46 2.39
3.64 -2.39 2.39
3.69 -2.32 2.39
3.74 -2.24 2.39
3.79 -2.17 2.39
3.83 -2.10 2.39
3.87 -2.02 2.39
3.91 -1.94 2.39
3.95 -1.87 2.39
3.99 -1.79 2.39
4.03 -1.71 2.39
4.06 -1.63 2.39
4.10 -1.55 2.39
4.13 -1.47 2.39
4.16 -1.39 2.39
4.18 -1.31 2.39
4.21 -1.22 2.39
4.23 -1.14 2.39
4.26 -1.06 2.39
4.28 -0.97 2.39
4.30 -0.89 2.39
4.31 -0.80 2.39
4.33 -0.72 2.39
4.34 -0.63 2.39
4.36 -0.55 2.39
4.37 -0.46 2.39
4.37 -0.37 2.39
4.38 -0.29 2.39
4.39 -0.20 2.39
4.39 -0.11 2.39
4.39 -0.03 2.39
4.39 0.06 2.39
4.39 0.15 2.39
4.38 0.23 2.39
4.38 0.32 2.39
4.37 0.41 2.39
4.36 0.49 2.39
4.35 0.58 2.39
4.33 0.67 2.39
4.32 0.75 2.39
4.30 0.84 2.39
4.28 0.92 2.39
4.26 1.01 2.39
4.24 1.09 2.39
4.22 1.17 2.39
4.19 1.26 2.39
4.16 1.34 2.39
4.13 1.42 2.39
4.10 1.50 2.39
4.07 1.58 2.39
4.04 1.66 2.39
4.00 1.74 2.39
3.96 1.82 2.39
3.92 1.89 2.39
3.88 1.97 2.39
3.84 2.05 2.39
3.80 2.12 2.39
3.75 2.19 2.39
3.70 2.27 2.39
3.66 2.34 2.39
3.61 2.41 2.39
3.56 2.48 2.39
3.50 2.55 2.39
3.45 2.61 2.39
3.39 2.68 2.39
3.34 2.74 2.39
3.28 2.81 2.39
3.22 2.87 2.39
3.16 2.93 2.39
3.10 2.99 2.39
3.04 3.05 2.39
2.97 3.10 2.39
2.91 3.16 2.39
2.84 3.21 2.39
2.77 3.27 2.39
2.71 3.32 2.39
2.64 3.37 2.39
2.58 3.44 2.40
2.58 3.58 2.47
2.53 3.66 2.49
2.45 3.71 2.49
