ply
format ascii 1.0
element vertex 2944
property float32 x
property float32 y
property float32 z
end_header
-10.52 -13.52 2.39
-10.26 -13.75 2.39
-10.00 -13.97 2.39
-9.73 -14.19 2.39
-9.45 -14.40 2.39
-9.17 -14.60 2.39
-6.56 -10.92 1.76
-6.54 -11.41 1.82
-6.59 -12.04 1.90
-6.58 -12.63 1.97
-7.71 -15.54 2.39
-7.41 -15.72 2.39
-7.10 -15.88 2.39
-6.79 -16.04 2.39
-6.61 -16.55 2.44
-6.42 -17.04 2.49
-6.08 -17.18 2.49
-5.74 -17.32 2.49
-5.40 -17.45 2.49
-5.05 -17.58 2.49
-4.71 -17.70 2.49
-4.36 -17.81 2.49
-4.00 -17.91 2.49
-3.65 -18.00 2.49
-3.29 -18.09 2.49
-2.93 -18.17 2.49
-2.56 -18.25 2.49
-2.20 -18.31 2.49
-1.83 -18.37 2.49
-1.47 -18.42 2.49
-1.10 -18.46 2.49
-0.73 -18.50 2.49
-0.36 -18.53 2.49
0.01 -15.84 2.49
0.33 -15.85 2.49
0.65 -15.85 2.49
0.97 -15.84 2.49
1.29 -15.83 2.49
1.54 -15.16 2.39
1.84 -15.13 2.39
1.77 -12.45 1.97
2.45 -15.07 2.39
2.76 -15.02 2.39
3.06 -14.97 2.39
3.36 -14.92 2.39
3.66 -14.85 2.39
3.96 -14.78 2.39
4.26 -14.71 2.39
4.55 -14.63 2.39
4.85 -14.54 2.39
5.14 -14.45 2.39
5.33 -14.09 2.35
5.35 -13.33 2.24
5.37 -12.64 2.14
5.40 -12.03 2.05
5.44 -11.50 1.98
5.60 -11.25 1.96
5.83 -11.14 1.96
6.01 -10.94 1.94
6.25 -10.86 1.95
6.55 -10.87 1.97
6.89 -10.94 2.01
7.05 -10.70 1.99
7.00 -10.18 1.92
7.03 -9.80 1.87
7.11 -9.50 1.84
7.39 -9.47 1.87
7.80 -9.59 1.92
8.34 -9.85 2.01
8.69 -9.86 2.04
8.92 -9.72 2.05
9.24 -9.67 2.08
9.84 -9.90 2.17
10.26 -9.91 2.22
10.47 -9.71 2.22
10.52 -9.38 2.19
10.84 -9.28 2.22
11.87 -9.75 2.39
12.06 -9.51 2.39
12.25 -9.27 2.39
12.43 -9.02 2.39
12.60 -8.76 2.39
12.77 -8.50 2.39
12.93 -8.24 2.39
13.09 -7.98 2.39
13.24 -7.71 2.39
13.39 -7.44 2.39
13.53 -7.17 2.39
13.66 -6.89 2.39
13.79 -6.61 2.39
13.91 -6.33 2.39
14.03 -6.05 2.39
14.75 -6.01 2.49
14.86 -5.71 2.49
14.96 -5.41 2.49
15.06 -5.11 2.49
15.15 -4.80 2.49
15.23 -4.49 2.49
15.31 -4.18 2.49
15.38 -3.87 2.49
15.44 -3.56 2.49
15.50 -3.25 2.49
15.55 -2.94 2.49
15.59 -2.62 2.49
15.63 -2.31 2.49
15.66 -1.99 2.49
15.68 -1.67 2.49
15.70 -1.36 2.49
15.71 -1.04 2.49
15.71 -0.73 2.49
15.71 -0.41 2.49
15.70 -0.10 2.49
15.69 0.22 2.49
15.67 0.53 2.49
15.64 0.85 2.49
15.60 1.16 2.49
15.56 1.47 2.49
15.51 1.78 2.49
14.92 2.02 2.41
14.76 2.30 2.39
14.70 2.59 2.39
14.63 2.88 2.39
14.55 3.17 2.39
14.47 3.46 2.39
14.38 3.74 2.39
14.29 4.03 2.39
14.19 4.31 2.39
8.44 2.75 1.43
13.98 4.86 2.39
13.86 5.14 2.39
13.74 5.41 2.39
13.61 5.68 2.39
13.48 5.94 2.39
13.67 6.36 2.45
13.39 6.55 2.42
13.14 6.77 2.41
12.99 7.02 2.41
12.83 7.27 2.41
12.67 7.52 2.41
12.50 7.76 2.41
12.33 8.00 2.41
12.15 8.24 2.41
11.97 8.47 2.41
11.79 8.70 2.41
11.52 8.86 2.39
11.23 9.01 2.37
10.94 9.15 2.35
10.62 9.25 2.33
10.33 9.36 2.30
10.05 9.48 2.29
9.76 9.59 2.27
9.48 9.69 2.25
9.35 9.95 2.27
9.23 10.22 2.29
9.10 10.50 2.31
8.97 10.78 2.34
8.84 11.07 2.36
8.70 11.35 2.39
8.53 11.61 2.41
8.29 11.77 2.41
8.04 11.92 2.41
7.79 12.06 2.41
7.54 12.20 2.41
7.29 12.34 2.41
7.03 12.47 2.41
6.77 12.60 2.41
6.51 12.72 2.41
6.25 12.83 2.41
5.94 12.86 2.39
5.68 12.96 2.39
5.41 13.06 2.39
5.14 13.15 2.39
4.87 13.24 2.39
4.60 13.32 2.39
4.33 13.40 2.39
4.05 13.47 2.39
3.78 13.54 2.39
3.50 13.60 2.39
2.62 11.09 1.94
2.95 13.71 2.39
2.67 13.75 2.39
2.39 13.79 2.39
2.11 13.83 2.39
1.91 14.45 2.49
1.62 14.48 2.49
1.33 14.49 2.49
1.04 14.51 2.49
0.74 14.51 2.49
0.45 14.52 2.49
0.16 14.51 2.49
-0.13 14.50 2.49
-0.42 14.49 2.49
-0.71 14.47 2.49
-1.00 14.44 2.49
-1.29 14.41 2.49
-1.58 14.37 2.49
-1.87 14.33 2.49
-2.16 14.28 2.49
-2.44 14.23 2.49
-2.72 14.17 2.49
-3.01 14.10 2.49
-3.29 14.03 2.49
-3.57 13.96 2.49
-3.85 13.88 2.49
-4.12 13.79 2.49
-4.40 13.70 2.49
-4.67 13.60 2.49
-4.94 13.50 2.49
-5.21 13.39 2.49
-5.48 13.28 2.49
-5.74 13.17 2.49
-5.99 13.02 2.49
-6.01 12.41 2.40
-6.25 12.26 2.39
-6.49 12.13 2.39
-6.73 11.99 2.39
-6.97 11.85 2.39
-7.21 11.71 2.39
-7.44 11.56 2.39
-7.67 11.41 2.39
-7.90 11.25 2.39
-8.12 11.09 2.39
-8.34 10.92 2.39
-8.56 10.75 2.39
-8.78 10.58 2.39
-8.99 10.40 2.39
-9.19 10.22 2.39
-9.40 10.03 2.39
-9.60 9.84 2.39
-9.80 9.65 2.39
-9.99 9.45 2.39
-9.85 7.92 2.20
-9.86 7.60 2.16
-9.88 7.31 2.14
-9.93 7.04 2.11
-9.93 6.75 2.08
-9.88 6.42 2.05
-9.94 6.19 2.03
-9.95 5.92 2.01
-9.96 5.65 1.98
-9.96 5.39 1.96
-9.97 5.14 1.94
-9.97 4.89 1.92
-9.98 4.65 1.90
-9.98 4.41 1.89
-9.99 4.17 1.87
-9.99 3.94 1.86
-10.00 3.71 1.84
-10.00 3.49 1.83
-10.01 3.26 1.82
-7.68 2.33 1.38
-7.67 2.17 1.37
-7.75 2.02 1.38
-7.96 1.91 1.41
-10.03 2.19 1.77
-10.03 1.98 1.76
-10.04 1.77 1.75
-10.04 1.56 1.74
-10.05 1.36 1.74
-10.05 1.15 1.73
-10.05 0.95 1.73
-10.06 0.75 1.73
-10.06 0.54 1.72
-10.07 0.34 1.72
-10.07 0.14 1.72
-10.08 -0.06 1.72
-10.08 -0.27 1.72
-10.08 -0.47 1.72
-10.09 -0.67 1.72
-10.09 -0.88 1.72
-10.10 -1.08 1.72
-10.10 -1.29 1.73
-10.11 -1.49 1.73
-10.09 -1.70 1.73
-10.12 -1.91 1.74
-10.12 -2.13 1.75
-10.12 -2.34 1.75
-10.13 -2.56 1.76
-10.13 -2.78 1.77
-10.14 -3.00 1.78
-10.14 -3.22 1.79
-10.15 -3.45 1.80
-10.15 -3.68 1.81
-10.16 -3.91 1.82
-10.16 -4.15 1.84
-10.17 -4.39 1.85
-10.17 -4.64 1.87
-10.18 -4.89 1.88
-10.18 -5.15 1.90
-10.19 -5.41 1.92
-10.13 -5.64 1.93
-10.20 -5.96 1.96
-10.21 -6.24 1.98
-10.21 -6.53 2.01
-10.22 -6.82 2.03
-10.22 -7.13 2.06
-10.23 -7.44 2.09
-10.23 -7.76 2.12
-10.19 -8.06 2.14
-10.19 -8.40 2.17
-10.23 -8.78 2.22
-10.25 -9.53 2.30
-10.48 -10.15 2.39
-10.29 -10.37 2.39
-10.09 -10.59 2.39
-9.89 -10.80 2.39
-9.68 -11.01 2.39
-9.47 -11.21 2.39
-9.25 -11.41 2.39
-9.03 -11.61 2.39
-6.51 -8.72 1.77
-6.49 -9.08 1.81
-6.52 -9.51 1.87
-6.54 -9.97 1.93
-6.53 -10.40 1.99
-6.54 -10.90 2.05
-7.37 -12.86 2.39
-7.12 -13.02 2.39
-6.86 -13.17 2.39
-6.61 -13.32 2.39
-6.56 -13.93 2.47
-6.34 -14.19 2.49
-6.06 -14.33 2.49
-5.78 -14.46 2.49
-5.49 -14.59 2.49
-5.20 -14.71 2.49
-4.91 -14.83 2.49
-4.62 -14.94 2.49
-4.32 -15.04 2.49
-4.02 -15.14 2.49
-3.72 -15.23 2.49
-3.42 -15.32 2.49
-3.11 -15.40 2.49
-2.81 -15.47 2.49
-2.50 -15.54 2.49
-2.19 -15.60 2.49
-1.88 -15.65 2.49
-1.56 -15.70 2.49
-1.25 -15.74 2.49
-0.94 -15.77 2.49
-0.62 -15.80 2.49
-0.30 -15.82 2.49
0.01 -13.81 2.49
0.29 -13.81 2.49
0.57 -13.81 2.49
0.85 -13.81 2.49
1.12 -13.80 2.49
1.40 -13.78 2.49
1.61 -13.19 2.39
1.77 -12.45 2.26
2.14 -13.13 2.39
2.40 -13.09 2.39
2.66 -13.04 2.39
2.93 -12.99 2.39
3.19 -12.94 2.39
3.45 -12.88 2.39
3.71 -12.81 2.39
3.96 -12.74 2.39
4.22 -12.66 2.39
4.48 -12.58 2.39
4.73 -12.49 2.39
4.98 -12.40 2.39
5.23 -12.30 2.39
3.54 -7.88 1.55
4.06 -8.58 1.70
4.28 -8.59 1.72
4.47 -8.54 1.72
4.62 -8.42 1.72
4.76 -8.26 1.70
4.83 -8.02 1.67
4.61 -7.32 1.55
6.64 -10.08 2.16
6.86 -9.98 2.16
7.03 -9.80 2.15
7.11 -9.50 2.12
7.34 -9.41 2.13
7.66 -9.42 2.17
8.34 -9.85 2.30
8.69 -9.86 2.35
8.95 -9.75 2.37
9.22 -9.64 2.38
9.44 -9.49 2.39
9.63 -9.30 2.39
9.81 -9.10 2.39
9.99 -8.90 2.39
10.16 -8.70 2.39
10.33 -8.49 2.39
10.50 -8.28 2.39
10.66 -8.07 2.39
10.82 -7.85 2.39
10.97 -7.63 2.39
11.12 -7.41 2.39
11.26 -7.18 2.39
11.40 -6.95 2.39
11.53 -6.72 2.39
11.66 -6.48 2.39
11.78 -6.24 2.39
11.90 -6.00 2.39
12.48 -5.99 2.48
12.64 -5.76 2.49
12.75 -5.50 2.49
12.85 -5.24 2.49
12.95 -4.98 2.49
13.04 -4.72 2.49
13.12 -4.45 2.49
13.20 -4.19 2.49
13.27 -3.92 2.49
13.34 -3.65 2.49
13.40 -3.38 2.49
13.46 -3.11 2.49
13.51 -2.83 2.49
13.56 -2.56 2.49
13.60 -2.29 2.49
13.63 -2.01 2.49
13.66 -1.74 2.49
13.68 -1.46 2.49
13.70 -1.19 2.49
13.71 -0.91 2.49
13.71 -0.64 2.49
13.71 -0.36 2.49
13.70 -0.09 2.49
13.69 0.19 2.49
13.67 0.46 2.49
13.65 0.74 2.49
13.62 1.01 2.49
13.59 1.28 2.49
13.55 1.55 2.49
13.50 1.82 2.49
13.17 2.05 2.44
12.84 2.26 2.39
12.78 2.51 2.39
12.72 2.77 2.39
12.65 3.02 2.39
12.57 3.27 2.39
12.49 3.52 2.39
12.41 3.76 2.39
8.44 2.75 1.64
12.13 4.22 2.37
12.04 4.46 2.37
11.93 4.69 2.37
11.91 4.96 2.39
11.80 5.20 2.39
11.68 5.43 2.39
11.56 5.65 2.39
11.43 5.88 2.39
11.30 6.10 2.39
11.64 6.59 2.49
11.26 6.68 2.44
10.95 6.80 2.41
10.80 7.01 2.41
10.65 7.22 2.41
10.49 7.42 2.41
10.33 7.62 2.41
10.16 7.82 2.41
10.00 8.01 2.41
9.82 8.20 2.41
9.65 8.39 2.41
9.47 8.58 2.41
9.28 8.75 2.41
9.05 8.88 2.39
8.79 8.99 2.38
8.64 9.20 2.39
8.52 9.43 2.41
8.32 9.59 2.41
8.12 9.75 2.41
7.91 9.90 2.41
7.70 10.05 2.41
7.49 10.19 2.41
7.28 10.33 2.41
7.06 10.46 2.41
6.85 10.59 2.41
6.63 10.72 2.41
6.40 10.84 2.41
6.18 10.96 2.41
5.91 10.99 2.39
5.68 11.10 2.39
5.46 11.20 2.39
5.22 11.30 2.39
4.99 11.39 2.39
4.76 11.48 2.39
4.52 11.56 2.39
4.29 11.64 2.39
4.05 11.72 2.39
3.81 11.79 2.39
3.57 11.85 2.39
3.33 11.91 2.39
3.08 11.97 2.39
2.62 11.09 2.21
2.60 12.06 2.39
2.35 12.10 2.39
2.11 12.14 2.39
1.94 12.69 2.49
1.69 12.72 2.49
1.43 12.74 2.49
1.17 12.76 2.49
0.91 12.77 2.49
0.66 12.78 2.49
0.40 12.78 2.49
0.14 12.78 2.49
-0.11 12.77 2.49
-0.37 12.76 2.49
-0.63 12.74 2.49
-0.88 12.72 2.49
-1.14 12.69 2.49
-1.39 12.66 2.49
-1.65 12.63 2.49
-1.90 12.58 2.49
-2.15 12.54 2.49
-2.40 12.49 2.49
-2.65 12.43 2.49
-2.90 12.37 2.49
-3.14 12.30 2.49
-3.39 12.23 2.49
-3.63 12.16 2.49
-3.88 12.08 2.49
-4.12 11.99 2.49
-4.36 11.90 2.49
-4.59 11.81 2.49
-4.83 11.71 2.49
-5.06 11.61 2.49
-5.29 11.50 2.49
-5.52 11.39 2.49
-5.75 11.28 2.49
-5.97 11.16 2.49
-6.04 10.76 2.43
-6.15 10.45 2.39
-6.36 10.33 2.39
-6.56 10.19 2.39
-6.77 10.06 2.39
-6.97 9.92 2.39
-7.16 9.78 2.39
-7.36 9.63 2.39
-7.55 9.48 2.39
-7.74 9.33 2.39
-7.93 9.17 2.39
-8.11 9.01 2.39
-8.29 8.85 2.39
-8.47 8.68 2.39
-8.64 8.51 2.39
-8.81 8.33 2.39
-8.98 8.15 2.39
-9.14 7.97 2.39
-9.30 7.79 2.39
-9.46 7.60 2.39
-9.61 7.41 2.39
-9.76 7.22 2.39
-9.91 7.02 2.39
-10.05 6.82 2.39
-9.88 6.42 2.32
-9.94 5.38 2.22
-9.91 5.11 2.19
-9.91 4.86 2.17
-9.92 4.62 2.15
-9.95 4.39 2.13
-9.97 4.17 2.12
-9.99 3.94 2.11
-10.00 3.71 2.09
-10.00 3.49 2.07
-10.01 3.26 2.06
-7.67 2.33 1.57
-7.67 2.17 1.56
-7.75 2.02 1.57
-7.97 1.91 1.60
-10.03 2.19 2.00
-10.03 1.98 2.00
-10.04 1.77 1.99
-10.04 1.56 1.98
-10.05 1.36 1.97
-10.05 1.15 1.97
-10.05 0.95 1.96
-10.06 0.75 1.96
-10.06 0.54 1.96
-10.07 0.34 1.96
-10.07 0.14 1.95
-10.08 -0.06 1.95
-10.08 -0.27 1.95
-10.08 -0.47 1.95
-10.09 -0.67 1.95
-10.09 -0.88 1.96
-10.10 -1.08 1.96
-10.10 -1.29 1.96
-10.11 -1.50 1.97
-10.10 -1.70 1.97
-10.12 -1.92 1.98
-10.12 -2.13 1.99
-10.12 -2.34 2.00
-10.13 -2.56 2.00
-10.13 -2.78 2.01
-10.14 -3.00 2.02
-10.14 -3.22 2.04
-10.15 -3.45 2.05
-10.15 -3.68 2.06
-10.16 -3.92 2.08
-10.16 -4.15 2.09
-10.17 -4.40 2.11
-10.15 -4.63 2.12
-10.13 -4.87 2.14
-10.13 -5.12 2.16
-10.13 -5.38 2.18
-10.13 -5.65 2.20
-10.40 -7.25 2.39
-10.26 -7.47 2.39
-10.12 -7.68 2.39
-9.98 -7.89 2.39
-9.83 -8.10 2.39
-9.67 -8.30 2.39
-9.51 -8.50 2.39
-9.35 -8.70 2.39
-9.18 -8.89 2.39
-9.01 -9.09 2.39
-8.83 -9.27 2.39
-6.46 -7.06 1.78
-6.46 -7.35 1.82
-6.48 -7.68 1.87
-6.50 -8.03 1.92
-6.49 -8.35 1.97
-6.49 -8.70 2.01
-7.50 -10.49 2.39
-7.30 -10.65 2.39
-7.09 -10.80 2.39
-6.88 -10.96 2.39
-6.66 -11.10 2.39
-6.51 -11.36 2.42
-6.49 -11.87 2.49
-6.26 -12.01 2.49
-6.02 -12.15 2.49
-5.78 -12.28 2.49
-5.54 -12.40 2.49
-5.29 -12.52 2.49
-5.05 -12.63 2.49
-4.80 -12.74 2.49
-4.54 -12.85 2.49
-4.29 -12.95 2.49
-4.03 -13.04 2.49
-3.77 -13.13 2.49
-3.51 -13.22 2.49
-3.25 -13.30 2.49
-2.98 -13.37 2.49
-2.72 -13.44 2.49
-2.45 -13.50 2.49
-2.18 -13.56 2.49
-1.91 -13.61 2.49
-1.64 -13.65 2.49
-1.36 -13.69 2.49
-1.09 -13.73 2.49
-0.81 -13.76 2.49
-0.54 -13.78 2.49
-0.26 -13.80 2.49
0.01 -12.23 2.49
0.26 -12.23 2.49
0.51 -12.23 2.49
0.75 -12.23 2.49
1.00 -12.21 2.49
1.24 -12.20 2.49
1.49 -12.18 2.49
1.66 -11.65 2.39
1.89 -11.62 2.39
2.13 -11.58 2.39
2.36 -11.54 2.39
2.59 -11.50 2.39
2.82 -11.45 2.39
3.05 -11.39 2.39
3.28 -11.33 2.39
3.51 -11.27 2.39
3.74 -11.20 2.39
3.96 -11.13 2.39
4.18 -11.05 2.39
4.41 -10.97 2.39
4.63 -10.88 2.39
3.56 -7.93 1.76
3.63 -7.66 1.71
3.75 -7.52 1.70
3.87 -7.40 1.69
4.04 -7.35 1.70
4.21 -7.32 1.71
4.46 -7.40 1.75
6.31 -10.02 2.39
6.51 -9.89 2.39
6.71 -9.76 2.39
6.90 -9.62 2.39
7.10 -9.48 2.39
7.28 -9.34 2.39
7.47 -9.19 2.39
7.65 -9.04 2.39
7.83 -8.88 2.39
8.01 -8.72 2.39
8.18 -8.56 2.39
8.35 -8.39 2.39
8.51 -8.22 2.39
8.68 -8.05 2.39
8.84 -7.87 2.39
8.99 -7.69 2.39
9.14 -7.51 2.39
9.29 -7.33 2.39
9.43 -7.14 2.39
9.57 -6.94 2.39
9.70 -6.75 2.39
9.83 -6.55 2.39
9.96 -6.35 2.39
10.09 -6.15 2.39
10.22 -5.95 2.40
10.70 -5.95 2.48
10.87 -5.77 2.49
10.98 -5.54 2.49
11.09 -5.32 2.49
11.19 -5.10 2.49
11.28 -4.87 2.49
11.37 -4.64 2.49
11.46 -4.41 2.49
11.54 -4.18 2.49
11.61 -3.94 2.49
11.68 -3.71 2.49
11.75 -3.47 2.49
11.81 -3.23 2.49
11.87 -2.99 2.49
11.92 -2.75 2.49
11.96 -2.51 2.49
12.00 -2.27 2.49
12.04 -2.03 2.49
12.07 -1.78 2.49
12.10 -1.54 2.49
12.12 -1.30 2.49
12.13 -1.05 2.49
12.14 -0.81 2.49
12.15 -0.57 2.49
12.15 -0.32 2.49
12.15 -0.08 2.49
12.14 0.16 2.49
12.12 0.41 2.49
12.10 0.65 2.49
12.08 0.89 2.49
12.05 1.13 2.49
12.01 1.37 2.49
11.97 1.61 2.49
11.93 1.85 2.49
11.80 2.08 2.48
11.34 2.23 2.39
11.28 2.45 2.39
11.22 2.68 2.39
11.16 2.90 2.39
11.09 3.12 2.39
11.01 3.34 2.39
8.43 2.74 1.84
10.85 3.77 2.39
10.76 3.98 2.39
10.67 4.20 2.39
10.58 4.41 2.39
10.48 4.61 2.39
10.37 4.82 2.39
10.27 5.02 2.39
10.15 5.22 2.39
10.04 5.42 2.39
9.92 5.61 2.39
9.80 5.81 2.39
9.67 6.00 2.39
10.12 6.56 2.54
9.80 6.63 2.49
9.48 6.70 2.45
9.18 6.77 2.41
9.04 6.95 2.41
8.89 7.12 2.41
8.74 7.29 2.41
8.58 7.46 2.41
8.42 7.63 2.41
8.26 7.79 2.41
8.09 7.94 2.41
7.93 8.10 2.41
7.76 8.25 2.41
7.58 8.39 2.41
7.40 8.54 2.41
7.23 8.68 2.41
7.04 8.81 2.41
6.86 8.94 2.41
6.67 9.07 2.41
6.48 9.20 2.41
6.29 9.32 2.41
6.10 9.43 2.41
5.86 9.48 2.39
5.67 9.59 2.39
5.47 9.69 2.39
5.27 9.79 2.39
5.07 9.89 2.39
4.86 9.98 2.39
4.66 10.07 2.39
4.45 10.15 2.39
4.24 10.23 2.39
4.03 10.31 2.39
3.82 10.38 2.39
3.61 10.45 2.39
3.40 10.51 2.39
3.18 10.57 2.39
2.97 10.62 2.39
2.75 10.67 2.39
2.54 10.72 2.39
2.32 10.76 2.39
2.10 10.80 2.39
1.96 11.30 2.49
1.73 11.33 2.49
1.51 11.35 2.49
1.28 11.37 2.49
1.05 11.39 2.49
0.82 11.40 2.49
0.59 11.41 2.49
0.36 11.41 2.49
0.13 11.41 2.49
-0.10 11.40 2.49
-0.33 11.39 2.49
-0.56 11.38 2.49
-0.79 11.36 2.49
-1.01 11.33 2.49
-1.24 11.31 2.49
-1.47 11.27 2.49
-1.69 11.24 2.49
-1.92 11.20 2.49
-2.14 11.15 2.49
-2.37 11.10 2.49
-2.59 11.05 2.49
-2.81 10.99 2.49
-3.03 10.93 2.49
-3.24 10.86 2.49
-3.46 10.79 2.49
-3.68 10.71 2.49
-3.89 10.63 2.49
-4.10 10.55 2.49
-4.31 10.46 2.49
-4.52 10.37 2.49
-4.73 10.28 2.49
-4.93 10.18 2.49
-5.13 10.07 2.49
-5.34 9.97 2.49
-5.53 9.86 2.49
-5.73 9.74 2.49
-5.92 9.62 2.49
-6.07 9.43 2.48
-6.08 9.05 2.41
-6.22 8.86 2.39
-6.40 8.74 2.39
-6.58 8.61 2.39
-6.75 8.47 2.39
-6.92 8.34 2.39
-7.08 8.19 2.39
-7.25 8.05 2.39
-7.41 7.90 2.39
-6.19 6.34 1.96
-6.20 6.11 1.92
-6.20 5.87 1.88
-6.19 5.62 1.85
-6.19 5.40 1.81
-6.20 5.19 1.78
-6.22 5.00 1.76
-8.59 6.62 2.39
-6.35 4.70 1.74
-8.85 6.27 2.39
-8.98 6.10 2.39
-9.10 5.92 2.39
-9.22 5.73 2.39
-9.34 5.55 2.39
-9.45 5.36 2.39
-9.56 5.17 2.39
-9.66 4.98 2.39
-9.76 4.79 2.39
-9.86 4.59 2.39
-9.96 4.39 2.39
-10.05 4.19 2.39
-10.13 3.99 2.39
-10.22 3.79 2.39
-7.68 2.33 1.76
-7.67 2.16 1.75
-7.75 2.02 1.75
-7.97 1.91 1.79
-10.02 1.76 2.22
-10.00 1.56 2.21
-9.99 1.35 2.20
-9.99 1.14 2.19
-10.00 0.94 2.19
-10.00 0.74 2.18
-10.01 0.54 2.18
-10.01 0.34 2.18
-10.01 0.14 2.18
-10.02 -0.07 2.18
-10.02 -0.27 2.18
-10.03 -0.47 2.18
-10.03 -0.67 2.18
-10.04 -0.87 2.18
-10.04 -1.08 2.19
-10.05 -1.28 2.19
-10.05 -1.49 2.20
-10.06 -1.70 2.20
-10.08 -1.91 2.22
-10.34 -4.23 2.39
-10.26 -4.44 2.39
-10.18 -4.65 2.39
-10.09 -4.86 2.39
-10.00 -5.06 2.39
-9.91 -5.27 2.39
-9.81 -5.47 2.39
-9.70 -5.67 2.39
-9.60 -5.87 2.39
-9.49 -6.07 2.39
-9.37 -6.26 2.39
-9.25 -6.45 2.39
-9.13 -6.64 2.39
-9.00 -6.83 2.39
-6.56 -5.19 1.77
-6.44 -5.31 1.76
-6.42 -5.51 1.79
-6.42 -5.74 1.82
-6.44 -5.99 1.85
-6.46 -6.26 1.89
-6.47 -6.53 1.93
-6.46 -6.78 1.97
-6.45 -7.05 2.01
-6.47 -7.37 2.06
-6.76 -8.02 2.20
-7.19 -8.88 2.39
-7.01 -9.03 2.39
-6.79 -9.11 2.37
-6.68 -9.34 2.40
-6.48 -9.47 2.39
-6.48 -9.88 2.46
-6.36 -10.15 2.49
-6.17 -10.28 2.49
-5.96 -10.41 2.49
-5.76 -10.54 2.49
-5.55 -10.66 2.49
-5.34 -10.78 2.49
-5.13 -10.89 2.49
-4.91 -11.00 2.49
-4.69 -11.11 2.49
-4.47 -11.21 2.49
-4.25 -11.30 2.49
-4.03 -11.40 2.49
-3.80 -11.48 2.49
-3.57 -11.57 2.49
-3.34 -11.64 2.49
-3.11 -11.72 2.49
-2.88 -11.79 2.49
-2.64 -11.85 2.49
-2.40 -11.91 2.49
-2.17 -11.96 2.49
-1.93 -12.01 2.49
-1.69 -12.06 2.49
-1.45 -12.10 2.49
-1.21 -12.13 2.49
-0.96 -12.16 2.49
-0.72 -12.18 2.49
-0.47 -12.20 2.49
-0.23 -12.22 2.49
0.01 -10.96 2.49
0.23 -10.96 2.49
0.45 -10.96 2.49
0.67 -10.96 2.49
0.89 -10.95 2.49
1.11 -10.93 2.49
1.33 -10.91 2.49
1.55 -10.89 2.49
1.71 -10.49 2.41
1.91 -10.38 2.39
2.11 -10.34 2.39
2.32 -10.30 2.39
2.53 -10.26 2.39
2.74 -10.21 2.39
2.94 -10.15 2.39
3.14 -10.10 2.39
3.35 -10.03 2.39
3.55 -9.97 2.39
3.75 -9.90 2.39
3.95 -9.82 2.39
4.14 -9.74 2.39
4.34 -9.66 2.39
3.71 -7.84 1.96
3.80 -7.63 1.92
3.93 -7.50 1.91
4.10 -7.46 1.92
4.30 -7.47 1.94
5.47 -9.08 2.39
5.65 -8.97 2.39
5.83 -8.86 2.39
6.01 -8.74 2.39
6.18 -8.62 2.39
6.35 -8.49 2.39
6.52 -8.36 2.39
6.69 -8.23 2.39
6.85 -8.09 2.39
7.01 -7.95 2.39
7.17 -7.81 2.39
7.33 -7.67 2.39
7.48 -7.52 2.39
7.63 -7.37 2.39
7.77 -7.21 2.39
7.91 -7.05 2.39
8.05 -6.89 2.39
8.19 -6.73 2.39
8.32 -6.56 2.39
8.45 -6.39 2.39
8.57 -6.22 2.39
8.69 -6.05 2.39
8.90 -5.93 2.42
9.28 -5.92 2.49
9.42 -5.75 2.49
9.53 -5.56 2.49
9.64 -5.36 2.49
9.74 -5.17 2.49
9.84 -4.97 2.49
9.93 -4.77 2.49
10.02 -4.57 2.49
10.11 -4.36 2.49
10.19 -4.16 2.49
10.27 -3.95 2.49
10.34 -3.74 2.49
10.41 -3.53 2.49
10.47 -3.32 2.49
10.53 -3.11 2.49
10.59 -2.90 2.49
10.64 -2.68 2.49
10.68 -2.47 2.49
10.73 -2.25 2.49
10.76 -2.04 2.49
10.80 -1.82 2.49
10.82 -1.60 2.49
10.85 -1.38 2.49
10.87 -1.17 2.49
10.88 -0.95 2.49
10.89 -0.73 2.49
10.90 -0.51 2.49
10.90 -0.29 2.49
10.89 -0.07 2.49
10.89 0.15 2.49
10.87 0.36 2.49
10.86 0.58 2.49
10.84 0.80 2.49
10.81 1.02 2.49
10.78 1.23 2.49
10.75 1.45 2.49
10.71 1.66 2.49
10.66 1.87 2.49
10.62 2.08 2.49
10.13 2.20 2.39
10.07 2.40 2.39
10.02 2.60 2.39
9.96 2.80 2.39
9.89 3.00 2.39
8.43 2.74 2.05
9.75 3.39 2.39
9.67 3.58 2.39
9.59 3.77 2.39
9.50 3.96 2.39
9.41 4.14 2.39
9.32 4.33 2.39
9.23 4.51 2.39
9.13 4.69 2.39
9.02 4.87 2.39
8.92 5.04 2.39
8.81 5.22 2.39
8.69 5.39 2.39
8.58 5.56 2.39
8.46 5.72 2.39
8.33 5.89 2.39
8.21 6.05 2.39
8.57 6.59 2.54
8.30 6.65 2.50
8.04 6.71 2.46
7.79 6.77 2.43
7.58 6.86 2.41
7.43 7.00 2.41
7.28 7.15 2.41
7.13 7.28 2.41
6.98 7.42 2.41
6.82 7.55 2.41
6.67 7.68 2.41
6.51 7.81 2.41
6.34 7.93 2.41
6.18 8.05 2.41
5.97 8.11 2.39
5.80 8.22 2.39
5.63 8.33 2.39
5.46 8.44 2.39
5.28 8.54 2.39
5.11 8.64 2.39
4.93 8.73 2.39
4.75 8.82 2.39
4.57 8.91 2.39
4.38 8.99 2.39
4.20 9.07 2.39
4.01 9.15 2.39
3.83 9.22 2.39
3.64 9.29 2.39
3.45 9.35 2.39
3.26 9.41 2.39
3.06 9.47 2.39
2.87 9.53 2.39
2.68 9.57 2.39
2.48 9.62 2.39
2.29 9.66 2.39
2.09 9.70 2.39
1.98 10.15 2.49
1.77 10.19 2.49
1.57 10.21 2.49
1.36 10.24 2.49
1.15 10.26 2.49
0.95 10.27 2.49
0.74 10.28 2.49
0.53 10.29 2.49
0.32 10.29 2.49
0.12 10.29 2.49
-0.09 10.29 2.49
-0.30 10.28 2.49
-0.50 10.27 2.49
-0.71 10.25 2.49
-0.91 10.23 2.49
-1.12 10.20 2.49
-1.32 10.17 2.49
-1.53 10.14 2.49
-1.73 10.10 2.49
-1.93 10.06 2.49
-2.13 10.02 2.49
-2.33 9.97 2.49
-2.53 9.92 2.49
-2.73 9.86 2.49
-2.93 9.80 2.49
-3.12 9.74 2.49
-3.32 9.67 2.49
-3.51 9.60 2.49
-3.70 9.53 2.49
-3.89 9.45 2.49
-4.08 9.36 2.49
-4.27 9.28 2.49
-4.45 9.19 2.49
-4.64 9.10 2.49
-4.82 9.00 2.49
-5.00 8.90 2.49
-5.17 8.80 2.49
-5.35 8.69 2.49
-5.52 8.58 2.49
-5.69 8.47 2.49
-5.86 8.35 2.49
-6.03 8.23 2.49
-6.10 7.99 2.46
-6.12 7.68 2.40
-6.24 7.53 2.39
-6.39 7.40 2.39
-6.54 7.27 2.39
-6.69 7.14 2.39
-6.83 7.00 2.39
-6.97 6.86 2.39
-7.11 6.72 2.39
-6.18 5.62 2.04
-6.19 5.40 2.01
-6.20 5.19 1.98
-6.22 5.00 1.95
-6.23 4.81 1.92
-6.23 4.61 1.89
-6.22 4.41 1.86
-6.21 4.22 1.83
-6.22 4.04 1.81
-6.22 3.87 1.79
-6.24 3.71 1.77
-8.53 4.84 2.39
-8.63 4.67 2.39
-6.39 3.30 1.75
-8.81 4.32 2.39
-8.90 4.14 2.39
-8.99 3.96 2.39
-9.07 3.78 2.39
-9.15 3.60 2.39
-9.22 3.42 2.39
-9.29 3.24 2.39
-9.36 3.05 2.39
-7.68 2.33 1.95
-7.67 2.16 1.94
-7.75 2.02 1.94
-7.97 1.91 1.99
-9.64 2.10 2.39
-9.68 1.91 2.39
-9.73 1.71 2.39
-9.76 1.52 2.39
-9.80 1.32 2.39
-9.83 1.12 2.39
-9.85 0.93 2.39
-9.87 0.73 2.39
-9.89 0.53 2.39
-9.91 0.33 2.39
-9.92 0.13 2.39
-9.93 -0.07 2.39
-9.93 -0.27 2.39
-9.93 -0.47 2.39
-9.92 -0.67 2.39
-9.91 -0.87 2.39
-9.90 -1.07 2.39
-9.88 -1.27 2.39
-9.86 -1.46 2.39
-9.84 -1.66 2.39
-9.81 -1.86 2.39
-9.78 -2.06 2.39
-9.74 -2.26 2.39
-9.70 -2.46 2.39
-9.66 -2.65 2.39
-9.61 -2.85 2.39
-9.56 -3.04 2.39
-9.50 -3.24 2.39
-9.44 -3.43 2.39
-9.38 -3.62 2.39
-9.31 -3.81 2.39
-9.24 -4.00 2.39
-9.16 -4.19 2.39
-9.09 -4.37 2.39
-9.00 -4.56 2.39
-8.92 -4.74 2.39
-8.83 -4.93 2.39
-6.41 -3.75 1.76
-6.40 -3.92 1.77
-6.39 -4.09 1.79
-6.39 -4.27 1.81
-6.40 -4.47 1.84
-6.42 -4.67 1.87
-6.44 -4.89 1.90
-6.44 -5.10 1.93
-6.43 -5.31 1.96
-6.42 -5.52 1.99
-6.42 -5.75 2.02
-6.45 -6.01 2.07
-7.33 -7.11 2.39
-7.19 -7.26 2.39
-7.05 -7.41 2.39
-6.63 -7.25 2.30
-6.76 -7.70 2.39
-6.61 -7.84 2.39
-6.46 -7.98 2.39
-6.44 -8.30 2.45
-6.41 -8.60 2.49
-6.24 -8.73 2.49
-6.07 -8.86 2.49
-5.89 -8.99 2.49
-5.71 -9.11 2.49
-5.54 -9.23 2.49
-5.35 -9.35 2.49
-5.17 -9.46 2.49
-4.98 -9.57 2.49
-4.79 -9.68 2.49
-4.60 -9.78 2.49
-4.41 -9.88 2.49
-4.21 -9.97 2.49
-4.01 -10.06 2.49
-3.81 -10.15 2.49
-3.61 -10.23 2.49
-3.41 -10.30 2.49
-3.20 -10.38 2.49
-3.00 -10.45 2.49
-2.79 -10.51 2.49
-2.58 -10.57 2.49
-2.37 -10.63 2.49
-2.16 -10.68 2.49
-1.94 -10.73 2.49
-1.73 -10.77 2.49
-1.51 -10.81 2.49
-1.30 -10.85 2.49
-1.08 -10.88 2.49
-0.86 -10.90 2.49
-0.64 -10.92 2.49
-0.42 -10.94 2.49
-0.20 -10.95 2.49
0.01 -9.92 2.49
0.21 -9.93 2.49
0.41 -9.92 2.49
0.61 -9.92 2.49
0.81 -9.91 2.49
1.01 -9.89 2.49
1.21 -9.88 2.49
1.41 -9.85 2.49
1.60 -9.83 2.49
1.80 -9.80 2.49
2.00 -9.76 2.49
2.13 -9.46 2.43
2.29 -9.28 2.39
2.48 -9.24 2.39
2.66 -9.19 2.39
2.85 -9.13 2.39
3.03 -9.08 2.39
3.21 -9.02 2.39
3.39 -8.95 2.39
3.57 -8.89 2.39
3.75 -8.82 2.39
3.93 -8.74 2.39
3.91 -8.25 2.28
4.06 -8.14 2.27
4.01 -7.65 2.16
4.41 -8.03 2.28
4.53 -7.86 2.26
4.95 -8.21 2.39
5.11 -8.11 2.39
5.28 -8.01 2.39
5.44 -7.90 2.39
5.59 -7.79 2.39
5.75 -7.68 2.39
5.90 -7.56 2.39
6.05 -7.44 2.39
6.20 -7.32 2.39
6.34 -7.20 2.39
6.49 -7.07 2.39
6.63 -6.94 2.39
6.76 -6.80 2.39
6.90 -6.66 2.39
7.03 -6.52 2.39
7.16 -6.38 2.39
7.28 -6.23 2.39
7.41 -6.09 2.39
7.53 -5.94 2.39
7.79 -5.90 2.44
8.09 -5.87 2.49
8.20 -5.71 2.49
8.31 -5.54 2.49
8.42 -5.37 2.49
8.52 -5.20 2.49
8.62 -5.03 2.49
8.72 -4.85 2.49
8.81 -4.67 2.49
8.90 -4.50 2.49
8.99 -4.32 2.49
9.07 -4.13 2.49
9.15 -3.95 2.49
9.22 -3.76 2.49
9.29 -3.58 2.49
9.36 -3.39 2.49
9.42 -3.20 2.49
9.48 -3.01 2.49
9.53 -2.82 2.49
9.58 -2.62 2.49
9.63 -2.43 2.49
9.67 -2.24 2.49
9.71 -2.04 2.49
9.74 -1.85 2.49
9.77 -1.65 2.49
9.80 -1.45 2.49
9.82 -1.25 2.49
9.84 -1.06 2.49
9.85 -0.86 2.49
9.86 -0.66 2.49
9.87 -0.46 2.49
9.87 -0.26 2.49
9.87 -0.07 2.49
9.86 0.13 2.49
9.85 0.33 2.49
9.84 0.53 2.49
9.82 0.72 2.49
9.79 0.92 2.49
9.77 1.11 2.49
9.74 1.31 2.49
9.70 1.50 2.49
9.66 1.70 2.49
9.62 1.89 2.49
9.58 2.08 2.49
9.13 2.17 2.39
9.08 2.36 2.39
9.03 2.54 2.39
8.97 2.71 2.39
8.43 2.74 2.26
8.84 3.07 2.39
8.77 3.24 2.39
8.70 3.41 2.39
8.62 3.59 2.39
8.54 3.76 2.39
8.46 3.92 2.39
8.37 4.09 2.39
8.28 4.25 2.39
8.19 4.41 2.39
8.09 4.57 2.39
7.99 4.73 2.39
7.89 4.89 2.39
7.78 5.04 2.39
7.67 5.19 2.39
7.56 5.34 2.39
7.45 5.49 2.39
7.33 5.63 2.39
7.21 5.77 2.39
7.09 5.91 2.39
6.96 6.05 2.39
6.84 6.18 2.39
6.70 6.32 2.39
6.57 6.44 2.39
6.44 6.57 2.39
6.30 6.69 2.39
6.16 6.81 2.39
6.02 6.93 2.39
5.87 7.04 2.39
5.72 7.16 2.39
5.58 7.26 2.39
5.42 7.37 2.39
5.27 7.47 2.39
5.12 7.57 2.39
4.96 7.67 2.39
4.80 7.76 2.39
4.64 7.85 2.39
4.48 7.93 2.39
4.32 8.02 2.39
4.15 8.10 2.39
3.99 8.17 2.39
3.82 8.25 2.39
3.65 8.32 2.39
3.48 8.38 2.39
3.31 8.44 2.39
3.14 8.50 2.39
2.96 8.56 2.39
2.79 8.61 2.39
2.61 8.66 2.39
2.44 8.71 2.39
2.26 8.75 2.39
2.08 8.79 2.39
1.96 9.09 2.46
1.80 9.24 2.49
1.61 9.27 2.49
1.43 9.29 2.49
1.24 9.31 2.49
1.05 9.33 2.49
0.86 9.34 2.49
0.67 9.36 2.49
0.48 9.36 2.49
0.30 9.37 2.49
0.11 9.37 2.49
-0.08 9.36 2.49
-0.27 9.35 2.49
-0.46 9.34 2.49
-0.64 9.33 2.49
-0.83 9.31 2.49
-1.02 9.29 2.49
-1.20 9.26 2.49
-1.39 9.23 2.49
-1.57 9.20 2.49
-1.76 9.16 2.49
-1.94 9.12 2.49
-2.12 9.08 2.49
-2.31 9.03 2.49
-2.49 8.98 2.49
-2.67 8.92 2.49
-2.84 8.87 2.49
-3.02 8.81 2.49
-3.20 8.74 2.49
-3.37 8.67 2.49
-3.54 8.60 2.49
-3.72 8.53 2.49
-3.89 8.45 2.49
-4.05 8.37 2.49
-4.22 8.28 2.49
-4.39 8.20 2.49
-4.55 8.10 2.49
-4.71 8.01 2.49
-4.87 7.91 2.49
-5.03 7.81 2.49
-5.18 7.71 2.49
-5.34 7.60 2.49
-5.49 7.49 2.49
-5.64 7.38 2.49
-5.79 7.27 2.49
-5.93 7.15 2.49
-6.07 7.03 2.49
-6.13 6.81 2.46
-6.13 6.55 2.41
-6.22 6.38 2.39
-6.35 6.25 2.39
-6.47 6.12 2.39
-6.36 5.77 2.31
-6.72 5.86 2.39
-6.83 5.72 2.39
-6.95 5.58 2.39
-7.06 5.44 2.39
-6.38 4.72 2.13
-6.21 4.40 2.04
-6.21 4.22 2.01
-6.22 4.04 1.99
-6.24 3.88 1.97
-6.25 3.71 1.95
-6.26 3.55 1.93
-6.26 3.39 1.91
-6.26 3.22 1.89
-6.25 3.06 1.86
-6.24 2.91 1.84
-6.25 2.75 1.83
-6.25 2.61 1.81
-6.25 2.46 1.80
-6.26 2.32 1.78
-6.27 2.18 1.77
-6.28 2.05 1.76
-6.30 1.91 1.76
-7.69 2.17 2.13
-7.77 2.02 2.14
-8.73 2.08 2.39
-8.77 1.91 2.39
-8.81 1.73 2.39
-6.44 1.13 1.74
-8.88 1.38 2.39
-8.91 1.20 2.39
-8.94 1.02 2.39
-8.96 0.84 2.39
-8.98 0.66 2.39
-9.00 0.48 2.39
-9.01 0.30 2.39
-6.59 0.09 1.75
-9.03 -0.06 2.39
-9.03 -0.24 2.39
-9.03 -0.43 2.39
-9.02 -0.61 2.39
-9.01 -0.79 2.39
-9.00 -0.97 2.39
-8.99 -1.15 2.39
-8.97 -1.33 2.39
-6.50 -1.10 1.74
-8.92 -1.69 2.39
-8.89 -1.87 2.39
-8.85 -2.05 2.39
-8.82 -2.23 2.39
-8.78 -2.41 2.39
-6.64 -1.97 1.82
-6.38 -2.03 1.76
-6.37 -2.17 1.77
-6.37 -2.31 1.77
-6.36 -2.46 1.79
-6.36 -2.60 1.80
-6.36 -2.76 1.81
-6.36 -2.91 1.83
-6.37 -3.07 1.85
-6.39 -3.24 1.87
-6.40 -3.41 1.89
-6.41 -3.58 1.91
-6.41 -3.75 1.93
-6.41 -3.92 1.95
-6.40 -4.10 1.98
-6.39 -4.28 2.00
-6.40 -4.47 2.03
-6.42 -4.67 2.06
-7.35 -5.58 2.39
-6.59 -5.22 2.18
-7.13 -5.88 2.39
-7.01 -6.03 2.39
-6.90 -6.17 2.39
-6.61 -6.16 2.33
-6.65 -6.45 2.39
-6.53 -6.59 2.39
-6.42 -6.75 2.40
-6.42 -7.02 2.45
-6.40 -7.29 2.49
-6.25 -7.42 2.49
-6.11 -7.55 2.49
-5.96 -7.68 2.49
-5.81 -7.80 2.49
-5.66 -7.92 2.49
-5.50 -8.04 2.49
-5.34 -8.15 2.49
-5.18 -8.26 2.49
-5.02 -8.37 2.49
-4.85 -8.48 2.49
-4.68 -8.58 2.49
-4.51 -8.68 2.49
-4.34 -8.77 2.49
-4.17 -8.86 2.49
-3.99 -8.95 2.49
-3.81 -9.04 2.49
-3.63 -9.12 2.49
-3.45 -9.19 2.49
-3.27 -9.27 2.49
-3.09 -9.34 2.49
-2.90 -9.40 2.49
-2.71 -9.47 2.49
-2.52 -9.52 2.49
-2.33 -9.58 2.49
-2.14 -9.63 2.49
-1.95 -9.68 2.49
-1.76 -9.72 2.49
-1.56 -9.76 2.49
-1.37 -9.79 2.49
-1.17 -9.82 2.49
-0.98 -9.85 2.49
-0.78 -9.87 2.49
-0.58 -9.89 2.49
-0.38 -9.91 2.49
-0.18 -9.92 2.49
0.01 -9.06 2.49
0.20 -9.06 2.49
0.38 -9.06 2.49
0.56 -9.05 2.49
0.74 -9.04 2.49
0.92 -9.03 2.49
1.10 -9.01 2.49
1.28 -8.99 2.49
1.46 -8.97 2.49
1.64 -8.94 2.49
1.82 -8.91 2.49
2.00 -8.87 2.49
2.18 -8.83 2.49
2.36 -8.79 2.49
2.52 -8.70 2.48
2.66 -8.53 2.45
2.80 -8.39 2.42
2.94 -8.25 2.40
3.09 -8.17 2.39
3.26 -8.11 2.39
3.42 -8.04 2.39
3.58 -7.97 2.39
3.74 -7.90 2.39
3.90 -7.82 2.39
3.98 -7.61 2.35
4.21 -7.66 2.39
4.36 -7.58 2.39
4.51 -7.49 2.39
4.66 -7.40 2.39
4.81 -7.31 2.39
4.96 -7.21 2.39
5.10 -7.11 2.39
5.24 -7.00 2.39
5.38 -6.90 2.39
5.52 -6.79 2.39
5.65 -6.68 2.39
5.79 -6.56 2.39
5.92 -6.45 2.39
6.04 -6.33 2.39
6.17 -6.20 2.39
6.34 -6.12 2.41
6.52 -6.05 2.43
6.72 -5.99 2.46
6.93 -5.93 2.49
7.05 -5.79 2.49
7.16 -5.65 2.49
7.27 -5.50 2.49
7.38 -5.36 2.49
7.48 -5.21 2.49
7.58 -5.05 2.49
7.68 -4.90 2.49
7.77 -4.74 2.49
7.87 -4.59 2.49
7.95 -4.43 2.49
8.04 -4.27 2.49
8.12 -4.10 2.49
8.20 -3.94 2.49
8.27 -3.77 2.49
8.34 -3.60 2.49
8.41 -3.43 2.49
8.48 -3.26 2.49
8.54 -3.09 2.49
8.59 -2.92 2.49
8.65 -2.75 2.49
8.70 -2.57 2.49
8.74 -2.40 2.49
8.79 -2.22 2.49
8.83 -2.04 2.49
8.86 -1.86 2.49
8.89 -1.69 2.49
8.92 -1.51 2.49
8.94 -1.33 2.49
8.96 -1.15 2.49
8.98 -0.97 2.49
8.99 -0.79 2.49
9.00 -0.60 2.49
9.01 -0.42 2.49
9.01 -0.24 2.49
9.01 -0.06 2.49
9.00 0.12 2.49
8.99 0.30 2.49
8.98 0.48 2.49
8.96 0.66 2.49
8.94 0.84 2.49
8.92 1.02 2.49
8.89 1.19 2.49
8.86 1.37 2.49
8.83 1.55 2.49
8.79 1.72 2.49
8.75 1.90 2.49
8.70 2.07 2.49
8.40 2.18 2.42
8.25 2.32 2.39
8.19 2.48 2.39
8.14 2.64 2.39
8.08 2.80 2.39
8.01 2.96 2.39
7.95 3.12 2.39
7.88 3.28 2.39
7.80 3.43 2.39
7.73 3.58 2.39
7.65 3.74 2.39
7.57 3.89 2.39
7.48 4.03 2.39
7.40 4.18 2.39
7.31 4.32 2.39
7.21 4.47 2.39
7.12 4.61 2.39
7.02 4.75 2.39
6.92 4.88 2.39
6.81 5.02 2.39
6.71 5.15 2.39
6.60 5.28 2.39
6.48 5.41 2.39
6.37 5.53 2.39
6.25 5.66 2.39
6.13 5.78 2.39
6.01 5.89 2.39
5.89 6.01 2.39
5.76 6.12 2.39
5.64 6.23 2.39
5.51 6.34 2.39
5.37 6.44 2.39
5.24 6.55 2.39
5.10 6.65 2.39
4.97 6.74 2.39
4.83 6.84 2.39
4.69 6.93 2.39
4.54 7.02 2.39
4.40 7.10 2.39
4.25 7.18 2.39
4.10 7.26 2.39
3.95 7.34 2.39
3.80 7.41 2.39
3.65 7.48 2.39
3.50 7.55 2.39
3.34 7.61 2.39
3.19 7.68 2.39
3.03 7.73 2.39
2.87 7.79 2.39
2.72 7.84 2.39
2.56 7.89 2.39
2.40 7.93 2.39
2.23 7.98 2.39
2.07 8.01 2.39
1.96 8.26 2.45
1.82 8.43 2.49
1.65 8.46 2.49
1.48 8.49 2.49
1.31 8.51 2.49
1.14 8.53 2.49
0.96 8.55 2.49
0.79 8.56 2.49
0.62 8.57 2.49
0.45 8.58 2.49
0.27 8.58 2.49
0.10 8.58 2.49
-0.07 8.58 2.49
-0.24 8.57 2.49
-0.42 8.56 2.49
-0.59 8.55 2.49
-0.76 8.53 2.49
-0.93 8.51 2.49
-1.10 8.49 2.49
-1.27 8.46 2.49
-1.44 8.43 2.49
-1.61 8.40 2.49
-1.78 8.36 2.49
-1.95 8.32 2.49
-2.11 8.28 2.49
-2.28 8.23 2.49
-2.44 8.18 2.49
-2.61 8.13 2.49
-2.77 8.07 2.49
-2.93 8.02 2.49
-3.09 7.95 2.49
-3.25 7.89 2.49
-3.41 7.82 2.49
-3.56 7.75 2.49
-3.72 7.67 2.49
-3.87 7.60 2.49
-4.02 7.52 2.49
-4.17 7.43 2.49
-4.32 7.35 2.49
-4.47 7.26 2.49
-4.61 7.16 2.49
-4.75 7.07 2.49
-4.90 6.97 2.49
-5.03 6.87 2.49
-5.17 6.77 2.49
-5.31 6.66 2.49
-5.44 6.56 2.49
-5.57 6.45 2.49
-5.70 6.33 2.49
-5.83 6.22 2.49
-5.95 6.10 2.49
-6.07 5.98 2.49
-6.15 5.81 2.48
-6.15 5.59 2.43
-6.17 5.38 2.40
-6.27 5.25 2.39
-6.37 5.12 2.39
-6.47 4.99 2.39
-6.38 4.72 2.32
-6.67 4.73 2.39
-6.77 4.59 2.39
-6.86 4.46 2.39
-6.95 4.32 2.39
-7.04 4.18 2.39
-7.12 4.04 2.39
-7.20 3.90 2.39
-6.24 3.21 2.05
-6.24 3.06 2.03
-6.24 2.90 2.01
-6.25 2.75 1.99
-6.26 2.61 1.98
-6.27 2.47 1.96
-6.28 2.33 1.95
-6.29 2.19 1.94
-6.29 2.05 1.93
-6.29 1.91 1.91
-6.30 1.77 1.90
-6.30 1.64 1.89
-6.29 1.50 1.88
-6.29 1.37 1.87
-6.29 1.24 1.86
-6.29 1.10 1.85
-6.29 0.97 1.85
-6.29 0.85 1.84
-6.29 0.72 1.84
-6.29 0.59 1.83
-6.29 0.46 1.83
-6.30 0.34 1.83
-6.30 0.21 1.82
-6.30 0.08 1.82
-6.30 -0.04 1.82
-6.31 -0.17 1.82
-6.31 -0.30 1.82
-6.31 -0.43 1.83
-6.31 -0.55 1.83
-6.32 -0.68 1.83
-6.32 -0.81 1.84
-6.32 -0.94 1.84
-6.33 -1.07 1.85
-6.34 -1.21 1.86
-6.34 -1.34 1.86
-6.35 -1.47 1.87
-6.36 -1.61 1.88
-6.37 -1.75 1.90
-6.37 -1.89 1.91
-6.37 -2.03 1.92
-6.38 -2.18 1.93
-6.38 -2.32 1.94
-6.38 -2.46 1.96
-6.37 -2.61 1.97
-6.37 -2.76 1.98
-6.36 -2.91 2.00
-6.37 -3.07 2.02
-6.37 -3.23 2.04
-6.39 -3.40 2.06
-7.33 -4.10 2.39
-7.25 -4.25 2.39
-6.56 -4.02 2.19
-7.09 -4.54 2.39
-7.00 -4.68 2.39
-6.91 -4.83 2.39
-6.82 -4.97 2.39
-6.72 -5.11 2.39
-6.59 -5.22 2.38
-6.52 -5.38 2.39
-6.41 -5.51 2.39
-6.39 -5.72 2.42
-6.40 -5.96 2.47
-6.34 -6.16 2.49
-6.22 -6.29 2.49
-6.10 -6.42 2.49
-5.97 -6.54 2.49
-5.85 -6.66 2.49
-5.72 -6.78 2.49
-5.58 -6.90 2.49
-5.45 -7.02 2.49
-5.31 -7.13 2.49
-5.17 -7.24 2.49
-5.02 -7.35 2.49
-4.88 -7.45 2.49
-4.73 -7.55 2.49
-4.58 -7.65 2.49
-4.43 -7.75 2.49
-4.28 -7.84 2.49
-4.12 -7.93 2.49
-3.96 -8.01 2.49
-3.81 -8.10 2.49
-3.64 -8.18 2.49
-3.48 -8.25 2.49
-3.32 -8.33 2.49
-3.15 -8.40 2.49
-2.99 -8.46 2.49
-2.82 -8.53 2.49
-2.65 -8.59 2.49
-2.48 -8.64 2.49
-2.30 -8.70 2.49
-2.13 -8.75 2.49
-1.96 -8.79 2.49
-1.78 -8.83 2.49
-1.60 -8.87 2.49
-1.43 -8.91 2.49
-1.25 -8.94 2.49
-1.07 -8.97 2.49
-0.89 -8.99 2.49
-0.71 -9.01 2.49
-0.53 -9.03 2.49
-0.35 -9.04 2.49
-0.17 -9.05 2.49
0.01 -8.32 2.49
0.18 -8.32 2.49
0.35 -8.32 2.49
0.51 -8.31 2.49
0.68 -8.30 2.49
0.85 -8.29 2.49
1.01 -8.28 2.49
1.18 -8.26 2.49
1.35 -8.23 2.49
1.51 -8.21 2.49
1.68 -8.18 2.49
1.84 -8.15 2.49
2.00 -8.11 2.49
2.17 -8.07 2.49
2.33 -8.03 2.49
2.49 -7.98 2.49
2.65 -7.93 2.49
2.81 -7.88 2.49
2.96 -7.82 2.49
3.12 -7.76 2.49
3.28 -7.70 2.49
3.43 -7.63 2.49
3.54 -7.48 2.47
3.67 -7.37 2.45
3.81 -7.28 2.45
3.95 -7.20 2.45
4.09 -7.11 2.44
4.23 -7.02 2.44
4.37 -6.93 2.44
4.51 -6.85 2.44
4.65 -6.76 2.44
4.79 -6.67 2.45
4.93 -6.59 2.45
5.07 -6.50 2.45
5.22 -6.42 2.46
5.39 -6.37 2.48
5.54 -6.29 2.49
5.67 -6.17 2.49
5.79 -6.06 2.49
5.91 -5.94 2.49
6.03 -5.82 2.49
6.14 -5.70 2.49
6.25 -5.57 2.49
6.36 -5.45 2.49
6.47 -5.32 2.49
6.57 -5.19 2.49
6.67 -5.05 2.49
6.77 -4.92 2.49
6.87 -4.78 2.49
6.96 -4.64 2.49
7.05 -4.50 2.49
7.14 -4.36 2.49
7.22 -4.21 2.49
7.30 -4.07 2.49
7.38 -3.92 2.49
7.46 -3.77 2.49
7.53 -3.62 2.49
7.60 -3.46 2.49
7.66 -3.31 2.49
7.73 -3.16 2.49
7.79 -3.00 2.49
7.84 -2.84 2.49
7.89 -2.68 2.49
7.94 -2.52 2.49
7.99 -2.36 2.49
8.03 -2.20 2.49
8.07 -2.04 2.49
8.11 -1.88 2.49
8.14 -1.71 2.49
8.17 -1.55 2.49
8.19 -1.38 2.49
8.22 -1.22 2.49
8.24 -1.05 2.49
8.25 -0.89 2.49
8.26 -0.72 2.49
8.27 -0.56 2.49
8.28 -0.39 2.49
8.28 -0.23 2.49
8.28 -0.06 2.49
8.27 0.11 2.49
8.27 0.27 2.49
8.26 0.44 2.49
8.24 0.60 2.49
8.22 0.77 2.49
8.20 0.93 2.49
8.18 1.10 2.49
8.15 1.26 2.49
8.12 1.42 2.49
8.08 1.58 2.49
8.04 1.74 2.49
8.00 1.90 2.49
7.96 2.06 2.49
7.81 2.19 2.46
7.53 2.28 2.39
7.48 2.43 2.39
7.43 2.57 2.39
7.37 2.72 2.39
7.31 2.87 2.39
7.25 3.01 2.39
7.18 3.15 2.39
7.11 3.30 2.39
7.04 3.43 2.39
6.96 3.57 2.39
6.89 3.71 2.39
6.81 3.84 2.39
6.72 3.98 2.39
6.64 4.11 2.39
6.55 4.24 2.39
6.46 4.37 2.39
6.37 4.49 2.39
6.27 4.62 2.39
6.17 4.74 2.39
6.07 4.86 2.39
5.97 4.98 2.39
5.87 5.09 2.39
5.76 5.20 2.39
5.65 5.32 2.39
5.54 5.42 2.39
5.42 5.53 2.39
5.31 5.64 2.39
5.19 5.74 2.39
5.07 5.84 2.39
4.95 5.93 2.39
4.83 6.03 2.39
4.70 6.12 2.39
4.58 6.21 2.39
4.45 6.30 2.39
4.32 6.38 2.39
4.19 6.46 2.39
4.05 6.54 2.39
3.92 6.62 2.39
3.78 6.69 2.39
3.64 6.76 2.39
3.51 6.83 2.39
3.37 6.89 2.39
3.22 6.96 2.39
3.08 7.02 2.39
2.94 7.07 2.39
2.79 7.13 2.39
2.65 7.18 2.39
2.50 7.22 2.39
2.36 7.27 2.39
2.21 7.31 2.39
2.07 7.38 2.40
1.99 7.70 2.49
1.84 7.74 2.49
1.68 7.77 2.49
1.52 7.80 2.49
1.37 7.82 2.49
1.21 7.85 2.49
1.05 7.87 2.49
0.89 7.88 2.49
0.73 7.89 2.49
0.57 7.90 2.49
0.41 7.91 2.49
0.25 7.91 2.49
0.09 7.91 2.49
-0.07 7.91 2.49
-0.22 7.91 2.49
-0.38 7.90 2.49
-0.54 7.88 2.49
-0.70 7.87 2.49
-0.86 7.85 2.49
-1.02 7.83 2.49
-1.17 7.80 2.49
-1.33 7.78 2.49
-1.48 7.75 2.49
-1.64 7.71 2.49
-1.79 7.68 2.49
-1.95 7.64 2.49
-2.10 7.59 2.49
-2.25 7.55 2.49
-2.40 7.50 2.49
-2.55 7.45 2.49
-2.70 7.39 2.49
-2.85 7.34 2.49
-3.00 7.28 2.49
-3.14 7.21 2.49
-3.29 7.15 2.49
-3.43 7.08 2.49
-3.57 7.01 2.49
-3.71 6.93 2.49
-3.85 6.86 2.49
-3.98 6.78 2.49
-4.12 6.69 2.49
-4.25 6.61 2.49
-4.39 6.52 2.49
-4.52 6.43 2.49
-4.64 6.34 2.49
-4.77 6.24 2.49
-4.90 6.15 2.49
-5.02 6.05 2.49
-5.14 5.95 2.49
-5.26 5.84 2.49
-5.37 5.73 2.49
-5.49 5.62 2.49
-5.60 5.51 2.49
-5.71 5.40 2.49
-5.82 5.28 2.49
-5.93 5.17 2.49
-6.03 5.05 2.49
-6.13 4.93 2.49
-6.17 4.76 2.47
-6.17 4.56 2.44
-6.18 4.38 2.40
-6.24 4.24 2.39
-6.33 4.11 2.39
-6.41 3.98 2.39
-6.49 3.85 2.39
-6.57 3.72 2.39
-6.64 3.59 2.39
-6.41 3.30 2.28
-6.79 3.32 2.39
-6.85 3.19 2.39
-6.92 3.05 2.39
-6.98 2.91 2.39
-7.04 2.77 2.39
-6.43 2.38 2.17
-7.15 2.49 2.39
-7.20 2.34 2.39
-6.29 1.91 2.08
-6.28 1.77 2.06
-6.27 1.63 2.04
-6.27 1.50 2.03
-6.27 1.36 2.02
-6.28 1.23 2.02
-6.28 1.10 2.01
-6.28 0.97 2.00
-6.29 0.84 2.00
-6.29 0.72 1.99
-6.29 0.59 1.99
-6.30 0.46 1.99
-6.30 0.33 1.98
-6.31 0.21 1.98
-6.31 0.08 1.98
-6.31 -0.05 1.98
-6.31 -0.17 1.98
-6.32 -0.30 1.98
-6.32 -0.43 1.98
-6.32 -0.56 1.99
-6.32 -0.68 1.99
-6.32 -0.81 1.99
-6.32 -0.94 2.00
-6.33 -1.07 2.00
-6.33 -1.21 2.01
-6.33 -1.34 2.02
-6.33 -1.47 2.03
-6.34 -1.61 2.04
-6.35 -1.75 2.05
-6.36 -1.89 2.07
-7.32 -2.34 2.39
-7.28 -2.48 2.39
-7.23 -2.63 2.39
-7.18 -2.78 2.39
-7.13 -2.92 2.39
-7.07 -3.07 2.39
-7.01 -3.21 2.39
-6.55 -3.16 2.25
-6.89 -3.49 2.39
-6.82 -3.63 2.39
-6.75 -3.77 2.39
-6.68 -3.91 2.39
-6.56 -4.02 2.38
-6.52 -4.18 2.39
-6.44 -4.31 2.39
-6.37 -4.45 2.40
-6.37 -4.64 2.43
-6.37 -4.84 2.46
-6.35 -5.04 2.49
-6.26 -5.17 2.49
-6.16 -5.30 2.49
-6.05 -5.42 2.49
-5.95 -5.54 2.49
-5.84 -5.67 2.49
-5.73 -5.79 2.49
-5.61 -5.90 2.49
-5.50 -6.02 2.49
-5.38 -6.13 2.49
-5.26 -6.24 2.49
-5.13 -6.35 2.49
-5.01 -6.46 2.49
-4.88 -6.56 2.49
-4.75 -6.66 2.49
-4.62 -6.76 2.49
-4.49 -6.85 2.49
-4.35 -6.95 2.49
-4.21 -7.04 2.49
-4.07 -7.13 2.49
-3.93 -7.21 2.49
-3.79 -7.29 2.49
-3.64 -7.37 2.49
-3.50 -7.45 2.49
-3.35 -7.52 2.49
-3.20 -7.59 2.49
-3.05 -7.66 2.49
-2.90 -7.72 2.49
-2.74 -7.78 2.49
-2.59 -7.84 2.49
-2.43 -7.89 2.49
-2.27 -7.94 2.49
-2.12 -7.99 2.49
-1.96 -8.04 2.49
-1.80 -8.08 2.49
-1.63 -8.12 2.49
-1.47 -8.15 2.49
-1.31 -8.19 2.49
-1.14 -8.21 2.49
-0.98 -8.24 2.49
-0.82 -8.26 2.49
-0.65 -8.28 2.49
-0.48 -8.29 2.49
-0.32 -8.31 2.49
-0.15 -8.31 2.49
0.01 -7.69 2.49
0.17 -7.69 2.49
0.32 -7.69 2.49
0.48 -7.68 2.49
0.63 -7.67 2.49
0.78 -7.66 2.49
0.94 -7.65 2.49
1.09 -7.63 2.49
1.24 -7.61 2.49
1.40 -7.58 2.49
1.55 -7.55 2.49
1.70 -7.52 2.49
1.85 -7.49 2.49
2.00 -7.45 2.49
2.15 -7.41 2.49
2.30 -7.37 2.49
2.45 -7.33 2.49
2.59 -7.28 2.49
2.74 -7.23 2.49
2.88 -7.17 2.49
3.03 -7.11 2.49
3.17 -7.05 2.49
3.31 -6.99 2.49
3.45 -6.92 2.49
3.59 -6.85 2.49
3.72 -6.78 2.49
3.86 -6.70 2.49
3.99 -6.63 2.49
4.13 -6.55 2.49
4.26 -6.46 2.49
4.38 -6.38 2.49
4.51 -6.29 2.49
4.64 -6.20 2.49
4.76 -6.10 2.49
4.88 -6.00 2.49
5.00 -5.91 2.49
5.12 -5.80 2.49
5.23 -5.70 2.49
5.35 -5.59 2.49
5.46 -5.49 2.49
5.56 -5.38 2.49
5.67 -5.26 2.49
5.77 -5.15 2.49
5.87 -5.03 2.49
5.97 -4.91 2.49
6.07 -4.79 2.49
6.16 -4.67 2.49
6.26 -4.54 2.49
6.34 -4.42 2.49
6.43 -4.29 2.49
6.51 -4.16 2.49
6.59 -4.02 2.49
6.67 -3.89 2.49
6.75 -3.76 2.49
6.82 -3.62 2.49
6.89 -3.48 2.49
6.95 -3.34 2.49
7.02 -3.20 2.49
7.08 -3.06 2.49
7.14 -2.92 2.49
7.19 -2.77 2.49
7.24 -2.63 2.49
7.29 -2.48 2.49
7.34 -2.33 2.49
7.38 -2.18 2.49
7.42 -2.04 2.49
7.46 -1.89 2.49
7.49 -1.74 2.49
7.52 -1.58 2.49
7.55 -1.43 2.49
7.57 -1.28 2.49
7.59 -1.13 2.49
7.61 -0.98 2.49
7.62 -0.82 2.49
7.64 -0.67 2.49
7.64 -0.52 2.49
7.65 -0.36 2.49
7.65 -0.21 2.49
7.65 -0.06 2.49
7.65 0.10 2.49
7.64 0.25 2.49
7.63 0.40 2.49
7.62 0.56 2.49
7.60 0.71 2.49
7.58 0.86 2.49
7.56 1.01 2.49
7.53 1.16 2.49
7.50 1.31 2.49
7.47 1.46 2.49
7.44 1.61 2.49
7.40 1.76 2.49
7.36 1.90 2.49
7.31 2.05 2.49
7.27 2.20 2.49
7.05 2.29 2.44
6.87 2.38 2.39
6.84 2.53 2.40
6.76 2.65 2.39
6.70 2.78 2.39
6.64 2.92 2.39
6.58 3.05 2.39
6.51 3.18 2.39
6.44 3.30 2.39
6.37 3.43 2.39
6.30 3.55 2.39
6.22 3.68 2.39
6.14 3.80 2.39
6.06 3.92 2.39
5.98 4.04 2.39
5.89 4.16 2.39
5.80 4.27 2.39
5.71 4.38 2.39
5.62 4.49 2.39
5.53 4.60 2.39
5.43 4.71 2.39
5.33 4.82 2.39
5.23 4.92 2.39
5.13 5.02 2.39
5.02 5.12 2.39
4.91 5.21 2.39
4.81 5.31 2.39
4.70 5.40 2.39
4.58 5.49 2.39
4.47 5.58 2.39
4.35 5.66 2.39
4.24 5.75 2.39
4.12 5.83 2.39
4.00 5.91 2.39
3.88 5.98 2.39
3.75 6.06 2.39
3.63 6.13 2.39
3.50 6.19 2.39
3.38 6.26 2.39
3.25 6.32 2.39
3.12 6.38 2.39
2.99 6.44 2.39
2.86 6.50 2.39
2.72 6.55 2.39
2.59 6.60 2.39
2.46 6.65 2.39
2.32 6.69 2.39
2.21 6.82 2.42
2.13 7.06 2.49
1.99 7.10 2.49
1.85 7.14 2.49
1.70 7.17 2.49
1.56 7.20 2.49
1.41 7.23 2.49
1.27 7.25 2.49
1.12 7.27 2.49
0.97 7.29 2.49
0.83 7.30 2.49
0.68 7.31 2.49
0.53 7.32 2.49
0.38 7.33 2.49
0.24 7.33 2.49
0.09 7.33 2.49
-0.06 7.33 2.49
-0.21 7.33 2.49
-0.35 7.32 2.49
-0.50 7.31 2.49
-0.65 7.29 2.49
-0.79 7.28 2.49
-0.94 7.26 2.49
-1.09 7.23 2.49
-1.23 7.21 2.49
-1.38 7.18 2.49
-1.52 7.15 2.49
-1.66 7.11 2.49
-1.80 7.08 2.49
-1.95 7.04 2.49
-2.09 7.00 2.49
-2.23 6.95 2.49
-2.37 6.90 2.49
-2.50 6.85 2.49
-2.64 6.80 2.49
-2.78 6.74 2.49
-2.91 6.69 2.49
-3.05 6.63 2.49
-3.18 6.56 2.49
-3.31 6.50 2.49
-3.44 6.43 2.49
-3.57 6.36 2.49
-3.69 6.28 2.49
-3.82 6.21 2.49
-3.94 6.13 2.49
-4.07 6.05 2.49
-4.19 5.96 2.49
-4.31 5.88 2.49
-4.42 5.79 2.49
-4.54 5.70 2.49
-4.65 5.61 2.49
-4.76 5.51 2.49
-4.87 5.41 2.49
-4.98 5.32 2.49
-5.09 5.21 2.49
-5.19 5.11 2.49
-5.30 5.01 2.49
-5.40 4.90 2.49
-5.49 4.79 2.49
-5.59 4.68 2.49
-5.68 4.57 2.49
-5.77 4.45 2.49
-5.86 4.33 2.49
-5.95 4.22 2.49
-6.04 4.10 2.49
-6.12 3.97 2.49
-6.19 3.85 2.49
-6.19 3.68 2.46
-6.20 3.51 2.43
-6.20 3.35 2.41
-6.22 3.21 2.39
-6.29 3.08 2.39
-6.35 2.95 2.39
-6.42 2.83 2.40
-6.47 2.70 2.39
-6.52 2.57 2.39
-6.43 2.38 2.34
-6.63 2.30 2.39
-6.67 2.17 2.39
-6.72 2.04 2.39
-6.76 1.90 2.39
-6.80 1.77 2.39
-6.84 1.63 2.39
-6.87 1.49 2.39
-6.90 1.35 2.39
-6.46 1.13 2.23
-6.96 1.08 2.39
-6.98 0.94 2.39
-7.00 0.80 2.39
-7.02 0.66 2.39
-7.03 0.51 2.39
-7.04 0.37 2.39
-7.05 0.23 2.39
-6.48 0.08 2.19
-7.06 -0.05 2.39
-7.06 -0.19 2.39
-7.06 -0.34 2.39
-7.06 -0.48 2.39
-7.05 -0.62 2.39
-7.04 -0.76 2.39
-7.03 -0.90 2.39
-7.01 -1.05 2.39
-6.50 -1.10 2.22
-6.97 -1.33 2.39
-6.94 -1.47 2.39
-6.92 -1.61 2.39
-6.89 -1.75 2.39
-6.85 -1.89 2.39
-6.64 -1.97 2.33
-6.78 -2.16 2.39
-6.74 -2.30 2.39
-6.70 -2.44 2.39
-6.65 -2.57 2.39
-6.60 -2.71 2.39
-6.55 -2.84 2.39
-6.49 -2.97 2.39
-6.44 -3.11 2.39
-6.38 -3.24 2.39
-6.34 -3.38 2.40
-6.34 -3.55 2.43
-6.34 -3.72 2.46
-6.35 -3.89 2.49
-6.30 -4.04 2.49
-6.22 -4.17 2.49
-6.14 -4.29 2.49
-6.05 -4.42 2.49
-5.97 -4.54 2.49
-5.88 -4.66 2.49
-5.79 -4.78 2.49
-5.69 -4.90 2.49
-5.60 -5.02 2.49
-5.50 -5.13 2.49
-5.40 -5.24 2.49
-5.30 -5.35 2.49
-5.19 -5.46 2.49
-5.08 -5.57 2.49
-4.97 -5.67 2.49
-4.86 -5.78 2.49
-4.75 -5.88 2.49
-4.63 -5.97 2.49
-4.51 -6.07 2.49
-4.39 -6.16 2.49
-4.27 -6.25 2.49
-4.15 -6.34 2.49
-4.02 -6.43 2.49
-3.89 -6.51 2.49
-3.76 -6.59 2.49
-3.63 -6.67 2.49
-3.50 -6.74 2.49
-3.37 -6.81 2.49
-3.23 -6.88 2.49
-3.10 -6.95 2.49
-2.96 -7.02 2.49
-2.82 -7.08 2.49
-2.68 -7.14 2.49
-2.53 -7.19 2.49
-2.39 -7.25 2.49
-2.25 -7.30 2.49
-2.10 -7.34 2.49
-1.95 -7.39 2.49
-1.81 -7.43 2.49
-1.66 -7.47 2.49
-1.51 -7.50 2.49
-1.36 -7.53 2.49
-1.21 -7.56 2.49
-1.06 -7.59 2.49
-0.90 -7.61 2.49
-0.75 -7.63 2.49
-0.60 -7.65 2.49
-0.45 -7.66 2.49
-0.29 -7.67 2.49
-0.14 -7.68 2.49
0.01 -7.13 2.49
0.16 -7.14 2.49
0.30 -7.13 2.49
0.44 -7.13 2.49
0.59 -7.12 2.49
0.73 -7.11 2.49
0.87 -7.10 2.49
1.01 -7.08 2.49
1.16 -7.06 2.49
1.30 -7.04 2.49
1.44 -7.01 2.49
1.58 -6.98 2.49
1.72 -6.95 2.49
1.86 -6.92 2.49
2.00 -6.88 2.49
2.13 -6.84 2.49
2.27 -6.80 2.49
2.41 -6.75 2.49
2.54 -6.70 2.49
2.68 -6.65 2.49
2.81 -6.60 2.49
2.94 -6.54 2.49
3.07 -6.48 2.49
3.20 -6.42 2.49
3.33 -6.36 2.49
3.46 -6.29 2.49
3.58 -6.22 2.49
3.71 -6.15 2.49
3.83 -6.07 2.49
3.95 -6.00 2.49
4.07 -5.92 2.49
4.19 -5.83 2.49
4.30 -5.75 2.49
4.42 -5.66 2.49
4.53 -5.57 2.49
4.64 -5.48 2.49
4.75 -5.39 2.49
4.86 -5.29 2.49
4.96 -5.19 2.49
5.06 -5.09 2.49
5.16 -4.99 2.49
5.26 -4.88 2.49
5.36 -4.78 2.49
5.45 -4.67 2.49
5.54 -4.56 2.49
5.63 -4.45 2.49
5.72 -4.33 2.49
5.80 -4.22 2.49
5.89 -4.10 2.49
5.97 -3.98 2.49
6.04 -3.86 2.49
6.12 -3.74 2.49
6.19 -3.61 2.49
6.26 -3.49 2.49
6.33 -3.36 2.49
6.39 -3.23 2.49
6.45 -3.10 2.49
6.51 -2.97 2.49
6.57 -2.84 2.49
6.62 -2.71 2.49
6.67 -2.57 2.49
6.72 -2.44 2.49
6.77 -2.30 2.49
6.81 -2.17 2.49
6.85 -2.03 2.49
6.89 -1.89 2.49
6.92 -1.75 2.49
6.95 -1.61 2.49
6.98 -1.47 2.49
7.01 -1.33 2.49
7.03 -1.19 2.49
7.05 -1.05 2.49
7.06 -0.91 2.49
7.08 -0.76 2.49
7.09 -0.62 2.49
7.10 -0.48 2.49
7.10 -0.34 2.49
7.11 -0.20 2.49
7.10 -0.05 2.49
7.10 0.09 2.49
7.09 0.23 2.49
7.08 0.37 2.49
7.07 0.51 2.49
7.06 0.66 2.49
7.04 0.80 2.49
7.02 0.94 2.49
7.00 1.08 2.49
6.97 1.22 2.49
6.94 1.36 2.49
6.91 1.49 2.49
6.87 1.63 2.49
6.83 1.77 2.49
6.79 1.90 2.49
6.75 2.04 2.49
6.71 2.17 2.49
6.66 2.30 2.49
6.48 2.39 2.45
6.33 2.48 2.41
6.23 2.58 2.39
6.17 2.71 2.39
6.11 2.83 2.39
6.05 2.95 2.39
5.99 3.07 2.39
5.92 3.19 2.39
5.85 3.30 2.39
5.78 3.42 2.39
5.71 3.53 2.39
5.63 3.64 2.39
5.56 3.75 2.39
5.48 3.86 2.39
5.39 3.97 2.39
5.31 4.07 2.39
5.22 4.18 2.39
5.14 4.28 2.39
5.05 4.38 2.39
4.96 4.48 2.39
4.86 4.57 2.39
4.77 4.67 2.39
4.67 4.76 2.39
4.57 4.85 2.39
4.47 4.94 2.39
4.37 5.02 2.39
4.26 5.11 2.39
4.16 5.19 2.39
4.05 5.27 2.39
3.94 5.34 2.39
3.83 5.42 2.39
3.72 5.49 2.39
3.61 5.56 2.39
3.49 5.63 2.39
3.38 5.70 2.39
3.26 5.76 2.39
3.14 5.82 2.39
3.02 5.88 2.39
2.90 5.94 2.39
2.78 5.99 2.39
2.66 6.04 2.39
2.53 6.09 2.39
2.42 6.16 2.40
2.34 6.33 2.45
2.25 6.49 2.49
2.12 6.53 2.49
1.99 6.57 2.49
1.85 6.61 2.49
1.72 6.64 2.49
1.59 6.67 2.49
1.45 6.70 2.49
1.32 6.72 2.49
1.18 6.75 2.49
1.04 6.76 2.49
0.91 6.78 2.49
0.77 6.80 2.49
0.63 6.81 2.49
0.49 6.82 2.49
0.36 6.82 2.49
0.22 6.83 2.49
0.08 6.83 2.49
-0.05 6.82 2.49
-0.19 6.82 2.49
-0.33 6.81 2.49
-0.47 6.80 2.49
-0.60 6.79 2.49
-0.74 6.77 2.49
-0.87 6.75 2.49
-1.01 6.73 2.49
-1.15 6.71 2.49
-1.28 6.68 2.49
-1.41 6.65 2.49
-1.55 6.62 2.49
-1.68 6.59 2.49
-1.81 6.55 2.49
-1.94 6.51 2.49
-2.07 6.47 2.49
-2.20 6.43 2.49
-2.33 6.38 2.49
-2.46 6.33 2.49
-2.59 6.28 2.49
-2.71 6.22 2.49
-2.83 6.17 2.49
-2.96 6.11 2.49
-3.08 6.05 2.49
-3.20 5.98 2.49
-3.32 5.92 2.49
-3.44 5.85 2.49
-3.56 5.78 2.49
-3.67 5.70 2.49
-3.78 5.63 2.49
-3.90 5.55 2.49
-4.01 5.47 2.49
-4.12 5.39 2.49
-4.23 5.31 2.49
-4.33 5.22 2.49
-4.44 5.13 2.49
-4.54 5.04 2.49
-4.64 4.95 2.49
-4.74 4.85 2.49
-4.83 4.76 2.49
-4.93 4.66 2.49
-5.02 4.56 2.49
-5.11 4.46 2.49
-5.20 4.36 2.49
-5.29 4.25 2.49
-5.38 4.14 2.49
-5.46 4.04 2.49
-5.54 3.93 2.49
-5.62 3.81 2.49
-5.70 3.70 2.49
-5.77 3.59 2.49
-5.84 3.47 2.49
-5.91 3.35 2.49
-5.98 3.23 2.49
-6.04 3.11 2.49
-6.11 2.99 2.49
-6.17 2.87 2.49
-6.21 2.74 2.49
-6.22 2.59 2.47
-6.22 2.45 2.45
-6.22 2.30 2.43
-6.22 2.16 2.41
-6.23 2.03 2.40
-6.25 1.89 2.39
-6.29 1.77 2.39
-6.33 1.64 2.39
-6.36 1.52 2.39
-6.39 1.39 2.39
-6.42 1.26 2.39
-6.46 1.13 2.39
-6.47 1.00 2.39
-6.49 0.87 2.39
-6.51 0.74 2.39
-6.53 0.61 2.39
-6.54 0.48 2.39
-6.55 0.35 2.39
-6.56 0.21 2.39
-6.48 0.08 2.36
-6.57 -0.05 2.39
-6.57 -0.18 2.39
-6.57 -0.31 2.39
-6.57 -0.45 2.39
-6.56 -0.58 2.39
-6.55 -0.71 2.39
-6.54 -0.84 2.39
-6.52 -0.97 2.39
-6.50 -1.11 2.39
-6.50 -1.24 2.40
-6.46 -1.37 2.39
-6.43 -1.50 2.39
-6.41 -1.63 2.39
-6.38 -1.76 2.39
-6.34 -1.89 2.39
-6.32 -2.02 2.40
-6.31 -2.16 2.41
-6.31 -2.30 2.42
-6.32 -2.45 2.44
-6.32 -2.59 2.46
-6.32 -2.75 2.48
-6.30 -2.89 2.49
-6.24 -3.01 2.49
-6.18 -3.14 2.49
-6.12 -3.27 2.49
-6.06 -3.39 2.49
-5.99 -3.51 2.49
-5.93 -3.63 2.49
-5.85 -3.76 2.49
-5.78 -3.87 2.49
-5.71 -3.99 2.49
-5.63 -4.11 2.49
-5.55 -4.22 2.49
-5.46 -4.34 2.49
-5.38 -4.45 2.49
-5.29 -4.56 2.49
-5.20 -4.66 2.49
-5.11 -4.77 2.49
-5.02 -4.87 2.49
-4.92 -4.98 2.49
-4.82 -5.08 2.49
-4.72 -5.18 2.49
-4.62 -5.27 2.49
-4.52 -5.37 2.49
-4.41 -5.46 2.49
-4.30 -5.55 2.49
-4.19 -5.64 2.49
-4.08 -5.73 2.49
-3.97 -5.81 2.49
-3.85 -5.89 2.49
-3.73 -5.97 2.49
-3.62 -6.05 2.49
-3.50 -6.12 2.49
-3.37 -6.19 2.49
-3.25 -6.26 2.49
-3.13 -6.33 2.49
-3.00 -6.40 2.49
-2.87 -6.46 2.49
-2.74 -6.52 2.49
-2.62 -6.57 2.49
-2.48 -6.63 2.49
-2.35 -6.68 2.49
-2.22 -6.73 2.49
-2.08 -6.78 2.49
-1.95 -6.82 2.49
-1.81 -6.86 2.49
-1.68 -6.90 2.49
-1.54 -6.93 2.49
-1.40 -6.97 2.49
-1.26 -7.00 2.49
-1.12 -7.02 2.49
-0.98 -7.05 2.49
-0.84 -7.07 2.49
-0.70 -7.09 2.49
-0.56 -7.10 2.49
-0.41 -7.11 2.49
-0.27 -7.12 2.49
-0.13 -7.13 2.49
0.01 -6.65 2.49
0.15 -6.65 2.49
0.28 -6.65 2.49
0.41 -6.64 2.49
0.55 -6.64 2.49
0.68 -6.63 2.49
0.81 -6.61 2.49
0.95 -6.60 2.49
1.08 -6.58 2.49
1.21 -6.56 2.49
1.34 -6.53 2.49
1.47 -6.51 2.49
1.60 -6.48 2.49
1.73 -6.45 2.49
1.86 -6.41 2.49
1.99 -6.37 2.49
2.12 -6.34 2.49
2.24 -6.29 2.49
2.37 -6.25 2.49
2.49 -6.20 2.49
2.62 -6.15 2.49
2.74 -6.10 2.49
2.86 -6.04 2.49
2.98 -5.98 2.49
3.10 -5.92 2.49
3.22 -5.86 2.49
3.34 -5.80 2.49
3.45 -5.73 2.49
3.57 -5.66 2.49
3.68 -5.59 2.49
3.79 -5.51 2.49
3.90 -5.44 2.49
4.01 -5.36 2.49
4.12 -5.28 2.49
4.22 -5.19 2.49
4.32 -5.11 2.49
4.42 -5.02 2.49
4.52 -4.93 2.49
4.62 -4.84 2.49
4.72 -4.74 2.49
4.81 -4.65 2.49
4.90 -4.55 2.49
4.99 -4.45 2.49
5.08 -4.35 2.49
5.16 -4.25 2.49
5.25 -4.14 2.49
5.33 -4.04 2.49
5.41 -3.93 2.49
5.48 -3.82 2.49
5.56 -3.71 2.49
5.63 -3.60 2.49
5.70 -3.48 2.49
5.77 -3.37 2.49
5.83 -3.25 2.49
5.90 -3.13 2.49
5.96 -3.01 2.49
6.01 -2.89 2.49
6.07 -2.77 2.49
6.12 -2.65 2.49
6.17 -2.52 2.49
6.22 -2.40 2.49
6.26 -2.27 2.49
6.31 -2.15 2.49
6.35 -2.02 2.49
6.38 -1.89 2.49
6.42 -1.76 2.49
6.45 -1.63 2.49
6.48 -1.50 2.49
6.51 -1.37 2.49
6.53 -1.24 2.49
6.55 -1.11 2.49
6.57 -0.98 2.49
6.59 -0.85 2.49
6.60 -0.71 2.49
6.61 -0.58 2.49
6.62 -0.45 2.49
6.62 -0.32 2.49
6.62 -0.18 2.49
6.62 -0.05 2.49
6.62 0.08 2.49
6.61 0.21 2.49
6.61 0.35 2.49
6.59 0.48 2.49
6.58 0.61 2.49
6.56 0.74 2.49
6.54 0.87 2.49
6.52 1.00 2.49
6.50 1.13 2.49
6.47 1.26 2.49
6.44 1.39 2.49
6.41 1.52 2.49
6.37 1.65 2.49
6.34 1.77 2.49
6.30 1.90 2.49
6.25 2.02 2.49
6.21 2.15 2.49
6.16 2.27 2.49
6.11 2.39 2.49
6.06 2.51 2.49
5.95 2.61 2.47
5.79 2.68 2.43
5.66 2.76 2.40
5.59 2.86 2.39
5.52 2.97 2.39
5.46 3.08 2.39
5.39 3.19 2.39
5.33 3.29 2.39
5.26 3.40 2.39
5.18 3.50 2.39
5.11 3.60 2.39
5.03 3.70 2.39
4.96 3.80 2.39
4.88 3.90 2.39
4.79 3.99 2.39
4.71 4.08 2.39
4.63 4.18 2.39
4.54 4.27 2.39
4.45 4.35 2.39
