ply
format ascii 1.0
element vertex 2988
property float32 x
property float32 y
property float32 z
end_header
-1.38 9.10 2.42
-1.56 9.07 2.42
-1.74 9.03 2.42
-1.92 8.99 2.42
-2.10 8.95 2.42
-2.28 8.91 2.42
-2.46 8.86 2.42
-2.63 8.81 2.42
-2.81 8.75 2.42
-2.99 8.69 2.42
-3.16 8.63 2.42
-3.33 8.56 2.42
-3.50 8.49 2.42
-3.67 8.42 2.42
-3.84 8.34 2.42
-4.01 8.26 2.42
-4.17 8.18 2.42
-4.34 8.10 2.42
-4.50 8.01 2.42
-4.66 7.91 2.42
-4.81 7.82 2.42
-4.97 7.72 2.42
-5.12 7.62 2.42
-5.28 7.51 2.42
-5.43 7.41 2.42
-5.57 7.30 2.42
-5.71 7.17 2.41
-5.71 6.88 2.35
-5.75 6.65 2.31
-5.90 6.56 2.32
-6.01 6.42 2.31
-6.14 6.29 2.31
-6.26 6.17 2.31
-6.07 5.74 2.20
-6.17 5.60 2.19
-6.51 5.68 2.27
-6.63 5.55 2.27
-6.65 5.35 2.25
-6.65 5.13 2.21
-6.70 4.96 2.19
-7.18 5.09 2.31
-7.28 4.94 2.31
-7.38 4.80 2.31
-7.47 4.65 2.31
-7.56 4.50 2.31
-7.65 4.35 2.31
-7.74 4.19 2.31
-7.82 4.04 2.31
-7.91 3.88 2.31
-7.98 3.72 2.31
-8.06 3.56 2.31
-8.13 3.40 2.31
-8.20 3.23 2.31
-8.26 3.07 2.31
-8.32 2.90 2.31
-8.38 2.74 2.31
-8.44 2.57 2.31
-8.49 2.40 2.31
-8.54 2.23 2.31
-8.58 2.06 2.31
-8.62 1.88 2.31
-8.66 1.71 2.31
-8.69 1.54 2.31
-8.73 1.36 2.31
-8.75 1.19 2.31
-8.78 1.01 2.31
-8.80 0.83 2.31
-8.81 0.66 2.31
-8.83 0.48 2.31
-8.84 0.30 2.31
-8.84 0.13 2.31
-8.85 -0.05 2.31
-8.85 -0.23 2.31
-8.84 -0.41 2.31
-8.84 -0.59 2.31
-8.82 -0.76 2.31
-8.81 -0.94 2.31
-8.79 -1.12 2.31
-8.77 -1.29 2.31
-8.75 -1.47 2.31
-8.72 -1.65 2.31
-8.68 -1.82 2.31
-8.65 -2.00 2.31
-8.61 -2.17 2.31
-8.57 -2.34 2.31
-8.52 -2.52 2.31
-8.47 -2.69 2.31
-8.42 -2.86 2.31
-8.36 -3.03 2.31
-8.30 -3.19 2.31
-8.24 -3.36 2.31
-8.17 -3.53 2.31
-8.10 -3.69 2.31
-8.03 -3.86 2.31
-7.95 -4.02 2.31
-7.87 -4.18 2.31
-7.79 -4.34 2.31
-7.70 -4.49 2.31
-7.61 -4.65 2.31
-7.52 -4.80 2.31
-7.43 -4.95 2.31
-7.33 -5.10 2.31
-7.23 -5.25 2.31
-6.75 -5.11 2.19
-6.66 -5.26 2.20
-6.65 -5.48 2.23
-6.65 -5.70 2.27
-6.56 -5.86 2.27
-6.32 -5.87 2.23
-6.10 -5.90 2.19
-6.31 -6.36 2.31
-6.18 -6.48 2.31
-6.05 -6.61 2.31
-5.92 -6.73 2.31
-5.79 -6.85 2.31
-5.71 -7.04 2.34
-5.71 -7.33 2.40
-5.61 -7.51 2.42
-5.46 -7.63 2.42
-5.31 -7.74 2.42
-5.15 -7.85 2.42
-5.00 -7.95 2.42
-4.84 -8.05 2.42
-4.68 -8.15 2.42
-4.51 -8.24 2.42
-4.35 -8.34 2.42
-4.18 -8.42 2.42
-4.01 -8.51 2.42
-3.84 -8.59 2.42
-3.67 -8.67 2.42
-3.50 -8.74 2.42
-3.32 -8.81 2.42
-3.15 -8.88 2.42
-2.97 -8.94 2.42
-2.79 -9.00 2.42
-2.61 -9.06 2.42
-2.43 -9.11 2.42
-2.24 -9.16 2.42
-2.06 -9.21 2.42
-1.87 -9.25 2.42
-1.69 -9.29 2.42
-1.50 -9.32 2.42
-1.32 -9.35 2.42
-1.13 -9.38 2.42
-0.94 -9.40 2.42
-0.75 -9.42 2.42
-0.56 -9.44 2.42
-0.37 -9.45 2.42
-0.18 -9.46 2.42
0.01 -8.64 2.42
0.18 -8.64 2.42
0.35 -8.64 2.42
0.53 -8.63 2.42
0.70 -8.62 2.42
0.87 -8.61 2.42
1.04 -8.59 2.42
1.22 -8.57 2.42
1.39 -8.54 2.42
1.56 -8.51 2.42
1.73 -8.48 2.42
1.90 -8.45 2.42
2.07 -8.41 2.42
2.24 -8.37 2.42
2.34 -8.09 2.35
2.46 -7.92 2.31
2.62 -7.87 2.31
2.78 -7.81 2.31
2.93 -7.76 2.31
3.09 -7.70 2.31
3.24 -7.64 2.31
3.40 -7.57 2.31
3.55 -7.50 2.31
3.70 -7.43 2.31
3.85 -7.35 2.31
3.99 -7.27 2.31
4.14 -7.19 2.31
4.28 -7.11 2.31
4.42 -7.02 2.31
4.56 -6.93 2.31
4.70 -6.84 2.31
4.84 -6.74 2.31
4.97 -6.65 2.31
5.10 -6.54 2.31
5.24 -6.44 2.31
5.36 -6.33 2.31
5.49 -6.23 2.31
5.61 -6.11 2.31
5.73 -6.00 2.31
5.85 -5.88 2.31
5.97 -5.77 2.31
6.08 -5.64 2.31
6.19 -5.52 2.31
6.23 -5.33 2.29
6.23 -5.12 2.25
6.23 -4.91 2.21
6.23 -4.71 2.18
6.23 -4.52 2.15
6.23 -4.33 2.12
6.23 -4.15 2.09
6.23 -3.97 2.06
6.23 -3.80 2.04
6.23 -3.63 2.01
6.23 -3.46 1.99
6.23 -3.30 1.97
6.23 -3.14 1.95
6.23 -2.99 1.93
6.23 -2.84 1.91
6.23 -2.69 1.90
6.23 -2.54 1.88
6.23 -2.40 1.87
6.23 -2.25 1.85
6.23 -2.11 1.84
6.23 -1.97 1.83
6.23 -1.84 1.82
6.23 -1.70 1.81
6.23 -1.57 1.80
6.23 -1.44 1.79
6.23 -1.31 1.78
6.23 -1.18 1.77
6.23 -1.05 1.77
6.23 -0.92 1.76
6.23 -0.79 1.76
6.23 -0.66 1.76
6.23 -0.54 1.75
5.51 -0.36 1.55
5.50 -0.25 1.54
5.51 -0.14 1.54
5.52 -0.03 1.55
6.23 0.09 1.75
6.23 0.21 1.75
6.23 0.34 1.75
6.23 0.46 1.75
6.23 0.59 1.76
6.23 0.72 1.76
6.23 0.84 1.77
6.23 0.97 1.77
6.23 1.10 1.78
7.79 1.54 2.23
7.76 1.69 2.23
7.73 1.85 2.24
7.69 2.00 2.24
7.66 2.16 2.24
7.62 2.32 2.24
7.58 2.47 2.24
7.53 2.62 2.25
7.48 2.78 2.25
7.43 2.93 2.25
7.38 3.08 2.26
6.32 2.79 1.95
6.20 2.88 1.93
6.20 3.04 1.95
6.20 3.19 1.97
6.20 3.35 1.99
6.20 3.51 2.01
6.20 3.68 2.04
6.20 3.85 2.06
6.20 4.02 2.09
6.20 4.20 2.12
6.20 4.39 2.15
6.20 4.58 2.18
6.20 4.77 2.21
6.20 4.97 2.25
6.20 5.18 2.29
6.16 5.36 2.31
6.05 5.48 2.31
5.93 5.60 2.31
5.82 5.72 2.31
5.70 5.83 2.31
5.58 5.94 2.31
5.46 6.05 2.31
5.33 6.16 2.31
5.21 6.26 2.31
5.08 6.36 2.31
4.95 6.46 2.31
4.82 6.56 2.31
4.68 6.65 2.31
4.55 6.74 2.31
4.41 6.83 2.31
4.27 6.92 2.31
4.13 7.00 2.31
3.99 7.08 2.31
3.84 7.15 2.31
3.70 7.23 2.31
3.55 7.30 2.31
3.40 7.37 2.31
3.25 7.43 2.31
3.10 7.49 2.31
2.95 7.55 2.31
2.80 7.61 2.31
2.64 7.66 2.31
2.49 7.71 2.31
2.35 7.81 2.33
2.27 8.15 2.42
2.11 8.19 2.42
1.94 8.23 2.42
1.78 8.26 2.42
1.61 8.30 2.42
1.44 8.33 2.42
1.27 8.35 2.42
1.11 8.37 2.42
0.94 8.39 2.42
0.77 8.41 2.42
0.60 8.42 2.42
0.43 8.43 2.42
0.26 8.43 2.42
0.09 8.43 2.42
-0.08 8.43 2.42
-0.25 8.43 2.42
-0.42 8.42 2.42
-0.59 8.41 2.42
-0.76 8.39 2.42
-0.92 8.38 2.42
-1.09 8.35 2.42
-1.26 8.33 2.42
-1.43 8.30 2.42
-1.59 8.27 2.42
-1.76 8.23 2.42
-1.92 8.20 2.42
-2.09 8.16 2.42
-2.25 8.11 2.42
-2.41 8.06 2.42
-2.57 8.01 2.42
-2.73 7.96 2.42
-2.89 7.90 2.42
-3.05 7.84 2.42
-3.21 7.78 2.42
-3.36 7.71 2.42
-3.52 7.64 2.42
-3.67 7.57 2.42
-3.82 7.49 2.42
-3.97 7.41 2.42
-4.12 7.33 2.42
-4.26 7.25 2.42
-4.41 7.16 2.42
-4.55 7.07 2.42
-4.69 6.98 2.42
-4.83 6.88 2.42
-4.97 6.78 2.42
-5.10 6.68 2.42
-5.24 6.58 2.42
-5.37 6.47 2.42
-5.50 6.36 2.42
-5.62 6.25 2.42
-5.71 6.09 2.40
-5.71 5.86 2.35
-5.74 5.65 2.31
-5.85 5.53 2.31
-5.96 5.41 2.31
-6.07 5.29 2.31
-6.07 5.08 2.27
-6.07 4.88 2.24
-6.07 4.68 2.20
-6.13 4.54 2.19
-6.46 4.58 2.27
-6.55 4.45 2.27
-6.64 4.32 2.27
-6.65 4.14 2.25
-6.65 3.96 2.22
-6.66 3.78 2.20
-6.71 3.64 2.19
-6.79 3.50 2.19
-7.24 3.55 2.31
-7.31 3.41 2.31
-7.38 3.26 2.31
-7.44 3.11 2.31
-7.50 2.96 2.31
-7.56 2.81 2.31
-7.62 2.66 2.31
-7.67 2.50 2.31
-7.72 2.35 2.31
-7.77 2.20 2.31
-7.81 2.04 2.31
-7.85 1.88 2.31
-7.89 1.72 2.31
-7.93 1.57 2.31
-7.96 1.41 2.31
-7.99 1.25 2.31
-8.01 1.09 2.31
-8.03 0.92 2.31
-8.05 0.76 2.31
-8.07 0.60 2.31
-8.08 0.44 2.31
-8.09 0.28 2.31
-8.10 0.11 2.31
-8.10 -0.05 2.31
-8.10 -0.21 2.31
-8.09 -0.37 2.31
-8.09 -0.54 2.31
-8.08 -0.70 2.31
-8.06 -0.86 2.31
-8.05 -1.02 2.31
-8.03 -1.18 2.31
-8.00 -1.35 2.31
-7.98 -1.51 2.31
-7.95 -1.67 2.31
-7.91 -1.83 2.31
-7.88 -1.99 2.31
-7.84 -2.14 2.31
-7.80 -2.30 2.31
-7.75 -2.46 2.31
-7.70 -2.61 2.31
-7.65 -2.77 2.31
-7.60 -2.92 2.31
-7.54 -3.08 2.31
-7.48 -3.23 2.31
-7.41 -3.38 2.31
-7.34 -3.53 2.31
-7.27 -3.68 2.31
-7.20 -3.82 2.31
-6.75 -3.76 2.19
-6.68 -3.89 2.19
-6.65 -4.06 2.21
-6.65 -4.25 2.24
-6.65 -4.44 2.27
-6.59 -4.59 2.27
-6.50 -4.72 2.27
-6.17 -4.68 2.19
-6.08 -4.80 2.19
-6.07 -4.99 2.22
-6.07 -5.20 2.26
-6.07 -5.42 2.30
-6.00 -5.57 2.31
-5.90 -5.71 2.32
-5.77 -5.81 2.31
-5.71 -5.99 2.34
-5.71 -6.23 2.39
-5.66 -6.43 2.42
-5.53 -6.54 2.42
-5.40 -6.66 2.42
-5.26 -6.76 2.42
-5.13 -6.87 2.42
-4.99 -6.97 2.42
-4.85 -7.07 2.42
-4.71 -7.17 2.42
-4.57 -7.27 2.42
-4.42 -7.36 2.42
-4.27 -7.45 2.42
-4.12 -7.54 2.42
-3.97 -7.62 2.42
-3.82 -7.70 2.42
-3.67 -7.78 2.42
-3.51 -7.85 2.42
-3.35 -7.92 2.42
-3.20 -7.99 2.42
-3.04 -8.05 2.42
-2.87 -8.12 2.42
-2.71 -8.17 2.42
-2.55 -8.23 2.42
-2.38 -8.28 2.42
-2.22 -8.33 2.42
-2.05 -8.37 2.42
-1.88 -8.42 2.42
-1.71 -8.45 2.42
-1.54 -8.49 2.42
-1.37 -8.52 2.42
-1.20 -8.55 2.42
-1.03 -8.57 2.42
-0.86 -8.59 2.42
-0.69 -8.61 2.42
-0.51 -8.62 2.42
-0.34 -8.63 2.42
-0.17 -8.64 2.42
0.01 -7.95 2.42
0.17 -7.95 2.42
0.32 -7.94 2.42
0.48 -7.94 2.42
0.64 -7.93 2.42
0.80 -7.91 2.42
0.96 -7.90 2.42
1.12 -7.88 2.42
1.28 -7.86 2.42
1.43 -7.83 2.42
1.59 -7.80 2.42
1.75 -7.77 2.42
1.90 -7.73 2.42
2.06 -7.69 2.42
2.21 -7.65 2.42
2.34 -7.51 2.39
2.41 -7.23 2.31
2.56 -7.19 2.31
2.70 -7.13 2.31
2.84 -7.08 2.31
2.98 -7.02 2.31
3.12 -6.96 2.31
3.26 -6.90 2.31
3.40 -6.83 2.31
3.54 -6.76 2.31
3.67 -6.69 2.31
3.81 -6.61 2.31
3.94 -6.54 2.31
4.07 -6.46 2.31
4.20 -6.37 2.31
4.32 -6.29 2.31
4.45 -6.20 2.31
4.57 -6.11 2.31
4.69 -6.02 2.31
4.81 -5.92 2.31
4.93 -5.82 2.31
5.05 -5.72 2.31
5.16 -5.62 2.31
5.27 -5.52 2.31
5.38 -5.41 2.31
5.49 -5.30 2.31
5.59 -5.19 2.31
5.70 -5.08 2.31
5.80 -4.96 2.31
5.89 -4.84 2.31
5.99 -4.72 2.31
6.08 -4.60 2.31
6.17 -4.48 2.31
6.23 -4.33 2.30
6.23 -4.15 2.27
6.23 -3.97 2.24
6.23 -3.80 2.21
6.23 -3.63 2.19
6.23 -3.46 2.16
6.23 -3.30 2.14
6.23 -3.14 2.12
6.23 -2.99 2.10
6.23 -2.84 2.08
6.23 -2.69 2.06
6.23 -2.54 2.04
6.23 -2.40 2.03
6.23 -2.25 2.01
6.23 -2.11 2.00
6.23 -1.97 1.99
6.23 -1.84 1.98
6.23 -1.70 1.96
6.23 -1.57 1.95
6.23 -1.44 1.95
6.23 -1.31 1.94
6.23 -1.18 1.93
6.23 -1.05 1.92
6.23 -0.92 1.92
6.23 -0.79 1.91
6.23 -0.66 1.91
6.23 -0.54 1.91
5.52 -0.37 1.68
5.51 -0.25 1.68
5.51 -0.14 1.68
5.52 -0.03 1.68
6.23 0.09 1.90
6.23 0.21 1.90
6.23 0.34 1.90
6.23 0.46 1.91
6.23 0.59 1.91
6.23 0.72 1.92
6.23 0.84 1.92
6.23 0.97 1.93
6.23 1.10 1.93
7.26 1.43 2.26
7.23 1.58 2.26
7.20 1.72 2.26
7.17 1.87 2.27
7.14 2.01 2.27
7.10 2.16 2.27
7.06 2.30 2.27
7.02 2.44 2.28
6.97 2.59 2.28
6.93 2.73 2.28
6.88 2.87 2.28
6.32 2.79 2.12
6.20 2.88 2.10
6.20 3.04 2.12
6.20 3.19 2.14
5.29 2.86 1.84
5.45 3.09 1.92
5.45 3.24 1.95
5.37 3.34 1.94
4.99 3.24 1.83
6.23 4.23 2.31
6.14 4.35 2.31
6.05 4.47 2.31
5.96 4.59 2.31
5.86 4.71 2.31
5.77 4.82 2.31
5.67 4.94 2.31
5.57 5.05 2.31
5.46 5.16 2.31
5.36 5.26 2.31
5.25 5.37 2.31
5.14 5.47 2.31
5.02 5.57 2.31
4.91 5.67 2.31
4.79 5.76 2.31
4.68 5.86 2.31
4.56 5.95 2.31
4.44 6.04 2.31
4.31 6.12 2.31
4.19 6.21 2.31
4.06 6.29 2.31
3.93 6.37 2.31
3.80 6.44 2.31
3.67 6.52 2.31
3.54 6.59 2.31
3.40 6.66 2.31
3.27 6.72 2.31
3.13 6.78 2.31
3.00 6.84 2.31
2.86 6.90 2.31
2.72 6.95 2.31
2.58 7.01 2.31
2.43 7.05 2.31
2.34 7.24 2.36
2.24 7.46 2.42
2.09 7.50 2.42
1.94 7.54 2.42
1.79 7.58 2.42
1.64 7.61 2.42
1.48 7.64 2.42
1.33 7.67 2.42
1.17 7.69 2.42
1.02 7.71 2.42
0.86 7.73 2.42
0.71 7.74 2.42
0.55 7.75 2.42
0.40 7.76 2.42
0.24 7.77 2.42
0.08 7.77 2.42
-0.07 7.77 2.42
-0.23 7.76 2.42
-0.38 7.76 2.42
-0.54 7.75 2.42
-0.70 7.73 2.42
-0.85 7.72 2.42
-1.01 7.70 2.42
-1.16 7.67 2.42
-1.31 7.65 2.42
-1.47 7.62 2.42
-1.62 7.59 2.42
-1.77 7.55 2.42
-1.92 7.51 2.42
-2.07 7.47 2.42
-2.22 7.43 2.42
-2.37 7.38 2.42
-2.52 7.33 2.42
-2.66 7.28 2.42
-2.81 7.22 2.42
-2.95 7.17 2.42
-3.10 7.10 2.42
-3.24 7.04 2.42
-3.38 6.97 2.42
-3.52 6.90 2.42
-3.66 6.83 2.42
-3.79 6.76 2.42
-3.93 6.68 2.42
-4.06 6.60 2.42
-4.19 6.51 2.42
-4.32 6.43 2.42
-4.45 6.34 2.42
-4.58 6.25 2.42
-4.70 6.16 2.42
-4.83 6.06 2.42
-4.95 5.96 2.42
-5.07 5.86 2.42
-5.18 5.76 2.42
-5.30 5.65 2.42
-5.41 5.55 2.42
-5.52 5.44 2.42
-5.63 5.32 2.42
-5.71 5.19 2.41
-5.71 4.98 2.36
-5.72 4.79 2.33
-5.78 4.65 2.31
-5.87 4.53 2.31
-5.97 4.41 2.31
-6.05 4.29 2.31
-6.07 4.12 2.29
-6.07 3.95 2.26
-6.07 3.77 2.23
-6.07 3.61 2.20
-6.12 3.47 2.19
-6.19 3.35 2.19
-6.49 3.35 2.27
-6.55 3.22 2.27
-6.62 3.08 2.27
-6.65 2.94 2.27
-6.65 2.78 2.25
-6.65 2.62 2.23
-6.65 2.47 2.21
-6.66 2.32 2.20
-6.70 2.19 2.19
-6.74 2.05 2.19
-6.78 1.92 2.19
-7.20 1.88 2.31
-7.24 1.73 2.31
-7.27 1.59 2.31
-7.30 1.44 2.31
-7.33 1.29 2.31
-7.36 1.15 2.31
-7.38 1.00 2.31
-7.40 0.85 2.31
-7.42 0.70 2.31
-7.43 0.55 2.31
-7.44 0.40 2.31
-7.45 0.25 2.31
-7.46 0.10 2.31
-7.46 -0.04 2.31
-7.46 -0.19 2.31
-7.45 -0.34 2.31
-7.45 -0.49 2.31
-7.44 -0.64 2.31
-7.43 -0.79 2.31
-7.41 -0.94 2.31
-7.39 -1.09 2.31
-7.37 -1.24 2.31
-7.34 -1.39 2.31
-7.32 -1.54 2.31
-7.29 -1.68 2.31
-7.25 -1.83 2.31
-7.22 -1.98 2.31
-7.18 -2.12 2.31
-6.76 -2.15 2.19
-6.72 -2.28 2.19
-6.67 -2.42 2.19
-6.65 -2.56 2.20
-6.65 -2.72 2.22
-6.65 -2.87 2.24
-6.65 -3.03 2.26
-6.64 -3.19 2.27
-6.58 -3.33 2.27
-6.52 -3.46 2.27
-6.45 -3.59 2.27
-6.15 -3.59 2.19
-6.08 -3.71 2.19
-6.07 -3.87 2.22
-6.07 -4.05 2.24
-6.07 -4.23 2.28
-6.07 -4.41 2.31
-5.99 -4.54 2.31
-5.90 -4.67 2.31
-5.81 -4.78 2.31
-5.72 -4.91 2.32
-5.71 -5.10 2.35
-5.71 -5.31 2.39
-5.66 -5.47 2.42
-5.55 -5.59 2.42
-5.43 -5.70 2.42
-5.32 -5.81 2.42
-5.20 -5.92 2.42
-5.09 -6.02 2.42
-4.97 -6.12 2.42
-4.84 -6.22 2.42
-4.72 -6.32 2.42
-4.59 -6.42 2.42
-4.46 -6.51 2.42
-4.33 -6.60 2.42
-4.20 -6.69 2.42
-4.07 -6.77 2.42
-3.93 -6.85 2.42
-3.79 -6.93 2.42
-3.66 -7.01 2.42
-3.52 -7.08 2.42
-3.37 -7.15 2.42
-3.23 -7.22 2.42
-3.08 -7.29 2.42
-2.94 -7.35 2.42
-2.79 -7.41 2.42
-2.64 -7.47 2.42
-2.49 -7.52 2.42
-2.34 -7.57 2.42
-2.19 -7.62 2.42
-2.04 -7.66 2.42
-1.88 -7.70 2.42
-1.73 -7.74 2.42
-1.57 -7.78 2.42
-1.42 -7.81 2.42
-1.26 -7.84 2.42
-1.10 -7.86 2.42
-0.95 -7.88 2.42
-0.79 -7.90 2.42
-0.63 -7.92 2.42
-0.47 -7.93 2.42
-0.31 -7.94 2.42
-0.15 -7.95 2.42
0.01 -7.35 2.42
0.15 -7.35 2.42
0.30 -7.35 2.42
0.45 -7.34 2.42
0.60 -7.33 2.42
0.74 -7.32 2.42
0.89 -7.30 2.42
1.04 -7.28 2.42
1.18 -7.26 2.42
1.33 -7.24 2.42
1.47 -7.21 2.42
1.62 -7.18 2.42
1.76 -7.15 2.42
1.90 -7.11 2.42
2.05 -7.07 2.42
2.19 -7.03 2.42
2.33 -6.99 2.42
2.36 -6.64 2.31
2.50 -6.59 2.31
2.63 -6.54 2.31
2.76 -6.49 2.31
2.89 -6.43 2.31
3.02 -6.38 2.31
3.14 -6.31 2.31
3.27 -6.25 2.31
3.39 -6.18 2.31
3.52 -6.11 2.31
3.64 -6.04 2.31
3.76 -5.97 2.31
3.88 -5.89 2.31
4.00 -5.81 2.31
4.11 -5.73 2.31
4.23 -5.65 2.31
4.34 -5.56 2.31
4.45 -5.47 2.31
4.56 -5.38 2.31
4.67 -5.29 2.31
4.77 -5.20 2.31
4.87 -5.10 2.31
4.97 -5.00 2.31
5.07 -4.90 2.31
5.17 -4.80 2.31
5.27 -4.69 2.31
5.36 -4.59 2.31
5.45 -4.48 2.31
5.54 -4.37 2.31
5.62 -4.25 2.31
5.71 -4.14 2.31
5.79 -4.03 2.31
5.87 -3.91 2.31
5.94 -3.79 2.31
6.02 -3.67 2.31
6.09 -3.55 2.31
6.16 -3.42 2.31
6.23 -3.30 2.31
6.23 -3.14 2.29
6.23 -2.99 2.27
6.23 -2.84 2.25
6.23 -2.69 2.23
6.23 -2.54 2.21
6.23 -2.40 2.19
6.23 -2.25 2.18
6.23 -2.11 2.16
6.23 -1.97 2.15
6.23 -1.84 2.14
6.23 -1.70 2.12
6.23 -1.57 2.11
6.23 -1.44 2.10
6.23 -1.31 2.09
6.23 -1.18 2.09
6.23 -1.05 2.08
6.23 -0.92 2.07
6.23 -0.79 2.07
6.23 -0.67 2.06
6.23 -0.54 2.06
5.52 -0.37 1.82
5.51 -0.25 1.82
5.52 -0.14 1.82
5.51 -0.03 1.82
6.23 0.09 2.05
6.23 0.21 2.06
6.23 0.34 2.06
6.23 0.46 2.06
6.23 0.59 2.07
6.23 0.72 2.07
6.23 0.84 2.08
5.47 0.85 1.83
5.46 0.96 1.83
5.44 1.07 1.83
6.78 1.48 2.29
6.75 1.61 2.29
6.72 1.75 2.30
6.69 1.88 2.30
6.65 2.02 2.30
6.61 2.15 2.30
6.57 2.29 2.30
6.53 2.42 2.31
6.49 2.55 2.31
6.44 2.69 2.31
6.32 2.79 2.29
6.20 2.88 2.27
6.20 3.03 2.29
6.20 3.19 2.31
5.29 2.86 1.99
5.04 2.86 1.92
4.97 2.95 1.92
4.97 3.09 1.94
4.97 3.23 1.97
5.77 3.91 2.31
5.68 4.02 2.31
5.60 4.14 2.31
5.51 4.25 2.31
5.43 4.35 2.31
5.34 4.46 2.31
5.25 4.57 2.31
5.15 4.67 2.31
5.05 4.77 2.31
4.96 4.87 2.31
4.86 4.97 2.31
4.75 5.06 2.31
4.65 5.16 2.31
4.55 5.25 2.31
4.44 5.33 2.31
4.33 5.42 2.31
4.22 5.51 2.31
4.11 5.59 2.31
3.99 5.67 2.31
3.88 5.75 2.31
3.76 5.82 2.31
3.64 5.89 2.31
3.52 5.96 2.31
3.40 6.03 2.31
3.28 6.10 2.31
3.15 6.16 2.31
3.03 6.22 2.31
2.90 6.28 2.31
2.77 6.33 2.31
2.65 6.39 2.31
2.52 6.44 2.31
2.39 6.49 2.31
2.34 6.77 2.40
2.22 6.87 2.42
2.08 6.91 2.42
1.94 6.95 2.42
1.80 6.98 2.42
1.66 7.02 2.42
1.52 7.05 2.42
1.37 7.07 2.42
1.23 7.10 2.42
1.09 7.12 2.42
0.94 7.14 2.42
0.80 7.16 2.42
0.66 7.17 2.42
0.51 7.18 2.42
0.37 7.19 2.42
0.22 7.19 2.42
0.08 7.19 2.42
-0.07 7.19 2.42
-0.21 7.19 2.42
-0.36 7.18 2.42
-0.50 7.17 2.42
-0.64 7.16 2.42
-0.79 7.14 2.42
-0.93 7.13 2.42
-1.07 7.11 2.42
-1.22 7.08 2.42
-1.36 7.05 2.42
-1.50 7.03 2.42
-1.64 6.99 2.42
-1.78 6.96 2.42
-1.92 6.92 2.42
-2.06 6.88 2.42
-2.20 6.84 2.42
-2.33 6.79 2.42
-2.47 6.74 2.42
-2.60 6.69 2.42
-2.74 6.64 2.42
-2.87 6.58 2.42
-3.00 6.52 2.42
-3.13 6.46 2.42
-3.26 6.39 2.42
-3.39 6.33 2.42
-3.51 6.26 2.42
-3.64 6.18 2.42
-3.76 6.11 2.42
-3.88 6.03 2.42
-4.00 5.95 2.42
-4.12 5.87 2.42
-4.24 5.79 2.42
-4.36 5.70 2.42
-4.47 5.61 2.42
-4.58 5.52 2.42
-4.69 5.43 2.42
-4.80 5.33 2.42
-4.91 5.24 2.42
-5.01 5.14 2.42
-5.11 5.03 2.42
-5.21 4.93 2.42
-5.31 4.83 2.42
-5.41 4.72 2.42
-5.50 4.61 2.42
-5.59 4.50 2.42
-5.68 4.38 2.42
-5.71 4.22 2.39
-5.71 4.05 2.36
-5.72 3.88 2.33
-5.76 3.75 2.31
-5.84 3.63 2.31
-5.91 3.51 2.31
-5.98 3.39 2.31
-6.05 3.27 2.31
-6.07 3.13 2.30
-6.07 2.98 2.27
-6.07 2.83 2.25
-6.07 2.68 2.23
-6.07 2.53 2.21
-6.07 2.40 2.20
-6.11 2.27 2.19
-6.16 2.15 2.19
-6.20 2.02 2.19
-6.48 1.97 2.27
-6.51 1.84 2.27
-6.55 1.71 2.27
-6.59 1.58 2.27
-6.62 1.44 2.27
-6.64 1.31 2.27
-6.43 1.14 2.19
-6.48 1.01 2.20
-6.83 0.92 2.31
-6.85 0.79 2.31
-6.87 0.65 2.31
-6.88 0.51 2.31
-6.89 0.37 2.31
-6.90 0.24 2.31
-6.90 0.10 2.31
-6.90 -0.04 2.31
-6.90 -0.18 2.31
-6.90 -0.32 2.31
-6.89 -0.46 2.31
-6.89 -0.60 2.31
-6.87 -0.74 2.31
-6.86 -0.87 2.31
-6.84 -1.01 2.31
-6.82 -1.15 2.31
-6.44 -1.22 2.19
-6.42 -1.35 2.19
-6.63 -1.53 2.27
-6.60 -1.67 2.27
-6.57 -1.80 2.27
-6.53 -1.93 2.27
-6.49 -2.06 2.27
-6.45 -2.19 2.27
-6.18 -2.24 2.19
-6.13 -2.36 2.19
-6.08 -2.48 2.19
-6.07 -2.62 2.20
-6.07 -2.77 2.22
-6.07 -2.91 2.24
-6.07 -3.07 2.26
-6.07 -3.22 2.29
-6.07 -3.38 2.31
-6.00 -3.50 2.31
-5.93 -3.62 2.31
-5.86 -3.74 2.31
-5.79 -3.86 2.31
-5.72 -3.99 2.32
-5.71 -4.15 2.35
-5.71 -4.33 2.38
-5.71 -4.51 2.42
-5.62 -4.62 2.42
-5.52 -4.74 2.42
-5.43 -4.85 2.42
-5.33 -4.96 2.42
-5.23 -5.07 2.42
-5.13 -5.17 2.42
-5.03 -5.27 2.42
-4.92 -5.38 2.42
-4.81 -5.47 2.42
-4.70 -5.57 2.42
-4.59 -5.67 2.42
-4.48 -5.76 2.42
-4.36 -5.85 2.42
-4.25 -5.94 2.42
-4.13 -6.02 2.42
-4.01 -6.11 2.42
-3.89 -6.19 2.42
-3.76 -6.26 2.42
-3.64 -6.34 2.42
-3.51 -6.41 2.42
-3.38 -6.48 2.42
-3.25 -6.55 2.42
-3.12 -6.62 2.42
-2.99 -6.68 2.42
-2.85 -6.74 2.42
-2.72 -6.80 2.42
-2.58 -6.85 2.42
-2.44 -6.91 2.42
-2.31 -6.95 2.42
-2.17 -7.00 2.42
-2.03 -7.04 2.42
-1.88 -7.09 2.42
-1.74 -7.12 2.42
-1.60 -7.16 2.42
-1.46 -7.19 2.42
-1.31 -7.22 2.42
-1.17 -7.25 2.42
-1.02 -7.27 2.42
-0.88 -7.29 2.42
-0.73 -7.31 2.42
-0.58 -7.32 2.42
-0.44 -7.33 2.42
-0.29 -7.34 2.42
-0.14 -7.35 2.42
0.01 -6.83 2.42
0.14 -6.83 2.42
0.28 -6.82 2.42
0.42 -6.82 2.42
0.55 -6.81 2.42
0.69 -6.80 2.42
0.83 -6.78 2.42
0.96 -6.77 2.42
1.10 -6.75 2.42
1.23 -6.72 2.42
1.37 -6.70 2.42
1.50 -6.67 2.42
1.64 -6.64 2.42
1.77 -6.61 2.42
1.90 -6.57 2.42
2.03 -6.53 2.42
2.16 -6.49 2.42
2.29 -6.45 2.42
2.34 -6.19 2.34
2.44 -6.08 2.31
2.56 -6.03 2.31
2.68 -5.98 2.31
2.80 -5.92 2.31
2.92 -5.86 2.31
3.04 -5.81 2.31
3.15 -5.74 2.31
3.27 -5.68 2.31
3.38 -5.61 2.31
3.49 -5.54 2.31
3.60 -5.47 2.31
3.71 -5.40 2.31
3.82 -5.32 2.31
3.93 -5.25 2.31
4.03 -5.17 2.31
4.13 -5.09 2.31
4.23 -5.00 2.31
4.33 -4.92 2.31
4.43 -4.83 2.31
4.53 -4.74 2.31
4.62 -4.65 2.31
4.71 -4.55 2.31
4.80 -4.46 2.31
4.89 -4.36 2.31
4.98 -4.26 2.31
5.06 -4.16 2.31
5.14 -4.06 2.31
5.22 -3.95 2.31
5.30 -3.85 2.31
5.38 -3.74 2.31
5.45 -3.63 2.31
5.52 -3.52 2.31
5.59 -3.41 2.31
5.66 -3.30 2.31
5.72 -3.18 2.31
5.78 -3.07 2.31
5.84 -2.95 2.31
5.90 -2.83 2.31
5.95 -2.71 2.31
6.01 -2.59 2.31
6.06 -2.47 2.31
6.10 -2.35 2.31
6.15 -2.22 2.31
6.19 -2.10 2.31
6.23 -1.98 2.31
6.23 -1.84 2.30
6.23 -1.70 2.29
6.23 -1.57 2.28
6.23 -1.44 2.26
6.23 -1.31 2.26
6.23 -1.18 2.25
6.23 -1.05 2.24
6.23 -0.92 2.23
6.23 -0.79 2.23
6.23 -0.67 2.22
6.23 -0.54 2.22
5.53 -0.37 1.96
5.52 -0.26 1.96
5.52 -0.14 1.96
5.52 -0.03 1.96
6.23 0.09 2.21
6.23 0.21 2.21
6.23 0.34 2.22
6.23 0.46 2.22
6.23 0.59 2.22
5.21 0.60 1.86
5.45 0.74 1.95
5.45 0.85 1.96
5.45 0.96 1.97
5.44 1.07 1.97
5.03 1.09 1.83
6.33 1.51 2.31
6.29 1.64 2.31
6.26 1.76 2.31
6.22 1.89 2.31
6.18 2.01 2.31
6.13 2.13 2.31
6.09 2.26 2.31
6.04 2.38 2.31
5.99 2.50 2.31
5.94 2.62 2.31
5.88 2.74 2.31
5.83 2.85 2.31
5.77 2.97 2.31
5.29 2.86 2.15
5.04 2.86 2.07
4.97 2.95 2.06
4.97 3.09 2.09
4.97 3.23 2.12
5.36 3.63 2.31
5.28 3.74 2.31
5.21 3.84 2.31
5.13 3.95 2.31
5.05 4.05 2.31
4.96 4.15 2.31
4.88 4.24 2.31
4.79 4.34 2.31
4.70 4.43 2.31
4.61 4.53 2.31
4.52 4.62 2.31
4.42 4.71 2.31
4.32 4.79 2.31
4.23 4.88 2.31
4.13 4.96 2.31
4.02 5.04 2.31
3.92 5.12 2.31
3.82 5.19 2.31
3.71 5.27 2.31
3.60 5.34 2.31
3.50 5.41 2.31
3.38 5.48 2.31
3.27 5.54 2.31
3.16 5.61 2.31
3.05 5.67 2.31
2.93 5.73 2.31
2.82 5.78 2.31
2.70 5.84 2.31
2.58 5.89 2.31
2.46 5.94 2.31
2.35 6.01 2.32
2.32 6.30 2.42
2.19 6.34 2.42
2.06 6.39 2.42
1.93 6.42 2.42
1.80 6.46 2.42
1.67 6.49 2.42
1.54 6.52 2.42
1.41 6.55 2.42
1.28 6.58 2.42
1.14 6.60 2.42
1.01 6.62 2.42
0.88 6.64 2.42
0.74 6.66 2.42
0.61 6.67 2.42
0.48 6.68 2.42
0.34 6.68 2.42
0.21 6.69 2.42
0.07 6.69 2.42
-0.06 6.69 2.42
-0.20 6.69 2.42
-0.33 6.68 2.42
-0.46 6.67 2.42
-0.60 6.66 2.42
-0.73 6.65 2.42
-0.87 6.63 2.42
-1.00 6.61 2.42
-1.13 6.59 2.42
-1.26 6.56 2.42
-1.39 6.53 2.42
-1.52 6.50 2.42
-1.66 6.47 2.42
-1.78 6.44 2.42
-1.91 6.40 2.42
-2.04 6.36 2.42
-2.17 6.32 2.42
-2.30 6.27 2.42
-2.42 6.22 2.42
-2.54 6.17 2.42
-2.67 6.12 2.42
-2.79 6.06 2.42
-2.91 6.01 2.42
-3.03 5.95 2.42
-3.15 5.88 2.42
-3.27 5.82 2.42
-3.38 5.75 2.42
-3.50 5.68 2.42
-3.61 5.61 2.42
-3.72 5.54 2.42
-3.84 5.46 2.42
-3.94 5.38 2.42
-4.05 5.30 2.42
-4.16 5.22 2.42
-4.26 5.14 2.42
-4.36 5.05 2.42
-4.46 4.96 2.42
-4.56 4.87 2.42
-4.66 4.78 2.42
-4.76 4.68 2.42
-4.85 4.59 2.42
-4.94 4.49 2.42
-5.03 4.39 2.42
-5.12 4.29 2.42
-5.20 4.18 2.42
-5.29 4.08 2.42
-5.37 3.97 2.42
-5.45 3.86 2.42
-5.52 3.75 2.42
-5.60 3.64 2.42
-5.67 3.53 2.42
-5.71 3.39 2.40
-5.71 3.24 2.38
-5.71 3.09 2.35
-5.72 2.95 2.33
-5.74 2.82 2.31
-5.80 2.70 2.31
-5.85 2.58 2.31
-5.91 2.47 2.31
-5.95 2.35 2.31
-6.00 2.23 2.31
-6.05 2.11 2.31
-6.07 1.98 2.31
-6.07 1.84 2.29
-6.07 1.71 2.28
-6.07 1.58 2.26
-6.07 1.45 2.25
-6.07 1.32 2.24
-6.07 1.20 2.23
-6.07 1.07 2.22
-6.34 0.99 2.31
-6.35 0.86 2.31
-6.37 0.73 2.31
-6.39 0.60 2.31
-6.40 0.48 2.31
-6.41 0.35 2.31
-6.41 0.22 2.31
-6.42 0.09 2.31
-6.42 -0.04 2.31
-6.42 -0.17 2.31
-6.42 -0.30 2.31
-6.41 -0.43 2.31
-6.40 -0.56 2.31
-6.39 -0.68 2.31
-6.38 -0.81 2.31
-6.36 -0.94 2.31
-6.34 -1.07 2.31
-6.10 -1.15 2.23
-6.07 -1.27 2.23
-6.07 -1.40 2.24
-6.07 -1.53 2.25
-6.07 -1.66 2.26
-6.07 -1.79 2.27
-6.07 -1.93 2.29
-6.07 -2.06 2.30
-6.06 -2.20 2.31
-6.02 -2.32 2.31
-5.97 -2.44 2.31
-5.92 -2.56 2.31
-5.87 -2.68 2.31
-5.82 -2.80 2.31
-5.76 -2.91 2.31
-5.72 -3.04 2.32
-5.71 -3.18 2.34
-5.71 -3.33 2.37
-5.71 -3.49 2.40
-5.69 -3.64 2.42
-5.62 -3.75 2.42
-5.54 -3.86 2.42
-5.46 -3.97 2.42
-5.39 -4.08 2.42
-5.30 -4.19 2.42
-5.22 -4.30 2.42
-5.13 -4.40 2.42
-5.05 -4.51 2.42
-4.96 -4.61 2.42
-4.86 -4.71 2.42
-4.77 -4.81 2.42
-4.67 -4.90 2.42
-4.57 -5.00 2.42
-4.47 -5.09 2.42
-4.37 -5.18 2.42
-4.27 -5.27 2.42
-4.16 -5.35 2.42
-4.06 -5.44 2.42
-3.95 -5.52 2.42
-3.84 -5.60 2.42
-3.72 -5.67 2.42
-3.61 -5.75 2.42
-3.50 -5.82 2.42
-3.38 -5.89 2.42
-3.26 -5.96 2.42
-3.14 -6.03 2.42
-3.02 -6.09 2.42
-2.90 -6.15 2.42
-2.77 -6.21 2.42
-2.65 -6.26 2.42
-2.52 -6.32 2.42
-2.40 -6.37 2.42
-2.27 -6.42 2.42
-2.14 -6.46 2.42
-2.01 -6.50 2.42
-1.88 -6.55 2.42
-1.75 -6.58 2.42
-1.62 -6.62 2.42
-1.49 -6.65 2.42
-1.35 -6.68 2.42
-1.22 -6.71 2.42
-1.08 -6.73 2.42
-0.95 -6.75 2.42
-0.81 -6.77 2.42
-0.68 -6.79 2.42
-0.54 -6.80 2.42
-0.40 -6.81 2.42
-0.27 -6.82 2.42
-0.13 -6.83 2.42
0.01 -6.37 2.42
0.13 -6.37 2.42
0.26 -6.36 2.42
0.39 -6.36 2.42
0.52 -6.35 2.42
0.64 -6.34 2.42
0.77 -6.33 2.42
0.90 -6.31 2.42
1.02 -6.29 2.42
1.15 -6.27 2.42
1.28 -6.25 2.42
1.40 -6.22 2.42
1.53 -6.19 2.42
1.65 -6.16 2.42
1.77 -6.13 2.42
1.90 -6.09 2.42
2.02 -6.05 2.42
2.14 -6.01 2.42
2.26 -5.97 2.42
2.34 -5.82 2.38
2.39 -5.62 2.31
2.50 -5.57 2.31
2.61 -5.52 2.31
2.72 -5.47 2.31
2.83 -5.41 2.31
2.94 -5.36 2.31
3.05 -5.30 2.31
3.15 -5.23 2.31
3.26 -5.17 2.31
3.36 -5.10 2.31
3.46 -5.04 2.31
3.56 -4.97 2.31
3.66 -4.89 2.31
3.76 -4.82 2.31
3.85 -4.74 2.31
3.95 -4.66 2.31
4.04 -4.58 2.31
4.13 -4.50 2.31
4.22 -4.42 2.31
4.31 -4.33 2.31
4.39 -4.25 2.31
4.48 -4.16 2.31
4.56 -4.07 2.31
4.64 -3.97 2.31
4.72 -3.88 2.31
4.80 -3.78 2.31
4.87 -3.69 2.31
4.94 -3.59 2.31
5.01 -3.49 2.31
5.08 -3.39 2.31
5.15 -3.28 2.31
5.21 -3.18 2.31
5.28 -3.07 2.31
5.34 -2.97 2.31
5.39 -2.86 2.31
5.45 -2.75 2.31
5.50 -2.64 2.31
5.55 -2.53 2.31
5.60 -2.42 2.31
5.65 -2.30 2.31
5.69 -2.19 2.31
5.74 -2.07 2.31
5.78 -1.96 2.31
5.81 -1.84 2.31
5.85 -1.73 2.31
5.88 -1.61 2.31
5.91 -1.49 2.31
5.94 -1.37 2.31
5.96 -1.25 2.31
5.99 -1.13 2.31
6.01 -1.01 2.31
6.02 -0.89 2.31
6.04 -0.77 2.31
6.05 -0.65 2.31
6.06 -0.53 2.31
5.53 -0.37 2.11
5.53 -0.26 2.10
5.53 -0.15 2.10
5.54 -0.03 2.11
6.08 0.08 2.31
6.08 0.21 2.31
6.07 0.33 2.31
6.06 0.45 2.31
6.05 0.57 2.31
5.22 0.60 2.00
4.97 0.67 1.91
4.97 0.77 1.92
4.97 0.88 1.92
4.97 0.98 1.93
4.97 1.08 1.94
5.90 1.41 2.31
5.87 1.53 2.31
5.84 1.64 2.31
5.80 1.76 2.31
5.76 1.88 2.31
5.72 1.99 2.31
5.68 2.11 2.31
5.64 2.22 2.31
5.59 2.33 2.31
5.54 2.44 2.31
5.49 2.55 2.31
5.44 2.66 2.31
5.38 2.77 2.31
5.32 2.87 2.31
5.16 2.92 2.27
5.00 2.97 2.22
5.03 3.12 2.27
5.07 3.29 2.31
5.00 3.39 2.31
4.93 3.49 2.31
4.86 3.59 2.31
4.78 3.68 2.31
4.71 3.78 2.31
4.63 3.87 2.31
4.55 3.96 2.31
4.47 4.05 2.31
4.39 4.14 2.31
4.30 4.22 2.31
4.21 4.31 2.31
4.13 4.39 2.31
4.04 4.47 2.31
3.94 4.55 2.31
3.85 4.63 2.31
3.76 4.70 2.31
3.66 4.78 2.31
3.56 4.85 2.31
3.46 4.92 2.31
3.36 4.99 2.31
3.26 5.05 2.31
3.16 5.11 2.31
3.06 5.18 2.31
2.95 5.23 2.31
2.84 5.29 2.31
2.74 5.35 2.31
2.63 5.40 2.31
2.52 5.45 2.31
2.41 5.50 2.31
2.34 5.65 2.36
2.28 5.84 2.42
2.16 5.88 2.42
2.04 5.92 2.42
1.93 5.96 2.42
1.80 6.00 2.42
1.68 6.03 2.42
1.56 6.06 2.42
1.44 6.09 2.42
1.32 6.12 2.42
1.19 6.14 2.42
1.07 6.16 2.42
0.94 6.18 2.42
0.82 6.20 2.42
0.70 6.21 2.42
0.57 6.23 2.42
0.45 6.23 2.42
0.32 6.24 2.42
0.19 6.25 2.42
0.07 6.25 2.42
-0.06 6.25 2.42
-0.18 6.24 2.42
-0.31 6.24 2.42
-0.43 6.23 2.42
-0.56 6.22 2.42
-0.68 6.20 2.42
-0.81 6.19 2.42
-0.93 6.17 2.42
-1.06 6.15 2.42
-1.18 6.13 2.42
-1.30 6.10 2.42
-1.42 6.07 2.42
-1.55 6.04 2.42
-1.67 6.01 2.42
-1.79 5.98 2.42
-1.91 5.94 2.42
-2.02 5.90 2.42
-2.14 5.86 2.42
-2.26 5.81 2.42
-2.38 5.76 2.42
-2.49 5.71 2.42
-2.61 5.66 2.42
-2.72 5.61 2.42
-2.83 5.55 2.42
-2.94 5.49 2.42
-3.05 5.43 2.42
-3.16 5.37 2.42
-3.27 5.31 2.42
-3.37 5.24 2.42
-3.48 5.17 2.42
-3.58 5.10 2.42
-3.68 5.03 2.42
-3.78 4.95 2.42
-3.88 4.87 2.42
-3.98 4.80 2.42
-4.08 4.71 2.42
-4.17 4.63 2.42
-4.26 4.55 2.42
-4.35 4.46 2.42
-4.44 4.37 2.42
-4.53 4.28 2.42
-4.61 4.19 2.42
-4.70 4.10 2.42
-4.78 4.00 2.42
-4.86 3.91 2.42
-4.94 3.81 2.42
-5.01 3.71 2.42
-5.09 3.61 2.42
-5.16 3.50 2.42
-5.23 3.40 2.42
-5.30 3.29 2.42
-5.36 3.19 2.42
-5.42 3.08 2.42
-5.49 2.97 2.42
-5.55 2.86 2.42
-5.60 2.75 2.42
-5.66 2.63 2.42
-5.71 2.52 2.42
-5.71 2.38 2.40
-5.71 2.25 2.38
-5.71 2.12 2.36
-5.71 1.99 2.34
-5.72 1.86 2.33
-5.72 1.74 2.31
-5.76 1.62 2.31
-5.79 1.51 2.31
-5.82 1.39 2.31
-5.85 1.28 2.31
-5.87 1.16 2.31
-5.90 1.04 2.32
-5.91 0.92 2.31
-5.93 0.80 2.31
-5.95 0.68 2.31
-5.96 0.56 2.31
-5.97 0.44 2.31
-5.98 0.32 2.31
-5.99 0.20 2.31
-5.99 0.08 2.31
-5.99 -0.04 2.31
-5.99 -0.16 2.31
-5.99 -0.28 2.31
-5.98 -0.40 2.31
-5.98 -0.52 2.31
-5.97 -0.64 2.31
-5.95 -0.76 2.31
-5.94 -0.88 2.31
-5.92 -1.00 2.31
-5.90 -1.12 2.31
-5.90 -1.24 2.32
-5.85 -1.35 2.31
-5.83 -1.47 2.31
-5.80 -1.59 2.31
-5.77 -1.70 2.31
-5.73 -1.82 2.31
-5.72 -1.94 2.32
-5.71 -2.07 2.34
-5.71 -2.20 2.35
-5.71 -2.33 2.37
-5.71 -2.47 2.39
-5.71 -2.60 2.41
-5.67 -2.73 2.42
-5.62 -2.84 2.42
-5.56 -2.95 2.42
-5.50 -3.06 2.42
-5.44 -3.18 2.42
-5.37 -3.28 2.42
-5.31 -3.39 2.42
-5.24 -3.50 2.42
-5.17 -3.60 2.42
-5.10 -3.71 2.42
-5.02 -3.81 2.42
-4.95 -3.91 2.42
-4.87 -4.01 2.42
-4.79 -4.11 2.42
-4.71 -4.21 2.42
-4.62 -4.30 2.42
-4.54 -4.39 2.42
-4.45 -4.49 2.42
-4.36 -4.57 2.42
-4.27 -4.66 2.42
-4.17 -4.75 2.42
-4.08 -4.83 2.42
-3.98 -4.91 2.42
-3.88 -4.99 2.42
-3.78 -5.07 2.42
-3.68 -5.15 2.42
-3.58 -5.22 2.42
-3.47 -5.29 2.42
-3.37 -5.36 2.42
-3.26 -5.43 2.42
-3.15 -5.50 2.42
-3.04 -5.56 2.42
-2.93 -5.62 2.42
-2.82 -5.68 2.42
-2.70 -5.74 2.42
-2.59 -5.79 2.42
-2.47 -5.84 2.42
-2.35 -5.89 2.42
-2.24 -5.94 2.42
-2.12 -5.99 2.42
-2.00 -6.03 2.42
-1.88 -6.07 2.42
-1.75 -6.11 2.42
-1.63 -6.14 2.42
-1.51 -6.17 2.42
-1.38 -6.20 2.42
-1.26 -6.23 2.42
-1.14 -6.26 2.42
-1.01 -6.28 2.42
-0.88 -6.30 2.42
-0.76 -6.32 2.42
-0.63 -6.33 2.42
-0.50 -6.34 2.42
-0.38 -6.35 2.42
-0.25 -6.36 2.42
-0.12 -6.37 2.42
0.01 -5.96 2.42
0.13 -5.96 2.42
0.24 -5.96 2.42
0.36 -5.95 2.42
0.48 -5.94 2.42
0.60 -5.93 2.42
0.72 -5.92 2.42
0.84 -5.91 2.42
0.96 -5.89 2.42
1.08 -5.87 2.42
1.19 -5.85 2.42
1.31 -5.82 2.42
1.43 -5.79 2.42
1.54 -5.77 2.42
1.66 -5.73 2.42
1.77 -5.70 2.42
1.89 -5.66 2.42
2.00 -5.63 2.42
2.11 -5.58 2.42
2.23 -5.54 2.42
2.34 -5.50 2.42
2.35 -5.23 2.32
2.45 -5.17 2.31
2.55 -5.12 2.32
2.65 -5.07 2.31
2.75 -5.01 2.31
2.85 -4.96 2.31
2.95 -4.90 2.31
3.05 -4.84 2.31
3.14 -4.78 2.31
3.24 -4.71 2.31
3.33 -4.65 2.31
3.43 -4.58 2.31
3.52 -4.51 2.31
3.61 -4.44 2.31
3.70 -4.36 2.31
3.78 -4.29 2.31
3.87 -4.21 2.31
3.95 -4.13 2.31
4.03 -4.05 2.31
4.11 -3.97 2.31
4.19 -3.89 2.31
4.27 -3.80 2.31
4.34 -3.72 2.31
4.42 -3.63 2.31
4.49 -3.54 2.31
4.56 -3.45 2.31
4.63 -3.36 2.31
4.69 -3.26 2.31
4.76 -3.17 2.31
4.82 -3.07 2.31
4.88 -2.98 2.31
4.94 -2.88 2.31
4.99 -2.78 2.31
5.05 -2.68 2.31
5.10 -2.57 2.31
5.15 -2.47 2.31
5.20 -2.37 2.31
5.24 -2.26 2.31
5.29 -2.16 2.31
5.33 -2.05 2.31
5.37 -1.94 2.31
5.40 -1.83 2.31
5.44 -1.72 2.31
5.47 -1.62 2.31
5.50 -1.51 2.31
5.53 -1.39 2.31
5.56 -1.28 2.31
5.58 -1.17 2.31
5.60 -1.06 2.31
5.62 -0.95 2.31
5.64 -0.83 2.31
5.65 -0.72 2.31
5.67 -0.61 2.31
5.68 -0.49 2.31
5.54 -0.37 2.25
5.54 -0.26 2.25
5.54 -0.15 2.25
5.55 -0.04 2.25
5.69 0.08 2.31
5.69 0.19 2.31
5.68 0.31 2.31
5.67 0.42 2.31
5.66 0.53 2.31
5.22 0.60 2.14
4.97 0.67 2.04
4.97 0.77 2.05
4.97 0.87 2.05
4.97 0.98 2.06
4.97 1.08 2.07
5.52 1.32 2.31
5.50 1.43 2.31
5.46 1.54 2.31
5.43 1.65 2.31
5.40 1.76 2.31
5.36 1.86 2.31
5.32 1.97 2.31
5.28 2.08 2.31
5.23 2.18 2.31
5.19 2.29 2.31
5.14 2.39 2.31
5.09 2.49 2.31
5.04 2.59 2.31
4.98 2.69 2.31
4.93 2.79 2.31
4.87 2.89 2.31
4.81 2.98 2.31
4.75 3.08 2.31
4.68 3.17 2.31
4.62 3.27 2.31
4.55 3.36 2.31
4.48 3.45 2.31
4.41 3.54 2.31
4.34 3.62 2.31
4.26 3.71 2.31
4.19 3.79 2.31
4.11 3.87 2.31
4.03 3.95 2.31
3.95 4.03 2.31
3.86 4.11 2.31
3.78 4.19 2.31
3.69 4.26 2.31
3.61 4.33 2.31
3.52 4.40 2.31
3.43 4.47 2.31
3.34 4.54 2.31
3.24 4.61 2.31
3.15 4.67 2.31
3.06 4.73 2.31
2.96 4.79 2.31
2.86 4.85 2.31
2.76 4.90 2.31
2.66 4.96 2.31
2.56 5.01 2.31
2.46 5.06 2.31
2.36 5.10 2.31
2.34 5.33 2.40
2.25 5.42 2.42
2.14 5.47 2.42
2.03 5.51 2.42
1.92 5.55 2.42
1.80 5.58 2.42
1.69 5.62 2.42
1.58 5.65 2.42
1.46 5.68 2.42
1.35 5.71 2.42
1.23 5.73 2.42
1.12 5.75 2.42
1.00 5.77 2.42
0.89 5.79 2.42
0.77 5.81 2.42
0.65 5.82 2.42
0.53 5.83 2.42
0.42 5.84 2.42
0.30 5.85 2.42
0.18 5.85 2.42
0.06 5.85 2.42
-0.05 5.85 2.42
-0.17 5.85 2.42
-0.29 5.84 2.42
-0.41 5.84 2.42
-0.52 5.82 2.42
-0.64 5.81 2.42
-0.76 5.80 2.42
-0.87 5.78 2.42
-0.99 5.76 2.42
-1.10 5.74 2.42
-1.22 5.72 2.42
-1.33 5.69 2.42
-1.45 5.66 2.42
-1.56 5.63 2.42
-1.67 5.60 2.42
-1.79 5.56 2.42
-1.90 5.53 2.42
-2.01 5.49 2.42
-2.12 5.44 2.42
-2.23 5.40 2.42
-2.33 5.35 2.42
-2.44 5.31 2.42
-2.55 5.25 2.42
-2.65 5.20 2.42
-2.76 5.15 2.42
-2.86 5.09 2.42
-2.96 5.03 2.42
-3.06 4.97 2.42
-3.16 4.91 2.42
-3.26 4.84 2.42
-3.36 4.78 2.42
-3.45 4.71 2.42
-3.54 4.64 2.42
-3.64 4.57 2.42
-3.73 4.49 2.42
-3.82 4.42 2.42
-3.91 4.34 2.42
-3.99 4.26 2.42
-4.08 4.18 2.42
-4.16 4.10 2.42
-4.24 4.01 2.42
-4.32 3.93 2.42
-4.40 3.84 2.42
-4.48 3.75 2.42
-4.55 3.66 2.42
-4.62 3.57 2.42
-4.70 3.47 2.42
-4.76 3.38 2.42
-4.83 3.28 2.42
-4.90 3.18 2.42
-4.96 3.09 2.42
-5.02 2.99 2.42
-5.08 2.88 2.42
-5.14 2.78 2.42
-5.19 2.68 2.42
-5.25 2.57 2.42
-5.30 2.47 2.42
-5.35 2.36 2.42
-5.40 2.25 2.42
-5.44 2.14 2.42
-5.48 2.04 2.42
-5.52 1.92 2.42
-5.56 1.81 2.42
-5.60 1.70 2.42
-5.63 1.59 2.42
-5.66 1.48 2.42
-5.69 1.36 2.42
-5.71 1.24 2.41
-5.71 1.13 2.40
-5.71 1.01 2.39
-5.71 0.89 2.38
-5.71 0.77 2.38
-5.71 0.65 2.37
-5.71 0.54 2.37
-5.71 0.42 2.36
-5.71 0.31 2.36
-5.71 0.19 2.36
-5.71 0.08 2.35
-5.71 -0.04 2.35
-5.71 -0.15 2.35
-5.71 -0.27 2.36
-5.71 -0.38 2.36
-5.71 -0.50 2.36
-5.71 -0.61 2.36
-5.71 -0.73 2.37
-5.71 -0.85 2.38
-5.71 -0.96 2.38
-5.71 -1.08 2.39
-5.71 -1.20 2.40
-5.71 -1.32 2.41
-5.70 -1.44 2.42
-5.67 -1.55 2.42
-5.64 -1.67 2.42
-5.61 -1.78 2.42
-5.57 -1.89 2.42
-5.53 -2.01 2.42
-5.49 -2.12 2.42
-5.45 -2.23 2.42
-5.41 -2.34 2.42
-5.36 -2.45 2.42
-5.31 -2.55 2.42
-5.26 -2.66 2.42
-5.21 -2.77 2.42
-5.15 -2.87 2.42
-5.09 -2.97 2.42
-5.03 -3.08 2.42
-4.97 -3.18 2.42
-4.91 -3.28 2.42
-4.84 -3.38 2.42
-4.77 -3.47 2.42
-4.70 -3.57 2.42
-4.63 -3.66 2.42
-4.56 -3.76 2.42
-4.48 -3.85 2.42
-4.41 -3.94 2.42
-4.33 -4.03 2.42
-4.25 -4.11 2.42
-4.16 -4.20 2.42
-4.08 -4.28 2.42
-3.99 -4.37 2.42
-3.91 -4.45 2.42
-3.82 -4.52 2.42
-3.73 -4.60 2.42
-3.64 -4.68 2.42
-3.54 -4.75 2.42
-3.45 -4.82 2.42
-3.35 -4.89 2.42
-3.25 -4.96 2.42
-3.15 -5.02 2.42
-3.05 -5.09 2.42
-2.95 -5.15 2.42
-2.85 -5.21 2.42
-2.74 -5.26 2.42
-2.64 -5.32 2.42
-2.53 -5.37 2.42
-2.42 -5.42 2.42
-2.31 -5.47 2.42
-2.20 -5.52 2.42
-2.09 -5.56 2.42
-1.98 -5.60 2.42
-1.87 -5.64 2.42
-1.76 -5.68 2.42
-1.64 -5.72 2.42
-1.53 -5.75 2.42
-1.41 -5.78 2.42
-1.30 -5.81 2.42
-1.18 -5.83 2.42
-1.06 -5.86 2.42
-0.94 -5.88 2.42
-0.83 -5.90 2.42
-0.71 -5.91 2.42
-0.59 -5.93 2.42
-0.47 -5.94 2.42
-0.35 -5.95 2.42
-0.23 -5.95 2.42
-0.11 -5.96 2.42
0.01 -5.59 2.42
0.12 -5.59 2.42
0.23 -5.59 2.42
0.34 -5.59 2.42
0.45 -5.58 2.42
0.57 -5.57 2.42
0.68 -5.56 2.42
0.79 -5.54 2.42
0.90 -5.53 2.42
1.01 -5.51 2.42
1.12 -5.49 2.42
1.23 -5.46 2.42
1.34 -5.44 2.42
1.45 -5.41 2.42
1.56 -5.38 2.42
1.67 -5.35 2.42
1.77 -5.32 2.42
1.88 -5.28 2.42
1.98 -5.24 2.42
2.09 -5.20 2.42
2.19 -5.16 2.42
2.30 -5.11 2.42
2.34 -4.94 2.36
2.39 -4.80 2.31
2.49 -4.76 2.31
2.58 -4.70 2.31
2.68 -4.65 2.31
2.77 -4.60 2.31
2.86 -4.54 2.31
2.95 -4.48 2.31
3.04 -4.42 2.31
3.13 -4.36 2.31
3.22 -4.30 2.31
3.30 -4.23 2.31
3.39 -4.17 2.31
3.47 -4.10 2.31
3.55 -4.03 2.31
3.63 -3.95 2.31
3.71 -3.88 2.31
3.78 -3.81 2.31
3.86 -3.73 2.31
3.93 -3.65 2.31
4.01 -3.57 2.31
4.08 -3.49 2.31
4.15 -3.41 2.31
4.21 -3.32 2.31
4.28 -3.24 2.31
4.34 -3.15 2.31
4.40 -3.06 2.31
4.46 -2.97 2.31
4.52 -2.88 2.31
4.58 -2.79 2.31
4.63 -2.70 2.31
2.78 -1.55 1.37
2.85 -1.51 1.39
2.90 -1.46 1.40
2.92 -1.40 1.40
4.88 -2.22 2.31
4.92 -2.12 2.31
4.96 -2.02 2.31
5.00 -1.92 2.31
5.04 -1.82 2.31
5.07 -1.72 2.31
5.11 -1.62 2.31
5.14 -1.52 2.31
5.17 -1.41 2.31
5.19 -1.31 2.31
5.22 -1.20 2.31
5.24 -1.10 2.31
5.26 -0.99 2.31
5.28 -0.89 2.31
5.29 -0.78 2.31
5.31 -0.68 2.31
5.32 -0.57 2.31
5.33 -0.46 2.31
5.34 -0.36 2.31
5.34 -0.25 2.31
5.34 -0.14 2.31
5.34 -0.03 2.31
5.34 0.07 2.31
5.34 0.18 2.31
5.33 0.29 2.31
5.33 0.39 2.31
5.32 0.50 2.31
5.30 0.61 2.31
4.98 0.67 2.18
4.98 0.77 2.19
4.99 0.88 2.20
4.99 0.98 2.21
5.21 1.13 2.31
5.19 1.24 2.31
5.16 1.34 2.31
5.13 1.44 2.31
5.10 1.55 2.31
5.07 1.65 2.31
5.03 1.75 2.31
4.99 1.85 2.31
4.96 1.95 2.31
4.91 2.05 2.31
4.87 2.15 2.31
4.83 2.24 2.31
4.78 2.34 2.31
4.73 2.43 2.31
4.68 2.53 2.31
4.63 2.62 2.31
4.57 2.71 2.31
4.52 2.80 2.31
4.46 2.89 2.31
4.40 2.98 2.31
4.34 3.07 2.31
4.27 3.15 2.31
4.21 3.24 2.31
4.14 3.32 2.31
4.07 3.40 2.31
4.00 3.48 2.31
3.93 3.56 2.31
3.86 3.64 2.31
3.78 3.71 2.31
3.71 3.79 2.31
3.63 3.86 2.31
3.55 3.93 2.31
3.47 4.00 2.31
3.39 4.07 2.31
3.31 4.14 2.31
3.22 4.20 2.31
3.14 4.26 2.31
3.05 4.32 2.31
2.96 4.38 2.31
2.87 4.44 2.31
2.78 4.50 2.31
2.69 4.55 2.31
2.60 4.60 2.31
2.50 4.65 2.31
2.41 4.70 2.31
2.34 4.81 2.34
2.32 5.01 2.42
2.21 5.05 2.42
2.11 5.09 2.42
2.01 5.14 2.42
1.90 5.17 2.42
1.80 5.21 2.42
1.69 5.24 2.42
1.59 5.28 2.42
1.48 5.31 2.42
1.38 5.33 2.42
1.27 5.36 2.42
1.16 5.38 2.42
1.05 5.40 2.42
0.94 5.42 2.42
0.83 5.44 2.42
0.72 5.46 2.42
0.61 5.47 2.42
0.50 5.48 2.42
0.39 5.49 2.42
0.28 5.49 2.42
0.17 5.50 2.42
0.06 5.50 2.42
-0.05 5.50 2.42
-0.16 5.49 2.42
-0.27 5.49 2.42
-0.38 5.48 2.42
-0.49 5.47 2.42
-0.60 5.46 2.42
-0.71 5.45 2.42
-0.82 5.43 2.42
-0.93 5.41 2.42
-1.04 5.39 2.42
-1.14 5.37 2.42
-1.25 5.35 2.42
-1.36 5.32 2.42
-1.47 5.29 2.42
-1.57 5.26 2.42
-1.68 5.23 2.42
-1.78 5.19 2.42
-1.89 5.15 2.42
-1.99 5.11 2.42
-2.09 5.07 2.42
-2.19 5.03 2.42
-2.29 4.98 2.42
-2.39 4.94 2.42
-2.49 4.89 2.42
-2.59 4.84 2.42
-2.69 4.78 2.42
-2.78 4.73 2.42
-2.88 4.67 2.42
-2.97 4.61 2.42
-3.06 4.55 2.42
-3.15 4.49 2.42
-3.24 4.42 2.42
-3.33 4.36 2.42
-3.42 4.29 2.42
-3.50 4.22 2.42
-3.59 4.15 2.42
-3.67 4.08 2.42
-3.75 4.00 2.42
-3.83 3.93 2.42
-3.91 3.85 2.42
-3.99 3.77 2.42
-4.06 3.69 2.42
-4.13 3.61 2.42
-4.21 3.52 2.42
-4.28 3.44 2.42
-4.35 3.35 2.42
-4.41 3.26 2.42
-4.48 3.17 2.42
-4.54 3.08 2.42
-4.60 2.99 2.42
-4.66 2.90 2.42
-4.72 2.81 2.42
-4.77 2.71 2.42
-4.83 2.61 2.42
-4.88 2.52 2.42
-4.93 2.42 2.42
-4.98 2.32 2.42
-5.03 2.22 2.42
-5.07 2.12 2.42
-5.11 2.01 2.42
-5.15 1.91 2.42
-5.19 1.81 2.42
-5.23 1.70 2.42
-5.26 1.60 2.42
-5.29 1.49 2.42
-5.32 1.39 2.42
-5.35 1.28 2.42
-5.37 1.17 2.42
-5.40 1.06 2.42
-5.42 0.95 2.42
-5.44 0.85 2.42
-5.45 0.74 2.42
-5.47 0.63 2.42
-5.48 0.52 2.42
-5.49 0.41 2.42
-5.50 0.30 2.42
-5.50 0.19 2.42
-5.51 0.08 2.42
-5.51 -0.04 2.42
-5.51 -0.15 2.42
-5.51 -0.26 2.42
-5.50 -0.37 2.42
-5.49 -0.48 2.42
-5.48 -0.59 2.42
-5.47 -0.70 2.42
-5.46 -0.81 2.42
-5.44 -0.92 2.42
-5.42 -1.03 2.42
-5.40 -1.14 2.42
-5.38 -1.24 2.42
-5.35 -1.35 2.42
-5.33 -1.46 2.42
-5.30 -1.57 2.42
-5.27 -1.67 2.42
-5.23 -1.78 2.42
-5.20 -1.88 2.42
-5.16 -1.99 2.42
-5.12 -2.09 2.42
-5.08 -2.20 2.42
-5.03 -2.30 2.42
-4.99 -2.40 2.42
-4.94 -2.50 2.42
-4.89 -2.60 2.42
-4.84 -2.70 2.42
-4.78 -2.79 2.42
-4.73 -2.89 2.42
-4.67 -2.98 2.42
-4.61 -3.08 2.42
-4.55 -3.17 2.42
-4.48 -3.26 2.42
-4.42 -3.35 2.42
-4.35 -3.44 2.42
-4.28 -3.53 2.42
-4.21 -3.61 2.42
-4.14 -3.70 2.42
-4.06 -3.78 2.42
-3.99 -3.86 2.42
-3.91 -3.94 2.42
-3.83 -4.02 2.42
-3.75 -4.10 2.42
-3.67 -4.17 2.42
-3.58 -4.25 2.42
-3.50 -4.32 2.42
-3.41 -4.39 2.42
-3.32 -4.46 2.42
-3.24 -4.53 2.42
-3.14 -4.59 2.42
-3.05 -4.65 2.42
-2.96 -4.72 2.42
-2.86 -4.78 2.42
-2.77 -4.83 2.42
-2.67 -4.89 2.42
-2.57 -4.94 2.42
-2.47 -4.99 2.42
-2.37 -5.04 2.42
-2.27 -5.09 2.42
-2.17 -5.14 2.42
-2.07 -5.18 2.42
-1.96 -5.22 2.42
-1.86 -5.26 2.42
-1.75 -5.30 2.42
-1.65 -5.33 2.42
-1.54 -5.37 2.42
-1.43 -5.40 2.42
-1.32 -5.42 2.42
-1.22 -5.45 2.42
-1.11 -5.48 2.42
-1.00 -5.50 2.42
-0.89 -5.52 2.42
-0.78 -5.53 2.42
-0.66 -5.55 2.42
-0.55 -5.56 2.42
-0.44 -5.57 2.42
-0.33 -5.58 2.42
-0.22 -5.59 2.42
-0.11 -5.59 2.42
0.01 -5.27 2.42
0.11 -5.27 2.42
0.22 -5.26 2.42
0.32 -5.26 2.42
0.43 -5.25 2.42
0.53 -5.24 2.42
0.64 -5.23 2.42
0.74 -5.22 2.42
0.85 -5.20 2.42
0.95 -5.18 2.42
1.06 -5.16 2.42
1.16 -5.14 2.42
1.26 -5.12 2.42
1.36 -5.09 2.42
1.47 -5.07 2.42
1.57 -5.04 2.42
1.67 -5.00 2.42
1.77 -4.97 2.42
1.87 -4.93 2.42
1.97 -4.90 2.42
2.06 -4.85 2.42
2.16 -4.81 2.42
2.26 -4.77 2.42
2.34 -4.69 2.40
2.35 -4.49 2.32
2.43 -4.43 2.31
2.52 -4.38 2.31
2.61 -4.33 2.31
2.69 -4.27 2.31
2.78 -4.22 2.31
2.86 -4.16 2.31
2.94 -4.10 2.31
3.03 -4.04 2.31
3.11 -3.98 2.31
3.19 -3.92 2.31
3.26 -3.86 2.31
3.34 -3.79 2.31
3.42 -3.72 2.31
3.49 -3.65 2.31
3.56 -3.58 2.31
3.63 -3.51 2.31
3.70 -3.44 2.31
3.77 -3.36 2.31
3.84 -3.28 2.31
3.90 -3.21 2.31
3.96 -3.13 2.31
4.03 -3.05 2.31
4.09 -2.97 2.31
4.14 -2.88 2.31
4.20 -2.80 2.31
4.26 -2.71 2.31
4.31 -2.63 2.31
2.68 -1.56 1.42
2.58 -1.43 1.35
2.58 -1.37 1.34
2.61 -1.32 1.34
2.65 -1.27 1.35
2.69 -1.22 1.35
2.79 -1.20 1.39
4.67 -1.91 2.31
4.71 -1.81 2.31
4.74 -1.72 2.31
4.77 -1.62 2.31
4.81 -1.52 2.31
4.83 -1.43 2.31
4.86 -1.33 2.31
4.89 -1.23 2.31
4.91 -1.13 2.31
4.93 -1.04 2.31
4.95 -0.94 2.31
4.97 -0.84 2.31
4.98 -0.74 2.31
5.00 -0.64 2.31
5.01 -0.54 2.31
5.02 -0.44 2.31
5.02 -0.34 2.31
5.03 -0.23 2.31
5.03 -0.13 2.31
5.03 -0.03 2.31
5.03 0.07 2.31
5.03 0.17 2.31
5.02 0.27 2.31
5.01 0.37 2.31
5.00 0.47 2.31
4.99 0.57 2.31
4.98 0.67 2.31
4.96 0.77 2.31
4.95 0.87 2.31
4.93 0.97 2.31
4.91 1.07 2.31
4.88 1.16 2.31
4.86 1.26 2.31
4.83 1.36 2.31
4.80 1.46 2.31
4.77 1.55 2.31
4.74 1.65 2.31
4.70 1.74 2.31
4.67 1.83 2.31
4.63 1.93 2.31
4.59 2.02 2.31
4.54 2.11 2.31
4.50 2.20 2.31
4.45 2.29 2.31
4.41 2.38 2.31
4.36 2.47 2.31
4.30 2.55 2.31
4.25 2.64 2.31
4.20 2.72 2.31
4.14 2.80 2.31
4.08 2.89 2.31
4.02 2.97 2.31
3.96 3.05 2.31
3.90 3.13 2.31
3.83 3.20 2.31
3.77 3.28 2.31
3.70 3.35 2.31
3.63 3.42 2.31
3.56 3.50 2.31
3.49 3.57 2.31
3.42 3.64 2.31
3.34 3.70 2.31
3.27 3.77 2.31
3.19 3.83 2.31
3.11 3.89 2.31
3.03 3.96 2.31
2.95 4.01 2.31
2.87 4.07 2.31
2.79 4.13 2.31
2.70 4.18 2.31
2.62 4.24 2.31
2.55 4.31 2.33
2.45 4.34 2.31
2.36 4.38 2.31
2.34 4.56 2.38
2.28 4.67 2.42
2.18 4.72 2.42
2.09 4.76 2.42
1.99 4.80 2.42
1.89 4.84 2.42
1.79 4.87 2.42
1.70 4.91 2.42
1.60 4.94 2.42
1.50 4.97 2.42
1.40 5.00 2.42
1.30 5.02 2.42
1.19 5.05 2.42
1.09 5.07 2.42
0.99 5.09 2.42
0.89 5.11 2.42
0.78 5.12 2.42
0.68 5.14 2.42
0.58 5.15 2.42
0.47 5.16 2.42
0.37 5.17 2.42
0.27 5.17 2.42
0.16 5.18 2.42
0.06 5.18 2.42
-0.05 5.18 2.42
-0.15 5.17 2.42
-0.25 5.17 2.42
-0.36 5.16 2.42
-0.46 5.15 2.42
-0.57 5.14 2.42
-0.67 5.13 2.42
-0.77 5.12 2.42
-0.87 5.10 2.42
-0.98 5.08 2.42
-1.08 5.06 2.42
-1.18 5.04 2.42
-1.28 5.01 2.42
-1.38 4.98 2.42
-1.48 4.95 2.42
-1.58 4.92 2.42
-1.68 4.89 2.42
-1.78 4.85 2.42
-1.87 4.82 2.42
-1.97 4.78 2.42
-2.07 4.74 2.42
-2.16 4.70 2.42
-2.25 4.65 2.42
-2.35 4.60 2.42
-2.44 4.56 2.42
-2.53 4.51 2.42
-2.62 4.45 2.42
-2.71 4.40 2.42
-2.80 4.34 2.42
-2.88 4.29 2.42
-2.97 4.23 2.42
-3.05 4.17 2.42
-3.14 4.11 2.42
-3.22 4.04 2.42
-3.30 3.98 2.42
-3.38 3.91 2.42
-3.46 3.84 2.42
-3.53 3.77 2.42
-3.61 3.70 2.42
-3.68 3.63 2.42
-3.75 3.55 2.42
-3.83 3.47 2.42
-3.89 3.40 2.42
-3.96 3.32 2.42
-4.03 3.24 2.42
-4.09 3.16 2.42
-4.16 3.07 2.42
-4.22 2.99 2.42
-4.28 2.90 2.42
-4.33 2.82 2.42
-4.39 2.73 2.42
-4.44 2.64 2.42
-4.50 2.55 2.42
-4.55 2.46 2.42
-4.60 2.37 2.42
-4.64 2.28 2.42
-4.69 2.18 2.42
-4.73 2.09 2.42
-4.77 1.99 2.42
-4.81 1.90 2.42
-4.85 1.80 2.42
-4.89 1.70 2.42
-4.92 1.60 2.42
-4.95 1.51 2.42
-4.98 1.41 2.42
-5.01 1.31 2.42
-5.04 1.20 2.42
-5.06 1.10 2.42
-5.08 1.00 2.42
-5.10 0.90 2.42
-5.12 0.80 2.42
-5.14 0.69 2.42
-5.15 0.59 2.42
-5.16 0.49 2.42
-5.17 0.38 2.42
-5.18 0.28 2.42
-5.18 0.17 2.42
-5.19 0.07 2.42
-5.19 -0.03 2.42
-5.19 -0.14 2.42
-5.18 -0.24 2.42
-5.18 -0.35 2.42
-5.17 -0.45 2.42
-5.16 -0.55 2.42
-5.15 -0.66 2.42
-5.14 -0.76 2.42
-5.12 -0.87 2.42
-5.11 -0.97 2.42
-5.09 -1.07 2.42
-5.06 -1.17 2.42
-5.04 -1.27 2.42
-5.02 -1.38 2.42
-4.99 -1.48 2.42
-4.96 -1.58 2.42
-4.93 -1.68 2.42
-4.89 -1.78 2.42
-4.86 -1.87 2.42
-4.82 -1.97 2.42
-4.78 -2.07 2.42
-4.74 -2.16 2.42
-4.70 -2.26 2.42
-4.65 -2.35 2.42
-4.60 -2.45 2.42
-4.55 -2.54 2.42
-4.50 -2.63 2.42
-4.45 -2.72 2.42
-4.40 -2.81 2.42
-4.34 -2.90 2.42
-4.28 -2.99 2.42
-4.22 -3.07 2.42
-4.16 -3.16 2.42
-4.10 -3.24 2.42
-4.03 -3.32 2.42
-3.96 -3.40 2.42
-3.90 -3.48 2.42
-3.83 -3.56 2.42
-3.75 -3.64 2.42
-3.68 -3.71 2.42
-3.61 -3.79 2.42
-3.53 -3.86 2.42
-3.45 -3.93 2.42
-3.37 -4.00 2.42
-3.29 -4.07 2.42
-3.21 -4.13 2.42
-3.13 -4.20 2.42
-3.05 -4.26 2.42
-2.96 -4.32 2.42
-2.87 -4.38 2.42
-2.79 -4.44 2.42
-2.70 -4.50 2.42
-2.61 -4.55 2.42
-2.51 -4.60 2.42
-2.42 -4.65 2.42
-2.33 -4.70 2.42
-2.23 -4.75 2.42
-2.14 -4.79 2.42
-2.04 -4.83 2.42
-1.95 -4.88 2.42
-1.85 -4.91 2.42
-1.75 -4.95 2.42
-1.65 -4.99 2.42
-1.55 -5.02 2.42
-1.45 -5.05 2.42
-1.35 -5.08 2.42
-1.25 -5.11 2.42
-1.14 -5.13 2.42
-1.04 -5.15 2.42
-0.94 -5.17 2.42
-0.83 -5.19 2.42
-0.73 -5.21 2.42
-0.63 -5.22 2.42
-0.52 -5.24 2.42
-0.42 -5.25 2.42
-0.31 -5.25 2.42
-0.21 -5.26 2.42
-0.10 -5.26 2.42
0.01 -4.97 2.42
0.11 -4.97 2.42
0.21 -4.96 2.42
0.30 -4.96 2.42
0.40 -4.95 2.42
0.50 -4.94 2.42
0.60 -4.93 2.42
0.70 -4.92 2.42
0.80 -4.91 2.42
0.90 -4.89 2.42
1.00 -4.87 2.42
1.09 -4.85 2.42
1.19 -4.83 2.42
1.29 -4.80 2.42
1.38 -4.78 2.42
1.48 -4.75 2.42
1.57 -4.72 2.42
1.67 -4.69 2.42
1.76 -4.65 2.42
1.85 -4.62 2.42
1.95 -4.58 2.42
2.04 -4.54 2.42
2.13 -4.50 2.42
2.22 -4.46 2.42
2.31 -4.41 2.42
2.34 -4.26 2.36
2.38 -4.13 2.31
2.46 -4.08 2.31
2.55 -4.04 2.32
2.62 -3.98 2.31
2.70 -3.93 2.31
2.78 -3.87 2.31
2.85 -3.82 2.31
2.93 -3.76 2.31
3.01 -3.70 2.31
3.08 -3.64 2.31
3.15 -3.57 2.31
3.22 -3.51 2.31
3.29 -3.45 2.31
3.36 -3.38 2.31
3.43 -3.31 2.31
3.49 -3.24 2.31
3.56 -3.17 2.31
3.62 -3.10 2.31
3.68 -3.02 2.31
3.74 -2.95 2.31
3.80 -2.87 2.31
3.85 -2.80 2.31
3.91 -2.72 2.31
3.96 -2.64 2.31
4.02 -2.56 2.31
4.07 -2.48 2.31
2.64 -1.54 1.48
2.57 -1.43 1.43
2.57 -1.36 1.41
2.59 -1.31 1.41
2.62 -1.26 1.41
2.67 -1.22 1.43
2.79 -1.20 1.48
4.41 -1.80 2.31
4.44 -1.71 2.31
4.47 -1.62 2.31
4.50 -1.53 2.31
4.53 -1.44 2.31
4.56 -1.35 2.31
4.59 -1.26 2.31
4.61 -1.16 2.31
4.63 -1.07 2.31
4.65 -0.98 2.31
4.67 -0.88 2.31
4.69 -0.79 2.31
4.70 -0.70 2.31
4.71 -0.60 2.31
4.72 -0.51 2.31
4.73 -0.41 2.31
4.74 -0.32 2.31
4.74 -0.22 2.31
4.75 -0.13 2.31
4.75 -0.03 2.31
4.75 0.06 2.31
4.74 0.16 2.31
4.74 0.25 2.31
4.73 0.35 2.31
4.72 0.44 2.31
4.71 0.54 2.31
4.70 0.63 2.31
4.68 0.73 2.31
4.67 0.82 2.31
4.65 0.91 2.31
4.63 1.01 2.31
4.61 1.10 2.31
4.58 1.19 2.31
4.56 1.28 2.31
4.53 1.37 2.31
4.50 1.46 2.31
4.47 1.55 2.31
4.44 1.64 2.31
4.40 1.73 2.31
4.37 1.82 2.31
4.33 1.90 2.31
4.29 1.99 2.31
4.25 2.08 2.31
4.20 2.16 2.31
4.16 2.24 2.31
4.11 2.33 2.31
4.06 2.41 2.31
4.01 2.49 2.31
3.96 2.57 2.31
3.91 2.65 2.31
3.85 2.72 2.31
3.80 2.80 2.31
3.74 2.87 2.31
3.68 2.95 2.31
3.62 3.02 2.31
3.56 3.09 2.31
3.49 3.16 2.31
3.43 3.23 2.31
3.36 3.30 2.31
3.29 3.37 2.31
3.23 3.43 2.31
3.16 3.49 2.31
3.08 3.56 2.31
3.01 3.62 2.31
2.94 3.68 2.31
2.86 3.73 2.31
2.79 3.79 2.31
2.71 3.84 2.31
2.63 3.90 2.31
2.55 3.95 2.31
2.47 4.00 2.31
2.39 4.04 2.31
2.34 4.15 2.35
2.32 4.32 2.42
2.24 4.37 2.42
2.15 4.41 2.42
2.06 4.45 2.42
1.97 4.49 2.42
1.88 4.53 2.42
1.79 4.56 2.42
1.69 4.60 2.42
1.60 4.63 2.42
1.51 4.66 2.42
1.41 4.69 2.42
1.32 4.72 2.42
1.22 4.74 2.42
1.13 4.76 2.42
1.03 4.78 2.42
0.93 4.80 2.42
0.84 4.82 2.42
0.74 4.84 2.42
0.64 4.85 2.42
0.55 4.86 2.42
0.45 4.87 2.42
0.35 4.88 2.42
0.25 4.88 2.42
0.15 4.89 2.42
0.05 4.89 2.42
-0.04 4.89 2.42
-0.14 4.88 2.42
-0.24 4.88 2.42
-0.34 4.87 2.42
-0.44 4.87 2.42
-0.53 4.86 2.42
-0.63 4.84 2.42
-0.73 4.83 2.42
-0.82 4.81 2.42
-0.92 4.79 2.42
-1.02 4.77 2.42
-1.11 4.75 2.42
-1.21 4.73 2.42
-1.30 4.70 2.42
-1.40 4.68 2.42
-1.49 4.65 2.42
-1.58 4.62 2.42
-1.68 4.58 2.42
-1.77 4.55 2.42
-1.86 4.51 2.42
-1.95 4.47 2.42
-2.04 4.43 2.42
-2.13 4.39 2.42
-2.22 4.35 2.42
-2.30 4.30 2.42
-2.39 4.25 2.42
-2.47 4.20 2.42
-2.56 4.15 2.42
-2.64 4.10 2.42
-2.72 4.05 2.42
-2.80 3.99 2.42
-2.88 3.93 2.42
-2.96 3.88 2.42
-3.04 3.82 2.42
-3.11 3.75 2.42
-3.19 3.69 2.42
-3.26 3.63 2.42
-3.34 3.56 2.42
-3.41 3.49 2.42
-3.48 3.42 2.42
-3.54 3.35 2.42
-3.61 3.28 2.42
-3.68 3.21 2.42
-3.74 3.13 2.42
-3.80 3.06 2.42
-3.86 2.98 2.42
-3.92 2.90 2.42
-3.98 2.82 2.42
-4.04 2.74 2.42
-4.09 2.66 2.42
-4.14 2.58 2.42
-4.20 2.49 2.42
-4.25 2.41 2.42
-4.29 2.32 2.42
-4.34 2.24 2.42
-4.38 2.15 2.42
-4.43 2.06 2.42
-4.47 1.97 2.42
-4.51 1.88 2.42
-4.54 1.79 2.42
-4.58 1.70 2.42
-4.61 1.61 2.42
-4.65 1.51 2.42
-4.68 1.42 2.42
-4.70 1.33 2.42
-4.73 1.23 2.42
-4.75 1.14 2.42
-4.78 1.04 2.42
-4.80 0.94 2.42
-4.82 0.85 2.42
-4.83 0.75 2.42
-4.85 0.65 2.42
-4.86 0.56 2.42
-4.87 0.46 2.42
-4.88 0.36 2.42
-4.89 0.26 2.42
-4.89 0.16 2.42
-4.90 0.07 2.42
-4.90 -0.03 2.42
-4.90 -0.13 2.42
-4.89 -0.23 2.42
-4.89 -0.33 2.42
-4.88 -0.43 2.42
-4.87 -0.52 2.42
-4.86 -0.62 2.42
-4.85 -0.72 2.42
-4.84 -0.82 2.42
-4.82 -0.91 2.42
-4.80 -1.01 2.42
-4.78 -1.11 2.42
-4.76 -1.20 2.42
-4.73 -1.30 2.42
-4.71 -1.39 2.42
-4.68 -1.49 2.42
-4.65 -1.58 2.42
-4.62 -1.68 2.42
-4.58 -1.77 2.42
-4.55 -1.86 2.42
-4.51 -1.95 2.42
-4.47 -2.04 2.42
-4.43 -2.13 2.42
-4.39 -2.22 2.42
-4.34 -2.31 2.42
-4.30 -2.40 2.42
-4.25 -2.48 2.42
-4.20 -2.57 2.42
-4.15 -2.65 2.42
-4.09 -2.74 2.42
-4.04 -2.82 2.42
-3.98 -2.90 2.42
-3.92 -2.98 2.42
-3.86 -3.06 2.42
-3.80 -3.14 2.42
-3.74 -3.21 2.42
-3.68 -3.29 2.42
-3.61 -3.36 2.42
-3.54 -3.43 2.42
-3.47 -3.50 2.42
-3.40 -3.57 2.42
-3.33 -3.64 2.42
-3.26 -3.71 2.42
-3.18 -3.77 2.42
-3.11 -3.84 2.42
-3.03 -3.90 2.42
-2.95 -3.96 2.42
-2.87 -4.02 2.42
-2.79 -4.08 2.42
-2.71 -4.13 2.42
-2.63 -4.19 2.42
-2.54 -4.24 2.42
-2.46 -4.29 2.42
-2.37 -4.34 2.42
-2.29 -4.39 2.42
-2.20 -4.44 2.42
-2.11 -4.48 2.42
-2.02 -4.52 2.42
-1.93 -4.56 2.42
-1.84 -4.60 2.42
-1.74 -4.64 2.42
-1.65 -4.67 2.42
-1.56 -4.70 2.42
-1.46 -4.74 2.42
-1.37 -4.77 2.42
-1.27 -4.79 2.42
-1.18 -4.82 2.42
-1.08 -4.84 2.42
-0.98 -4.86 2.42
-0.88 -4.88 2.42
-0.79 -4.90 2.42
-0.69 -4.91 2.42
-0.59 -4.93 2.42
-0.49 -4.94 2.42
-0.39 -4.95 2.42
-0.29 -4.96 2.42
-0.19 -4.96 2.42
-0.09 -4.97 2.42
0.01 -4.70 2.42
0.10 -4.70 2.42
0.19 -4.69 2.42
0.29 -4.69 2.42
0.38 -4.68 2.42
0.48 -4.67 2.42
0.57 -4.66 2.42
0.66 -4.65 2.42
0.76 -4.64 2.42
0.85 -4.62 2.42
0.94 -4.61 2.42
1.03 -4.59 2.42
1.13 -4.56 2.42
1.22 -4.54 2.42
1.31 -4.52 2.42
1.40 -4.49 2.42
1.49 -4.46 2.42
1.58 -4.43 2.42
1.67 -4.40 2.42
1.75 -4.36 2.42
1.84 -4.33 2.42
1.93 -4.29 2.42
