ply
format ascii 1.0
element vertex 2993
property float32 x
property float32 y
property float32 z
end_header
2.63 -9.80 2.39
2.83 -9.75 2.39
3.02 -9.69 2.39
3.22 -9.63 2.39
3.41 -9.57 2.39
3.61 -9.51 2.39
3.80 -9.44 2.39
3.99 -9.36 2.39
4.18 -9.29 2.39
4.37 -9.20 2.39
4.55 -9.12 2.39
4.74 -9.03 2.39
4.92 -8.94 2.39
5.10 -8.84 2.39
5.28 -8.74 2.39
5.45 -8.64 2.39
5.63 -8.53 2.39
5.80 -8.42 2.39
5.97 -8.30 2.39
6.18 -8.24 2.41
6.35 -8.12 2.41
6.51 -7.99 2.41
6.55 -7.71 2.36
6.68 -7.56 2.35
6.81 -7.40 2.34
6.93 -7.23 2.33
7.05 -7.07 2.33
7.17 -6.91 2.32
7.29 -6.74 2.31
7.40 -6.58 2.30
7.51 -6.41 2.29
7.62 -6.24 2.29
7.72 -6.07 2.28
7.82 -5.90 2.27
7.95 -5.75 2.28
8.53 -5.91 2.41
8.65 -5.74 2.41
8.76 -5.57 2.41
8.88 -5.39 2.41
8.99 -5.22 2.41
9.09 -5.04 2.41
9.20 -4.86 2.41
9.29 -4.67 2.41
9.36 -4.47 2.40
9.43 -4.28 2.39
9.50 -4.08 2.39
9.57 -3.88 2.38
9.63 -3.68 2.38
9.68 -3.49 2.38
9.74 -3.29 2.37
9.79 -3.09 2.37
9.84 -2.89 2.36
9.88 -2.68 2.36
9.93 -2.48 2.36
9.96 -2.28 2.36
10.00 -2.08 2.35
6.12 -1.15 1.44
6.13 -1.02 1.43
6.41 -0.94 1.49
8.01 -1.01 1.86
10.01 -1.05 2.32
10.15 -0.86 2.34
10.17 -0.66 2.34
10.18 -0.45 2.34
10.18 -0.25 2.34
10.19 -0.05 2.34
10.19 0.16 2.34
10.19 0.36 2.34
10.19 0.57 2.34
10.18 0.77 2.35
10.17 0.98 2.35
10.15 1.18 2.35
10.14 1.39 2.35
10.12 1.59 2.35
10.09 1.79 2.35
10.07 2.00 2.36
10.04 2.20 2.36
9.32 2.24 2.20
9.20 2.41 2.18
9.16 2.59 2.18
9.11 2.78 2.19
9.06 2.97 2.19
9.01 3.15 2.19
8.95 3.33 2.19
8.89 3.52 2.19
8.83 3.70 2.20
8.77 3.88 2.20
8.70 4.06 2.20
8.63 4.24 2.21
8.80 4.54 2.27
8.34 4.52 2.18
8.03 4.56 2.12
7.68 4.57 2.05
7.30 4.55 1.98
7.00 4.55 1.92
6.76 4.59 1.88
6.55 4.65 1.84
6.56 4.85 1.87
8.30 6.40 2.41
8.16 6.56 2.41
8.03 6.72 2.41
2.57 2.24 0.78
2.54 2.31 0.79
7.61 7.19 2.41
7.46 7.34 2.41
7.31 7.49 2.41
7.16 7.63 2.41
7.00 7.77 2.41
6.84 7.91 2.41
6.66 8.02 2.40
6.47 8.12 2.39
6.31 8.25 2.39
6.14 8.37 2.39
5.97 8.49 2.39
5.80 8.60 2.39
5.62 8.71 2.39
5.44 8.82 2.39
5.26 8.93 2.39
5.08 9.03 2.39
4.90 9.13 2.39
4.71 9.22 2.39
4.53 9.31 2.39
4.34 9.40 2.39
4.15 9.48 2.39
3.95 9.56 2.39
3.76 9.63 2.39
3.56 9.70 2.39
3.37 9.77 2.39
3.17 9.83 2.39
2.97 9.89 2.39
2.78 9.96 2.40
2.58 10.02 2.40
2.47 10.47 2.49
2.26 10.51 2.49
2.05 10.55 2.49
1.84 10.59 2.49
1.62 10.62 2.49
1.41 10.64 2.49
1.19 10.66 2.49
0.98 10.68 2.49
0.76 10.69 2.49
0.55 10.70 2.49
0.33 10.71 2.49
0.12 10.71 2.49
-0.10 10.70 2.49
-0.31 10.69 2.49
-0.52 10.68 2.49
-0.74 10.66 2.49
-0.95 10.64 2.49
-1.16 10.61 2.49
-1.38 10.58 2.49
-1.59 10.55 2.49
-1.80 10.51 2.49
-2.01 10.47 2.49
-2.22 10.42 2.49
-2.42 10.37 2.49
-2.63 10.31 2.49
-2.84 10.25 2.49
-3.04 10.19 2.49
-3.24 10.12 2.49
-3.44 10.05 2.49
-3.64 9.97 2.49
-3.84 9.89 2.49
-4.03 9.81 2.49
-4.23 9.72 2.49
-4.42 9.63 2.49
-4.61 9.54 2.49
-4.80 9.44 2.49
-4.99 9.33 2.49
-5.17 9.23 2.49
-5.35 9.12 2.49
-5.51 8.97 2.48
-5.52 8.60 2.41
-5.64 8.40 2.39
-5.80 8.29 2.39
-5.89 8.06 2.36
-5.99 7.85 2.34
-6.24 7.86 2.38
-6.44 7.78 2.39
-6.59 7.65 2.39
-6.74 7.51 2.39
-6.89 7.37 2.39
-7.03 7.23 2.39
-7.17 7.08 2.39
-7.31 6.93 2.39
-7.44 6.78 2.39
-7.57 6.63 2.39
-7.70 6.47 2.39
-7.83 6.31 2.39
-7.95 6.15 2.39
-8.07 5.99 2.39
-8.18 5.82 2.39
-8.30 5.65 2.39
-8.40 5.48 2.39
-8.51 5.31 2.39
-8.61 5.14 2.39
-8.71 4.96 2.39
-8.80 4.78 2.39
-8.90 4.61 2.39
-8.98 4.42 2.39
-9.07 4.24 2.39
-9.15 4.06 2.39
-9.22 3.87 2.39
-9.30 3.68 2.39
-9.37 3.50 2.39
-9.43 3.31 2.39
-9.49 3.11 2.39
-9.55 2.92 2.39
-9.61 2.73 2.39
-9.66 2.53 2.39
-10.66 2.57 2.63
-10.68 2.35 2.62
-10.70 2.13 2.62
-10.72 1.91 2.61
-10.74 1.69 2.61
-10.76 1.47 2.60
-10.77 1.26 2.60
-10.78 1.04 2.60
-10.79 0.82 2.60
-10.60 0.59 2.55
-10.64 0.38 2.56
-9.78 0.15 2.35
-10.72 -0.05 2.58
-10.75 -0.27 2.58
-10.78 -0.48 2.59
-10.80 -0.70 2.60
-10.82 -0.92 2.61
-10.83 -1.14 2.62
-10.83 -1.36 2.62
-9.80 -1.43 2.38
-10.73 -1.79 2.62
-9.77 -1.83 2.39
-9.73 -2.03 2.39
-9.69 -2.22 2.39
-9.64 -2.42 2.39
-9.59 -2.61 2.39
-9.53 -2.80 2.39
-9.48 -2.99 2.39
-9.41 -3.18 2.39
-9.35 -3.37 2.39
-9.28 -3.56 2.39
-9.20 -3.75 2.39
-9.13 -3.93 2.39
-9.05 -4.11 2.39
-8.96 -4.29 2.39
-8.87 -4.47 2.39
-8.78 -4.65 2.39
-8.69 -4.83 2.39
-8.59 -5.00 2.39
-8.49 -5.17 2.39
-8.38 -5.34 2.39
-8.28 -5.51 2.39
-8.16 -5.68 2.39
-8.05 -5.84 2.39
-7.93 -6.00 2.39
-7.81 -6.16 2.39
-7.69 -6.32 2.39
-7.56 -6.47 2.39
-7.43 -6.62 2.39
-6.92 -6.43 2.27
-6.85 -6.62 2.29
-6.85 -6.90 2.33
-6.76 -7.08 2.35
-6.39 -6.97 2.27
-6.27 -7.12 2.28
-6.28 -7.43 2.33
-6.28 -7.74 2.39
-6.13 -7.87 2.39
-5.97 -7.99 2.39
-5.95 -8.30 2.45
-5.89 -8.58 2.49
-5.72 -8.70 2.49
-5.54 -8.81 2.49
-5.37 -8.93 2.49
-5.19 -9.03 2.49
-5.01 -9.14 2.49
-4.82 -9.24 2.49
-4.64 -9.34 2.49
-4.45 -9.43 2.49
-4.26 -9.52 2.49
-4.07 -9.61 2.49
-3.88 -9.69 2.49
-3.68 -9.77 2.49
-3.49 -9.85 2.49
-3.29 -9.92 2.49
-3.09 -9.99 2.49
-2.89 -10.05 2.49
-2.69 -10.11 2.49
-2.49 -10.17 2.49
-2.28 -10.22 2.49
-2.08 -10.27 2.49
-1.87 -10.31 2.49
-1.67 -10.35 2.49
-1.46 -10.39 2.49
-1.25 -10.42 2.49
-1.04 -10.44 2.49
-0.83 -10.47 2.49
-0.62 -10.49 2.49
-0.41 -10.50 2.49
-0.20 -10.51 2.49
0.01 -9.55 2.49
0.20 -9.56 2.49
0.40 -9.55 2.49
0.59 -9.55 2.49
0.78 -9.54 2.49
0.97 -9.52 2.49
1.16 -9.51 2.49
1.35 -9.49 2.49
1.55 -9.46 2.49
1.74 -9.43 2.49
1.93 -9.40 2.49
2.08 -9.21 2.45
2.21 -8.94 2.39
2.39 -8.89 2.39
2.57 -8.85 2.39
2.75 -8.80 2.39
2.92 -8.75 2.39
3.10 -8.69 2.39
3.27 -8.63 2.39
3.45 -8.57 2.39
3.62 -8.50 2.39
3.79 -8.43 2.39
3.96 -8.35 2.39
4.13 -8.28 2.39
4.30 -8.19 2.39
4.46 -8.11 2.39
4.63 -8.02 2.39
4.79 -7.93 2.39
4.95 -7.84 2.39
5.11 -7.74 2.39
5.27 -7.64 2.39
5.42 -7.53 2.39
5.57 -7.43 2.39
5.72 -7.32 2.39
5.87 -7.20 2.39
6.02 -7.09 2.39
6.16 -6.97 2.39
6.28 -6.82 2.38
6.40 -6.67 2.37
6.51 -6.53 2.37
6.62 -6.38 2.36
6.73 -6.23 2.35
6.83 -6.07 2.34
6.94 -5.92 2.34
7.04 -5.76 2.33
7.28 -5.73 2.37
7.50 -5.66 2.41
7.62 -5.51 2.41
7.73 -5.36 2.41
7.84 -5.20 2.41
7.95 -5.05 2.41
8.05 -4.89 2.41
8.15 -4.73 2.41
8.24 -4.57 2.41
8.34 -4.40 2.41
8.43 -4.23 2.41
8.51 -4.07 2.41
8.59 -3.90 2.41
8.67 -3.72 2.41
8.75 -3.55 2.41
8.82 -3.38 2.41
8.89 -3.20 2.41
8.95 -3.02 2.41
5.69 -1.79 1.52
5.72 -1.68 1.52
5.91 -1.61 1.56
9.18 -2.30 2.41
9.22 -2.11 2.41
9.27 -1.93 2.41
6.12 -1.15 1.58
6.13 -1.02 1.58
6.41 -0.94 1.65
8.01 -1.00 2.05
9.41 -0.99 2.40
9.43 -0.80 2.40
9.44 -0.61 2.40
9.45 -0.42 2.40
9.46 -0.23 2.40
9.46 -0.04 2.40
9.46 0.15 2.40
9.46 0.34 2.40
9.46 0.53 2.40
9.45 0.72 2.40
9.44 0.91 2.40
9.43 1.10 2.41
9.41 1.29 2.41
9.38 1.47 2.41
9.35 1.66 2.41
9.31 1.85 2.41
9.28 2.04 2.41
9.23 2.22 2.41
8.63 2.26 2.26
8.41 2.38 2.21
8.37 2.55 2.22
8.33 2.73 2.22
8.29 2.90 2.22
8.24 3.07 2.23
8.19 3.24 2.23
8.14 3.41 2.24
8.08 3.58 2.24
8.03 3.74 2.24
7.97 3.91 2.25
7.90 4.08 2.25
7.84 4.25 2.26
8.03 4.56 2.34
7.68 4.57 2.27
7.30 4.55 2.18
7.00 4.55 2.12
6.76 4.59 2.07
6.55 4.65 2.04
6.56 4.85 2.07
7.52 5.80 2.41
7.40 5.95 2.41
7.28 6.09 2.41
2.57 2.24 0.87
2.54 2.31 0.87
6.89 6.52 2.41
6.76 6.65 2.41
6.62 6.78 2.41
6.44 6.87 2.39
6.30 7.00 2.39
6.16 7.12 2.39
6.01 7.24 2.39
5.87 7.36 2.39
5.72 7.47 2.39
5.56 7.58 2.39
5.41 7.69 2.39
5.25 7.80 2.39
5.09 7.90 2.39
4.93 8.00 2.39
4.77 8.09 2.39
4.61 8.18 2.39
4.44 8.27 2.39
4.27 8.36 2.39
4.10 8.44 2.39
3.93 8.52 2.39
3.76 8.59 2.39
3.58 8.66 2.39
3.41 8.73 2.39
3.23 8.79 2.39
3.05 8.85 2.39
2.88 8.91 2.39
2.70 8.96 2.39
2.55 9.14 2.42
2.43 9.45 2.49
2.24 9.49 2.49
2.05 9.53 2.49
1.86 9.57 2.49
1.67 9.60 2.49
1.47 9.63 2.49
1.28 9.65 2.49
1.08 9.67 2.49
0.89 9.69 2.49
0.69 9.70 2.49
0.50 9.71 2.49
0.30 9.71 2.49
0.11 9.71 2.49
-0.09 9.71 2.49
-0.28 9.70 2.49
-0.47 9.69 2.49
-0.67 9.67 2.49
-0.86 9.65 2.49
-1.05 9.63 2.49
-1.25 9.60 2.49
-1.44 9.57 2.49
-1.63 9.54 2.49
-1.82 9.50 2.49
-2.01 9.46 2.49
-2.20 9.41 2.49
-2.39 9.36 2.49
-2.57 9.31 2.49
-2.76 9.25 2.49
-2.94 9.19 2.49
-3.12 9.12 2.49
-3.30 9.05 2.49
-3.48 8.98 2.49
-3.66 8.91 2.49
-3.84 8.83 2.49
-4.01 8.74 2.49
-4.19 8.66 2.49
-4.36 8.57 2.49
-4.53 8.48 2.49
-4.69 8.38 2.49
-4.86 8.28 2.49
-5.02 8.18 2.49
-5.18 8.07 2.49
-5.34 7.96 2.49
-5.50 7.85 2.49
-5.54 7.59 2.45
-5.56 7.30 2.39
-5.71 7.19 2.39
-5.85 7.07 2.39
-5.99 6.94 2.39
-6.12 6.82 2.39
-6.25 6.69 2.39
-6.39 6.56 2.39
-6.51 6.43 2.39
-6.64 6.30 2.39
-6.76 6.16 2.39
-6.88 6.02 2.39
-7.00 5.88 2.39
-7.11 5.74 2.39
-7.22 5.59 2.39
-7.33 5.44 2.39
-7.44 5.29 2.39
-7.54 5.14 2.39
-7.64 4.98 2.39
-7.73 4.83 2.39
-7.83 4.67 2.39
-7.91 4.51 2.39
-8.00 4.35 2.39
-8.08 4.19 2.39
-8.16 4.02 2.39
-8.24 3.86 2.39
-8.31 3.69 2.39
-8.38 3.52 2.39
-8.45 3.35 2.39
-8.51 3.18 2.39
-8.57 3.01 2.39
-8.63 2.83 2.39
-8.68 2.66 2.39
-8.73 2.48 2.39
-8.78 2.30 2.39
-8.82 2.13 2.39
-8.86 1.95 2.39
-8.89 1.77 2.39
-8.93 1.59 2.39
-8.95 1.41 2.39
-8.98 1.23 2.39
-9.00 1.05 2.39
-9.02 0.87 2.39
-9.03 0.69 2.39
-9.04 0.50 2.39
-9.05 0.32 2.39
-9.05 0.14 2.39
-9.05 -0.04 2.39
-9.05 -0.22 2.39
-9.04 -0.40 2.39
-9.03 -0.59 2.39
-9.01 -0.77 2.39
-8.99 -0.95 2.39
-8.97 -1.13 2.39
-8.95 -1.31 2.39
-8.92 -1.49 2.39
-8.89 -1.67 2.39
-8.85 -1.84 2.39
-8.81 -2.02 2.39
-8.77 -2.20 2.39
-8.72 -2.37 2.39
-8.67 -2.55 2.39
-8.62 -2.72 2.39
-8.56 -2.90 2.39
-8.50 -3.07 2.39
-8.44 -3.24 2.39
-8.37 -3.41 2.39
-8.30 -3.57 2.39
-8.23 -3.74 2.39
-8.15 -3.90 2.39
-8.07 -4.07 2.39
-7.99 -4.23 2.39
-7.90 -4.39 2.39
-7.81 -4.55 2.39
-7.72 -4.70 2.39
-7.62 -4.86 2.39
-7.53 -5.01 2.39
-7.42 -5.16 2.39
-7.32 -5.31 2.39
-6.85 -5.18 2.27
-6.82 -5.38 2.29
-6.82 -5.61 2.33
-6.76 -5.79 2.35
-6.64 -5.92 2.35
-6.30 -5.84 2.27
-6.25 -6.04 2.29
-6.25 -6.29 2.34
-6.25 -6.55 2.39
-6.12 -6.67 2.39
-5.99 -6.80 2.39
-5.92 -7.00 2.42
-5.92 -7.29 2.48
-5.81 -7.46 2.49
-5.66 -7.58 2.49
-5.51 -7.69 2.49
-5.35 -7.80 2.49
-5.20 -7.91 2.49
-5.04 -8.01 2.49
-4.88 -8.12 2.49
-4.71 -8.21 2.49
-4.55 -8.31 2.49
-4.38 -8.40 2.49
-4.21 -8.49 2.49
-4.04 -8.58 2.49
-3.87 -8.66 2.49
-3.70 -8.74 2.49
-3.52 -8.81 2.49
-3.35 -8.88 2.49
-3.17 -8.95 2.49
-2.99 -9.02 2.49
-2.81 -9.08 2.49
-2.63 -9.14 2.49
-2.44 -9.19 2.49
-2.26 -9.24 2.49
-2.07 -9.29 2.49
-1.89 -9.33 2.49
-1.70 -9.37 2.49
-1.51 -9.40 2.49
-1.32 -9.44 2.49
-1.13 -9.46 2.49
-0.94 -9.49 2.49
-0.75 -9.51 2.49
-0.56 -9.53 2.49
-0.37 -9.54 2.49
-0.18 -9.55 2.49
0.01 -8.74 2.49
0.19 -8.75 2.49
0.36 -8.74 2.49
0.54 -8.74 2.49
0.71 -8.73 2.49
0.89 -8.72 2.49
1.07 -8.70 2.49
1.24 -8.68 2.49
1.42 -8.66 2.49
1.59 -8.63 2.49
1.76 -8.60 2.49
1.94 -8.57 2.49
2.10 -8.49 2.48
2.19 -8.14 2.39
2.35 -8.09 2.39
2.51 -8.05 2.39
2.67 -8.00 2.39
2.84 -7.95 2.39
3.00 -7.89 2.39
3.15 -7.83 2.39
3.31 -7.77 2.39
3.47 -7.71 2.39
3.62 -7.64 2.39
3.78 -7.57 2.39
3.93 -7.49 2.39
4.08 -7.42 2.39
4.23 -7.33 2.39
4.38 -7.25 2.39
4.53 -7.16 2.39
4.67 -7.08 2.39
4.81 -6.98 2.39
4.96 -6.89 2.39
5.10 -6.79 2.39
5.23 -6.69 2.39
5.37 -6.58 2.39
5.50 -6.48 2.39
5.63 -6.37 2.39
5.76 -6.26 2.39
5.89 -6.14 2.39
6.01 -6.03 2.39
6.13 -5.91 2.39
6.25 -5.78 2.39
6.40 -5.69 2.40
6.53 -5.57 2.41
6.64 -5.44 2.41
6.75 -5.31 2.41
6.86 -5.17 2.41
6.96 -5.04 2.41
7.07 -4.90 2.41
7.16 -4.76 2.41
7.26 -4.61 2.41
7.35 -4.47 2.41
7.44 -4.32 2.41
7.53 -4.17 2.41
7.62 -4.02 2.41
7.70 -3.87 2.41
7.78 -3.71 2.41
7.85 -3.56 2.41
7.92 -3.40 2.41
7.99 -3.24 2.41
8.06 -3.08 2.41
8.12 -2.92 2.41
5.46 -1.84 1.61
5.46 -1.72 1.60
5.47 -1.60 1.59
5.56 -1.51 1.60
5.71 -1.43 1.64
8.43 -1.93 2.41
8.46 -1.76 2.41
6.12 -1.15 1.73
6.13 -1.02 1.73
6.42 -0.94 1.80
8.01 -1.00 2.24
8.61 -0.90 2.41
8.62 -0.73 2.41
8.64 -0.56 2.41
8.65 -0.39 2.41
8.66 -0.21 2.41
8.66 -0.04 2.41
8.66 0.13 2.41
8.66 0.31 2.41
8.65 0.48 2.41
8.64 0.66 2.41
8.63 0.83 2.41
8.61 1.00 2.41
8.59 1.17 2.41
8.56 1.35 2.41
8.54 1.52 2.41
8.51 1.69 2.41
8.47 1.86 2.41
8.43 2.03 2.41
8.39 2.20 2.41
8.03 2.28 2.32
7.79 2.38 2.26
7.75 2.53 2.26
7.71 2.69 2.26
7.66 2.85 2.27
7.62 3.01 2.27
7.57 3.17 2.28
7.52 3.33 2.28
7.47 3.49 2.29
7.42 3.64 2.29
7.36 3.80 2.30
7.30 3.96 2.30
7.24 4.11 2.31
7.17 4.27 2.32
7.30 4.55 2.39
7.00 4.55 2.32
6.76 4.59 2.27
6.55 4.65 2.23
6.56 4.85 2.26
6.86 5.29 2.41
6.75 5.43 2.41
6.64 5.56 2.41
2.57 2.24 0.95
2.54 2.31 0.95
6.25 5.91 2.39
6.13 6.03 2.39
6.01 6.15 2.39
5.88 6.27 2.39
5.76 6.39 2.39
5.63 6.50 2.39
5.49 6.61 2.39
5.36 6.72 2.39
5.22 6.82 2.39
5.08 6.93 2.39
4.94 7.02 2.39
4.80 7.12 2.39
4.65 7.21 2.39
4.51 7.30 2.39
4.36 7.39 2.39
4.21 7.47 2.39
4.06 7.56 2.39
3.90 7.63 2.39
3.75 7.71 2.39
3.59 7.78 2.39
3.43 7.85 2.39
3.28 7.91 2.39
3.12 7.97 2.39
2.95 8.03 2.39
2.79 8.09 2.39
2.63 8.14 2.39
2.53 8.40 2.45
2.40 8.59 2.49
2.22 8.63 2.49
2.05 8.67 2.49
1.87 8.71 2.49
1.70 8.74 2.49
1.52 8.77 2.49
1.35 8.80 2.49
1.17 8.82 2.49
0.99 8.84 2.49
0.81 8.85 2.49
0.64 8.86 2.49
0.46 8.87 2.49
0.28 8.88 2.49
0.10 8.88 2.49
-0.08 8.87 2.49
-0.25 8.87 2.49
-0.43 8.86 2.49
-0.61 8.84 2.49
-0.79 8.82 2.49
-0.96 8.80 2.49
-1.14 8.78 2.49
-1.31 8.75 2.49
-1.49 8.72 2.49
-1.66 8.68 2.49
-1.84 8.65 2.49
-2.01 8.60 2.49
-2.18 8.56 2.49
-2.35 8.51 2.49
-2.52 8.46 2.49
-2.69 8.40 2.49
-2.85 8.34 2.49
-3.02 8.28 2.49
-3.18 8.21 2.49
-3.35 8.15 2.49
-3.51 8.07 2.49
-3.67 8.00 2.49
-3.83 7.92 2.49
-3.98 7.84 2.49
-4.14 7.75 2.49
-4.29 7.67 2.49
-4.44 7.58 2.49
-4.59 7.48 2.49
-4.74 7.38 2.49
-4.89 7.29 2.49
-5.03 7.18 2.49
-5.17 7.08 2.49
-5.31 6.97 2.49
-5.45 6.86 2.49
-5.57 6.73 2.49
-5.57 6.47 2.43
-5.60 6.24 2.39
-5.72 6.13 2.39
-5.84 6.01 2.39
-5.96 5.89 2.39
-6.07 5.76 2.39
-6.19 5.64 2.39
-6.30 5.51 2.39
-6.40 5.38 2.39
-6.51 5.25 2.39
-6.61 5.12 2.39
-6.37 4.73 2.27
-6.46 4.60 2.27
-6.57 4.48 2.28
-6.63 4.33 2.27
-7.08 4.42 2.39
-7.16 4.28 2.39
-7.25 4.13 2.39
-7.33 3.98 2.39
-7.40 3.83 2.39
-7.47 3.68 2.39
-7.54 3.53 2.39
-7.61 3.38 2.39
-7.68 3.22 2.39
-7.74 3.07 2.39
-7.80 2.91 2.39
-7.85 2.75 2.39
-7.90 2.59 2.39
-7.95 2.43 2.39
-8.00 2.27 2.39
-8.04 2.11 2.39
-8.08 1.95 2.39
-8.11 1.79 2.39
-8.14 1.62 2.39
-8.17 1.46 2.39
-8.20 1.29 2.39
-8.22 1.13 2.39
-8.24 0.96 2.39
-8.26 0.80 2.39
-8.27 0.63 2.39
-8.28 0.46 2.39
-8.29 0.30 2.39
-8.29 0.13 2.39
-8.29 -0.04 2.39
-8.29 -0.20 2.39
-8.28 -0.37 2.39
-8.27 -0.54 2.39
-8.26 -0.70 2.39
-8.24 -0.87 2.39
-8.22 -1.03 2.39
-8.20 -1.20 2.39
-8.17 -1.36 2.39
-8.14 -1.53 2.39
-8.11 -1.69 2.39
-8.07 -1.85 2.39
-8.03 -2.01 2.39
-7.99 -2.17 2.39
-7.94 -2.34 2.39
-7.89 -2.49 2.39
-7.84 -2.65 2.39
-7.79 -2.81 2.39
-7.73 -2.97 2.39
-7.67 -3.12 2.39
-7.60 -3.27 2.39
-7.54 -3.43 2.39
-7.47 -3.58 2.39
-7.39 -3.73 2.39
-7.32 -3.87 2.39
-6.87 -3.82 2.27
-6.79 -3.95 2.27
-6.78 -4.13 2.29
-6.79 -4.33 2.32
-6.78 -4.51 2.35
-6.69 -4.65 2.35
-6.59 -4.78 2.35
-6.27 -4.74 2.27
-6.22 -4.90 2.28
-6.22 -5.11 2.32
-6.23 -5.33 2.36
-6.19 -5.52 2.39
-6.07 -5.64 2.39
-5.96 -5.76 2.39
-5.89 -5.93 2.41
-5.89 -6.17 2.46
-5.85 -6.38 2.49
-5.72 -6.49 2.49
-5.59 -6.61 2.49
-5.46 -6.72 2.49
-5.32 -6.83 2.49
-5.18 -6.94 2.49
-5.04 -7.04 2.49
-4.90 -7.14 2.49
-4.76 -7.24 2.49
-4.61 -7.34 2.49
-4.47 -7.43 2.49
-4.32 -7.52 2.49
-4.17 -7.61 2.49
-4.01 -7.69 2.49
-3.86 -7.77 2.49
-3.70 -7.85 2.49
-3.55 -7.93 2.49
-3.39 -8.00 2.49
-3.23 -8.07 2.49
-3.06 -8.13 2.49
-2.90 -8.20 2.49
-2.74 -8.25 2.49
-2.57 -8.31 2.49
-2.40 -8.36 2.49
-2.24 -8.41 2.49
-2.07 -8.46 2.49
-1.90 -8.50 2.49
-1.73 -8.54 2.49
-1.56 -8.58 2.49
-1.38 -8.61 2.49
-1.21 -8.64 2.49
-1.04 -8.66 2.49
-0.86 -8.69 2.49
-0.69 -8.70 2.49
-0.51 -8.72 2.49
-0.34 -8.73 2.49
-0.16 -8.74 2.49
0.01 -8.05 2.49
0.17 -8.05 2.49
0.34 -8.05 2.49
0.50 -8.05 2.49
0.66 -8.04 2.49
0.82 -8.02 2.49
0.98 -8.01 2.49
1.14 -7.99 2.49
1.30 -7.97 2.49
1.46 -7.94 2.49
1.62 -7.92 2.49
1.78 -7.88 2.49
1.94 -7.85 2.49
2.10 -7.81 2.49
2.16 -7.45 2.39
2.33 -7.47 2.41
2.46 -7.36 2.39
2.61 -7.31 2.39
2.76 -7.26 2.39
2.90 -7.21 2.39
3.05 -7.15 2.39
3.19 -7.09 2.39
3.34 -7.03 2.39
3.48 -6.96 2.39
3.62 -6.89 2.39
3.76 -6.82 2.39
3.90 -6.75 2.39
4.03 -6.67 2.39
4.17 -6.59 2.39
4.30 -6.51 2.39
4.43 -6.42 2.39
4.56 -6.34 2.39
4.69 -6.25 2.39
4.81 -6.15 2.39
4.94 -6.06 2.39
5.06 -5.96 2.39
5.18 -5.86 2.39
5.30 -5.76 2.39
5.42 -5.65 2.39
5.53 -5.54 2.39
5.64 -5.43 2.39
5.75 -5.32 2.39
5.86 -5.20 2.39
5.97 -5.09 2.39
6.07 -4.97 2.39
6.17 -4.85 2.39
6.31 -4.76 2.41
6.40 -4.63 2.41
6.50 -4.50 2.41
6.59 -4.37 2.41
6.68 -4.24 2.41
6.76 -4.11 2.41
6.85 -3.97 2.41
6.93 -3.84 2.41
7.00 -3.70 2.41
7.08 -3.56 2.41
7.15 -3.41 2.41
7.22 -3.27 2.41
7.29 -3.13 2.41
7.35 -2.98 2.41
7.41 -2.83 2.41
7.47 -2.69 2.41
5.48 -1.85 1.75
5.48 -1.73 1.74
5.49 -1.61 1.73
5.59 -1.52 1.76
7.71 -1.93 2.41
7.75 -1.77 2.41
7.78 -1.62 2.41
6.12 -1.15 1.89
6.13 -1.02 1.88
6.42 -0.94 1.96
7.89 -0.99 2.41
7.91 -0.83 2.41
7.93 -0.67 2.41
7.94 -0.51 2.41
7.95 -0.35 2.41
7.96 -0.19 2.41
7.96 -0.04 2.41
7.96 0.12 2.41
7.96 0.28 2.41
7.95 0.44 2.41
7.94 0.60 2.41
7.93 0.76 2.41
7.91 0.92 2.41
7.90 1.08 2.41
7.87 1.24 2.41
7.85 1.40 2.41
7.82 1.55 2.41
7.79 1.71 2.41
7.75 1.86 2.41
7.71 2.02 2.41
7.67 2.17 2.41
7.50 2.29 2.37
7.26 2.37 2.30
7.22 2.52 2.31
7.18 2.67 2.31
7.14 2.82 2.32
7.09 2.97 2.32
7.05 3.12 2.33
7.00 3.26 2.33
6.94 3.41 2.34
6.89 3.56 2.34
6.83 3.70 2.34
6.77 3.85 2.35
6.71 3.99 2.36
6.64 4.13 2.36
6.57 4.28 2.37
6.59 4.48 2.41
6.50 4.61 2.41
6.36 4.71 2.39
6.27 4.83 2.39
6.17 4.96 2.39
6.07 5.08 2.39
2.57 2.24 1.03
2.54 2.31 1.04
5.75 5.43 2.39
5.64 5.55 2.39
5.52 5.66 2.39
5.41 5.77 2.39
5.29 5.87 2.39
5.17 5.98 2.39
5.05 6.08 2.39
4.93 6.18 2.39
4.80 6.27 2.39
4.67 6.37 2.39
4.54 6.46 2.39
4.41 6.55 2.39
4.28 6.63 2.39
4.14 6.71 2.39
4.01 6.79 2.39
3.87 6.87 2.39
3.73 6.95 2.39
3.59 7.02 2.39
3.45 7.09 2.39
3.30 7.15 2.39
3.16 7.22 2.39
3.01 7.28 2.39
2.87 7.33 2.39
2.72 7.39 2.39
2.57 7.44 2.39
2.51 7.77 2.48
2.36 7.85 2.49
2.21 7.90 2.49
2.05 7.94 2.49
1.89 7.98 2.49
1.72 8.01 2.49
1.56 8.04 2.49
1.40 8.07 2.49
1.24 8.09 2.49
1.08 8.11 2.49
0.91 8.13 2.49
0.75 8.14 2.49
0.59 8.15 2.49
0.42 8.16 2.49
0.26 8.16 2.49
0.09 8.17 2.49
-0.07 8.16 2.49
-0.23 8.16 2.49
-0.40 8.15 2.49
-0.56 8.13 2.49
-0.72 8.12 2.49
-0.89 8.10 2.49
-1.05 8.08 2.49
-1.21 8.05 2.49
-1.37 8.02 2.49
-1.53 7.99 2.49
-1.69 7.96 2.49
-1.85 7.92 2.49
-2.01 7.88 2.49
-2.16 7.83 2.49
-2.32 7.78 2.49
-2.47 7.73 2.49
-2.63 7.68 2.49
-2.78 7.62 2.49
-2.93 7.56 2.49
-3.08 7.50 2.49
-3.23 7.43 2.49
-3.38 7.36 2.49
-3.52 7.29 2.49
-3.67 7.22 2.49
-3.81 7.14 2.49
-3.95 7.06 2.49
-4.09 6.97 2.49
-4.23 6.89 2.49
-4.36 6.80 2.49
-4.50 6.71 2.49
-4.63 6.61 2.49
-4.76 6.52 2.49
-4.89 6.42 2.49
-5.01 6.32 2.49
-5.14 6.21 2.49
-5.26 6.11 2.49
-5.38 6.00 2.49
-5.50 5.89 2.49
-5.59 5.75 2.48
-5.60 5.53 2.44
-5.61 5.32 2.40
-5.70 5.19 2.39
-5.80 5.08 2.39
-5.90 4.96 2.39
-5.99 4.84 2.39
-5.98 4.63 2.35
-5.98 4.44 2.31
-5.98 4.26 2.28
-6.03 4.11 2.27
-6.11 3.99 2.27
-6.41 4.01 2.35
-6.49 3.87 2.35
-6.56 3.74 2.35
-6.59 3.58 2.33
-6.59 3.42 2.31
-6.60 3.25 2.29
-6.61 3.09 2.27
-6.66 2.95 2.27
-6.71 2.82 2.27
-7.13 2.83 2.39
-7.18 2.68 2.39
-7.23 2.54 2.39
-7.28 2.39 2.39
-7.32 2.24 2.39
-7.37 2.09 2.39
-7.41 1.95 2.39
-7.44 1.80 2.39
-7.47 1.65 2.39
-7.50 1.49 2.39
-7.53 1.34 2.39
-7.56 1.19 2.39
-7.58 1.04 2.39
-7.59 0.89 2.39
-7.61 0.73 2.39
-7.62 0.58 2.39
-7.63 0.43 2.39
-7.64 0.27 2.39
-7.64 0.12 2.39
-7.64 -0.03 2.39
-7.64 -0.19 2.39
-7.63 -0.34 2.39
-7.62 -0.49 2.39
-7.61 -0.65 2.39
-7.59 -0.80 2.39
-7.57 -0.95 2.39
-7.55 -1.10 2.39
-7.53 -1.26 2.39
-7.50 -1.41 2.39
-7.47 -1.56 2.39
-7.44 -1.71 2.39
-7.40 -1.86 2.39
-7.36 -2.00 2.39
-7.32 -2.15 2.39
-7.28 -2.30 2.39
-7.23 -2.44 2.39
-7.18 -2.59 2.39
-7.12 -2.73 2.39
-7.07 -2.88 2.39
-7.01 -3.02 2.39
-6.95 -3.16 2.39
-6.69 -3.20 2.32
-6.47 -3.26 2.27
-6.40 -3.39 2.27
-6.56 -3.64 2.35
-6.26 -3.64 2.27
-6.20 -3.78 2.27
-6.19 -3.95 2.30
-6.20 -4.13 2.33
-6.20 -4.31 2.37
-6.18 -4.48 2.39
-6.09 -4.61 2.39
-5.99 -4.73 2.39
-5.90 -4.85 2.39
-5.87 -5.02 2.42
-5.87 -5.23 2.46
-5.84 -5.42 2.49
-5.73 -5.54 2.49
-5.62 -5.65 2.49
-5.50 -5.77 2.49
-5.39 -5.88 2.49
-5.27 -5.99 2.49
-5.15 -6.09 2.49
-5.03 -6.19 2.49
-4.90 -6.30 2.49
-4.78 -6.39 2.49
-4.65 -6.49 2.49
-4.52 -6.58 2.49
-4.38 -6.67 2.49
-4.25 -6.76 2.49
-4.11 -6.85 2.49
-3.98 -6.93 2.49
-3.84 -7.01 2.49
-3.70 -7.09 2.49
-3.55 -7.16 2.49
-3.41 -7.23 2.49
-3.27 -7.30 2.49
-3.12 -7.37 2.49
-2.97 -7.43 2.49
-2.82 -7.49 2.49
-2.67 -7.55 2.49
-2.52 -7.60 2.49
-2.37 -7.66 2.49
-2.21 -7.70 2.49
-2.06 -7.75 2.49
-1.90 -7.79 2.49
-1.75 -7.83 2.49
-1.59 -7.87 2.49
-1.43 -7.90 2.49
-1.27 -7.93 2.49
-1.11 -7.96 2.49
-0.95 -7.98 2.49
-0.79 -8.00 2.49
-0.63 -8.02 2.49
-0.47 -8.03 2.49
-0.31 -8.04 2.49
-0.15 -8.05 2.49
0.01 -7.45 2.49
0.16 -7.45 2.49
0.31 -7.45 2.49
0.46 -7.45 2.49
0.61 -7.44 2.49
0.76 -7.43 2.49
0.91 -7.41 2.49
1.06 -7.40 2.49
1.21 -7.38 2.49
1.36 -7.35 2.49
1.50 -7.33 2.49
1.65 -7.30 2.49
1.80 -7.26 2.49
1.94 -7.23 2.49
2.09 -7.19 2.49
2.15 -6.88 2.40
2.28 -6.81 2.39
2.42 -6.77 2.39
2.55 -6.72 2.39
2.69 -6.67 2.39
2.82 -6.62 2.39
2.96 -6.56 2.39
3.09 -6.50 2.39
3.22 -6.44 2.39
3.35 -6.38 2.39
3.48 -6.31 2.39
3.61 -6.24 2.39
3.73 -6.17 2.39
3.86 -6.10 2.39
3.98 -6.02 2.39
4.10 -5.94 2.39
4.22 -5.86 2.39
4.34 -5.78 2.39
4.45 -5.69 2.39
4.57 -5.60 2.39
4.68 -5.51 2.39
4.79 -5.42 2.39
4.90 -5.32 2.39
5.01 -5.23 2.39
5.12 -5.13 2.39
5.22 -5.02 2.39
5.32 -4.92 2.39
5.42 -4.81 2.39
5.52 -4.70 2.39
5.61 -4.59 2.39
5.70 -4.48 2.39
5.80 -4.37 2.39
5.88 -4.25 2.39
5.97 -4.13 2.39
6.05 -4.02 2.39
6.13 -3.89 2.39
6.21 -3.77 2.39
6.33 -3.67 2.41
6.41 -3.55 2.41
6.48 -3.42 2.41
6.55 -3.29 2.41
6.61 -3.16 2.41
6.68 -3.02 2.41
6.74 -2.89 2.41
6.80 -2.76 2.41
6.85 -2.62 2.41
6.90 -2.48 2.41
5.49 -1.85 1.90
5.49 -1.73 1.89
5.49 -1.61 1.88
5.60 -1.52 1.90
7.13 -1.78 2.41
7.16 -1.64 2.41
7.19 -1.49 2.41
6.12 -1.14 2.04
6.13 -1.02 2.03
6.42 -0.94 2.12
7.30 -0.91 2.41
7.31 -0.77 2.41
7.33 -0.62 2.41
7.34 -0.47 2.41
7.35 -0.33 2.41
7.36 -0.18 2.41
7.36 -0.03 2.41
7.36 0.12 2.41
7.36 0.26 2.41
7.35 0.41 2.41
7.34 0.56 2.41
7.33 0.70 2.41
7.31 0.85 2.41
7.30 1.00 2.41
7.28 1.14 2.41
7.25 1.29 2.41
7.23 1.43 2.41
7.20 1.58 2.41
7.16 1.72 2.41
7.13 1.87 2.41
7.09 2.01 2.41
7.05 2.15 2.41
7.00 2.29 2.41
6.78 2.37 2.35
6.74 2.51 2.35
6.70 2.65 2.35
6.66 2.79 2.36
6.61 2.92 2.36
6.56 3.06 2.37
6.51 3.20 2.37
6.46 3.33 2.37
6.40 3.47 2.38
6.35 3.60 2.38
6.28 3.74 2.39
6.21 3.87 2.39
6.13 3.99 2.39
6.05 4.11 2.39
5.97 4.23 2.39
5.88 4.35 2.39
5.79 4.47 2.39
5.70 4.58 2.39
5.61 4.69 2.39
2.57 2.24 1.12
2.54 2.31 1.12
5.31 5.02 2.39
5.21 5.13 2.39
5.11 5.23 2.39
5.00 5.33 2.39
4.89 5.43 2.39
4.78 5.52 2.39
4.67 5.62 2.39
4.55 5.71 2.39
4.44 5.80 2.39
4.32 5.88 2.39
4.20 5.97 2.39
4.08 6.05 2.39
3.96 6.13 2.39
3.83 6.21 2.39
3.71 6.28 2.39
3.58 6.35 2.39
3.45 6.42 2.39
3.32 6.49 2.39
3.19 6.55 2.39
3.05 6.61 2.39
2.92 6.67 2.39
2.79 6.73 2.39
2.65 6.78 2.39
2.51 6.83 2.39
2.48 7.17 2.49
2.33 7.22 2.49
2.19 7.26 2.49
2.04 7.30 2.49
1.89 7.34 2.49
1.74 7.37 2.49
1.60 7.41 2.49
1.45 7.43 2.49
1.30 7.46 2.49
1.15 7.48 2.49
1.00 7.50 2.49
0.85 7.52 2.49
0.69 7.53 2.49
0.54 7.54 2.49
0.39 7.55 2.49
0.24 7.55 2.49
0.09 7.55 2.49
-0.06 7.55 2.49
-0.21 7.54 2.49
-0.37 7.54 2.49
-0.52 7.52 2.49
-0.67 7.51 2.49
-0.82 7.49 2.49
-0.97 7.47 2.49
-1.12 7.45 2.49
-1.27 7.42 2.49
-1.41 7.39 2.49
-1.56 7.36 2.49
-1.71 7.33 2.49
-1.85 7.29 2.49
-2.00 7.25 2.49
-2.14 7.20 2.49
-2.29 7.15 2.49
-2.43 7.10 2.49
-2.57 7.05 2.49
-2.71 7.00 2.49
-2.85 6.94 2.49
-2.99 6.88 2.49
-3.12 6.81 2.49
-3.26 6.75 2.49
-3.39 6.68 2.49
-3.52 6.61 2.49
-3.65 6.53 2.49
-3.78 6.45 2.49
-3.91 6.38 2.49
-4.04 6.29 2.49
-4.16 6.21 2.49
-4.28 6.12 2.49
-4.40 6.03 2.49
-4.52 5.94 2.49
-4.64 5.85 2.49
-4.75 5.75 2.49
-4.87 5.65 2.49
-4.98 5.55 2.49
-5.09 5.45 2.49
-5.19 5.34 2.49
-5.30 5.24 2.49
-5.40 5.13 2.49
-5.50 5.02 2.49
-5.60 4.90 2.49
-5.62 4.72 2.46
-5.62 4.54 2.42
-5.64 4.36 2.39
-5.72 4.25 2.39
-5.82 4.15 2.40
-5.88 4.01 2.39
-5.96 3.89 2.39
-6.00 3.75 2.38
-6.00 3.58 2.35
-6.01 3.42 2.32
-6.01 3.27 2.30
-6.01 3.12 2.28
-6.05 2.98 2.27
-6.11 2.86 2.27
-6.39 2.84 2.35
-6.44 2.71 2.35
-6.49 2.58 2.35
-6.54 2.44 2.35
-6.59 2.31 2.35
-6.62 2.17 2.35
-6.63 2.03 2.34
-6.63 1.89 2.32
-6.64 1.74 2.31
-6.64 1.60 2.30
-6.64 1.46 2.29
-6.65 1.32 2.29
-6.65 1.19 2.28
-6.66 1.05 2.27
-6.67 0.91 2.27
-6.68 0.78 2.27
-6.69 0.65 2.27
-6.70 0.51 2.27
-6.71 0.38 2.27
-6.71 0.24 2.27
-6.72 0.11 2.27
-6.72 -0.03 2.27
-6.73 -0.16 2.28
-7.07 -0.32 2.39
-7.06 -0.46 2.39
-7.05 -0.60 2.39
-7.03 -0.74 2.39
-7.02 -0.88 2.39
-7.00 -1.02 2.39
-6.97 -1.16 2.39
-6.95 -1.30 2.39
-6.92 -1.44 2.39
-6.89 -1.58 2.39
-6.86 -1.72 2.39
-6.82 -1.86 2.39
-6.78 -1.99 2.39
-6.74 -2.13 2.39
-6.70 -2.26 2.39
-6.65 -2.40 2.39
-6.60 -2.53 2.39
-6.55 -2.66 2.39
-6.49 -2.79 2.39
-6.43 -2.92 2.39
-6.37 -3.05 2.39
-6.31 -3.18 2.39
-6.18 -3.27 2.36
-6.18 -3.43 2.39
-6.11 -3.56 2.39
-6.04 -3.68 2.39
-5.96 -3.80 2.39
-5.88 -3.92 2.39
-5.85 -4.07 2.41
-5.84 -4.24 2.44
-5.85 -4.43 2.48
-5.79 -4.57 2.49
-5.70 -4.69 2.49
-5.60 -4.80 2.49
-5.51 -4.91 2.49
-5.41 -5.02 2.49
-5.31 -5.13 2.49
-5.20 -5.24 2.49
-5.10 -5.34 2.49
-4.99 -5.44 2.49
-4.88 -5.54 2.49
-4.77 -5.64 2.49
-4.66 -5.74 2.49
-4.54 -5.83 2.49
-4.42 -5.92 2.49
-4.30 -6.01 2.49
-4.18 -6.10 2.49
-4.06 -6.18 2.49
-3.94 -6.26 2.49
-3.81 -6.34 2.49
-3.68 -6.42 2.49
-3.55 -6.49 2.49
-3.42 -6.56 2.49
-3.29 -6.63 2.49
-3.16 -6.70 2.49
-3.02 -6.76 2.49
-2.89 -6.82 2.49
-2.75 -6.88 2.49
-2.61 -6.94 2.49
-2.47 -6.99 2.49
-2.33 -7.04 2.49
-2.19 -7.09 2.49
-2.05 -7.13 2.49
-1.91 -7.18 2.49
-1.76 -7.21 2.49
-1.62 -7.25 2.49
-1.47 -7.28 2.49
-1.32 -7.31 2.49
-1.18 -7.34 2.49
-1.03 -7.37 2.49
-0.88 -7.39 2.49
-0.73 -7.41 2.49
-0.59 -7.42 2.49
-0.44 -7.43 2.49
-0.29 -7.44 2.49
-0.14 -7.45 2.49
0.01 -6.93 2.49
0.15 -6.93 2.49
0.29 -6.93 2.49
0.43 -6.92 2.49
0.57 -6.92 2.49
0.71 -6.91 2.49
0.85 -6.89 2.49
0.99 -6.88 2.49
1.12 -6.86 2.49
1.26 -6.84 2.49
1.40 -6.81 2.49
1.54 -6.78 2.49
1.67 -6.75 2.49
1.81 -6.72 2.49
1.94 -6.69 2.49
2.08 -6.65 2.49
2.15 -6.43 2.43
2.25 -6.29 2.39
2.37 -6.25 2.39
2.50 -6.20 2.39
2.62 -6.15 2.39
2.75 -6.10 2.39
2.87 -6.04 2.39
2.99 -5.99 2.39
3.11 -5.93 2.39
3.23 -5.87 2.39
3.35 -5.80 2.39
3.47 -5.74 2.39
3.58 -5.67 2.39
3.70 -5.60 2.39
3.81 -5.52 2.39
3.92 -5.45 2.39
4.03 -5.37 2.39
4.14 -5.29 2.39
4.25 -5.21 2.39
4.35 -5.12 2.39
4.45 -5.03 2.39
4.56 -4.95 2.39
4.66 -4.85 2.39
4.75 -4.76 2.39
4.85 -4.67 2.39
4.94 -4.57 2.39
5.04 -4.47 2.39
5.13 -4.37 2.39
5.21 -4.27 2.39
5.30 -4.16 2.39
5.38 -4.06 2.39
5.47 -3.95 2.39
5.55 -3.84 2.39
5.62 -3.73 2.39
5.70 -3.62 2.39
5.77 -3.50 2.39
5.84 -3.39 2.39
5.91 -3.27 2.39
5.98 -3.15 2.39
6.04 -3.03 2.39
6.10 -2.91 2.39
6.16 -2.79 2.39
6.22 -2.67 2.39
6.31 -2.56 2.41
6.36 -2.43 2.41
6.41 -2.30 2.41
5.50 -1.85 2.05
5.50 -1.73 2.03
5.50 -1.61 2.02
5.61 -1.52 2.05
6.62 -1.65 2.41
6.65 -1.52 2.41
6.68 -1.39 2.41
6.12 -1.14 2.20
6.13 -1.02 2.19
6.43 -0.94 2.29
6.78 -0.85 2.41
6.79 -0.71 2.41
6.81 -0.58 2.41
6.82 -0.44 2.41
6.83 -0.30 2.41
6.83 -0.17 2.41
6.83 -0.03 2.41
6.83 0.11 2.41
6.83 0.24 2.41
6.83 0.38 2.41
6.82 0.52 2.41
6.81 0.65 2.41
6.79 0.79 2.41
6.78 0.93 2.41
6.76 1.06 2.41
6.73 1.20 2.41
6.71 1.33 2.41
6.68 1.47 2.41
6.65 1.60 2.41
6.62 1.73 2.41
6.58 1.87 2.41
6.54 2.00 2.41
6.50 2.13 2.41
6.46 2.26 2.41
6.34 2.36 2.38
6.31 2.49 2.38
6.26 2.62 2.39
6.22 2.75 2.39
6.16 2.87 2.39
6.10 3.00 2.39
6.04 3.12 2.39
5.98 3.24 2.39
5.91 3.36 2.39
5.84 3.47 2.39
5.77 3.59 2.39
5.70 3.71 2.39
5.62 3.82 2.39
5.54 3.93 2.39
5.46 4.04 2.39
5.38 4.15 2.39
5.29 4.25 2.39
5.21 4.36 2.39
2.57 2.24 1.20
2.54 2.30 1.21
4.93 4.66 2.39
4.84 4.76 2.39
4.74 4.86 2.39
4.64 4.95 2.39
4.54 5.04 2.39
4.44 5.13 2.39
4.34 5.22 2.39
4.23 5.30 2.39
4.12 5.38 2.39
4.01 5.46 2.39
3.90 5.54 2.39
3.79 5.62 2.39
3.67 5.69 2.39
3.56 5.76 2.39
3.44 5.83 2.39
3.32 5.90 2.39
3.20 5.96 2.39
3.08 6.03 2.39
2.96 6.09 2.39
2.84 6.14 2.39
2.71 6.20 2.39
2.59 6.25 2.39
2.48 6.35 2.41
2.44 6.62 2.49
2.30 6.66 2.49
2.17 6.71 2.49
2.03 6.75 2.49
1.90 6.78 2.49
1.76 6.82 2.49
1.62 6.85 2.49
1.48 6.88 2.49
1.34 6.91 2.49
1.21 6.93 2.49
1.07 6.95 2.49
0.93 6.97 2.49
0.79 6.98 2.49
0.65 7.00 2.49
0.50 7.01 2.49
0.36 7.01 2.49
0.22 7.02 2.49
0.08 7.02 2.49
-0.06 7.02 2.49
-0.20 7.01 2.49
-0.34 7.00 2.49
-0.48 6.99 2.49
-0.62 6.98 2.49
-0.76 6.96 2.49
-0.90 6.94 2.49
-1.04 6.92 2.49
-1.18 6.90 2.49
-1.31 6.87 2.49
-1.45 6.84 2.49
-1.59 6.81 2.49
-1.72 6.77 2.49
-1.86 6.73 2.49
-1.99 6.69 2.49
-2.12 6.65 2.49
-2.26 6.60 2.49
-2.39 6.56 2.49
-2.52 6.50 2.49
-2.65 6.45 2.49
-2.78 6.39 2.49
-2.90 6.33 2.49
-3.03 6.27 2.49
-3.15 6.21 2.49
-3.28 6.14 2.49
-3.40 6.07 2.49
-3.52 6.00 2.49
-3.64 5.93 2.49
-3.75 5.85 2.49
-3.87 5.77 2.49
-3.98 5.69 2.49
-4.09 5.61 2.49
-4.20 5.52 2.49
-4.31 5.44 2.49
-4.42 5.35 2.49
-4.53 5.26 2.49
-4.63 5.16 2.49
-4.73 5.07 2.49
-4.83 4.97 2.49
-4.93 4.87 2.49
-5.02 4.77 2.49
-5.12 4.67 2.49
-5.21 4.56 2.49
-5.30 4.45 2.49
-5.38 4.34 2.49
-5.47 4.23 2.49
-5.55 4.12 2.49
-5.63 4.01 2.49
-5.64 3.85 2.46
-5.64 3.69 2.43
-5.65 3.53 2.41
-5.68 3.39 2.39
-5.75 3.28 2.39
-5.81 3.16 2.39
-5.87 3.04 2.39
-5.93 2.92 2.39
-5.99 2.80 2.39
-6.02 2.68 2.38
-6.03 2.53 2.37
-6.03 2.39 2.35
-6.04 2.26 2.33
-6.04 2.12 2.32
-6.04 1.98 2.30
-6.05 1.85 2.29
-6.05 1.72 2.28
-6.06 1.59 2.27
-6.09 1.47 2.27
-6.11 1.35 2.27
-6.14 1.22 2.27
-6.16 1.10 2.27
-6.18 0.98 2.27
-6.20 0.85 2.27
-6.44 0.75 2.35
-6.45 0.62 2.35
-6.46 0.49 2.35
-6.47 0.36 2.35
-6.47 0.23 2.35
-6.48 0.10 2.35
-6.25 -0.03 2.27
-6.25 -0.15 2.27
-6.58 -0.29 2.39
-6.57 -0.43 2.39
-6.56 -0.56 2.39
-6.54 -0.69 2.39
-6.53 -0.82 2.39
-6.51 -0.95 2.39
-6.49 -1.08 2.39
-6.47 -1.21 2.39
-6.44 -1.34 2.39
-6.41 -1.47 2.39
-6.38 -1.60 2.39
-6.35 -1.73 2.39
-6.31 -1.85 2.39
-6.27 -1.98 2.39
-6.23 -2.11 2.39
-6.19 -2.23 2.39
-6.14 -2.36 2.39
-6.09 -2.48 2.39
-6.04 -2.60 2.39
-6.00 -2.73 2.39
-5.93 -2.84 2.39
-5.87 -2.96 2.39
-5.82 -3.08 2.40
-5.82 -3.23 2.42
-5.82 -3.39 2.45
-5.83 -3.55 2.48
-5.79 -3.69 2.49
-5.71 -3.80 2.49
-5.63 -3.92 2.49
-5.55 -4.03 2.49
-5.47 -4.14 2.49
-5.39 -4.25 2.49
-5.30 -4.36 2.49
-5.21 -4.47 2.49
-5.12 -4.57 2.49
-5.03 -4.67 2.49
-4.94 -4.77 2.49
-4.84 -4.87 2.49
-4.74 -4.97 2.49
-4.64 -5.06 2.49
-4.54 -5.16 2.49
-4.44 -5.25 2.49
-4.33 -5.34 2.49
-4.22 -5.42 2.49
-4.11 -5.51 2.49
-4.00 -5.59 2.49
-3.89 -5.67 2.49
-3.78 -5.75 2.49
-3.66 -5.83 2.49
-3.54 -5.90 2.49
-3.42 -5.97 2.49
-3.30 -6.04 2.49
-3.18 -6.11 2.49
-3.06 -6.17 2.49
-2.94 -6.23 2.49
-2.81 -6.29 2.49
-2.69 -6.35 2.49
-2.56 -6.40 2.49
-2.43 -6.45 2.49
-2.30 -6.50 2.49
-2.17 -6.55 2.49
-2.04 -6.59 2.49
-1.90 -6.64 2.49
-1.77 -6.67 2.49
-1.64 -6.71 2.49
-1.50 -6.74 2.49
-1.37 -6.77 2.49
-1.23 -6.80 2.49
-1.09 -6.83 2.49
-0.96 -6.85 2.49
-0.82 -6.87 2.49
-0.68 -6.89 2.49
-0.54 -6.90 2.49
-0.41 -6.91 2.49
-0.27 -6.92 2.49
-0.13 -6.93 2.49
0.01 -6.47 2.49
0.14 -6.47 2.49
0.27 -6.47 2.49
0.40 -6.46 2.49
0.53 -6.46 2.49
0.66 -6.45 2.49
0.79 -6.43 2.49
0.92 -6.42 2.49
1.05 -6.40 2.49
1.18 -6.38 2.49
1.31 -6.36 2.49
1.43 -6.33 2.49
1.56 -6.30 2.49
1.69 -6.27 2.49
1.81 -6.24 2.49
1.94 -6.20 2.49
2.06 -6.16 2.49
2.16 -6.04 2.46
2.22 -5.83 2.39
2.33 -5.79 2.39
2.45 -5.74 2.39
2.57 -5.69 2.39
2.68 -5.64 2.39
2.79 -5.59 2.39
2.91 -5.53 2.39
3.02 -5.47 2.39
3.13 -5.41 2.39
3.24 -5.35 2.39
3.34 -5.29 2.39
3.45 -5.22 2.39
3.56 -5.15 2.39
3.66 -5.08 2.39
3.76 -5.01 2.39
3.86 -4.93 2.39
3.96 -4.86 2.39
4.06 -4.78 2.39
4.16 -4.70 2.39
4.25 -4.61 2.39
4.34 -4.53 2.39
4.44 -4.44 2.39
4.52 -4.35 2.39
4.61 -4.26 2.39
4.70 -4.17 2.39
4.78 -4.08 2.39
4.86 -3.98 2.39
4.94 -3.88 2.39
5.02 -3.78 2.39
5.10 -3.68 2.39
5.17 -3.58 2.39
5.25 -3.48 2.39
5.32 -3.37 2.39
5.38 -3.27 2.39
5.45 -3.16 2.39
5.51 -3.05 2.39
5.57 -2.94 2.39
5.63 -2.83 2.39
5.69 -2.72 2.39
5.75 -2.60 2.39
5.80 -2.49 2.39
5.85 -2.37 2.39
5.89 -2.25 2.39
5.94 -2.13 2.39
5.53 -1.86 2.21
5.51 -1.73 2.18
5.51 -1.61 2.17
5.62 -1.53 2.21
6.13 -1.53 2.39
6.16 -1.41 2.39
6.19 -1.28 2.39
6.12 -1.14 2.36
6.13 -1.02 2.35
6.26 -0.91 2.39
6.28 -0.79 2.39
6.29 -0.66 2.39
6.30 -0.53 2.39
6.31 -0.41 2.39
6.32 -0.28 2.39
6.33 -0.15 2.39
6.33 -0.03 2.39
6.33 0.10 2.39
6.33 0.23 2.39
6.32 0.35 2.39
6.31 0.48 2.39
6.30 0.61 2.39
6.29 0.73 2.39
6.28 0.86 2.39
6.26 0.98 2.39
6.24 1.11 2.39
6.21 1.23 2.39
6.19 1.36 2.39
6.16 1.48 2.39
6.13 1.61 2.39
6.10 1.73 2.39
6.06 1.85 2.39
6.02 1.97 2.39
5.98 2.09 2.39
5.94 2.21 2.39
5.89 2.33 2.39
5.85 2.45 2.39
5.80 2.56 2.39
5.74 2.68 2.39
5.69 2.79 2.39
5.63 2.91 2.39
5.57 3.02 2.39
5.51 3.13 2.39
5.45 3.24 2.39
5.38 3.35 2.39
5.31 3.45 2.39
5.24 3.56 2.39
5.17 3.66 2.39
5.09 3.77 2.39
5.02 3.87 2.39
4.94 3.97 2.39
4.86 4.06 2.39
2.57 2.24 1.29
2.54 2.30 1.29
4.60 4.35 2.39
4.51 4.44 2.39
4.42 4.53 2.39
4.33 4.61 2.39
4.24 4.70 2.39
4.14 4.78 2.39
4.04 4.86 2.39
3.94 4.94 2.39
3.84 5.02 2.39
3.74 5.10 2.39
3.64 5.17 2.39
3.53 5.24 2.39
3.43 5.31 2.39
3.32 5.38 2.39
3.21 5.44 2.39
3.10 5.50 2.39
2.99 5.56 2.39
2.88 5.62 2.39
2.76 5.67 2.39
2.67 5.77 2.41
2.53 5.78 2.39
2.46 5.95 2.44
2.40 6.13 2.49
2.27 6.17 2.49
2.15 6.21 2.49
2.02 6.25 2.49
1.90 6.29 2.49
1.77 6.33 2.49
1.64 6.36 2.49
1.51 6.39 2.49
1.38 6.42 2.49
1.25 6.44 2.49
1.13 6.46 2.49
1.00 6.48 2.49
0.86 6.50 2.49
0.73 6.51 2.49
0.60 6.53 2.49
0.47 6.54 2.49
0.34 6.54 2.49
0.21 6.54 2.49
0.08 6.55 2.49
-0.05 6.54 2.49
-0.18 6.54 2.49
-0.32 6.53 2.49
-0.45 6.52 2.49
-0.58 6.51 2.49
-0.71 6.50 2.49
-0.84 6.48 2.49
-0.97 6.46 2.49
-1.10 6.44 2.49
-1.22 6.41 2.49
-1.35 6.38 2.49
-1.48 6.35 2.49
-1.61 6.32 2.49
-1.73 6.28 2.49
-1.86 6.25 2.49
-1.98 6.21 2.49
-2.11 6.16 2.49
-2.23 6.12 2.49
-2.35 6.07 2.49
-2.47 6.02 2.49
-2.59 5.97 2.49
-2.71 5.91 2.49
-2.83 5.85 2.49
-2.94 5.79 2.49
-3.06 5.73 2.49
-3.17 5.67 2.49
-3.28 5.60 2.49
-3.39 5.53 2.49
-3.50 5.46 2.49
-3.61 5.39 2.49
-3.72 5.31 2.49
-3.82 5.24 2.49
-3.92 5.16 2.49
-4.03 5.08 2.49
-4.13 4.99 2.49
-4.22 4.91 2.49
-4.32 4.82 2.49
-4.41 4.73 2.49
-4.51 4.64 2.49
-4.60 4.55 2.49
-4.69 4.45 2.49
-4.77 4.36 2.49
-4.86 4.26 2.49
-4.94 4.16 2.49
-5.02 4.06 2.49
-5.10 3.95 2.49
-5.18 3.85 2.49
-5.26 3.74 2.49
-5.33 3.64 2.49
-5.40 3.53 2.49
-5.47 3.42 2.49
-5.53 3.31 2.49
-5.60 3.19 2.49
-5.66 3.08 2.49
-5.66 2.93 2.47
-5.66 2.79 2.45
-5.67 2.66 2.43
-5.68 2.52 2.41
-5.69 2.39 2.39
-5.73 2.28 2.39
-5.78 2.16 2.39
-5.82 2.04 2.39
-5.86 1.92 2.39
-5.89 1.81 2.39
-5.93 1.69 2.39
-5.96 1.57 2.39
-5.99 1.45 2.39
-6.01 1.33 2.39
-6.04 1.20 2.39
-6.06 1.08 2.39
-6.07 0.96 2.39
-6.07 0.83 2.38
-6.07 0.71 2.38
-6.08 0.59 2.37
-6.08 0.46 2.37
-6.08 0.34 2.37
-6.09 0.22 2.37
-6.09 0.10 2.37
-6.09 -0.03 2.37
-6.10 -0.15 2.37
-6.14 -0.27 2.39
-6.13 -0.40 2.39
-6.12 -0.52 2.39
-6.11 -0.64 2.39
-6.10 -0.77 2.39
-6.08 -0.89 2.39
-6.06 -1.01 2.39
-6.04 -1.13 2.39
-6.01 -1.25 2.39
-5.99 -1.37 2.39
-5.97 -1.50 2.39
-5.93 -1.61 2.39
-5.89 -1.73 2.39
-5.86 -1.85 2.39
-5.82 -1.97 2.39
-5.80 -2.09 2.40
-5.80 -2.22 2.42
-5.80 -2.36 2.44
-5.80 -2.50 2.46
-5.80 -2.64 2.48
-5.78 -2.77 2.49
-5.72 -2.88 2.49
-5.66 -3.00 2.49
-5.60 -3.11 2.49
-5.54 -3.22 2.49
-5.47 -3.33 2.49
-5.40 -3.44 2.49
-5.33 -3.55 2.49
-5.26 -3.66 2.49
-5.19 -3.76 2.49
-5.11 -3.87 2.49
-5.03 -3.97 2.49
-4.95 -4.07 2.49
-4.87 -4.17 2.49
-4.79 -4.27 2.49
-4.70 -4.36 2.49
-4.61 -4.46 2.49
-4.52 -4.55 2.49
-4.43 -4.64 2.49
-4.34 -4.73 2.49
-4.24 -4.82 2.49
-4.14 -4.90 2.49
-4.04 -4.99 2.49
-3.94 -5.07 2.49
-3.84 -5.15 2.49
-3.74 -5.22 2.49
-3.63 -5.30 2.49
-3.53 -5.37 2.49
-3.42 -5.44 2.49
-3.31 -5.51 2.49
-3.20 -5.58 2.49
-3.09 -5.64 2.49
-2.97 -5.70 2.49
-2.86 -5.76 2.49
-2.74 -5.82 2.49
-2.62 -5.88 2.49
-2.51 -5.93 2.49
-2.39 -5.98 2.49
-2.27 -6.03 2.49
-2.15 -6.07 2.49
-2.02 -6.12 2.49
-1.90 -6.16 2.49
-1.78 -6.20 2.49
-1.65 -6.23 2.49
-1.53 -6.26 2.49
-1.40 -6.30 2.49
-1.28 -6.32 2.49
-1.15 -6.35 2.49
-1.02 -6.37 2.49
-0.89 -6.39 2.49
-0.76 -6.41 2.49
-0.64 -6.43 2.49
-0.51 -6.44 2.49
-0.38 -6.45 2.49
-0.25 -6.46 2.49
-0.12 -6.47 2.49
0.01 -6.06 2.49
0.13 -6.06 2.49
0.26 -6.06 2.49
0.38 -6.05 2.49
0.50 -6.05 2.49
0.62 -6.04 2.49
0.74 -6.02 2.49
0.86 -6.01 2.49
0.98 -5.99 2.49
1.10 -5.97 2.49
1.22 -5.95 2.49
1.34 -5.93 2.49
1.46 -5.90 2.49
1.58 -5.87 2.49
1.70 -5.84 2.49
1.82 -5.81 2.49
1.93 -5.77 2.49
2.05 -5.73 2.49
2.17 -5.69 2.49
2.19 -5.42 2.39
2.29 -5.37 2.39
2.40 -5.33 2.39
2.51 -5.28 2.39
2.62 -5.23 2.39
2.72 -5.18 2.39
2.83 -5.12 2.39
2.93 -5.07 2.39
3.03 -5.01 2.39
3.13 -4.95 2.39
3.23 -4.89 2.39
3.33 -4.82 2.39
3.43 -4.76 2.39
3.52 -4.69 2.39
3.62 -4.62 2.39
3.71 -4.55 2.39
3.80 -4.47 2.39
3.89 -4.40 2.39
3.98 -4.32 2.39
4.07 -4.24 2.39
4.15 -4.16 2.39
4.24 -4.07 2.39
4.32 -3.99 2.39
4.40 -3.90 2.39
4.48 -3.81 2.39
4.55 -3.73 2.39
4.63 -3.63 2.39
4.70 -3.54 2.39
4.77 -3.45 2.39
4.84 -3.35 2.39
4.91 -3.25 2.39
4.98 -3.16 2.39
5.04 -3.06 2.39
5.10 -2.96 2.39
5.16 -2.85 2.39
5.22 -2.75 2.39
5.27 -2.65 2.39
5.33 -2.54 2.39
5.38 -2.43 2.39
5.43 -2.33 2.39
5.47 -2.22 2.39
5.52 -2.11 2.39
5.56 -2.00 2.39
5.56 -1.87 2.37
5.51 -1.73 2.34
5.52 -1.61 2.32
5.64 -1.53 2.36
5.74 -1.43 2.39
5.76 -1.32 2.39
5.79 -1.20 2.39
5.82 -1.09 2.39
5.84 -0.97 2.39
5.86 -0.85 2.39
5.87 -0.73 2.39
5.89 -0.62 2.39
5.90 -0.50 2.39
5.91 -0.38 2.39
5.92 -0.26 2.39
5.92 -0.14 2.39
5.92 -0.03 2.39
5.92 0.09 2.39
5.92 0.21 2.39
5.92 0.33 2.39
5.91 0.45 2.39
5.90 0.57 2.39
5.89 0.69 2.39
5.87 0.80 2.39
5.86 0.92 2.39
5.84 1.04 2.39
5.81 1.16 2.39
5.79 1.27 2.39
5.76 1.39 2.39
5.74 1.50 2.39
5.70 1.62 2.39
5.67 1.73 2.39
5.64 1.84 2.39
5.60 1.96 2.39
5.56 2.07 2.39
5.51 2.18 2.39
5.47 2.29 2.39
5.42 2.40 2.39
5.37 2.51 2.39
5.32 2.61 2.39
5.27 2.72 2.39
5.21 2.82 2.39
5.15 2.93 2.39
5.09 3.03 2.39
5.03 3.13 2.39
4.97 3.23 2.39
4.90 3.33 2.39
4.83 3.43 2.39
4.76 3.52 2.39
4.69 3.62 2.39
4.62 3.71 2.39
2.64 2.21 1.39
2.55 2.22 1.37
2.52 2.28 1.37
4.31 4.07 2.39
4.22 4.15 2.39
4.14 4.24 2.39
4.05 4.32 2.39
3.96 4.40 2.39
3.87 4.48 2.39
3.78 4.55 2.39
3.69 4.63 2.39
3.60 4.70 2.39
3.50 4.77 2.39
3.41 4.84 2.39
3.31 4.90 2.39
3.21 4.97 2.39
3.11 5.03 2.39
3.00 5.09 2.39
2.90 5.15 2.39
2.80 5.20 2.39
2.69 5.26 2.39
2.59 5.31 2.39
2.48 5.36 2.39
2.45 5.60 2.48
2.36 5.69 2.49
2.24 5.73 2.49
2.13 5.78 2.49
2.01 5.82 2.49
1.89 5.85 2.49
1.77 5.89 2.49
1.66 5.92 2.49
1.54 5.95 2.49
1.42 5.98 2.49
1.30 6.01 2.49
1.18 6.03 2.49
1.05 6.05 2.49
0.93 6.07 2.49
0.81 6.08 2.49
0.69 6.10 2.49
0.57 6.11 2.49
0.44 6.12 2.49
0.32 6.12 2.49
0.20 6.13 2.49
0.07 6.13 2.49
-0.05 6.13 2.49
-0.17 6.12 2.49
-0.29 6.12 2.49
-0.42 6.11 2.49
-0.54 6.10 2.49
-0.66 6.08 2.49
-0.78 6.07 2.49
-0.90 6.05 2.49
-1.03 6.03 2.49
-1.15 6.00 2.49
-1.27 5.98 2.49
-1.38 5.95 2.49
-1.50 5.92 2.49
-1.62 5.88 2.49
-1.74 5.85 2.49
-1.85 5.81 2.49
-1.97 5.77 2.49
-2.09 5.73 2.49
-2.20 5.68 2.49
-2.31 5.64 2.49
-2.42 5.59 2.49
-2.53 5.54 2.49
-2.64 5.48 2.49
-2.75 5.43 2.49
-2.86 5.37 2.49
-2.97 5.31 2.49
-3.07 5.25 2.49
-3.18 5.18 2.49
-3.28 5.12 2.49
-3.38 5.05 2.49
-3.48 4.98 2.49
-3.58 4.90 2.49
-3.67 4.83 2.49
-3.77 4.75 2.49
-3.86 4.68 2.49
-3.95 4.60 2.49
-4.05 4.51 2.49
-4.13 4.43 2.49
-4.22 4.35 2.49
-4.31 4.26 2.49
-4.39 4.17 2.49
-4.47 4.08 2.49
-4.55 3.99 2.49
-4.63 3.90 2.49
-4.71 3.80 2.49
-4.78 3.70 2.49
-4.85 3.61 2.49
-4.92 3.51 2.49
-4.99 3.41 2.49
-5.06 3.30 2.49
-5.12 3.20 2.49
-5.18 3.10 2.49
-5.24 2.99 2.49
-5.30 2.89 2.49
-5.36 2.78 2.49
-5.41 2.67 2.49
-5.46 2.56 2.49
-5.51 2.45 2.49
-5.56 2.34 2.49
-5.60 2.22 2.49
-5.64 2.11 2.49
-5.68 2.00 2.49
-5.69 1.87 2.48
-5.69 1.74 2.46
-5.69 1.62 2.45
-5.70 1.50 2.44
-5.70 1.38 2.43
-5.71 1.26 2.42
-5.71 1.14 2.41
-5.72 1.02 2.41
-5.72 0.90 2.40
-5.73 0.79 2.40
-5.73 0.67 2.39
-5.74 0.55 2.39
-5.75 0.44 2.39
-5.75 0.32 2.39
-5.76 0.21 2.39
-5.76 0.09 2.39
-5.76 -0.02 2.39
-5.76 -0.14 2.39
-5.75 -0.26 2.39
-5.76 -0.37 2.39
-5.76 -0.49 2.40
-5.76 -0.61 2.40
-5.76 -0.72 2.41
-5.76 -0.84 2.42
-5.76 -0.96 2.43
-5.76 -1.08 2.44
-5.77 -1.20 2.45
-5.77 -1.32 2.46
-5.77 -1.45 2.47
-5.78 -1.57 2.49
-5.76 -1.69 2.49
-5.72 -1.81 2.49
-5.69 -1.92 2.49
-5.65 -2.04 2.49
-5.60 -2.15 2.49
-5.56 -2.26 2.49
-5.51 -2.37 2.49
-5.46 -2.48 2.49
-5.41 -2.59 2.49
-5.36 -2.70 2.49
-5.31 -2.81 2.49
-5.25 -2.92 2.49
-5.19 -3.02 2.49
-5.13 -3.12 2.49
-5.06 -3.23 2.49
-5.00 -3.33 2.49
-4.93 -3.43 2.49
-4.86 -3.53 2.49
-4.79 -3.63 2.49
-4.72 -3.72 2.49
-4.64 -3.82 2.49
-4.56 -3.91 2.49
-4.48 -4.00 2.49
-4.40 -4.09 2.49
-4.32 -4.18 2.49
-4.24 -4.26 2.49
-4.15 -4.35 2.49
-4.06 -4.43 2.49
-3.97 -4.51 2.49
-3.88 -4.59 2.49
-3.79 -4.67 2.49
-3.69 -4.75 2.49
-3.60 -4.82 2.49
-3.50 -4.89 2.49
-3.40 -4.96 2.49
-3.30 -5.03 2.49
-3.20 -5.10 2.49
-3.10 -5.16 2.49
-3.00 -5.22 2.49
-2.89 -5.28 2.49
-2.78 -5.34 2.49
-2.68 -5.40 2.49
-2.57 -5.45 2.49
-2.46 -5.50 2.49
-2.35 -5.55 2.49
-2.24 -5.60 2.49
-2.12 -5.65 2.49
-2.01 -5.69 2.49
-1.90 -5.73 2.49
-1.78 -5.77 2.49
-1.66 -5.80 2.49
-1.55 -5.84 2.49
-1.43 -5.87 2.49
-1.31 -5.90 2.49
-1.19 -5.92 2.49
-1.08 -5.95 2.49
-0.96 -5.97 2.49
-0.84 -5.99 2.49
-0.72 -6.01 2.49
-0.59 -6.02 2.49
-0.47 -6.03 2.49
-0.35 -6.04 2.49
-0.23 -6.05 2.49
-0.11 -6.06 2.49
0.01 -5.69 2.49
0.13 -5.69 2.49
0.24 -5.69 2.49
0.36 -5.69 2.49
0.47 -5.68 2.49
0.58 -5.67 2.49
0.70 -5.66 2.49
0.81 -5.64 2.49
0.92 -5.63 2.49
1.04 -5.61 2.49
1.15 -5.59 2.49
1.26 -5.57 2.49
1.37 -5.54 2.49
1.49 -5.52 2.49
1.60 -5.49 2.49
1.71 -5.45 2.49
1.82 -5.42 2.49
1.93 -5.38 2.49
2.03 -5.35 2.49
2.14 -5.31 2.49
2.19 -5.12 2.43
2.26 -5.00 2.39
2.36 -4.96 2.39
2.46 -4.91 2.39
2.56 -4.86 2.39
2.65 -4.81 2.39
2.75 -4.76 2.39
2.85 -4.70 2.39
2.94 -4.65 2.39
3.03 -4.59 2.39
3.13 -4.53 2.39
3.22 -4.47 2.39
3.31 -4.40 2.39
3.40 -4.33 2.39
3.48 -4.27 2.39
3.57 -4.20 2.39
3.65 -4.13 2.39
3.74 -4.05 2.39
3.82 -3.98 2.39
3.90 -3.90 2.39
3.98 -3.82 2.39
4.05 -3.74 2.39
4.13 -3.66 2.39
4.20 -3.58 2.39
4.28 -3.50 2.39
4.35 -3.41 2.39
4.41 -3.32 2.39
4.48 -3.24 2.39
4.55 -3.15 2.39
4.61 -3.06 2.39
4.67 -2.96 2.39
4.73 -2.87 2.39
4.79 -2.77 2.39
4.84 -2.68 2.39
4.90 -2.58 2.39
4.95 -2.48 2.39
5.00 -2.38 2.39
5.05 -2.28 2.39
5.09 -2.18 2.39
5.14 -2.08 2.39
5.18 -1.98 2.39
5.22 -1.87 2.39
5.26 -1.77 2.39
5.29 -1.66 2.39
5.32 -1.56 2.39
5.36 -1.45 2.39
5.38 -1.34 2.39
5.41 -1.24 2.39
5.44 -1.13 2.39
5.46 -1.02 2.39
5.48 -0.91 2.39
5.50 -0.80 2.39
5.51 -0.69 2.39
5.53 -0.58 2.39
5.54 -0.47 2.39
5.55 -0.36 2.39
5.55 -0.25 2.39
5.56 -0.13 2.39
5.56 -0.02 2.39
5.56 0.09 2.39
5.56 0.20 2.39
5.55 0.31 2.39
5.54 0.42 2.39
5.54 0.53 2.39
5.52 0.64 2.39
5.51 0.75 2.39
5.50 0.86 2.39
5.48 0.97 2.39
5.46 1.08 2.39
5.43 1.19 2.39
5.41 1.30 2.39
5.38 1.41 2.39
5.35 1.52 2.39
5.32 1.62 2.39
5.29 1.73 2.39
5.25 1.84 2.39
5.22 1.94 2.39
5.18 2.05 2.39
5.13 2.15 2.39
5.09 2.25 2.39
5.04 2.35 2.39
4.99 2.45 2.39
4.94 2.55 2.39
4.89 2.65 2.39
4.84 2.75 2.39
4.78 2.84 2.39
4.72 2.94 2.39
4.66 3.03 2.39
4.60 3.13 2.39
4.54 3.22 2.39
4.47 3.31 2.39
4.40 3.40 2.39
4.34 3.48 2.39
2.64 2.21 1.48
2.55 2.22 1.46
2.52 2.28 1.46
4.04 3.82 2.39
3.96 3.90 2.39
3.88 3.98 2.39
3.80 4.05 2.39
3.72 4.13 2.39
3.64 4.20 2.39
3.55 4.27 2.39
3.46 4.34 2.39
3.38 4.41 2.39
3.29 4.47 2.39
3.20 4.54 2.39
3.10 4.60 2.39
3.01 4.66 2.39
2.92 4.72 2.39
2.82 4.78 2.39
2.72 4.83 2.39
2.65 4.92 2.41
2.53 4.94 2.39
2.45 5.03 2.41
2.43 5.25 2.49
2.32 5.29 2.49
2.21 5.34 2.49
2.11 5.38 2.49
2.00 5.42 2.49
1.89 5.46 2.49
1.78 5.49 2.49
1.67 5.53 2.49
1.56 5.56 2.49
1.44 5.59 2.49
1.33 5.61 2.49
1.22 5.64 2.49
1.10 5.66 2.49
0.99 5.68 2.49
0.88 5.70 2.49
0.76 5.71 2.49
0.65 5.72 2.49
0.53 5.73 2.49
0.42 5.74 2.49
0.30 5.75 2.49
0.19 5.75 2.49
0.07 5.75 2.49
-0.05 5.75 2.49
-0.16 5.75 2.49
-0.28 5.74 2.49
-0.39 5.73 2.49
-0.51 5.72 2.49
-0.62 5.71 2.49
-0.73 5.70 2.49
-0.85 5.68 2.49
-0.96 5.66 2.49
-1.07 5.64 2.49
-1.19 5.61 2.49
-1.30 5.59 2.49
-1.41 5.56 2.49
-1.52 5.53 2.49
-1.63 5.49 2.49
-1.74 5.46 2.49
-1.85 5.42 2.49
-1.96 5.38 2.49
-2.06 5.34 2.49
-2.17 5.29 2.49
-2.28 5.25 2.49
-2.38 5.20 2.49
-2.48 5.15 2.49
-2.59 5.10 2.49
-2.69 5.04 2.49
-2.79 4.99 2.49
-2.88 4.93 2.49
-2.98 4.87 2.49
-3.08 4.80 2.49
-3.17 4.74 2.49
-3.27 4.67 2.49
-3.36 4.61 2.49
-3.45 4.54 2.49
-3.54 4.47 2.49
-3.63 4.39 2.49
-3.71 4.32 2.49
-3.80 4.24 2.49
-3.88 4.16 2.49
-3.96 4.08 2.49
-4.04 4.00 2.49
-4.12 3.92 2.49
-4.20 3.83 2.49
-4.27 3.75 2.49
-4.35 3.66 2.49
-4.42 3.57 2.49
-4.49 3.48 2.49
-4.56 3.39 2.49
-4.62 3.30 2.49
-4.69 3.20 2.49
-4.75 3.11 2.49
-4.81 3.01 2.49
-4.87 2.91 2.49
-4.93 2.81 2.49
-4.98 2.71 2.49
-5.03 2.61 2.49
-5.08 2.51 2.49
-5.13 2.40 2.49
-5.18 2.30 2.49
-5.22 2.20 2.49
-5.26 2.09 2.49
-5.30 1.98 2.49
-5.34 1.88 2.49
-5.38 1.77 2.49
-5.41 1.66 2.49
-5.44 1.55 2.49
-5.47 1.44 2.49
-5.50 1.33 2.49
-5.52 1.22 2.49
-5.54 1.11 2.49
-5.56 0.99 2.49
-5.58 0.88 2.49
-5.60 0.77 2.49
-5.61 0.66 2.49
-5.62 0.54 2.49
-5.63 0.43 2.49
-5.64 0.32 2.49
-5.64 0.20 2.49
-5.65 0.09 2.49
-5.65 -0.02 2.49
-5.64 -0.14 2.49
-5.64 -0.25 2.49
-5.63 -0.36 2.49
-5.62 -0.48 2.49
-5.61 -0.59 2.49
-5.60 -0.70 2.49
-5.58 -0.82 2.49
-5.57 -0.93 2.49
-5.55 -1.04 2.49
-5.52 -1.15 2.49
-5.50 -1.26 2.49
-5.47 -1.37 2.49
-5.44 -1.48 2.49
-5.41 -1.59 2.49
-5.38 -1.70 2.49
-5.34 -1.81 2.49
-5.31 -1.91 2.49
-5.27 -2.02 2.49
-5.22 -2.13 2.49
-5.18 -2.23 2.49
-5.14 -2.33 2.49
-5.09 -2.44 2.49
-5.04 -2.54 2.49
-4.99 -2.64 2.49
-4.93 -2.74 2.49
-4.88 -2.84 2.49
-4.82 -2.94 2.49
-4.76 -3.03 2.49
-4.70 -3.13 2.49
-4.63 -3.22 2.49
-4.57 -3.32 2.49
-4.50 -3.41 2.49
-4.43 -3.50 2.49
-4.36 -3.59 2.49
-4.29 -3.67 2.49
-4.21 -3.76 2.49
-4.14 -3.84 2.49
-4.06 -3.93 2.49
-3.98 -4.01 2.49
-3.90 -4.09 2.49
-3.82 -4.16 2.49
-3.73 -4.24 2.49
-3.65 -4.32 2.49
-3.56 -4.39 2.49
-3.47 -4.46 2.49
-3.38 -4.53 2.49
-3.29 -4.60 2.49
-3.20 -4.66 2.49
-3.10 -4.73 2.49
-3.01 -4.79 2.49
-2.91 -4.85 2.49
-2.81 -4.91 2.49
-2.72 -4.97 2.49
-2.62 -5.02 2.49
-2.51 -5.07 2.49
-2.41 -5.12 2.49
-2.31 -5.17 2.49
-2.21 -5.22 2.49
-2.10 -5.26 2.49
-1.99 -5.30 2.49
-1.89 -5.34 2.49
-1.78 -5.38 2.49
-1.67 -5.42 2.49
-1.56 -5.45 2.49
-1.45 -5.48 2.49
-1.34 -5.51 2.49
-1.23 -5.54 2.49
-1.12 -5.57 2.49
-1.01 -5.59 2.49
-0.90 -5.61 2.49
-0.78 -5.63 2.49
-0.67 -5.64 2.49
-0.56 -5.66 2.49
-0.44 -5.67 2.49
-0.33 -5.68 2.49
-0.22 -5.68 2.49
-0.10 -5.69 2.49
0.01 -5.36 2.49
0.12 -5.36 2.49
0.23 -5.36 2.49
0.34 -5.35 2.49
0.44 -5.35 2.49
0.55 -5.34 2.49
0.66 -5.33 2.49
0.76 -5.32 2.49
0.87 -5.30 2.49
0.98 -5.28 2.49
1.08 -5.26 2.49
1.19 -5.24 2.49
1.30 -5.22 2.49
1.40 -5.19 2.49
1.50 -5.17 2.49
1.61 -5.14 2.49
1.71 -5.10 2.49
1.81 -5.07 2.49
1.92 -5.03 2.49
2.02 -5.00 2.49
2.12 -4.96 2.49
2.19 -4.85 2.46
2.22 -4.67 2.39
2.31 -4.62 2.39
2.41 -4.58 2.39
2.50 -4.53 2.39
2.59 -4.48 2.39
2.68 -4.43 2.39
2.77 -4.37 2.39
2.86 -4.32 2.39
2.94 -4.26 2.39
3.03 -4.20 2.39
3.11 -4.14 2.39
3.20 -4.08 2.39
3.28 -4.02 2.39
3.36 -3.95 2.39
3.44 -3.88 2.39
3.52 -3.81 2.39
3.60 -3.74 2.39
3.67 -3.67 2.39
3.74 -3.60 2.39
3.82 -3.52 2.39
3.89 -3.45 2.39
3.96 -3.37 2.39
4.02 -3.29 2.39
4.09 -3.21 2.39
4.16 -3.13 2.39
4.22 -3.05 2.39
4.28 -2.96 2.39
4.34 -2.88 2.39
4.40 -2.79 2.39
4.45 -2.70 2.39
4.51 -2.61 2.39
4.56 -2.52 2.39
4.61 -2.43 2.39
4.66 -2.34 2.39
4.71 -2.24 2.39
4.75 -2.15 2.39
4.79 -2.05 2.39
4.83 -1.96 2.39
4.87 -1.86 2.39
4.91 -1.76 2.39
4.95 -1.66 2.39
4.98 -1.57 2.39
5.01 -1.47 2.39
5.04 -1.37 2.39
5.07 -1.26 2.39
5.09 -1.16 2.39
5.12 -1.06 2.39
5.14 -0.96 2.39
5.16 -0.86 2.39
5.17 -0.75 2.39
5.19 -0.65 2.39
5.20 -0.54 2.39
5.21 -0.44 2.39
5.22 -0.34 2.39
5.22 -0.23 2.39
5.23 -0.13 2.39
5.23 -0.02 2.39
5.23 0.08 2.39
5.23 0.19 2.39
5.22 0.29 2.39
5.22 0.40 2.39
5.21 0.50 2.39
5.20 0.61 2.39
5.19 0.71 2.39
5.17 0.81 2.39
5.15 0.92 2.39
5.13 1.02 2.39
5.11 1.12 2.39
5.09 1.23 2.39
5.06 1.33 2.39
5.04 1.43 2.39
5.01 1.53 2.39
4.98 1.63 2.39
4.94 1.73 2.39
4.91 1.83 2.39
4.87 1.92 2.39
4.83 2.02 2.39
4.79 2.12 2.39
4.75 2.21 2.39
4.70 2.31 2.39
4.65 2.40 2.39
4.60 2.49 2.39
4.55 2.59 2.39
4.50 2.68 2.39
4.44 2.77 2.39
4.39 2.85 2.39
4.33 2.94 2.39
4.27 3.03 2.39
4.21 3.11 2.39
4.14 3.20 2.39
4.08 3.28 2.39
2.64 2.21 1.57
2.55 2.22 1.55
2.52 2.28 1.55
3.80 3.59 2.39
3.73 3.67 2.39
3.66 3.74 2.39
3.58 3.81 2.39
3.50 3.88 2.39
3.42 3.95 2.39
3.34 4.02 2.39
3.26 4.08 2.39
3.18 4.15 2.39
3.09 4.21 2.39
3.01 4.27 2.39
2.92 4.33 2.39
2.83 4.39 2.39
2.74 4.44 2.39
2.65 4.50 2.39
2.56 4.55 2.39
2.47 4.60 2.39
2.43 4.75 2.45
2.38 4.89 2.49
2.28 4.94 2.49
2.18 4.98 2.49
2.08 5.02 2.49
1.98 5.06 2.49
1.88 5.10 2.49
1.78 5.14 2.49
1.67 5.17 2.49
1.57 5.20 2.49
1.46 5.23 2.49
1.36 5.26 2.49
1.25 5.28 2.49
1.15 5.31 2.49
1.04 5.33 2.49
0.93 5.35 2.49
0.82 5.36 2.49
0.72 5.38 2.49
0.61 5.39 2.49
0.50 5.40 2.49
0.39 5.41 2.49
0.28 5.41 2.49
0.18 5.41 2.49
0.07 5.42 2.49
-0.04 5.41 2.49
-0.15 5.41 2.49
-0.26 5.41 2.49
-0.37 5.40 2.49
-0.48 5.39 2.49
-0.58 5.38 2.49
-0.69 5.36 2.49
-0.80 5.35 2.49
-0.90 5.33 2.49
-1.01 5.31 2.49
-1.12 5.28 2.49
-1.22 5.26 2.49
-1.33 5.23 2.49
-1.43 5.20 2.49
-1.54 5.17 2.49
-1.64 5.14 2.49
-1.74 5.10 2.49
-1.84 5.06 2.49
-1.94 5.03 2.49
-2.04 4.98 2.49
-2.14 4.94 2.49
-2.24 4.90 2.49
-2.34 4.85 2.49
-2.43 4.80 2.49
-2.53 4.75 2.49
-2.62 4.69 2.49
-2.72 4.64 2.49
-2.81 4.58 2.49
-2.90 4.52 2.49
-2.99 4.46 2.49
-3.08 4.40 2.49
-3.16 4.34 2.49
