ply
format ascii 1.0
element vertex 2998
property float32 x
property float32 y
property float32 z
end_header
0.17 -8.17 2.49
0.34 -8.17 2.49
0.50 -8.16 2.49
0.67 -8.15 2.49
0.83 -8.14 2.49
0.99 -8.12 2.49
1.16 -8.11 2.49
1.26 -7.75 2.39
1.42 -7.72 2.39
1.57 -7.70 2.39
1.73 -7.66 2.39
1.88 -7.63 2.39
2.04 -7.59 2.39
2.19 -7.55 2.39
2.34 -7.51 2.39
2.49 -7.46 2.39
2.64 -7.41 2.39
2.79 -7.36 2.39
2.94 -7.30 2.39
3.08 -7.24 2.39
3.23 -7.18 2.39
3.37 -7.12 2.39
3.52 -7.05 2.39
3.66 -6.98 2.39
3.80 -6.91 2.39
3.93 -6.83 2.39
4.07 -6.75 2.39
4.21 -6.67 2.39
4.20 -6.37 2.31
4.25 -6.17 2.27
4.53 -6.30 2.35
4.65 -6.21 2.35
4.78 -6.12 2.35
4.81 -5.91 2.31
4.84 -5.72 2.27
4.96 -5.62 2.27
5.34 -5.81 2.39
5.50 -5.75 2.41
5.61 -5.63 2.41
5.72 -5.52 2.41
5.83 -5.40 2.41
5.94 -5.29 2.41
6.04 -5.17 2.41
6.15 -5.05 2.41
6.25 -4.92 2.41
6.35 -4.80 2.41
6.44 -4.67 2.41
6.53 -4.53 2.41
6.61 -4.40 2.40
6.70 -4.26 2.40
6.78 -4.13 2.40
6.85 -3.99 2.40
6.93 -3.85 2.40
7.00 -3.70 2.40
7.07 -3.56 2.39
7.13 -3.42 2.39
7.20 -3.27 2.39
7.26 -3.13 2.39
7.32 -2.98 2.39
7.37 -2.83 2.39
7.43 -2.68 2.39
7.49 -2.54 2.39
7.55 -2.39 2.40
7.61 -2.24 2.40
7.67 -2.09 2.41
7.72 -1.94 2.41
7.78 -1.79 2.42
7.83 -1.64 2.42
7.87 -1.48 2.43
7.91 -1.33 2.43
7.93 -1.17 2.43
7.95 -1.01 2.43
7.97 -0.85 2.43
7.98 -0.69 2.43
7.99 -0.53 2.43
7.99 -0.37 2.42
7.98 -0.21 2.42
7.98 -0.05 2.42
7.97 0.11 2.42
7.95 0.27 2.41
2.49 0.14 0.76
2.37 0.18 0.72
2.31 0.22 0.70
2.28 0.26 0.70
2.26 0.31 0.69
2.24 0.35 0.69
2.23 0.39 0.69
2.23 0.44 0.69
2.24 0.49 0.70
2.25 0.54 0.70
2.28 0.59 0.72
2.35 0.66 0.74
7.34 2.23 2.33
7.29 2.38 2.33
7.24 2.52 2.33
7.19 2.67 2.33
7.14 2.81 2.34
7.27 3.04 2.40
7.21 3.18 2.40
7.15 3.33 2.40
7.08 3.47 2.40
7.01 3.61 2.40
6.94 3.75 2.40
6.87 3.89 2.41
6.79 4.03 2.41
6.70 4.16 2.41
5.85 3.80 2.13
5.67 3.85 2.09
5.40 3.82 2.02
5.18 3.82 1.97
4.98 3.83 1.92
4.97 3.99 1.95
4.98 4.17 1.99
5.73 4.99 2.32
5.74 5.21 2.37
5.68 5.36 2.39
5.57 5.48 2.39
5.46 5.58 2.39
5.35 5.69 2.39
5.23 5.80 2.39
5.11 5.90 2.39
4.99 6.00 2.39
4.87 6.09 2.39
4.74 6.19 2.39
4.61 6.28 2.39
4.49 6.37 2.39
4.36 6.46 2.39
4.22 6.54 2.39
4.09 6.62 2.39
3.96 6.70 2.39
3.82 6.78 2.39
3.68 6.85 2.39
3.54 6.92 2.39
3.40 6.99 2.39
2.08 4.50 1.53
1.98 4.52 1.52
2.97 7.17 2.39
2.83 7.23 2.39
2.68 7.28 2.39
2.53 7.33 2.39
2.38 7.38 2.39
2.24 7.43 2.39
2.08 7.46 2.39
2.02 7.82 2.49
1.86 7.86 2.49
1.70 7.89 2.49
1.54 7.92 2.49
1.38 7.95 2.49
1.22 7.97 2.49
1.06 7.99 2.49
0.90 8.01 2.49
0.74 8.03 2.49
0.58 8.04 2.49
0.41 8.04 2.49
0.25 8.05 2.49
0.09 8.05 2.49
-0.07 8.05 2.49
-0.23 8.04 2.49
-0.39 8.03 2.49
-0.55 8.02 2.49
-0.72 8.01 2.49
-0.88 7.99 2.49
-1.04 7.97 2.49
-1.20 7.94 2.49
-1.35 7.91 2.49
-1.51 7.88 2.49
-1.67 7.85 2.49
-1.83 7.81 2.49
-1.98 7.77 2.49
-2.14 7.73 2.49
-2.29 7.68 2.49
-2.45 7.63 2.49
-2.60 7.58 2.49
-2.75 7.53 2.49
-2.90 7.47 2.49
-3.05 7.41 2.49
-3.20 7.34 2.49
-3.34 7.27 2.49
-3.49 7.20 2.49
-3.63 7.13 2.49
-3.77 7.06 2.49
-3.91 6.98 2.49
-4.05 6.90 2.49
-4.19 6.81 2.49
-4.32 6.73 2.49
-4.46 6.64 2.49
-4.59 6.54 2.49
-4.72 6.45 2.49
-4.85 6.35 2.49
-4.97 6.25 2.49
-5.10 6.15 2.49
-5.22 6.05 2.49
-5.34 5.94 2.49
-5.46 5.83 2.49
-5.57 5.72 2.49
-5.69 5.61 2.49
-5.80 5.49 2.49
-5.91 5.37 2.49
-6.01 5.25 2.49
-6.12 5.13 2.49
-6.16 4.96 2.47
-6.17 4.77 2.44
-6.19 4.58 2.41
-6.24 4.43 2.39
-6.32 4.30 2.39
-6.41 4.17 2.39
-6.49 4.04 2.39
-6.57 3.91 2.39
-6.58 3.74 2.37
-6.59 3.57 2.34
-6.60 3.41 2.32
-6.61 3.25 2.30
-6.61 3.09 2.28
-6.64 2.94 2.27
-6.70 2.80 2.27
-6.75 2.67 2.27
-7.05 2.62 2.35
-7.10 2.48 2.35
-7.15 2.34 2.35
-7.20 2.19 2.35
-6.99 1.98 2.27
-7.17 1.87 2.32
-7.44 1.79 2.39
-7.48 1.64 2.39
-7.51 1.49 2.39
-7.54 1.33 2.39
-7.56 1.18 2.39
-7.59 1.03 2.39
-7.61 0.88 2.39
-7.62 0.72 2.39
-7.64 0.57 2.39
-7.65 0.42 2.39
-7.66 0.26 2.39
-7.66 0.11 2.39
-7.66 -0.04 2.39
-7.66 -0.20 2.39
-7.66 -0.35 2.39
-7.65 -0.51 2.39
-7.64 -0.66 2.39
-7.63 -0.81 2.39
-7.61 -0.97 2.39
-7.59 -1.12 2.39
-7.57 -1.27 2.39
-7.54 -1.42 2.39
-7.51 -1.58 2.39
-7.48 -1.73 2.39
-7.45 -1.88 2.39
-7.41 -2.03 2.39
-7.37 -2.18 2.39
-7.33 -2.32 2.39
-7.28 -2.47 2.39
-7.23 -2.62 2.39
-7.18 -2.76 2.39
-7.12 -2.91 2.39
-7.06 -3.05 2.39
-7.00 -3.19 2.39
-6.94 -3.33 2.39
-6.87 -3.47 2.39
-6.80 -3.61 2.39
-6.73 -3.75 2.39
-6.66 -3.88 2.39
-6.63 -4.05 2.41
-6.63 -4.24 2.44
-6.64 -4.43 2.48
-6.60 -4.60 2.49
-6.51 -4.73 2.49
-6.42 -4.87 2.49
-6.32 -4.99 2.49
-6.22 -5.12 2.49
-6.12 -5.25 2.49
-6.01 -5.37 2.49
-5.91 -5.49 2.49
-5.80 -5.61 2.49
-5.68 -5.73 2.49
-5.57 -5.84 2.49
-5.45 -5.96 2.49
-5.33 -6.07 2.49
-5.21 -6.17 2.49
-5.09 -6.28 2.49
-4.96 -6.38 2.49
-4.84 -6.48 2.49
-4.71 -6.58 2.49
-4.58 -6.68 2.49
-4.44 -6.77 2.49
-4.31 -6.86 2.49
-4.17 -6.95 2.49
-4.03 -7.03 2.49
-3.89 -7.11 2.49
-3.75 -7.19 2.49
-3.60 -7.27 2.49
-3.46 -7.34 2.49
-3.31 -7.41 2.49
-3.16 -7.48 2.49
-3.01 -7.54 2.49
-2.86 -7.60 2.49
-2.71 -7.66 2.49
-2.56 -7.72 2.49
-2.40 -7.77 2.49
-2.25 -7.82 2.49
-2.09 -7.87 2.49
-1.93 -7.91 2.49
-1.77 -7.95 2.49
-1.61 -7.99 2.49
-1.45 -8.02 2.49
-1.29 -8.05 2.49
-1.13 -8.08 2.49
-0.97 -8.10 2.49
-0.81 -8.12 2.49
-0.64 -8.14 2.49
-0.48 -8.15 2.49
-0.32 -8.16 2.49
-0.15 -8.17 2.49
0.01 -7.56 2.49
0.16 -7.56 2.49
0.31 -7.56 2.49
0.47 -7.55 2.49
0.62 -7.54 2.49
0.77 -7.53 2.49
0.92 -7.51 2.49
1.07 -7.50 2.49
1.22 -7.47 2.49
1.31 -7.14 2.39
1.46 -7.12 2.39
1.60 -7.09 2.39
1.74 -7.06 2.39
1.88 -7.02 2.39
2.02 -6.98 2.39
2.16 -6.94 2.39
2.30 -6.90 2.39
2.44 -6.85 2.39
2.58 -6.80 2.39
2.72 -6.75 2.39
2.85 -6.70 2.39
2.99 -6.64 2.39
3.12 -6.58 2.39
3.25 -6.52 2.39
3.38 -6.45 2.39
3.51 -6.38 2.39
3.64 -6.31 2.39
3.76 -6.24 2.39
3.89 -6.17 2.39
4.01 -6.09 2.39
4.14 -6.01 2.39
4.22 -5.88 2.37
4.23 -5.65 2.32
4.26 -5.46 2.27
4.37 -5.37 2.27
4.64 -5.47 2.35
4.75 -5.38 2.35
4.84 -5.27 2.34
4.85 -5.07 2.30
4.89 -4.91 2.27
4.99 -4.81 2.27
5.36 -4.96 2.39
5.50 -4.90 2.41
5.60 -4.79 2.41
5.70 -4.67 2.41
5.79 -4.56 2.41
5.88 -4.44 2.41
5.97 -4.33 2.41
6.06 -4.21 2.41
6.14 -4.08 2.41
6.22 -3.96 2.41
6.30 -3.84 2.41
6.38 -3.71 2.42
6.45 -3.58 2.42
6.52 -3.45 2.42
6.59 -3.32 2.41
6.65 -3.19 2.41
6.71 -3.05 2.41
6.77 -2.91 2.41
6.82 -2.78 2.41
6.88 -2.64 2.41
6.94 -2.50 2.41
7.00 -2.37 2.42
7.05 -2.23 2.42
7.10 -2.09 2.42
7.14 -1.95 2.42
7.18 -1.81 2.42
7.22 -1.66 2.43
7.25 -1.52 2.43
7.28 -1.37 2.43
7.30 -1.22 2.43
7.32 -1.08 2.43
7.34 -0.93 2.43
7.36 -0.78 2.43
7.37 -0.63 2.43
7.38 -0.49 2.42
7.38 -0.34 2.42
7.38 -0.19 2.42
7.37 -0.04 2.42
7.36 0.11 2.41
7.35 0.25 2.41
2.37 0.13 0.78
2.30 0.17 0.76
2.26 0.21 0.75
2.23 0.26 0.74
2.21 0.30 0.73
2.20 0.34 0.73
2.19 0.39 0.73
2.19 0.43 0.73
2.19 0.48 0.74
2.20 0.53 0.74
2.23 0.58 0.76
2.27 0.64 0.77
6.82 2.07 2.34
6.78 2.21 2.35
6.74 2.35 2.35
6.69 2.48 2.35
6.65 2.62 2.35
6.59 2.75 2.35
6.69 2.95 2.41
6.63 3.08 2.41
6.56 3.21 2.41
6.50 3.34 2.41
6.43 3.47 2.41
6.35 3.60 2.41
6.28 3.73 2.41
6.20 3.85 2.41
5.86 3.80 2.30
5.67 3.85 2.26
5.39 3.82 2.18
5.19 3.83 2.13
4.99 3.84 2.08
4.98 3.99 2.11
4.99 4.17 2.15
5.46 4.75 2.39
5.36 4.86 2.39
5.26 4.96 2.39
5.16 5.06 2.39
5.05 5.17 2.39
4.95 5.26 2.39
4.84 5.36 2.39
4.73 5.45 2.39
4.62 5.55 2.39
4.50 5.64 2.39
4.39 5.72 2.39
4.27 5.81 2.39
4.15 5.89 2.39
4.03 5.97 2.39
3.91 6.05 2.39
3.79 6.13 2.39
3.66 6.20 2.39
3.53 6.27 2.39
3.41 6.34 2.39
3.28 6.40 2.39
3.15 6.46 2.39
2.08 4.50 1.65
1.98 4.52 1.64
2.75 6.64 2.39
2.62 6.69 2.39
2.48 6.74 2.39
2.34 6.78 2.39
2.21 6.83 2.39
2.07 6.87 2.39
2.01 7.20 2.49
1.87 7.24 2.49
1.72 7.27 2.49
1.57 7.31 2.49
1.43 7.33 2.49
1.28 7.36 2.49
1.13 7.38 2.49
0.98 7.40 2.49
0.83 7.42 2.49
0.68 7.43 2.49
0.53 7.44 2.49
0.38 7.45 2.49
0.23 7.45 2.49
0.08 7.45 2.49
-0.06 7.45 2.49
-0.21 7.44 2.49
-0.36 7.44 2.49
-0.51 7.43 2.49
-0.66 7.41 2.49
-0.81 7.40 2.49
-0.96 7.38 2.49
-1.11 7.35 2.49
-1.25 7.33 2.49
-1.40 7.30 2.49
-1.55 7.27 2.49
-1.69 7.23 2.49
-1.84 7.20 2.49
-1.98 7.16 2.49
-2.12 7.11 2.49
-2.26 7.07 2.49
-2.41 7.02 2.49
-2.55 6.97 2.49
-2.68 6.91 2.49
-2.82 6.86 2.49
-2.96 6.80 2.49
-3.09 6.74 2.49
-3.23 6.67 2.49
-3.36 6.60 2.49
-3.49 6.53 2.49
-3.62 6.46 2.49
-3.75 6.39 2.49
-3.88 6.31 2.49
-4.00 6.23 2.49
-4.13 6.15 2.49
-4.25 6.06 2.49
-4.37 5.97 2.49
-4.49 5.88 2.49
-4.61 5.79 2.49
-4.72 5.70 2.49
-4.83 5.60 2.49
-4.94 5.50 2.49
-5.05 5.40 2.49
-5.16 5.30 2.49
-5.27 5.19 2.49
-5.37 5.08 2.49
-5.47 4.98 2.49
-5.57 4.86 2.49
-5.66 4.75 2.49
-5.76 4.64 2.49
-5.85 4.52 2.49
-5.94 4.40 2.49
-6.03 4.28 2.49
-6.11 4.16 2.49
-6.19 4.03 2.49
-6.22 3.87 2.47
-6.23 3.71 2.45
-6.24 3.55 2.42
-6.25 3.39 2.40
-6.29 3.25 2.39
-6.36 3.12 2.39
-6.42 3.00 2.39
-6.48 2.87 2.39
-6.54 2.74 2.39
-6.59 2.60 2.39
-6.64 2.47 2.39
-6.65 2.32 2.38
-6.66 2.18 2.36
-6.67 2.03 2.35
-6.68 1.89 2.34
-6.86 1.79 2.39
-6.89 1.65 2.39
-6.92 1.51 2.39
-6.95 1.38 2.39
-6.98 1.24 2.39
-7.01 1.10 2.39
-7.03 0.95 2.39
-7.05 0.81 2.39
-7.06 0.67 2.39
-7.07 0.53 2.39
-7.08 0.39 2.39
-7.09 0.24 2.39
-7.10 0.10 2.39
-7.10 -0.04 2.39
-7.10 -0.18 2.39
-7.09 -0.33 2.39
-7.08 -0.47 2.39
-7.08 -0.61 2.39
-7.06 -0.75 2.39
-7.05 -0.90 2.39
-7.03 -1.04 2.39
-7.01 -1.18 2.39
-6.98 -1.32 2.39
-6.96 -1.46 2.39
-6.93 -1.60 2.39
-6.90 -1.74 2.39
-6.86 -1.88 2.39
-6.82 -2.01 2.39
-6.78 -2.15 2.39
-6.74 -2.29 2.39
-6.69 -2.42 2.39
-6.65 -2.56 2.39
-6.59 -2.69 2.39
-6.57 -2.84 2.40
-6.57 -3.00 2.42
-6.58 -3.16 2.45
-6.59 -3.33 2.48
-6.57 -3.49 2.49
-6.50 -3.62 2.49
-6.43 -3.75 2.49
-6.35 -3.88 2.49
-6.28 -4.01 2.49
-6.20 -4.13 2.49
-6.11 -4.26 2.49
-6.03 -4.38 2.49
-5.94 -4.50 2.49
-5.85 -4.62 2.49
-5.76 -4.74 2.49
-5.66 -4.86 2.49
-5.57 -4.97 2.49
-5.47 -5.08 2.49
-5.36 -5.19 2.49
-5.26 -5.30 2.49
-5.15 -5.41 2.49
-5.05 -5.51 2.49
-4.94 -5.61 2.49
-4.82 -5.71 2.49
-4.71 -5.81 2.49
-4.59 -5.91 2.49
-4.48 -6.00 2.49
-4.36 -6.09 2.49
-4.23 -6.18 2.49
-4.11 -6.26 2.49
-3.98 -6.35 2.49
-3.86 -6.43 2.49
-3.73 -6.51 2.49
-3.60 -6.58 2.49
-3.47 -6.65 2.49
-3.33 -6.73 2.49
-3.20 -6.79 2.49
-3.06 -6.86 2.49
-2.93 -6.92 2.49
-2.79 -6.98 2.49
-2.65 -7.04 2.49
-2.51 -7.09 2.49
-2.36 -7.14 2.49
-2.22 -7.19 2.49
-2.08 -7.23 2.49
-1.93 -7.28 2.49
-1.79 -7.32 2.49
-1.64 -7.35 2.49
-1.49 -7.39 2.49
-1.34 -7.42 2.49
-1.19 -7.45 2.49
-1.05 -7.47 2.49
-0.90 -7.49 2.49
-0.75 -7.51 2.49
-0.59 -7.53 2.49
-0.44 -7.54 2.49
-0.29 -7.55 2.49
-0.14 -7.55 2.49
0.01 -7.02 2.49
0.15 -7.02 2.49
0.29 -7.02 2.49
0.43 -7.01 2.49
0.57 -7.01 2.49
0.71 -6.99 2.49
0.85 -6.98 2.49
0.99 -6.96 2.49
1.13 -6.94 2.49
1.27 -6.92 2.49
1.35 -6.61 2.39
1.49 -6.58 2.39
1.62 -6.55 2.39
1.75 -6.52 2.39
1.88 -6.49 2.39
2.01 -6.45 2.39
2.14 -6.41 2.39
2.27 -6.37 2.39
2.40 -6.32 2.39
2.52 -6.27 2.39
2.65 -6.22 2.39
2.77 -6.17 2.39
2.90 -6.11 2.39
3.02 -6.05 2.39
3.14 -5.99 2.39
3.26 -5.93 2.39
3.38 -5.86 2.39
3.50 -5.80 2.39
3.61 -5.73 2.39
3.73 -5.65 2.39
3.84 -5.58 2.39
3.95 -5.50 2.39
4.06 -5.42 2.39
4.17 -5.34 2.39
4.26 -5.23 2.38
4.27 -5.03 2.33
4.28 -4.84 2.28
4.35 -4.74 2.27
4.61 -4.82 2.35
4.71 -4.73 2.35
4.80 -4.63 2.35
4.88 -4.52 2.34
4.89 -4.35 2.31
4.90 -4.19 2.27
4.98 -4.08 2.27
5.33 -4.20 2.39
5.41 -4.09 2.39
5.56 -4.03 2.42
5.64 -3.92 2.42
5.72 -3.80 2.42
5.79 -3.69 2.42
5.87 -3.57 2.42
5.94 -3.45 2.42
6.01 -3.33 2.42
6.07 -3.21 2.42
6.14 -3.09 2.42
6.20 -2.97 2.42
6.26 -2.84 2.42
6.31 -2.72 2.42
6.37 -2.59 2.42
6.42 -2.46 2.42
6.46 -2.33 2.42
6.51 -2.20 2.42
6.55 -2.07 2.42
6.59 -1.94 2.42
6.63 -1.81 2.42
6.66 -1.68 2.42
6.70 -1.54 2.42
6.73 -1.41 2.42
6.75 -1.27 2.42
6.78 -1.14 2.42
6.80 -1.00 2.42
6.82 -0.86 2.42
6.83 -0.73 2.42
6.84 -0.59 2.42
6.85 -0.45 2.42
6.85 -0.31 2.42
6.85 -0.18 2.42
6.85 -0.04 2.42
6.84 0.10 2.42
2.44 0.08 0.86
2.32 0.13 0.82
2.26 0.17 0.80
2.23 0.21 0.79
2.20 0.25 0.78
2.18 0.30 0.78
2.17 0.34 0.78
2.16 0.38 0.77
2.16 0.43 0.78
2.16 0.47 0.78
2.17 0.52 0.79
2.19 0.57 0.80
2.22 0.63 0.82
2.29 0.70 0.85
6.34 2.06 2.36
6.29 2.19 2.36
6.25 2.32 2.36
6.21 2.44 2.36
6.16 2.57 2.36
6.11 2.69 2.37
6.06 2.82 2.37
6.10 2.99 2.41
6.04 3.11 2.41
5.97 3.23 2.41
5.90 3.34 2.41
5.79 3.44 2.39
5.72 3.55 2.39
5.65 3.67 2.39
5.57 3.78 2.39
5.37 3.80 2.34
5.20 3.84 2.30
5.00 3.85 2.24
4.99 4.00 2.27
5.00 4.18 2.32
5.07 4.41 2.39
4.98 4.51 2.39
4.89 4.61 2.39
4.79 4.71 2.39
4.70 4.80 2.39
4.60 4.89 2.39
4.50 4.98 2.39
4.39 5.07 2.39
4.29 5.15 2.39
4.19 5.24 2.39
4.08 5.32 2.39
3.97 5.40 2.39
3.86 5.48 2.39
3.75 5.55 2.39
3.63 5.62 2.39
3.52 5.69 2.39
3.40 5.76 2.39
3.29 5.83 2.39
3.17 5.89 2.39
3.05 5.95 2.39
2.93 6.01 2.39
2.08 4.50 1.77
1.98 4.52 1.77
2.56 6.17 2.39
2.43 6.22 2.39
2.31 6.26 2.39
2.18 6.31 2.39
2.05 6.35 2.39
1.98 6.56 2.46
1.87 6.70 2.49
1.74 6.73 2.49
1.60 6.76 2.49
1.46 6.79 2.49
1.33 6.82 2.49
1.19 6.84 2.49
1.05 6.86 2.49
0.91 6.88 2.49
0.78 6.90 2.49
0.64 6.91 2.49
0.50 6.92 2.49
0.36 6.92 2.49
0.22 6.93 2.49
0.08 6.93 2.49
-0.06 6.93 2.49
-0.20 6.92 2.49
-0.34 6.92 2.49
-0.48 6.91 2.49
-0.61 6.89 2.49
-0.75 6.88 2.49
-0.89 6.86 2.49
-1.03 6.84 2.49
-1.17 6.82 2.49
-1.30 6.79 2.49
-1.44 6.76 2.49
-1.57 6.73 2.49
-1.71 6.69 2.49
-1.84 6.66 2.49
-1.97 6.62 2.49
-2.11 6.57 2.49
-2.24 6.53 2.49
-2.37 6.48 2.49
-2.50 6.43 2.49
-2.63 6.38 2.49
-2.75 6.32 2.49
-2.88 6.27 2.49
-3.00 6.21 2.49
-3.13 6.14 2.49
-3.25 6.08 2.49
-3.37 6.01 2.49
-3.49 5.94 2.49
-3.61 5.87 2.49
-3.72 5.79 2.49
-3.84 5.72 2.49
-3.95 5.64 2.49
-4.07 5.56 2.49
-4.18 5.47 2.49
-4.28 5.39 2.49
-4.39 5.30 2.49
-4.50 5.21 2.49
-4.60 5.12 2.49
-4.70 5.02 2.49
-4.80 4.93 2.49
-4.90 4.83 2.49
-4.99 4.73 2.49
-5.09 4.63 2.49
-5.18 4.52 2.49
-5.27 4.42 2.49
-5.36 4.31 2.49
-5.44 4.20 2.49
-5.53 4.09 2.49
-5.61 3.98 2.49
-5.68 3.87 2.49
-5.76 3.75 2.49
-5.84 3.64 2.49
-5.91 3.52 2.49
-5.98 3.40 2.49
-6.04 3.28 2.49
-6.11 3.15 2.49
-6.17 3.03 2.49
-6.23 2.91 2.49
-6.27 2.77 2.49
-6.28 2.63 2.47
-6.29 2.48 2.45
-6.30 2.34 2.44
-6.31 2.20 2.42
-6.32 2.06 2.41
-6.33 1.93 2.40
-6.34 1.79 2.39
-6.38 1.67 2.39
-6.41 1.54 2.39
-6.44 1.41 2.39
-6.47 1.28 2.39
-6.49 1.15 2.39
-6.52 1.02 2.39
-6.54 0.89 2.39
-6.57 0.76 2.40
-6.58 0.62 2.39
-6.58 0.49 2.39
-6.59 0.36 2.39
-6.60 0.23 2.39
-6.60 0.09 2.39
-6.61 -0.04 2.39
-6.62 -0.17 2.40
-6.60 -0.30 2.39
-6.59 -0.44 2.39
-6.58 -0.57 2.39
-6.57 -0.70 2.39
-6.56 -0.83 2.39
-6.54 -0.96 2.39
-6.52 -1.10 2.39
-6.50 -1.23 2.39
-6.50 -1.36 2.40
-6.50 -1.50 2.41
-6.50 -1.64 2.42
-6.51 -1.78 2.44
-6.51 -1.92 2.45
-6.52 -2.07 2.47
-6.53 -2.22 2.49
-6.49 -2.35 2.49
-6.45 -2.48 2.49
-6.40 -2.61 2.49
-6.34 -2.74 2.49
-6.29 -2.87 2.49
-6.23 -3.00 2.49
-6.17 -3.12 2.49
-6.11 -3.24 2.49
-6.05 -3.37 2.49
-5.98 -3.49 2.49
-5.91 -3.61 2.49
-5.84 -3.73 2.49
-5.76 -3.85 2.49
-5.68 -3.96 2.49
-5.60 -4.08 2.49
-5.52 -4.19 2.49
-5.44 -4.30 2.49
-5.35 -4.41 2.49
-5.26 -4.52 2.49
-5.17 -4.62 2.49
-5.08 -4.73 2.49
-4.99 -4.83 2.49
-4.89 -4.93 2.49
-4.79 -5.03 2.49
-4.69 -5.13 2.49
-4.59 -5.22 2.49
-4.48 -5.31 2.49
-4.38 -5.40 2.49
-4.27 -5.49 2.49
-4.16 -5.58 2.49
-4.05 -5.66 2.49
-3.93 -5.74 2.49
-3.82 -5.82 2.49
-3.70 -5.90 2.49
-3.59 -5.98 2.49
-3.47 -6.05 2.49
-3.34 -6.12 2.49
-3.22 -6.19 2.49
-3.10 -6.25 2.49
-2.97 -6.31 2.49
-2.85 -6.37 2.49
-2.72 -6.43 2.49
-2.59 -6.49 2.49
-2.46 -6.54 2.49
-2.33 -6.59 2.49
-2.20 -6.64 2.49
-2.06 -6.68 2.49
-1.93 -6.72 2.49
-1.79 -6.76 2.49
-1.66 -6.80 2.49
-1.52 -6.83 2.49
-1.39 -6.86 2.49
-1.25 -6.89 2.49
-1.11 -6.92 2.49
-0.97 -6.94 2.49
-0.83 -6.96 2.49
-0.69 -6.98 2.49
-0.55 -6.99 2.49
-0.41 -7.00 2.49
-0.27 -7.01 2.49
-0.13 -7.02 2.49
0.01 -6.55 2.49
0.14 -6.55 2.49
0.27 -6.55 2.49
0.40 -6.54 2.49
0.54 -6.53 2.49
0.67 -6.52 2.49
0.80 -6.51 2.49
0.93 -6.50 2.49
1.06 -6.48 2.49
1.19 -6.46 2.49
1.31 -6.40 2.48
1.39 -6.14 2.39
1.51 -6.11 2.39
1.63 -6.08 2.39
1.75 -6.05 2.39
1.88 -6.01 2.39
2.00 -5.98 2.39
2.12 -5.94 2.39
2.24 -5.89 2.39
2.35 -5.85 2.39
2.47 -5.80 2.39
2.59 -5.75 2.39
2.70 -5.70 2.39
2.82 -5.65 2.39
2.93 -5.59 2.39
3.04 -5.53 2.39
3.15 -5.47 2.39
3.26 -5.41 2.39
3.37 -5.34 2.39
3.48 -5.27 2.39
3.58 -5.20 2.39
3.69 -5.13 2.39
3.79 -5.06 2.39
3.89 -4.98 2.39
3.99 -4.90 2.39
4.09 -4.82 2.39
4.18 -4.74 2.39
4.28 -4.65 2.39
4.29 -4.49 2.35
4.30 -4.32 2.31
4.32 -4.17 2.27
4.40 -4.08 2.27
4.65 -4.14 2.35
4.73 -4.04 2.35
4.81 -3.95 2.35
4.89 -3.85 2.35
4.92 -3.72 2.33
4.93 -3.57 2.30
4.94 -3.43 2.27
5.00 -3.33 2.27
5.07 -3.22 2.27
5.40 -3.29 2.39
5.47 -3.18 2.39
5.60 -3.11 2.42
5.67 -3.00 2.42
5.72 -2.88 2.42
5.78 -2.77 2.42
5.84 -2.65 2.42
5.89 -2.54 2.42
5.94 -2.42 2.42
5.98 -2.30 2.42
6.03 -2.18 2.42
6.07 -2.06 2.42
6.11 -1.93 2.42
6.15 -1.81 2.42
6.18 -1.69 2.42
6.21 -1.56 2.42
6.24 -1.44 2.42
6.27 -1.31 2.42
6.30 -1.19 2.42
6.32 -1.06 2.42
6.34 -0.93 2.42
6.35 -0.81 2.42
6.37 -0.68 2.42
6.38 -0.55 2.42
6.39 -0.42 2.42
6.39 -0.29 2.42
6.39 -0.17 2.42
6.39 -0.04 2.42
6.39 0.09 2.42
2.39 0.08 0.90
2.29 0.12 0.87
2.24 0.17 0.85
2.20 0.21 0.84
2.18 0.25 0.83
2.16 0.29 0.82
2.14 0.33 0.82
2.14 0.38 0.82
2.13 0.42 0.82
2.14 0.47 0.83
2.14 0.51 0.84
2.16 0.56 0.85
2.19 0.62 0.86
2.25 0.68 0.89
5.94 1.93 2.37
5.90 2.05 2.37
5.86 2.17 2.37
5.81 2.29 2.37
5.77 2.41 2.37
5.72 2.52 2.38
5.67 2.64 2.38
5.62 2.75 2.38
5.58 2.87 2.38
5.53 2.99 2.39
5.47 3.10 2.39
5.41 3.21 2.39
5.34 3.31 2.39
5.27 3.42 2.39
5.20 3.52 2.39
5.13 3.63 2.39
5.05 3.73 2.39
4.97 3.83 2.39
4.89 3.92 2.39
4.81 4.02 2.39
4.73 4.12 2.39
4.65 4.21 2.39
4.56 4.30 2.39
4.47 4.39 2.39
4.38 4.48 2.39
4.29 4.56 2.39
4.20 4.65 2.39
4.10 4.73 2.39
4.00 4.81 2.39
3.91 4.89 2.39
3.81 4.96 2.39
3.70 5.04 2.39
3.60 5.11 2.39
3.50 5.18 2.39
3.39 5.25 2.39
3.28 5.31 2.39
3.18 5.38 2.39
3.07 5.44 2.39
2.96 5.50 2.39
2.84 5.55 2.39
2.73 5.61 2.39
2.08 4.50 1.90
1.98 4.52 1.89
2.39 5.76 2.39
2.27 5.80 2.39
2.15 5.85 2.39
2.04 5.88 2.39
1.95 6.03 2.44
1.87 6.22 2.49
1.75 6.25 2.49
1.62 6.28 2.49
1.49 6.31 2.49
1.37 6.34 2.49
1.24 6.36 2.49
1.11 6.39 2.49
0.98 6.41 2.49
0.85 6.42 2.49
0.72 6.44 2.49
0.59 6.45 2.49
0.46 6.46 2.49
0.33 6.46 2.49
0.21 6.47 2.49
0.08 6.47 2.49
-0.05 6.47 2.49
-0.18 6.46 2.49
-0.31 6.46 2.49
-0.44 6.45 2.49
-0.57 6.44 2.49
-0.70 6.42 2.49
-0.83 6.40 2.49
-0.96 6.38 2.49
-1.09 6.36 2.49
-1.21 6.34 2.49
-1.34 6.31 2.49
-1.47 6.28 2.49
-1.59 6.25 2.49
-1.72 6.22 2.49
-1.84 6.18 2.49
-1.97 6.14 2.49
-2.09 6.10 2.49
-2.21 6.05 2.49
-2.33 6.01 2.49
-2.45 5.96 2.49
-2.57 5.90 2.49
-2.69 5.85 2.49
-2.80 5.79 2.49
-2.92 5.74 2.49
-3.03 5.68 2.49
-3.15 5.61 2.49
-3.26 5.55 2.49
-3.37 5.48 2.49
-3.48 5.41 2.49
-3.59 5.34 2.49
-3.69 5.27 2.49
-3.80 5.19 2.49
-3.90 5.11 2.49
-4.00 5.03 2.49
-4.10 4.95 2.49
-4.20 4.87 2.49
-4.30 4.78 2.49
-4.39 4.69 2.49
-4.48 4.60 2.49
-4.57 4.51 2.49
-4.66 4.42 2.49
-4.75 4.32 2.49
-4.84 4.23 2.49
-4.92 4.13 2.49
-5.00 4.03 2.49
-5.08 3.93 2.49
-5.16 3.82 2.49
-5.24 3.72 2.49
-5.31 3.61 2.49
-5.38 3.50 2.49
-5.45 3.40 2.49
-5.52 3.28 2.49
-5.58 3.17 2.49
-5.64 3.06 2.49
-5.70 2.95 2.49
-5.76 2.83 2.49
-5.82 2.71 2.49
-5.87 2.60 2.49
-5.92 2.48 2.49
-5.97 2.36 2.49
-6.02 2.24 2.49
-6.06 2.12 2.49
-6.10 1.99 2.49
-6.14 1.87 2.49
-6.18 1.75 2.49
-6.21 1.62 2.49
-6.25 1.50 2.49
-6.28 1.37 2.49
-6.30 1.25 2.49
-6.33 1.12 2.49
-6.35 0.99 2.49
-6.37 0.86 2.49
-6.38 0.74 2.49
-6.38 0.61 2.49
-6.39 0.48 2.49
-6.40 0.35 2.49
-6.40 0.22 2.49
-6.41 0.09 2.49
-6.42 -0.04 2.49
-6.42 -0.17 2.49
-6.43 -0.30 2.49
-6.42 -0.43 2.49
-6.41 -0.55 2.49
-6.40 -0.68 2.49
-6.38 -0.81 2.49
-6.37 -0.94 2.49
-6.35 -1.07 2.49
-6.33 -1.20 2.49
-6.30 -1.32 2.49
-6.28 -1.45 2.49
-6.25 -1.58 2.49
-6.22 -1.70 2.49
-6.18 -1.83 2.49
-6.14 -1.95 2.49
-6.10 -2.07 2.49
-6.06 -2.20 2.49
-6.02 -2.32 2.49
-5.97 -2.44 2.49
-5.92 -2.56 2.49
-5.87 -2.68 2.49
-5.82 -2.80 2.49
-5.76 -2.91 2.49
-5.70 -3.03 2.49
-5.64 -3.14 2.49
-5.58 -3.26 2.49
-5.51 -3.37 2.49
-5.45 -3.48 2.49
-5.38 -3.59 2.49
-5.31 -3.70 2.49
-5.23 -3.81 2.49
-5.16 -3.91 2.49
-5.08 -4.01 2.49
-5.00 -4.12 2.49
-4.91 -4.22 2.49
-4.83 -4.32 2.49
-4.74 -4.41 2.49
-4.65 -4.51 2.49
-4.56 -4.60 2.49
-4.47 -4.69 2.49
-4.38 -4.79 2.49
-4.28 -4.87 2.49
-4.18 -4.96 2.49
-4.09 -5.04 2.49
-3.98 -5.13 2.49
-3.88 -5.21 2.49
-3.78 -5.29 2.49
-3.67 -5.36 2.49
-3.56 -5.44 2.49
-3.46 -5.51 2.49
-3.34 -5.58 2.49
-3.23 -5.64 2.49
-3.12 -5.71 2.49
-3.01 -5.77 2.49
-2.89 -5.83 2.49
-2.77 -5.89 2.49
-2.66 -5.95 2.49
-2.54 -6.00 2.49
-2.42 -6.05 2.49
-2.29 -6.10 2.49
-2.17 -6.15 2.49
-2.05 -6.19 2.49
-1.92 -6.23 2.49
-1.80 -6.27 2.49
-1.67 -6.31 2.49
-1.55 -6.34 2.49
-1.42 -6.38 2.49
-1.29 -6.40 2.49
-1.16 -6.43 2.49
-1.03 -6.45 2.49
-0.91 -6.48 2.49
-0.78 -6.49 2.49
-0.64 -6.51 2.49
-0.51 -6.52 2.49
-0.38 -6.53 2.49
-0.25 -6.54 2.49
-0.12 -6.55 2.49
0.01 -6.13 2.49
0.13 -6.13 2.49
0.26 -6.13 2.49
0.38 -6.12 2.49
0.50 -6.12 2.49
0.62 -6.11 2.49
0.75 -6.09 2.49
0.87 -6.08 2.49
0.99 -6.06 2.49
1.11 -6.04 2.49
1.23 -6.02 2.49
1.34 -5.92 2.46
1.41 -5.72 2.39
1.53 -5.69 2.39
1.64 -5.66 2.39
1.76 -5.63 2.39
1.87 -5.59 2.39
1.98 -5.56 2.39
2.09 -5.52 2.39
2.20 -5.47 2.39
2.31 -5.43 2.39
2.42 -5.38 2.39
2.53 -5.33 2.39
2.64 -5.28 2.39
2.74 -5.23 2.39
2.85 -5.18 2.39
2.95 -5.12 2.39
3.05 -5.06 2.39
3.15 -5.00 2.39
3.25 -4.93 2.39
3.35 -4.87 2.39
3.45 -4.80 2.39
3.55 -4.73 2.39
3.64 -4.66 2.39
3.73 -4.59 2.39
3.82 -4.51 2.39
3.91 -4.43 2.39
4.00 -4.35 2.39
4.09 -4.27 2.39
4.18 -4.19 2.39
4.26 -4.11 2.39
4.32 -4.00 2.38
4.33 -3.85 2.34
4.33 -3.70 2.30
4.35 -3.57 2.27
4.41 -3.48 2.27
4.48 -3.39 2.27
4.71 -3.42 2.35
4.78 -3.32 2.35
4.85 -3.22 2.35
4.91 -3.13 2.35
4.96 -3.02 2.34
4.96 -2.89 2.32
4.97 -2.76 2.30
4.98 -2.64 2.28
5.02 -2.53 2.27
5.07 -2.43 2.27
5.11 -2.33 2.27
5.44 -2.34 2.39
5.48 -2.23 2.39
5.53 -2.12 2.39
5.64 -2.04 2.42
5.68 -1.92 2.42
5.72 -1.81 2.42
5.75 -1.69 2.42
5.78 -1.58 2.42
5.81 -1.46 2.42
5.84 -1.35 2.42
5.87 -1.23 2.42
5.89 -1.11 2.42
5.91 -0.99 2.42
5.93 -0.87 2.42
5.95 -0.75 2.42
5.96 -0.63 2.42
5.97 -0.51 2.42
5.98 -0.39 2.42
5.98 -0.27 2.42
5.98 -0.15 2.42
5.98 -0.04 2.42
5.98 0.08 2.42
2.37 0.08 0.96
2.27 0.12 0.92
2.22 0.17 0.90
2.19 0.21 0.89
2.16 0.25 0.88
2.14 0.29 0.87
2.13 0.33 0.87
2.12 0.37 0.87
2.12 0.42 0.87
2.12 0.46 0.88
2.13 0.51 0.89
2.15 0.56 0.90
2.18 0.61 0.92
2.24 0.68 0.95
5.58 1.82 2.38
5.57 1.94 2.39
5.53 2.05 2.39
5.48 2.16 2.39
5.44 2.27 2.39
5.39 2.38 2.39
5.34 2.48 2.39
5.29 2.59 2.39
5.23 2.69 2.39
5.18 2.80 2.39
5.12 2.90 2.39
5.06 3.00 2.39
5.00 3.10 2.39
4.93 3.20 2.39
4.87 3.30 2.39
4.80 3.39 2.39
4.73 3.49 2.39
4.66 3.58 2.39
4.58 3.67 2.39
4.51 3.76 2.39
4.43 3.85 2.39
4.35 3.94 2.39
4.27 4.03 2.39
4.19 4.11 2.39
4.10 4.19 2.39
4.02 4.27 2.39
3.93 4.35 2.39
3.84 4.43 2.39
3.75 4.50 2.39
3.66 4.57 2.39
3.56 4.65 2.39
3.47 4.72 2.39
3.37 4.78 2.39
3.27 4.85 2.39
3.18 4.91 2.39
3.08 4.97 2.39
2.97 5.03 2.39
2.87 5.09 2.39
2.77 5.15 2.39
2.66 5.20 2.39
2.56 5.25 2.39
2.08 4.50 2.03
1.98 4.51 2.02
2.24 5.39 2.39
2.13 5.45 2.40
2.02 5.47 2.39
1.93 5.59 2.42
1.87 5.79 2.49
1.76 5.82 2.49
1.64 5.85 2.49
1.52 5.88 2.49
1.40 5.91 2.49
1.28 5.94 2.49
1.16 5.96 2.49
1.04 5.98 2.49
0.92 6.00 2.49
0.80 6.01 2.49
0.68 6.03 2.49
0.56 6.04 2.49
0.44 6.05 2.49
0.31 6.05 2.49
0.19 6.06 2.49
0.07 6.06 2.49
-0.05 6.06 2.49
-0.17 6.05 2.49
-0.29 6.05 2.49
-0.42 6.04 2.49
-0.54 6.03 2.49
-0.66 6.01 2.49
-0.78 6.00 2.49
-0.90 5.98 2.49
-1.02 5.96 2.49
-1.14 5.94 2.49
-1.26 5.91 2.49
-1.37 5.88 2.49
-1.49 5.85 2.49
-1.61 5.82 2.49
-1.73 5.79 2.49
-1.84 5.75 2.49
-1.96 5.71 2.49
-2.07 5.67 2.49
-2.18 5.63 2.49
-2.30 5.58 2.49
-2.41 5.53 2.49
-2.52 5.48 2.49
-2.63 5.43 2.49
-2.73 5.37 2.49
-2.84 5.32 2.49
-2.95 5.26 2.49
-3.05 5.20 2.49
-3.16 5.13 2.49
-3.26 5.07 2.49
-3.36 5.00 2.49
-3.46 4.93 2.49
-3.56 4.86 2.49
-3.65 4.79 2.49
-3.75 4.71 2.49
-3.84 4.64 2.49
-3.93 4.56 2.49
-4.02 4.48 2.49
-4.11 4.40 2.49
-4.20 4.31 2.49
-4.29 4.23 2.49
-4.37 4.14 2.49
-4.45 4.05 2.49
-4.53 3.96 2.49
-4.61 3.87 2.49
-4.69 3.77 2.49
-4.76 3.68 2.49
-4.83 3.58 2.49
-4.90 3.48 2.49
-4.97 3.38 2.49
-5.04 3.28 2.49
-5.11 3.18 2.49
-5.17 3.08 2.49
-5.23 2.97 2.49
-5.29 2.87 2.49
-5.34 2.76 2.49
-5.40 2.65 2.49
-5.45 2.54 2.49
-5.50 2.43 2.49
-5.55 2.32 2.49
-5.60 2.21 2.49
-5.64 2.10 2.49
-5.68 1.98 2.49
-5.72 1.87 2.49
-5.76 1.75 2.49
-5.79 1.64 2.49
-5.82 1.52 2.49
-5.85 1.40 2.49
-5.88 1.29 2.49
-5.90 1.17 2.49
-5.93 1.05 2.49
-5.95 0.93 2.49
-5.97 0.81 2.49
-5.98 0.69 2.49
-5.99 0.57 2.49
-6.01 0.45 2.49
-6.01 0.33 2.49
-6.02 0.21 2.49
-6.02 0.09 2.49
-6.02 -0.04 2.49
-6.02 -0.16 2.49
-6.02 -0.28 2.49
-6.01 -0.40 2.49
-6.01 -0.52 2.49
-5.99 -0.64 2.49
-5.98 -0.76 2.49
-5.97 -0.88 2.49
-5.95 -1.00 2.49
-5.93 -1.12 2.49
-5.90 -1.24 2.49
-5.88 -1.36 2.49
-5.85 -1.48 2.49
-5.82 -1.59 2.49
-5.79 -1.71 2.49
-5.76 -1.83 2.49
-5.72 -1.94 2.49
-5.68 -2.06 2.49
-5.64 -2.17 2.49
-5.59 -2.29 2.49
-5.55 -2.40 2.49
-5.50 -2.51 2.49
-5.45 -2.62 2.49
-5.40 -2.73 2.49
-5.34 -2.84 2.49
-5.29 -2.95 2.49
-5.23 -3.05 2.49
-5.16 -3.16 2.49
-5.10 -3.26 2.49
-5.04 -3.36 2.49
-4.97 -3.46 2.49
-4.90 -3.56 2.49
-4.83 -3.66 2.49
-4.75 -3.76 2.49
-4.68 -3.86 2.49
-4.60 -3.95 2.49
-4.52 -4.04 2.49
-4.44 -4.13 2.49
-4.36 -4.22 2.49
-4.27 -4.31 2.49
-4.19 -4.40 2.49
-4.10 -4.48 2.49
-4.01 -4.56 2.49
-3.92 -4.64 2.49
-3.83 -4.72 2.49
-3.73 -4.80 2.49
-3.63 -4.88 2.49
-3.54 -4.95 2.49
-3.44 -5.02 2.49
-3.34 -5.09 2.49
-3.23 -5.16 2.49
-3.13 -5.22 2.49
-3.03 -5.29 2.49
-2.92 -5.35 2.49
-2.81 -5.41 2.49
-2.71 -5.46 2.49
-2.60 -5.52 2.49
-2.49 -5.57 2.49
-2.37 -5.62 2.49
-2.26 -5.67 2.49
-2.15 -5.71 2.49
-2.03 -5.76 2.49
-1.92 -5.80 2.49
-1.80 -5.84 2.49
-1.68 -5.87 2.49
-1.57 -5.91 2.49
-1.45 -5.94 2.49
-1.33 -5.97 2.49
-1.21 -6.00 2.49
-1.09 -6.02 2.49
-0.97 -6.04 2.49
-0.85 -6.06 2.49
-0.72 -6.08 2.49
-0.60 -6.09 2.49
-0.48 -6.11 2.49
-0.36 -6.12 2.49
-0.24 -6.12 2.49
-0.11 -6.13 2.49
0.01 -5.76 2.49
0.13 -5.76 2.49
0.24 -5.75 2.49
0.36 -5.75 2.49
0.47 -5.74 2.49
0.59 -5.73 2.49
0.70 -5.72 2.49
0.82 -5.71 2.49
0.93 -5.69 2.49
1.05 -5.67 2.49
1.16 -5.65 2.49
1.27 -5.63 2.49
1.36 -5.49 2.45
1.44 -5.34 2.39
1.54 -5.31 2.39
1.65 -5.28 2.39
1.76 -5.25 2.39
1.86 -5.22 2.39
1.96 -5.18 2.39
2.07 -5.14 2.39
2.17 -5.10 2.39
2.27 -5.05 2.39
2.37 -5.01 2.39
2.47 -4.96 2.39
2.57 -4.91 2.39
2.67 -4.86 2.39
2.77 -4.80 2.39
2.87 -4.75 2.39
2.96 -4.69 2.39
3.05 -4.63 2.39
3.15 -4.57 2.39
3.24 -4.51 2.39
3.33 -4.44 2.39
3.42 -4.37 2.39
3.50 -4.30 2.39
3.59 -4.23 2.39
3.67 -4.16 2.39
3.76 -4.09 2.39
3.84 -4.01 2.39
3.92 -3.93 2.39
4.00 -3.85 2.39
4.07 -3.77 2.39
4.15 -3.69 2.39
4.22 -3.61 2.39
4.29 -3.52 2.39
4.35 -3.43 2.38
4.36 -3.29 2.35
4.36 -3.16 2.32
4.37 -3.03 2.29
4.39 -2.92 2.27
4.45 -2.83 2.27
4.50 -2.74 2.27
4.72 -2.75 2.35
4.78 -2.65 2.35
4.83 -2.56 2.35
4.88 -2.46 2.35
4.93 -2.36 2.35
4.97 -2.26 2.35
5.00 -2.15 2.34
5.01 -2.04 2.33
4.92 -1.89 2.27
4.96 -1.79 2.27
4.99 -1.69 2.27
5.30 -1.68 2.39
5.33 -1.57 2.39
5.36 -1.46 2.39
5.39 -1.35 2.39
5.41 -1.25 2.39
5.44 -1.14 2.39
5.46 -1.03 2.39
5.48 -0.92 2.39
5.49 -0.81 2.39
5.51 -0.70 2.39
5.52 -0.59 2.39
5.53 -0.48 2.39
5.54 -0.37 2.39
5.54 -0.26 2.39
5.55 -0.14 2.39
5.55 -0.03 2.39
5.55 0.08 2.39
2.37 0.08 1.02
2.27 0.12 0.98
2.22 0.16 0.96
2.18 0.21 0.94
2.15 0.25 0.93
2.13 0.29 0.93
2.12 0.33 0.93
2.11 0.37 0.93
2.11 0.42 0.93
2.11 0.46 0.93
2.12 0.51 0.94
2.14 0.56 0.96
2.17 0.61 0.98
2.24 0.68 1.01
5.26 1.71 2.39
5.23 1.82 2.39
5.19 1.92 2.39
5.15 2.03 2.39
5.10 2.13 2.39
5.06 2.23 2.39
5.01 2.33 2.39
4.96 2.43 2.39
4.91 2.53 2.39
4.86 2.63 2.39
4.81 2.72 2.39
4.75 2.82 2.39
4.69 2.91 2.39
4.63 3.00 2.39
4.57 3.10 2.39
4.51 3.19 2.39
4.44 3.27 2.39
4.37 3.36 2.39
4.30 3.45 2.39
4.23 3.53 2.39
4.16 3.62 2.39
4.08 3.70 2.39
4.01 3.78 2.39
3.93 3.86 2.39
3.85 3.93 2.39
3.77 4.01 2.39
3.69 4.08 2.39
3.61 4.16 2.39
3.52 4.23 2.39
3.43 4.30 2.39
3.35 4.36 2.39
3.26 4.43 2.39
3.17 4.49 2.39
3.08 4.55 2.39
2.98 4.61 2.39
2.89 4.67 2.39
2.79 4.73 2.39
2.70 4.78 2.39
2.60 4.83 2.39
2.50 4.88 2.39
2.40 4.93 2.39
2.08 4.50 2.16
1.98 4.51 2.15
2.11 5.09 2.40
2.00 5.10 2.39
1.91 5.19 2.42
1.87 5.40 2.49
1.76 5.43 2.49
1.65 5.47 2.49
1.54 5.50 2.49
1.43 5.53 2.49
1.32 5.55 2.49
1.20 5.58 2.49
1.09 5.60 2.49
0.98 5.62 2.49
0.87 5.63 2.49
0.75 5.65 2.49
0.64 5.66 2.49
0.52 5.67 2.49
0.41 5.68 2.49
0.30 5.69 2.49
0.18 5.69 2.49
0.07 5.69 2.49
-0.05 5.69 2.49
-0.16 5.69 2.49
-0.28 5.68 2.49
-0.39 5.67 2.49
-0.50 5.66 2.49
-0.62 5.65 2.49
-0.73 5.64 2.49
-0.84 5.62 2.49
-0.96 5.60 2.49
-1.07 5.58 2.49
-1.18 5.55 2.49
-1.29 5.53 2.49
-1.40 5.50 2.49
-1.51 5.47 2.49
-1.62 5.44 2.49
-1.73 5.40 2.49
-1.84 5.37 2.49
-1.94 5.33 2.49
-2.05 5.29 2.49
-2.16 5.24 2.49
-2.26 5.20 2.49
-2.36 5.15 2.49
-2.47 5.10 2.49
-2.57 5.05 2.49
-2.67 5.00 2.49
-2.77 4.94 2.49
-2.87 4.88 2.49
-2.96 4.82 2.49
-3.06 4.76 2.49
-3.16 4.70 2.49
-3.25 4.63 2.49
-3.34 4.57 2.49
-3.43 4.50 2.49
-3.52 4.43 2.49
-3.61 4.36 2.49
-3.70 4.28 2.49
-3.78 4.21 2.49
-3.86 4.13 2.49
-3.95 4.05 2.49
-4.03 3.97 2.49
-4.11 3.89 2.49
-4.18 3.81 2.49
-4.26 3.72 2.49
-4.33 3.63 2.49
-4.40 3.55 2.49
-4.47 3.46 2.49
-4.54 3.37 2.49
-4.61 3.27 2.49
-4.67 3.18 2.49
-4.74 3.09 2.49
-4.80 2.99 2.49
-4.86 2.89 2.49
-4.91 2.79 2.49
-4.97 2.69 2.49
-5.02 2.59 2.49
-5.07 2.49 2.49
-5.12 2.39 2.49
-5.17 2.29 2.49
-5.21 2.18 2.49
-5.26 2.08 2.49
-5.30 1.97 2.49
-5.34 1.86 2.49
-5.37 1.76 2.49
-5.41 1.65 2.49
-5.44 1.54 2.49
-5.47 1.43 2.49
-5.50 1.32 2.49
-5.52 1.21 2.49
-5.55 1.10 2.49
-5.57 0.98 2.49
-5.59 0.87 2.49
-5.61 0.76 2.49
-5.62 0.65 2.49
-5.63 0.53 2.49
-5.64 0.42 2.49
-5.65 0.31 2.49
-5.66 0.19 2.49
-5.66 0.08 2.49
-5.66 -0.03 2.49
-5.66 -0.15 2.49
-5.66 -0.26 2.49
-5.65 -0.38 2.49
-5.64 -0.49 2.49
-5.63 -0.60 2.49
-5.62 -0.72 2.49
-5.60 -0.83 2.49
-5.59 -0.94 2.49
-5.57 -1.05 2.49
-5.55 -1.17 2.49
-5.52 -1.28 2.49
-5.50 -1.39 2.49
-5.47 -1.50 2.49
-5.44 -1.61 2.49
-5.41 -1.72 2.49
-5.37 -1.83 2.49
-5.34 -1.93 2.49
-5.30 -2.04 2.49
-5.26 -2.15 2.49
-5.21 -2.25 2.49
-5.17 -2.36 2.49
-5.12 -2.46 2.49
-5.07 -2.56 2.49
-5.02 -2.67 2.49
-4.96 -2.77 2.49
-4.91 -2.87 2.49
-4.85 -2.97 2.49
-4.79 -3.06 2.49
-4.73 -3.16 2.49
-4.67 -3.26 2.49
-4.60 -3.35 2.49
-4.53 -3.44 2.49
-4.47 -3.53 2.49
-4.39 -3.62 2.49
-4.32 -3.71 2.49
-4.25 -3.80 2.49
-4.17 -3.88 2.49
-4.09 -3.97 2.49
-4.01 -4.05 2.49
-3.93 -4.13 2.49
-3.85 -4.21 2.49
-3.77 -4.29 2.49
-3.68 -4.36 2.49
-3.59 -4.44 2.49
-3.50 -4.51 2.49
-3.41 -4.58 2.49
-3.32 -4.65 2.49
-3.23 -4.72 2.49
-3.13 -4.78 2.49
-3.04 -4.84 2.49
-2.94 -4.91 2.49
-2.84 -4.96 2.49
-2.74 -5.02 2.49
-2.64 -5.08 2.49
-2.54 -5.13 2.49
-2.44 -5.18 2.49
-2.33 -5.23 2.49
-2.23 -5.28 2.49
-2.12 -5.32 2.49
-2.02 -5.37 2.49
-1.91 -5.41 2.49
-1.80 -5.45 2.49
-1.69 -5.48 2.49
-1.58 -5.52 2.49
-1.47 -5.55 2.49
-1.36 -5.58 2.49
-1.25 -5.60 2.49
-1.13 -5.63 2.49
-1.02 -5.65 2.49
-0.91 -5.67 2.49
-0.79 -5.69 2.49
-0.68 -5.71 2.49
-0.57 -5.72 2.49
-0.45 -5.73 2.49
-0.34 -5.74 2.49
-0.22 -5.75 2.49
-0.11 -5.75 2.49
0.01 -5.42 2.49
0.12 -5.42 2.49
0.23 -5.42 2.49
0.34 -5.41 2.49
0.44 -5.41 2.49
0.55 -5.40 2.49
0.66 -5.39 2.49
0.77 -5.37 2.49
0.88 -5.36 2.49
0.98 -5.34 2.49
1.09 -5.32 2.49
1.20 -5.30 2.49
1.30 -5.27 2.49
1.38 -5.13 2.44
1.45 -5.00 2.39
1.55 -4.97 2.39
1.65 -4.94 2.39
1.75 -4.91 2.39
1.85 -4.87 2.39
1.95 -4.84 2.39
2.04 -4.80 2.39
2.14 -4.76 2.39
2.24 -4.71 2.39
2.33 -4.67 2.39
2.42 -4.62 2.39
2.52 -4.57 2.39
2.61 -4.52 2.39
2.70 -4.47 2.39
2.79 -4.41 2.39
2.87 -4.36 2.39
2.96 -4.30 2.39
3.05 -4.24 2.39
3.13 -4.18 2.39
3.22 -4.12 2.39
3.30 -4.05 2.39
3.38 -3.98 2.39
3.46 -3.92 2.39
3.54 -3.85 2.39
3.61 -3.77 2.39
3.69 -3.70 2.39
3.76 -3.63 2.39
3.83 -3.55 2.39
3.90 -3.47 2.39
3.97 -3.40 2.39
4.04 -3.32 2.39
4.11 -3.23 2.39
4.17 -3.15 2.39
4.23 -3.07 2.39
4.29 -2.98 2.39
4.35 -2.90 2.39
4.38 -2.79 2.38
4.39 -2.67 2.35
4.39 -2.56 2.32
4.40 -2.44 2.30
4.41 -2.33 2.28
4.43 -2.23 2.27
4.48 -2.14 2.27
4.52 -2.05 2.27
4.56 -1.96 2.27
4.60 -1.87 2.27
4.63 -1.78 2.27
4.67 -1.69 2.27
4.91 -1.66 2.37
4.98 -1.58 2.39
5.01 -1.48 2.39
5.04 -1.38 2.39
5.07 -1.27 2.39
5.09 -1.17 2.39
5.12 -1.07 2.39
5.14 -0.97 2.39
5.15 -0.86 2.39
5.17 -0.76 2.39
5.18 -0.66 2.39
5.19 -0.55 2.39
5.20 -0.45 2.39
5.21 -0.34 2.39
5.22 -0.24 2.39
5.22 -0.14 2.39
5.22 -0.03 2.39
5.22 0.07 2.39
2.37 0.08 1.09
2.27 0.12 1.04
2.22 0.16 1.02
2.18 0.21 1.00
2.15 0.25 0.99
2.13 0.29 0.99
2.12 0.33 0.98
2.11 0.37 0.98
2.11 0.42 0.99
2.11 0.46 0.99
2.12 0.51 1.00
2.14 0.56 1.01
2.17 0.61 1.04
2.24 0.68 1.07
4.95 1.61 2.39
4.92 1.71 2.39
4.88 1.81 2.39
4.85 1.91 2.39
4.81 2.00 2.39
4.76 2.10 2.39
4.72 2.19 2.39
4.67 2.29 2.39
4.63 2.38 2.39
4.58 2.47 2.39
4.52 2.56 2.39
4.47 2.65 2.39
4.42 2.74 2.39
4.36 2.83 2.39
4.30 2.91 2.39
4.24 3.00 2.39
4.18 3.08 2.39
4.12 3.16 2.39
4.05 3.25 2.39
3.98 3.33 2.39
3.92 3.40 2.39
3.85 3.48 2.39
3.77 3.56 2.39
3.70 3.63 2.39
3.63 3.70 2.39
3.55 3.77 2.39
3.47 3.84 2.39
3.39 3.91 2.39
3.31 3.98 2.39
3.23 4.04 2.39
3.15 4.11 2.39
3.07 4.17 2.39
2.98 4.23 2.39
2.90 4.29 2.39
2.81 4.34 2.39
2.72 4.40 2.39
2.63 4.45 2.39
2.54 4.50 2.39
2.45 4.55 2.39
2.36 4.60 2.39
2.26 4.64 2.39
2.08 4.50 2.30
1.98 4.51 2.28
1.98 4.77 2.39
1.90 4.84 2.41
1.86 5.05 2.49
1.76 5.08 2.49
1.66 5.12 2.49
1.55 5.15 2.49
1.45 5.18 2.49
1.35 5.20 2.49
1.24 5.23 2.49
1.13 5.25 2.49
1.03 5.27 2.49
0.92 5.29 2.49
0.82 5.31 2.49
0.71 5.32 2.49
0.60 5.33 2.49
0.49 5.34 2.49
0.39 5.35 2.49
0.28 5.35 2.49
0.17 5.36 2.49
0.06 5.36 2.49
-0.04 5.36 2.49
-0.15 5.35 2.49
-0.26 5.35 2.49
-0.37 5.34 2.49
-0.47 5.33 2.49
-0.58 5.32 2.49
-0.69 5.31 2.49
-0.79 5.29 2.49
-0.90 5.27 2.49
-1.01 5.25 2.49
-1.11 5.23 2.49
-1.21 5.21 2.49
-1.32 5.18 2.49
-1.42 5.15 2.49
-1.53 5.12 2.49
-1.63 5.09 2.49
-1.73 5.05 2.49
-1.83 5.02 2.49
-1.93 4.98 2.49
-2.03 4.94 2.49
-2.13 4.90 2.49
-2.23 4.85 2.49
-2.32 4.80 2.49
-2.42 4.76 2.49
-2.51 4.71 2.49
-2.61 4.65 2.49
-2.70 4.60 2.49
-2.79 4.54 2.49
-2.88 4.49 2.49
-2.97 4.43 2.49
-3.06 4.37 2.49
-3.15 4.30 2.49
-3.23 4.24 2.49
-3.32 4.17 2.49
-3.40 4.10 2.49
-3.48 4.03 2.49
-3.56 3.96 2.49
-3.64 3.89 2.49
-3.72 3.82 2.49
-3.79 3.74 2.49
-3.87 3.66 2.49
-3.94 3.58 2.49
-4.01 3.50 2.49
-4.08 3.42 2.49
-4.15 3.34 2.49
-4.21 3.26 2.49
-4.28 3.17 2.49
-4.34 3.08 2.49
-4.40 3.00 2.49
-4.46 2.91 2.49
-4.52 2.82 2.49
-4.57 2.72 2.49
-4.63 2.63 2.49
-4.68 2.54 2.49
-4.73 2.44 2.49
-4.78 2.35 2.49
-4.83 2.25 2.49
-4.87 2.15 2.49
-4.91 2.06 2.49
-4.95 1.96 2.49
-4.99 1.86 2.49
-5.03 1.76 2.49
-5.06 1.65 2.49
-5.09 1.55 2.49
-5.12 1.45 2.49
-5.15 1.35 2.49
-5.18 1.24 2.49
-5.20 1.14 2.49
-5.23 1.03 2.49
-5.25 0.93 2.49
-5.26 0.82 2.49
-5.28 0.72 2.49
-5.29 0.61 2.49
-5.31 0.50 2.49
-5.31 0.40 2.49
-5.32 0.29 2.49
-5.33 0.18 2.49
-5.33 0.08 2.49
-5.33 -0.03 2.49
-5.33 -0.14 2.49
-5.33 -0.25 2.49
-5.32 -0.35 2.49
-5.31 -0.46 2.49
-5.30 -0.57 2.49
-5.29 -0.67 2.49
-5.28 -0.78 2.49
-5.26 -0.89 2.49
-5.24 -0.99 2.49
-5.22 -1.10 2.49
-5.20 -1.20 2.49
-5.18 -1.31 2.49
-5.15 -1.41 2.49
-5.12 -1.52 2.49
-5.09 -1.62 2.49
-5.06 -1.72 2.49
-5.02 -1.82 2.49
-4.99 -1.92 2.49
-4.95 -2.02 2.49
-4.91 -2.12 2.49
-4.87 -2.22 2.49
-4.82 -2.32 2.49
-4.77 -2.42 2.49
-4.73 -2.51 2.49
-4.68 -2.61 2.49
-4.62 -2.70 2.49
-4.57 -2.79 2.49
-4.51 -2.89 2.49
-4.45 -2.98 2.49
-4.39 -3.07 2.49
-4.33 -3.15 2.49
-4.27 -3.24 2.49
-4.20 -3.33 2.49
-4.14 -3.41 2.49
-4.07 -3.50 2.49
-4.00 -3.58 2.49
-3.93 -3.66 2.49
-3.85 -3.74 2.49
-3.78 -3.81 2.49
-3.70 -3.89 2.49
-3.62 -3.96 2.49
-3.55 -4.04 2.49
-3.46 -4.11 2.49
-3.38 -4.18 2.49
-3.30 -4.25 2.49
-3.21 -4.31 2.49
-3.13 -4.38 2.49
-3.04 -4.44 2.49
-2.95 -4.50 2.49
-2.86 -4.56 2.49
-2.77 -4.62 2.49
-2.68 -4.67 2.49
-2.58 -4.73 2.49
-2.49 -4.78 2.49
-2.39 -4.83 2.49
-2.29 -4.88 2.49
-2.20 -4.93 2.49
-2.10 -4.97 2.49
-2.00 -5.01 2.49
-1.90 -5.05 2.49
-1.80 -5.09 2.49
-1.69 -5.13 2.49
-1.59 -5.16 2.49
-1.49 -5.19 2.49
-1.38 -5.22 2.49
-1.28 -5.25 2.49
-1.17 -5.28 2.49
-1.07 -5.30 2.49
-0.96 -5.32 2.49
-0.85 -5.34 2.49
-0.75 -5.36 2.49
-0.64 -5.37 2.49
-0.53 -5.39 2.49
-0.42 -5.40 2.49
-0.32 -5.41 2.49
-0.21 -5.41 2.49
-0.10 -5.42 2.49
0.01 -5.11 2.49
0.11 -5.11 2.49
0.22 -5.11 2.49
0.32 -5.11 2.49
0.42 -5.10 2.49
0.52 -5.09 2.49
0.62 -5.08 2.49
0.73 -5.07 2.49
0.83 -5.05 2.49
0.93 -5.04 2.49
1.03 -5.02 2.49
1.13 -5.00 2.49
1.23 -4.97 2.49
1.33 -4.95 2.49
1.40 -4.80 2.43
1.47 -4.69 2.39
1.56 -4.66 2.39
1.65 -4.63 2.39
1.75 -4.60 2.39
1.84 -4.56 2.39
1.93 -4.52 2.39
2.02 -4.49 2.39
2.11 -4.45 2.39
2.20 -4.40 2.39
2.29 -4.36 2.39
2.37 -4.31 2.39
2.46 -4.26 2.39
2.54 -4.21 2.39
2.63 -4.16 2.39
2.71 -4.11 2.39
2.79 -4.06 2.39
2.88 -4.00 2.39
2.95 -3.94 2.39
3.03 -3.88 2.39
3.11 -3.82 2.39
3.19 -3.76 2.39
3.26 -3.69 2.39
3.34 -3.63 2.39
3.41 -3.56 2.39
3.48 -3.49 2.39
3.55 -3.42 2.39
3.62 -3.35 2.39
3.68 -3.28 2.39
3.75 -3.20 2.39
3.81 -3.13 2.39
3.87 -3.05 2.39
3.93 -2.97 2.39
3.99 -2.89 2.39
4.05 -2.81 2.39
4.11 -2.73 2.39
4.16 -2.65 2.39
4.21 -2.56 2.39
4.26 -2.48 2.39
4.31 -2.39 2.39
4.36 -2.31 2.39
4.40 -2.22 2.39
4.42 -2.12 2.37
4.42 -2.01 2.36
4.43 -1.91 2.34
4.43 -1.80 2.32
4.44 -1.70 2.30
4.56 -1.65 2.35
4.67 -1.58 2.39
4.70 -1.49 2.39
4.73 -1.39 2.39
4.76 -1.30 2.39
4.78 -1.20 2.39
4.80 -1.11 2.39
4.82 -1.01 2.39
4.84 -0.91 2.39
4.86 -0.82 2.39
4.88 -0.72 2.39
4.89 -0.62 2.39
4.90 -0.52 2.39
4.91 -0.42 2.39
4.92 -0.33 2.39
4.92 -0.23 2.39
4.92 -0.13 2.39
4.93 -0.03 2.39
4.92 0.07 2.39
2.38 0.08 1.15
2.27 0.12 1.10
2.22 0.16 1.08
2.18 0.21 1.06
2.15 0.25 1.05
2.13 0.29 1.05
2.12 0.33 1.04
2.11 0.37 1.04
2.11 0.42 1.04
2.11 0.46 1.05
2.12 0.51 1.06
2.14 0.56 1.08
2.17 0.61 1.10
2.24 0.68 1.14
4.67 1.52 2.39
4.64 1.61 2.39
4.61 1.71 2.39
4.57 1.80 2.39
4.53 1.89 2.39
4.49 1.98 2.39
4.45 2.07 2.39
4.41 2.16 2.39
4.36 2.24 2.39
4.32 2.33 2.39
4.27 2.42 2.39
4.22 2.50 2.39
4.17 2.58 2.39
4.11 2.67 2.39
4.06 2.75 2.39
4.00 2.83 2.39
3.94 2.91 2.39
3.88 2.99 2.39
3.82 3.06 2.39
3.76 3.14 2.39
3.69 3.21 2.39
3.63 3.28 2.39
3.56 3.36 2.39
3.49 3.43 2.39
3.42 3.49 2.39
3.35 3.56 2.39
3.28 3.63 2.39
3.20 3.69 2.39
3.13 3.75 2.39
3.05 3.81 2.39
2.97 3.87 2.39
2.89 3.93 2.39
2.81 3.99 2.39
2.73 4.04 2.39
2.65 4.10 2.39
2.57 4.15 2.39
2.48 4.20 2.39
2.40 4.25 2.39
2.31 4.29 2.39
2.22 4.34 2.39
2.14 4.38 2.39
2.05 4.42 2.39
1.96 4.46 2.39
1.88 4.53 2.41
1.85 4.73 2.49
1.76 4.76 2.49
1.66 4.80 2.49
1.56 4.83 2.49
1.47 4.86 2.49
1.37 4.88 2.49
1.27 4.91 2.49
1.17 4.93 2.49
1.07 4.95 2.49
0.97 4.97 2.49
0.87 4.99 2.49
0.77 5.01 2.49
0.67 5.02 2.49
0.57 5.03 2.49
0.47 5.04 2.49
0.37 5.05 2.49
0.26 5.05 2.49
0.16 5.06 2.49
0.06 5.06 2.49
-0.04 5.06 2.49
-0.14 5.05 2.49
-0.24 5.05 2.49
-0.35 5.04 2.49
-0.45 5.03 2.49
-0.55 5.02 2.49
-0.65 5.01 2.49
-0.75 4.99 2.49
-0.85 4.98 2.49
-0.95 4.96 2.49
-1.05 4.94 2.49
-1.15 4.91 2.49
-1.24 4.89 2.49
-1.34 4.86 2.49
-1.44 4.83 2.49
-1.54 4.80 2.49
-1.63 4.77 2.49
-1.73 4.74 2.49
-1.82 4.70 2.49
-1.92 4.66 2.49
-2.01 4.62 2.49
-2.10 4.58 2.49
-2.19 4.54 2.49
-2.28 4.49 2.49
-2.37 4.44 2.49
-2.46 4.39 2.49
-2.55 4.34 2.49
-2.64 4.29 2.49
-2.72 4.24 2.49
-2.81 4.18 2.49
-2.89 4.12 2.49
-2.97 4.06 2.49
-3.05 4.00 2.49
-3.13 3.94 2.49
-3.21 3.87 2.49
-3.29 3.81 2.49
-3.36 3.74 2.49
-3.44 3.67 2.49
-3.51 3.60 2.49
-3.58 3.53 2.49
-3.65 3.46 2.49
-3.72 3.38 2.49
-3.79 3.31 2.49
-3.85 3.23 2.49
-3.92 3.15 2.49
-3.98 3.07 2.49
-4.04 2.99 2.49
-4.10 2.91 2.49
-4.16 2.83 2.49
-4.21 2.74 2.49
-4.27 2.66 2.49
-4.32 2.57 2.49
-4.37 2.48 2.49
-4.42 2.40 2.49
-4.47 2.31 2.49
-4.51 2.22 2.49
-4.56 2.13 2.49
-4.60 2.03 2.49
-4.64 1.94 2.49
-4.68 1.85 2.49
-4.71 1.75 2.49
-4.75 1.66 2.49
-4.78 1.56 2.49
-4.81 1.46 2.49
-4.84 1.37 2.49
-4.86 1.27 2.49
-4.89 1.17 2.49
-4.91 1.07 2.49
-4.93 0.97 2.49
-4.95 0.88 2.49
-4.97 0.78 2.49
-4.98 0.68 2.49
-5.00 0.58 2.49
-5.01 0.47 2.49
-5.02 0.37 2.49
-5.02 0.27 2.49
-5.03 0.17 2.49
-5.03 0.07 2.49
-5.03 -0.03 2.49
-5.03 -0.13 2.49
-5.03 -0.23 2.49
-5.02 -0.33 2.49
-5.02 -0.44 2.49
-5.01 -0.54 2.49
-5.00 -0.64 2.49
-4.98 -0.74 2.49
-4.97 -0.84 2.49
-4.95 -0.94 2.49
-4.93 -1.04 2.49
-4.91 -1.14 2.49
-4.89 -1.23 2.49
-4.86 -1.33 2.49
-4.84 -1.43 2.49
-4.81 -1.53 2.49
-4.78 -1.62 2.49
-4.74 -1.72 2.49
-4.71 -1.82 2.49
-4.67 -1.91 2.49
-4.63 -2.00 2.49
-4.59 -2.10 2.49
-4.55 -2.19 2.49
-4.51 -2.28 2.49
-4.46 -2.37 2.49
-4.41 -2.46 2.49
-4.36 -2.55 2.49
-4.31 -2.64 2.49
-4.26 -2.72 2.49
-4.20 -2.81 2.49
-4.15 -2.89 2.49
-4.09 -2.98 2.49
-4.03 -3.06 2.49
-3.97 -3.14 2.49
-3.91 -3.22 2.49
-3.84 -3.30 2.49
-3.77 -3.38 2.49
-3.71 -3.45 2.49
-3.64 -3.53 2.49
-3.57 -3.60 2.49
-3.49 -3.67 2.49
-3.42 -3.74 2.49
-3.35 -3.81 2.49
-3.27 -3.88 2.49
-3.19 -3.94 2.49
-3.11 -4.01 2.49
-3.03 -4.07 2.49
-2.95 -4.13 2.49
-2.87 -4.19 2.49
-2.78 -4.25 2.49
-2.70 -4.30 2.49
-2.61 -4.36 2.49
-2.52 -4.41 2.49
-2.44 -4.46 2.49
-2.35 -4.51 2.49
-2.26 -4.56 2.49
-2.16 -4.60 2.49
-2.07 -4.65 2.49
-1.98 -4.69 2.49
-1.88 -4.73 2.49
-1.79 -4.77 2.49
-1.69 -4.80 2.49
-1.60 -4.84 2.49
-1.50 -4.87 2.49
-1.40 -4.90 2.49
-1.30 -4.93 2.49
-1.21 -4.95 2.49
-1.11 -4.98 2.49
-1.01 -5.00 2.49
-0.91 -5.02 2.49
-0.81 -5.04 2.49
-0.70 -5.06 2.49
-0.60 -5.07 2.49
-0.50 -5.08 2.49
-0.40 -5.09 2.49
-0.30 -5.10 2.49
-0.19 -5.11 2.49
-0.09 -5.11 2.49
0.01 -4.83 2.49
0.11 -4.83 2.49
0.20 -4.83 2.49
0.30 -4.83 2.49
0.40 -4.82 2.49
0.49 -4.81 2.49
0.59 -4.80 2.49
0.69 -4.79 2.49
0.78 -4.78 2.49
0.88 -4.76 2.49
0.97 -4.74 2.49
1.07 -4.72 2.49
1.16 -4.70 2.49
1.26 -4.68 2.49
1.35 -4.65 2.49
1.41 -4.51 2.43
1.47 -4.41 2.39
1.56 -4.38 2.39
1.65 -4.35 2.39
1.74 -4.31 2.39
1.82 -4.28 2.39
1.91 -4.24 2.39
1.99 -4.20 2.39
2.08 -4.16 2.39
2.16 -4.12 2.39
2.24 -4.08 2.39
2.32 -4.03 2.39
2.41 -3.98 2.39
2.49 -3.94 2.39
2.56 -3.88 2.39
2.64 -3.83 2.39
2.72 -3.78 2.39
2.79 -3.73 2.39
2.87 -3.67 2.39
2.94 -3.61 2.39
3.01 -3.55 2.39
3.08 -3.49 2.39
3.15 -3.43 2.39
3.22 -3.37 2.39
3.29 -3.30 2.39
3.35 -3.23 2.39
3.42 -3.17 2.39
3.48 -3.10 2.39
3.54 -3.03 2.39
3.60 -2.96 2.39
3.66 -2.88 2.39
3.72 -2.81 2.39
3.77 -2.73 2.39
3.83 -2.66 2.39
3.88 -2.58 2.39
3.93 -2.50 2.39
3.98 -2.42 2.39
4.03 -2.34 2.39
4.08 -2.26 2.39
4.12 -2.18 2.39
4.16 -2.10 2.39
4.20 -2.01 2.39
4.24 -1.93 2.39
4.28 -1.84 2.39
4.32 -1.76 2.39
4.35 -1.67 2.39
4.38 -1.58 2.39
4.41 -1.50 2.39
4.44 -1.41 2.39
4.47 -1.32 2.39
4.50 -1.23 2.39
4.52 -1.14 2.39
4.54 -1.05 2.39
4.56 -0.95 2.39
4.58 -0.86 2.39
4.59 -0.77 2.39
4.61 -0.68 2.39
4.62 -0.59 2.39
4.63 -0.49 2.39
4.64 -0.40 2.39
4.65 -0.31 2.39
4.65 -0.21 2.39
4.65 -0.12 2.39
4.66 -0.03 2.39
4.65 0.06 2.39
2.38 0.08 1.22
2.27 0.12 1.17
2.22 0.16 1.14
2.18 0.21 1.12
2.15 0.25 1.11
2.13 0.29 1.11
2.12 0.33 1.10
2.11 0.37 1.10
2.11 0.41 1.11
2.11 0.46 1.11
2.12 0.51 1.12
2.14 0.56 1.14
2.17 0.61 1.16
2.24 0.68 1.20
4.42 1.44 2.39
4.39 1.52 2.39
4.36 1.61 2.39
4.32 1.70 2.39
4.29 1.78 2.39
4.25 1.87 2.39
4.21 1.95 2.39
4.17 2.04 2.39
4.13 2.12 2.39
4.08 2.20 2.39
4.04 2.28 2.39
3.99 2.36 2.39
3.94 2.44 2.39
3.89 2.52 2.39
3.84 2.60 2.39
3.78 2.67 2.39
3.73 2.75 2.39
3.67 2.82 2.39
3.61 2.89 2.39
3.55 2.97 2.39
3.49 3.04 2.39
3.43 3.10 2.39
3.37 3.17 2.39
3.30 3.24 2.39
3.24 3.30 2.39
3.17 3.37 2.39
3.10 3.43 2.39
3.03 3.49 2.39
2.96 3.55 2.39
2.89 3.61 2.39
2.81 3.66 2.39
2.74 3.72 2.39
2.66 3.77 2.39
2.58 3.82 2.39
2.51 3.87 2.39
2.43 3.92 2.39
2.35 3.97 2.39
2.27 4.01 2.39
2.19 4.06 2.39
2.10 4.10 2.39
2.02 4.14 2.39
1.94 4.18 2.39
1.87 4.25 2.41
1.84 4.44 2.49
1.75 4.47 2.49
1.66 4.50 2.49
1.57 4.54 2.49
1.48 4.57 2.49
1.39 4.59 2.49
1.29 4.62 2.49
1.20 4.64 2.49
1.11 4.66 2.49
1.01 4.69 2.49
0.92 4.70 2.49
0.82 4.72 2.49
0.73 4.73 2.49
0.63 4.75 2.49
0.54 4.76 2.49
0.44 4.77 2.49
0.35 4.77 2.49
0.25 4.78 2.49
0.15 4.78 2.49
0.06 4.78 2.49
-0.04 4.78 2.49
-0.13 4.78 2.49
-0.23 4.78 2.49
-0.33 4.77 2.49
-0.42 4.76 2.49
-0.52 4.75 2.49
-0.61 4.74 2.49
-0.71 4.72 2.49
-0.80 4.71 2.49
-0.90 4.69 2.49
-0.99 4.67 2.49
-1.08 4.65 2.49
-1.18 4.62 2.49
-1.27 4.60 2.49
-1.36 4.57 2.49
-1.45 4.54 2.49
-1.54 4.51 2.49
-1.63 4.48 2.49
-1.72 4.45 2.49
-1.81 4.41 2.49
-1.90 4.37 2.49
-1.99 4.33 2.49
-2.07 4.29 2.49
-2.16 4.25 2.49
-2.24 4.20 2.49
-2.33 4.16 2.49
-2.41 4.11 2.49
-2.49 4.06 2.49
-2.57 4.01 2.49
-2.65 3.95 2.49
-2.73 3.90 2.49
-2.81 3.84 2.49
-2.89 3.78 2.49
-2.96 3.73 2.49
-3.03 3.67 2.49
-3.11 3.60 2.49
-3.18 3.54 2.49
-3.25 3.47 2.49
-3.32 3.41 2.49
-3.39 3.34 2.49
-3.45 3.27 2.49
-3.52 3.20 2.49
-3.58 3.13 2.49
-3.64 3.06 2.49
-3.70 2.98 2.49
-3.76 2.91 2.49
-3.82 2.83 2.49
-3.88 2.75 2.49
-3.93 2.67 2.49
-3.98 2.60 2.49
-4.04 2.51 2.49
-4.08 2.43 2.49
-4.13 2.35 2.49
-4.18 2.27 2.49
-4.22 2.18 2.49
-4.27 2.10 2.49
-4.31 2.01 2.49
-4.35 1.92 2.49
-4.39 1.84 2.49
-4.42 1.75 2.49
-4.46 1.66 2.49
-4.49 1.57 2.49
-4.52 1.48 2.49
-4.55 1.39 2.49
-4.58 1.29 2.49
-4.60 1.20 2.49
-4.62 1.11 2.49
-4.65 1.02 2.49
-4.67 0.92 2.49
-4.68 0.83 2.49
-4.70 0.73 2.49
-4.71 0.64 2.49
-4.73 0.54 2.49
-4.74 0.45 2.49
-4.75 0.35 2.49
-4.75 0.26 2.49
-4.76 0.16 2.49
-4.76 0.07 2.49
-4.76 -0.03 2.49
-4.76 -0.13 2.49
-4.76 -0.22 2.49
-4.75 -0.32 2.49
-4.74 -0.41 2.49
-4.74 -0.51 2.49
-4.73 -0.60 2.49
-4.71 -0.70 2.49
-4.70 -0.79 2.49
-4.68 -0.89 2.49
-4.66 -0.98 2.49
-4.64 -1.07 2.49
-4.62 -1.17 2.49
-4.60 -1.26 2.49
-4.57 -1.35 2.49
-4.55 -1.45 2.49
-4.52 -1.54 2.49
-4.49 -1.63 2.49
-4.45 -1.72 2.49
-4.42 -1.81 2.49
-4.38 -1.90 2.49
-4.34 -1.98 2.49
-4.30 -2.07 2.49
-4.26 -2.16 2.49
-4.22 -2.24 2.49
-4.17 -2.33 2.49
-4.13 -2.41 2.49
-4.08 -2.49 2.49
-4.03 -2.58 2.49
-3.98 -2.66 2.49
-3.92 -2.74 2.49
-3.87 -2.82 2.49
-3.81 -2.89 2.49
-3.75 -2.97 2.49
-3.69 -3.05 2.49
-3.63 -3.12 2.49
-3.57 -3.19 2.49
-3.50 -3.27 2.49
-3.44 -3.34 2.49
-3.37 -3.40 2.49
-3.30 -3.47 2.49
-3.23 -3.54 2.49
-3.16 -3.60 2.49
-3.09 -3.67 2.49
-3.02 -3.73 2.49
-2.94 -3.79 2.49
-2.87 -3.85 2.49
-2.79 -3.91 2.49
-2.71 -3.96 2.49
-2.63 -4.02 2.49
-2.55 -4.07 2.49
-2.47 -4.12 2.49
-2.39 -4.17 2.49
-2.30 -4.22 2.49
-2.22 -4.27 2.49
-2.13 -4.31 2.49
-2.05 -4.35 2.49
-1.96 -4.39 2.49
-1.87 -4.43 2.49
-1.78 -4.47 2.49
-1.69 -4.51 2.49
-1.60 -4.54 2.49
-1.51 -4.57 2.49
-1.42 -4.60 2.49
-1.33 -4.63 2.49
-1.23 -4.66 2.49
-1.14 -4.68 2.49
-1.05 -4.71 2.49
-0.95 -4.73 2.49
-0.86 -4.75 2.49
-0.76 -4.76 2.49
-0.67 -4.78 2.49
-0.57 -4.79 2.49
-0.47 -4.80 2.49
-0.38 -4.81 2.49
-0.28 -4.82 2.49
-0.18 -4.83 2.49
-0.09 -4.83 2.49
0.01 -4.58 2.49
0.10 -4.58 2.49
0.19 -4.57 2.49
0.29 -4.57 2.49
0.38 -4.57 2.49
0.47 -4.56 2.49
0.56 -4.55 2.49
0.65 -4.54 2.49
0.74 -4.52 2.49
0.83 -4.51 2.49
0.92 -4.49 2.49
1.01 -4.47 2.49
1.10 -4.45 2.49
1.19 -4.43 2.49
1.28 -4.41 2.49
1.37 -4.38 2.49
1.42 -4.25 2.44
1.48 -4.14 2.39
1.56 -4.11 2.39
1.65 -4.08 2.39
1.73 -4.05 2.39
1.81 -4.01 2.39
1.89 -3.98 2.39
1.97 -3.94 2.39
2.05 -3.90 2.39
2.12 -3.86 2.39
2.20 -3.82 2.39
2.28 -3.77 2.39
2.35 -3.73 2.39
2.43 -3.68 2.39
2.50 -3.63 2.39
2.57 -3.58 2.39
2.65 -3.53 2.39
2.72 -3.47 2.39
2.78 -3.42 2.39
2.85 -3.36 2.39
2.92 -3.31 2.39
2.99 -3.25 2.39
3.05 -3.19 2.39
3.11 -3.12 2.39
3.18 -3.06 2.39
3.24 -3.00 2.39
3.30 -2.93 2.39
3.35 -2.87 2.39
3.41 -2.80 2.39
3.47 -2.73 2.39
3.52 -2.66 2.39
3.57 -2.59 2.39
3.63 -2.52 2.39
3.67 -2.44 2.39
3.72 -2.37 2.39
3.77 -2.30 2.39
3.82 -2.22 2.39
3.86 -2.14 2.39
3.90 -2.06 2.39
3.94 -1.99 2.39
3.98 -1.91 2.39
4.02 -1.83 2.39
4.05 -1.75 2.39
4.09 -1.66 2.39
4.12 -1.58 2.39
4.15 -1.50 2.39
4.18 -1.42 2.39
4.21 -1.33 2.39
4.23 -1.25 2.39
4.26 -1.16 2.39
4.28 -1.08 2.39
4.30 -0.99 2.39
4.32 -0.90 2.39
4.34 -0.82 2.39
4.35 -0.73 2.39
4.36 -0.64 2.39
4.38 -0.56 2.39
4.39 -0.47 2.39
4.39 -0.38 2.39
4.40 -0.29 2.39
4.40 -0.20 2.39
4.41 -0.12 2.39
4.41 -0.03 2.39
4.41 0.06 2.39
2.38 0.08 1.29
2.27 0.12 1.23
2.22 0.16 1.21
2.18 0.21 1.19
2.15 0.25 1.18
2.13 0.29 1.17
2.12 0.33 1.16
2.11 0.37 1.16
2.11 0.41 1.17
2.11 0.46 1.17
2.12 0.51 1.18
2.14 0.56 1.20
2.17 0.61 1.23
2.24 0.68 1.27
4.18 1.36 2.39
4.15 1.44 2.39
4.12 1.53 2.39
4.09 1.61 2.39
4.06 1.69 2.39
4.02 1.77 2.39
3.99 1.85 2.39
3.95 1.93 2.39
3.91 2.01 2.39
3.87 2.09 2.39
3.82 2.16 2.39
3.78 2.24 2.39
3.73 2.31 2.39
3.68 2.39 2.39
3.63 2.46 2.39
3.58 2.53 2.39
3.53 2.60 2.39
3.48 2.67 2.39
3.42 2.74 2.39
3.37 2.81 2.39
3.31 2.87 2.39
3.25 2.94 2.39
3.19 3.00 2.39
3.13 3.07 2.39
3.07 3.13 2.39
3.00 3.19 2.39
2.94 3.25 2.39
2.87 3.30 2.39
2.80 3.36 2.39
2.73 3.42 2.39
2.66 3.47 2.39
2.59 3.52 2.39
2.52 3.57 2.39
2.45 3.62 2.39
2.38 3.67 2.39
2.30 3.71 2.39
2.23 3.76 2.39
2.15 3.80 2.39
2.07 3.84 2.39
1.99 3.88 2.39
1.91 3.92 2.39
1.85 4.00 2.41
1.83 4.17 2.49
1.75 4.20 2.49
1.66 4.23 2.49
1.58 4.27 2.49
1.49 4.30 2.49
1.40 4.32 2.49
1.32 4.35 2.49
1.23 4.37 2.49
1.14 4.40 2.49
1.05 4.42 2.49
0.96 4.44 2.49
0.87 4.46 2.49
0.78 4.47 2.49
0.69 4.49 2.49
0.60 4.50 2.49
0.51 4.51 2.49
0.42 4.52 2.49
0.33 4.52 2.49
0.24 4.53 2.49
0.15 4.53 2.49
0.06 4.53 2.49
-0.04 4.53 2.49
-0.13 4.53 2.49
-0.22 4.52 2.49
-0.31 4.52 2.49
-0.40 4.51 2.49
-0.49 4.50 2.49
-0.58 4.49 2.49
-0.67 4.48 2.49
-0.76 4.46 2.49
-0.85 4.44 2.49
-0.94 4.42 2.49
-1.03 4.40 2.49
-1.11 4.38 2.49
-1.20 4.36 2.49
-1.29 4.33 2.49
-1.38 4.30 2.49
-1.46 4.28 2.49
-1.55 4.24 2.49
-1.63 4.21 2.49
-1.72 4.18 2.49
-1.80 4.14 2.49
-1.88 4.10 2.49
-1.96 4.06 2.49
-2.05 4.02 2.49
-2.13 3.98 2.49
