ply
format ascii 1.0
element vertex 2956
property float32 x
property float32 y
property float32 z
end_header
2.69 2.07 0.60
5.84 4.68 1.33
5.84 4.87 1.35
5.84 5.07 1.38
5.84 5.28 1.40
5.84 5.50 1.43
5.84 5.73 1.46
5.83 5.95 1.49
5.84 6.20 1.53
5.84 6.46 1.56
5.83 6.73 1.60
5.83 7.00 1.64
5.83 7.30 1.68
5.83 7.61 1.73
5.83 7.93 1.78
5.83 8.27 1.83
5.83 8.63 1.89
5.83 9.02 1.95
5.83 9.43 2.01
5.83 9.86 2.08
5.78 10.25 2.14
11.01 20.49 4.24
5.98 11.69 2.39
5.74 11.79 2.39
5.50 11.90 2.39
5.08 11.60 2.31
5.01 12.09 2.39
4.76 12.18 2.39
4.51 12.27 2.39
4.26 12.35 2.39
4.01 12.43 2.39
3.75 12.50 2.39
3.50 12.56 2.39
3.25 12.63 2.39
2.99 12.68 2.39
2.73 12.74 2.39
2.47 12.79 2.39
2.23 12.93 2.41
2.02 13.31 2.47
1.77 13.46 2.50
1.50 13.49 2.50
1.23 13.52 2.50
0.95 13.54 2.50
0.68 13.56 2.50
0.41 13.57 2.50
0.13 13.57 2.50
-0.14 13.58 2.50
-0.41 13.57 2.50
-0.69 13.56 2.50
-0.96 13.55 2.50
-1.23 13.53 2.50
-1.51 13.51 2.50
-1.78 13.48 2.50
-2.05 13.45 2.50
-2.32 13.41 2.50
-2.59 13.37 2.50
-2.86 13.32 2.50
-3.13 13.27 2.50
-3.40 13.21 2.50
-3.67 13.15 2.50
-3.93 13.08 2.50
-4.20 13.01 2.50
-4.46 12.93 2.50
-4.73 12.85 2.50
-4.99 12.76 2.50
-5.25 12.67 2.50
-5.51 12.58 2.50
-5.77 12.47 2.50
-6.02 12.36 2.49
-6.03 11.77 2.40
-6.26 11.64 2.39
-6.50 11.52 2.39
-6.74 11.40 2.39
-6.98 11.28 2.39
-7.21 11.15 2.39
-7.44 11.02 2.39
-7.67 10.88 2.39
-7.90 10.74 2.39
-8.13 10.59 2.39
-8.35 10.44 2.39
-8.57 10.29 2.39
-8.79 10.13 2.39
-7.34 8.12 1.95
-7.33 7.79 1.90
-7.49 7.64 1.90
-7.82 7.67 1.94
-9.84 9.27 2.39
-9.87 8.92 2.35
-9.87 8.57 2.31
-9.86 8.23 2.26
-9.86 7.89 2.22
-9.86 7.57 2.18
-10.09 7.43 2.19
-10.16 7.17 2.17
-10.52 7.12 2.22
-10.82 7.00 2.25
-11.14 6.90 2.28
-11.95 7.07 2.41
-12.11 6.84 2.41
-12.27 6.61 2.41
-11.88 6.09 2.30
-12.00 5.85 2.30
-12.11 5.61 2.29
-12.22 5.36 2.29
-12.33 5.12 2.28
-12.43 4.87 2.28
-12.53 4.62 2.27
-12.62 4.37 2.27
-12.71 4.12 2.27
-12.79 3.86 2.26
-12.87 3.60 2.26
-12.95 3.35 2.25
-13.02 3.09 2.25
-13.09 2.83 2.25
-13.16 2.57 2.24
-13.22 2.30 2.24
-13.27 2.04 2.24
-9.47 1.26 1.59
-9.75 1.10 1.63
-9.62 0.89 1.60
-9.47 0.69 1.57
-10.06 0.53 1.66
-14.52 0.47 2.39
-13.58 0.16 2.23
-13.60 -0.11 2.22
-13.63 -0.38 2.22
-13.64 -0.66 2.22
-13.66 -0.93 2.22
-13.66 -1.21 2.22
-13.67 -1.49 2.22
-13.67 -1.77 2.22
-13.66 -2.04 2.22
-13.65 -2.32 2.22
-13.64 -2.60 2.22
-13.62 -2.88 2.22
-13.60 -3.17 2.23
-13.57 -3.45 2.23
-13.54 -3.73 2.23
-13.50 -4.01 2.23
-13.46 -4.30 2.23
-13.98 -4.77 2.33
-13.80 -5.02 2.31
-13.61 -5.26 2.29
-13.52 -5.54 2.29
-13.47 -5.84 2.29
-13.42 -6.14 2.30
-9.50 -4.58 1.64
-9.33 -4.73 1.62
-9.33 -4.97 1.64
-10.55 -5.89 1.87
-10.54 -6.17 1.88
-10.62 -6.51 1.92
-10.63 -6.81 1.94
-10.86 -7.27 2.00
-10.58 -7.39 1.97
-10.57 -7.70 2.00
-10.53 -8.00 2.01
-10.54 -8.34 2.04
-9.95 -8.21 1.96
-9.81 -8.43 1.96
-9.82 -8.78 1.99
-9.82 -9.14 2.03
-9.82 -9.52 2.06
-9.82 -9.91 2.10
-9.82 -10.31 2.14
-9.82 -10.73 2.18
-9.81 -11.17 2.23
-9.81 -11.63 2.28
-9.81 -12.11 2.33
-9.81 -12.62 2.38
-9.61 -12.88 2.39
-9.36 -13.09 2.39
-9.11 -13.29 2.39
-8.85 -13.49 2.39
-8.59 -13.68 2.39
-8.33 -13.87 2.39
-8.06 -14.05 2.39
-7.78 -14.22 2.39
-7.50 -14.39 2.39
-7.22 -14.56 2.39
-6.94 -14.71 2.39
-6.65 -14.86 2.39
-6.35 -15.01 2.39
-6.06 -15.14 2.39
-5.95 -15.77 2.47
-5.69 -16.06 2.50
-5.37 -16.18 2.50
-5.05 -16.30 2.50
-4.72 -16.41 2.50
-4.40 -16.51 2.50
-4.07 -16.60 2.50
-3.74 -16.68 2.50
-3.40 -16.76 2.50
-3.07 -16.83 2.50
-2.73 -16.90 2.50
-2.39 -16.95 2.50
-2.05 -17.00 2.50
-1.71 -17.04 2.50
-1.37 -17.07 2.50
-1.03 -17.10 2.50
-0.69 -17.11 2.50
-0.35 -17.12 2.50
-0.00 -14.78 2.50
0.29 -14.78 2.50
0.59 -14.77 2.50
0.88 -14.75 2.50
1.18 -14.72 2.50
1.47 -14.69 2.50
1.76 -14.65 2.50
2.06 -14.61 2.50
2.25 -13.96 2.39
2.53 -13.90 2.39
2.80 -13.84 2.39
3.08 -13.77 2.39
3.35 -13.70 2.39
3.62 -13.62 2.39
3.89 -13.54 2.39
4.16 -13.44 2.39
4.42 -13.35 2.39
4.68 -13.25 2.39
4.94 -13.14 2.39
5.20 -13.02 2.39
5.46 -12.90 2.39
5.71 -12.78 2.39
5.96 -12.65 2.39
5.83 -11.20 2.17
5.89 -10.78 2.11
5.89 -10.28 2.04
5.89 -9.82 1.97
5.89 -9.38 1.91
5.88 -8.98 1.85
5.88 -8.60 1.80
5.88 -8.24 1.75
5.88 -7.90 1.71
5.88 -7.57 1.66
5.88 -7.27 1.62
5.88 -6.97 1.59
5.88 -6.70 1.55
5.88 -6.43 1.52
5.88 -6.18 1.49
5.83 -5.89 1.45
5.87 -5.70 1.44
5.87 -5.48 1.41
5.87 -5.26 1.39
5.87 -5.05 1.37
5.87 -4.85 1.35
5.87 -4.65 1.33
5.87 -4.46 1.31
5.87 -4.28 1.29
5.87 -4.10 1.27
5.87 -3.93 1.26
5.87 -3.76 1.24
5.87 -3.60 1.23
5.87 -3.44 1.22
5.87 -3.28 1.21
5.87 -3.13 1.20
5.87 -2.98 1.19
5.86 -2.83 1.18
5.86 -2.69 1.17
5.86 -2.55 1.16
4.06 -1.67 0.80
3.98 -1.54 0.78
3.96 -1.44 0.77
3.97 -1.36 0.77
4.00 -1.28 0.77
4.06 -1.21 0.78
4.15 -1.15 0.79
5.86 -1.49 1.11
5.86 -1.37 1.11
5.86 -1.24 1.11
5.86 -1.12 1.11
5.86 -1.00 1.10
5.86 -0.88 1.10
5.86 -0.76 1.10
5.86 -0.64 1.10
5.86 -0.52 1.10
5.86 -0.40 1.10
5.86 -0.29 1.10
5.86 -0.17 1.10
5.86 -0.05 1.11
5.86 0.07 1.11
5.86 0.19 1.11
5.86 0.30 1.11
5.85 0.42 1.12
5.85 0.54 1.12
5.85 0.66 1.13
5.85 0.78 1.13
5.85 0.90 1.14
5.85 1.02 1.14
5.85 1.14 1.15
5.85 1.26 1.16
5.85 1.39 1.16
5.85 1.51 1.17
5.85 1.64 1.18
5.85 1.76 1.19
5.85 1.89 1.20
5.79 2.00 1.20
5.85 2.16 1.22
5.85 2.29 1.23
5.85 2.43 1.24
5.85 2.57 1.26
5.85 2.71 1.27
5.85 2.85 1.28
5.85 3.00 1.30
5.85 3.15 1.32
5.85 3.30 1.33
5.85 3.46 1.35
5.84 3.62 1.37
5.84 3.78 1.39
5.84 3.95 1.41
5.84 4.12 1.43
2.69 1.98 0.67
2.69 2.06 0.68
5.84 4.67 1.50
5.84 4.87 1.53
5.84 5.07 1.56
5.84 5.28 1.59
5.84 5.50 1.62
5.84 5.72 1.65
5.83 5.95 1.69
5.84 6.20 1.73
5.84 6.46 1.77
5.84 6.72 1.81
5.83 7.00 1.85
5.83 7.29 1.90
5.83 7.60 1.95
5.83 7.93 2.01
5.83 8.27 2.07
5.81 8.60 2.12
5.77 8.93 2.18
11.05 17.87 4.30
5.93 10.04 2.39
5.72 10.15 2.39
5.51 10.26 2.39
5.30 10.36 2.39
5.09 10.45 2.39
4.87 10.55 2.39
4.66 10.64 2.39
4.44 10.72 2.39
4.22 10.80 2.39
4.00 10.88 2.39
3.78 10.95 2.39
3.55 11.02 2.39
3.33 11.08 2.39
3.11 11.14 2.39
2.88 11.20 2.39
2.65 11.25 2.39
2.42 11.30 2.39
2.20 11.34 2.39
2.03 11.74 2.47
1.81 11.91 2.50
1.57 11.94 2.50
1.33 11.97 2.50
1.09 11.99 2.50
0.85 12.01 2.50
0.60 12.03 2.50
0.36 12.04 2.50
0.12 12.04 2.50
-0.12 12.04 2.50
-0.37 12.04 2.50
-0.61 12.03 2.50
-0.85 12.02 2.50
-1.09 12.00 2.50
-1.34 11.98 2.50
-1.58 11.96 2.50
-1.82 11.93 2.50
-2.06 11.89 2.50
-2.30 11.86 2.50
-2.54 11.81 2.50
-2.78 11.77 2.50
-3.02 11.71 2.50
-3.25 11.66 2.50
-3.49 11.60 2.50
-3.73 11.53 2.50
-3.96 11.46 2.50
-4.19 11.39 2.50
-4.42 11.31 2.50
-4.66 11.23 2.50
-4.88 11.14 2.50
-5.11 11.05 2.50
-5.34 10.96 2.50
-5.56 10.86 2.50
-5.79 10.75 2.50
-6.01 10.64 2.50
-6.02 10.18 2.41
-6.18 9.99 2.39
-6.39 9.87 2.39
-6.59 9.75 2.39
-6.79 9.63 2.39
-6.99 9.50 2.39
-7.19 9.37 2.39
-7.39 9.23 2.39
-7.58 9.10 2.39
-7.78 8.95 2.39
-7.97 8.81 2.39
-7.35 7.81 2.16
-7.51 7.66 2.16
-8.52 8.35 2.39
-8.70 8.18 2.39
-8.87 8.02 2.39
-9.05 7.85 2.39
-9.22 7.68 2.39
-9.38 7.51 2.39
-9.55 7.33 2.39
-9.71 7.14 2.39
-9.87 6.96 2.39
-10.09 6.82 2.41
-10.24 6.62 2.41
-10.39 6.43 2.41
-10.54 6.23 2.41
-10.49 5.92 2.37
-10.61 5.71 2.36
-10.72 5.49 2.36
-10.82 5.27 2.35
-10.92 5.05 2.35
-11.02 4.83 2.34
-11.12 4.61 2.34
-11.21 4.39 2.33
-11.30 4.16 2.33
-11.38 3.93 2.33
-11.46 3.71 2.32
-11.54 3.48 2.32
-11.61 3.25 2.32
-11.68 3.01 2.31
-11.75 2.78 2.31
-11.81 2.55 2.31
-11.87 2.31 2.30
-11.92 2.07 2.30
-11.97 1.84 2.30
-9.48 1.26 1.81
-9.50 1.07 1.81
-9.50 0.88 1.80
-9.48 0.68 1.79
-10.14 0.52 1.91
-12.82 0.41 2.41
-12.22 0.14 2.29
-12.24 -0.10 2.29
-12.26 -0.35 2.28
-12.27 -0.60 2.28
-12.28 -0.84 2.28
-12.28 -1.09 2.28
-12.29 -1.34 2.28
-12.28 -1.59 2.28
-12.28 -1.84 2.28
-12.27 -2.09 2.29
-12.25 -2.34 2.29
-12.23 -2.60 2.29
-12.21 -2.85 2.29
-12.18 -3.10 2.29
-12.15 -3.35 2.29
-12.11 -3.60 2.29
-12.07 -3.86 2.29
-12.03 -4.11 2.30
-11.98 -4.36 2.30
-12.48 -4.83 2.41
-12.40 -5.09 2.41
-12.32 -5.35 2.41
-12.23 -5.60 2.41
-9.53 -4.60 1.89
-9.36 -4.75 1.87
-9.60 -5.12 1.94
-9.87 -5.52 2.01
-9.83 -5.76 2.02
-9.83 -6.02 2.04
-9.83 -6.30 2.06
-9.83 -6.58 2.09
-9.83 -6.87 2.11
-9.83 -7.16 2.14
-9.83 -7.47 2.17
-9.82 -7.78 2.20
-9.82 -8.11 2.23
-9.82 -8.44 2.26
-9.82 -8.79 2.30
-9.82 -9.15 2.34
-9.82 -9.52 2.38
-9.70 -9.79 2.39
-9.52 -10.00 2.39
-9.33 -10.20 2.39
-9.13 -10.40 2.39
-8.94 -10.60 2.39
-8.73 -10.79 2.39
-8.53 -10.97 2.39
-8.31 -11.16 2.39
-8.10 -11.33 2.39
-7.88 -11.51 2.39
-7.66 -11.68 2.39
-7.43 -11.84 2.39
-7.20 -12.00 2.39
-6.97 -12.15 2.39
-6.73 -12.30 2.39
-6.49 -12.44 2.39
-6.24 -12.58 2.39
-5.99 -12.72 2.39
-5.93 -13.26 2.47
-5.73 -13.53 2.50
-5.46 -13.65 2.50
-5.19 -13.76 2.50
-4.91 -13.87 2.50
-4.64 -13.98 2.50
-4.36 -14.08 2.50
-4.08 -14.17 2.50
-3.80 -14.25 2.50
-3.51 -14.33 2.50
-3.23 -14.41 2.50
-2.94 -14.47 2.50
-2.65 -14.53 2.50
-2.36 -14.59 2.50
-2.07 -14.63 2.50
-1.77 -14.68 2.50
-1.48 -14.71 2.50
-1.18 -14.74 2.50
-0.89 -14.76 2.50
-0.59 -14.77 2.50
-0.30 -14.78 2.50
-0.00 -12.99 2.50
0.26 -12.99 2.50
0.52 -12.98 2.50
0.78 -12.96 2.50
1.03 -12.94 2.50
1.29 -12.91 2.50
1.55 -12.88 2.50
1.81 -12.84 2.50
2.06 -12.80 2.50
2.22 -12.22 2.39
2.46 -12.17 2.39
2.71 -12.11 2.39
2.95 -12.05 2.39
3.18 -11.98 2.39
3.42 -11.91 2.39
3.66 -11.83 2.39
3.89 -11.74 2.39
4.12 -11.65 2.39
4.35 -11.56 2.39
4.58 -11.46 2.39
4.80 -11.36 2.39
5.02 -11.25 2.39
5.24 -11.14 2.39
5.46 -11.02 2.39
5.67 -10.90 2.39
5.88 -10.77 2.39
6.09 -10.64 2.39
5.83 -9.30 2.15
5.88 -8.98 2.10
5.88 -8.60 2.04
5.88 -8.24 1.99
5.88 -7.90 1.94
5.88 -7.58 1.89
5.88 -7.27 1.84
5.88 -6.98 1.80
5.88 -6.70 1.76
5.88 -6.44 1.72
5.88 -6.18 1.69
5.83 -5.89 1.64
5.87 -5.70 1.63
5.87 -5.48 1.60
5.87 -5.26 1.57
5.87 -5.05 1.55
5.87 -4.85 1.52
5.87 -4.66 1.50
5.87 -4.47 1.48
5.87 -4.28 1.46
5.87 -4.11 1.44
5.87 -3.93 1.42
5.87 -3.76 1.41
5.87 -3.60 1.39
5.87 -3.44 1.38
5.87 -3.28 1.36
5.87 -3.13 1.35
5.87 -2.98 1.34
5.86 -2.83 1.33
5.86 -2.69 1.32
5.86 -2.55 1.31
3.99 -1.64 0.88
3.93 -1.53 0.87
3.92 -1.43 0.86
3.93 -1.35 0.86
3.96 -1.27 0.86
4.01 -1.20 0.87
4.10 -1.13 0.88
4.29 -1.09 0.92
5.86 -1.37 1.25
5.86 -1.25 1.25
5.86 -1.12 1.25
5.86 -1.00 1.24
5.86 -0.88 1.24
5.86 -0.76 1.24
5.86 -0.64 1.24
5.86 -0.52 1.24
5.86 -0.41 1.24
5.86 -0.29 1.24
5.86 -0.17 1.24
5.86 -0.05 1.24
5.86 0.07 1.25
5.86 0.18 1.25
5.86 0.30 1.25
5.85 0.42 1.26
5.85 0.54 1.26
5.85 0.66 1.26
5.85 0.77 1.27
5.85 0.89 1.28
5.85 1.02 1.28
5.85 1.14 1.29
5.85 1.26 1.30
5.85 1.38 1.30
5.85 1.51 1.31
5.85 1.63 1.32
5.85 1.76 1.33
5.85 1.89 1.34
5.79 2.00 1.34
5.85 2.15 1.37
5.85 2.29 1.38
5.85 2.42 1.39
5.85 2.56 1.41
5.85 2.70 1.42
5.85 2.85 1.44
5.85 2.99 1.45
5.85 3.14 1.47
5.85 3.30 1.49
5.85 3.45 1.51
5.84 3.61 1.53
5.84 3.78 1.55
5.84 3.95 1.57
5.84 4.12 1.60
2.70 1.98 0.75
2.69 2.06 0.76
5.84 4.67 1.68
5.84 4.87 1.71
5.84 5.07 1.74
5.84 5.28 1.77
5.84 5.49 1.81
5.84 5.72 1.85
5.83 5.95 1.88
5.84 6.20 1.93
5.84 6.45 1.97
5.84 6.72 2.02
5.83 7.00 2.07
5.83 7.29 2.12
5.78 7.52 2.16
6.05 8.58 2.39
5.87 8.69 2.39
5.69 8.80 2.39
5.51 8.90 2.39
5.32 9.01 2.39
5.14 9.10 2.39
4.95 9.20 2.39
4.76 9.29 2.39
4.57 9.38 2.39
4.38 9.46 2.39
4.18 9.54 2.39
3.99 9.62 2.39
3.79 9.69 2.39
3.59 9.76 2.39
3.39 9.83 2.39
3.19 9.89 2.39
2.99 9.95 2.39
2.79 10.00 2.39
2.59 10.05 2.39
2.38 10.10 2.39
2.18 10.14 2.39
2.03 10.49 2.47
1.84 10.66 2.50
1.63 10.69 2.50
1.41 10.72 2.50
1.19 10.75 2.50
0.98 10.77 2.50
0.76 10.78 2.50
0.54 10.80 2.50
0.32 10.81 2.50
0.11 10.81 2.50
-0.11 10.81 2.50
-0.33 10.81 2.50
-0.55 10.80 2.50
-0.77 10.79 2.50
-0.98 10.78 2.50
-1.20 10.76 2.50
-1.42 10.73 2.50
-1.63 10.71 2.50
-1.85 10.68 2.50
-2.07 10.64 2.50
-2.28 10.60 2.50
-2.49 10.56 2.50
-2.71 10.51 2.50
-2.92 10.46 2.50
-3.13 10.41 2.50
-3.34 10.35 2.50
-3.55 10.28 2.50
-3.76 10.22 2.50
-3.97 10.15 2.50
-4.18 10.07 2.50
-4.38 9.99 2.50
-4.59 9.91 2.50
-4.79 9.82 2.50
-4.99 9.73 2.50
-5.19 9.64 2.50
-5.39 9.54 2.50
-5.58 9.44 2.50
-5.78 9.34 2.50
-5.97 9.23 2.50
-6.01 8.89 2.43
-6.09 8.63 2.39
-6.27 8.51 2.39
-6.45 8.39 2.39
-6.62 8.27 2.39
-6.79 8.14 2.39
-6.97 8.02 2.39
-7.13 7.88 2.39
-7.30 7.75 2.39
-7.46 7.61 2.39
-7.63 7.47 2.39
-7.79 7.32 2.39
-7.94 7.17 2.39
-8.10 7.02 2.39
-8.25 6.87 2.39
-8.40 6.71 2.39
-8.54 6.55 2.39
-8.68 6.38 2.39
-8.82 6.22 2.39
-8.96 6.05 2.39
-9.09 5.88 2.39
-9.22 5.70 2.39
-9.35 5.52 2.39
-9.48 5.34 2.39
-9.60 5.16 2.39
-9.71 4.97 2.39
-9.83 4.78 2.39
-9.94 4.59 2.39
-10.03 4.39 2.39
-10.12 4.19 2.39
-10.20 3.99 2.38
-10.28 3.78 2.38
-10.36 3.58 2.37
-10.43 3.37 2.37
-10.50 3.16 2.37
-10.57 2.95 2.36
-10.63 2.74 2.36
-10.69 2.53 2.36
-10.75 2.31 2.36
-10.80 2.10 2.35
-10.85 1.88 2.35
-10.89 1.66 2.35
-9.48 1.25 2.04
-9.50 1.06 2.03
-9.50 0.87 2.02
-9.48 0.68 2.01
-11.38 0.58 2.41
-11.42 0.36 2.41
-11.11 0.12 2.34
-11.12 -0.10 2.34
-11.14 -0.32 2.34
-11.15 -0.55 2.34
-11.15 -0.77 2.34
-11.16 -1.00 2.34
-11.16 -1.22 2.34
-11.15 -1.45 2.34
-11.14 -1.68 2.34
-11.13 -1.90 2.34
-11.11 -2.13 2.34
-11.09 -2.36 2.34
-11.07 -2.59 2.34
-11.04 -2.81 2.34
-11.01 -3.04 2.34
-10.98 -3.27 2.35
-10.94 -3.50 2.35
-10.89 -3.73 2.35
-10.85 -3.96 2.35
-10.79 -4.18 2.35
-10.74 -4.41 2.36
-10.90 -4.74 2.41
-10.82 -4.96 2.41
-9.54 -4.61 2.14
-9.37 -4.76 2.12
-10.56 -5.63 2.41
-9.86 -5.52 2.27
-9.83 -5.76 2.29
-9.83 -6.03 2.31
-9.83 -6.30 2.34
-9.83 -6.58 2.36
-9.83 -6.87 2.39
-9.71 -7.08 2.39
-9.58 -7.29 2.39
-9.44 -7.49 2.39
-9.31 -7.69 2.39
-9.16 -7.88 2.39
-9.02 -8.07 2.39
-8.86 -8.26 2.39
-8.71 -8.45 2.39
-8.55 -8.64 2.39
-8.39 -8.82 2.39
-8.22 -8.99 2.39
-8.05 -9.17 2.39
-7.87 -9.34 2.39
-7.69 -9.50 2.39
-7.51 -9.67 2.39
-7.32 -9.83 2.39
-7.13 -9.98 2.39
-6.94 -10.13 2.39
-6.74 -10.28 2.39
-6.54 -10.42 2.39
-6.33 -10.56 2.39
-6.14 -10.72 2.40
-5.94 -10.87 2.40
-5.93 -11.39 2.49
-5.73 -11.55 2.50
-5.50 -11.67 2.50
-5.27 -11.79 2.50
-5.03 -11.90 2.50
-4.80 -12.00 2.50
-4.56 -12.11 2.50
-4.32 -12.20 2.50
-4.08 -12.29 2.50
-3.83 -12.38 2.50
-3.59 -12.46 2.50
-3.34 -12.53 2.50
-3.09 -12.60 2.50
-2.83 -12.66 2.50
-2.58 -12.72 2.50
-2.33 -12.77 2.50
-2.07 -12.82 2.50
-1.82 -12.86 2.50
-1.56 -12.90 2.50
-1.30 -12.93 2.50
-1.04 -12.95 2.50
-0.78 -12.97 2.50
-0.52 -12.98 2.50
-0.26 -12.99 2.50
-0.00 -11.58 2.50
0.23 -11.58 2.50
0.46 -11.57 2.50
0.69 -11.55 2.50
0.92 -11.53 2.50
1.15 -11.51 2.50
1.38 -11.48 2.50
1.61 -11.45 2.50
1.84 -11.41 2.50
2.06 -11.37 2.50
2.20 -10.85 2.39
2.41 -10.80 2.39
2.62 -10.74 2.39
2.84 -10.68 2.39
3.05 -10.62 2.39
3.26 -10.55 2.39
3.47 -10.47 2.39
3.67 -10.39 2.39
3.88 -10.31 2.39
4.08 -10.22 2.39
4.28 -10.13 2.39
4.48 -10.04 2.39
4.67 -9.94 2.39
4.87 -9.83 2.39
5.06 -9.73 2.39
5.25 -9.61 2.39
5.43 -9.50 2.39
5.62 -9.38 2.39
5.80 -9.25 2.39
5.97 -9.13 2.39
5.85 -8.19 2.21
5.83 -7.83 2.15
5.88 -7.58 2.11
5.88 -7.27 2.06
5.88 -6.98 2.02
5.88 -6.71 1.97
5.88 -6.44 1.93
5.88 -6.19 1.89
5.83 -5.89 1.84
5.87 -5.71 1.82
5.87 -5.48 1.79
5.87 -5.27 1.76
5.87 -5.06 1.73
5.87 -4.86 1.70
5.87 -4.66 1.68
5.87 -4.47 1.65
5.87 -4.29 1.63
5.87 -4.11 1.61
5.87 -3.94 1.59
5.87 -3.77 1.57
5.87 -3.60 1.55
5.87 -3.44 1.54
5.87 -3.29 1.52
5.87 -3.13 1.51
5.87 -2.98 1.50
5.86 -2.84 1.48
5.86 -2.69 1.47
5.86 -2.55 1.46
3.98 -1.64 0.98
3.92 -1.52 0.96
3.91 -1.43 0.95
3.92 -1.34 0.95
3.95 -1.27 0.95
4.00 -1.20 0.96
4.08 -1.13 0.98
4.27 -1.09 1.02
5.86 -1.37 1.39
5.86 -1.25 1.39
5.86 -1.13 1.39
5.86 -1.01 1.38
5.86 -0.88 1.38
5.86 -0.76 1.38
5.86 -0.65 1.38
5.86 -0.53 1.38
5.86 -0.41 1.38
5.86 -0.29 1.38
5.86 -0.17 1.38
5.86 -0.06 1.38
5.86 0.06 1.38
5.86 0.18 1.39
5.86 0.30 1.39
5.85 0.42 1.39
5.85 0.53 1.40
5.85 0.65 1.40
5.85 0.77 1.41
5.85 0.89 1.42
5.85 1.01 1.42
5.85 1.13 1.43
5.85 1.26 1.44
5.85 1.38 1.45
5.85 1.50 1.46
5.85 1.63 1.47
5.85 1.76 1.48
5.85 1.89 1.49
5.79 2.00 1.48
5.85 2.15 1.51
5.85 2.28 1.53
5.85 2.42 1.54
5.85 2.56 1.56
5.85 2.70 1.57
5.85 2.84 1.59
5.85 2.99 1.61
5.85 3.14 1.63
5.85 3.29 1.65
5.85 3.45 1.67
5.84 3.61 1.69
5.84 3.78 1.72
5.84 3.94 1.74
5.84 4.12 1.77
2.70 1.98 0.83
2.69 2.06 0.84
5.84 4.67 1.86
5.84 4.86 1.89
5.84 5.06 1.92
5.84 5.27 1.96
5.84 5.49 2.00
5.84 5.72 2.04
5.84 5.96 2.08
5.82 6.18 2.12
5.78 6.39 2.16
5.81 6.69 2.22
5.96 7.44 2.39
5.80 7.55 2.39
5.64 7.66 2.39
5.48 7.76 2.39
5.32 7.87 2.39
5.16 7.97 2.39
4.99 8.06 2.39
4.82 8.16 2.39
4.65 8.24 2.39
4.48 8.33 2.39
4.31 8.41 2.39
4.14 8.49 2.39
3.96 8.57 2.39
3.79 8.64 2.39
3.61 8.71 2.39
3.43 8.78 2.39
3.25 8.84 2.39
3.07 8.90 2.39
2.89 8.96 2.39
2.71 9.01 2.39
2.53 9.06 2.39
2.34 9.11 2.39
2.16 9.15 2.39
2.03 9.48 2.47
1.86 9.63 2.50
1.67 9.66 2.50
1.47 9.69 2.50
1.28 9.72 2.50
1.08 9.74 2.50
0.89 9.76 2.50
0.69 9.77 2.50
0.49 9.79 2.50
0.29 9.79 2.50
0.10 9.80 2.50
-0.10 9.80 2.50
-0.30 9.80 2.50
-0.50 9.79 2.50
-0.69 9.78 2.50
-0.89 9.77 2.50
-1.09 9.75 2.50
-1.28 9.73 2.50
-1.48 9.70 2.50
-1.68 9.67 2.50
-1.87 9.64 2.50
-2.07 9.61 2.50
-2.26 9.57 2.50
-2.46 9.52 2.50
-2.65 9.48 2.50
-2.84 9.43 2.50
-3.03 9.37 2.50
-3.22 9.31 2.50
-3.41 9.25 2.50
-3.60 9.19 2.50
-3.79 9.12 2.50
-3.97 9.05 2.50
-4.16 8.97 2.50
-4.34 8.89 2.50
-4.52 8.81 2.50
-4.70 8.73 2.50
-4.88 8.64 2.50
-5.06 8.54 2.50
-5.23 8.45 2.50
-5.41 8.35 2.50
-5.58 8.25 2.50
-5.75 8.14 2.50
-5.92 8.03 2.50
-6.01 7.81 2.46
-6.01 7.51 2.40
-6.15 7.37 2.39
-6.30 7.25 2.39
-6.45 7.13 2.39
-6.60 7.00 2.39
-6.75 6.88 2.39
-6.90 6.75 2.39
-7.04 6.62 2.39
-7.18 6.48 2.39
-7.32 6.34 2.39
-7.45 6.20 2.39
-7.59 6.06 2.39
-7.72 5.91 2.39
-7.85 5.76 2.39
-7.97 5.61 2.39
-8.09 5.46 2.39
-8.21 5.30 2.39
-8.33 5.14 2.39
-8.44 4.98 2.39
-8.56 4.82 2.39
-8.66 4.65 2.39
-8.77 4.48 2.39
-8.87 4.31 2.39
-8.97 4.14 2.39
-9.06 3.97 2.39
-9.16 3.79 2.39
-9.24 3.61 2.39
-9.33 3.43 2.39
-9.41 3.24 2.39
-9.49 3.06 2.39
-9.56 2.87 2.39
-9.64 2.68 2.39
-9.70 2.49 2.39
-9.77 2.30 2.39
-9.83 2.11 2.39
-9.88 1.92 2.39
-9.94 1.72 2.39
-9.98 1.52 2.39
-9.48 1.25 2.26
-9.50 1.06 2.26
-9.50 0.87 2.25
-9.48 0.67 2.24
-10.24 0.52 2.41
-10.27 0.32 2.41
-10.17 0.11 2.38
-10.18 -0.10 2.38
-10.20 -0.30 2.38
-10.20 -0.51 2.38
-10.21 -0.71 2.38
-10.21 -0.92 2.38
-10.21 -1.12 2.38
-10.20 -1.33 2.38
-10.19 -1.54 2.38
-10.18 -1.75 2.38
-10.16 -1.95 2.38
-10.14 -2.16 2.38
-10.12 -2.37 2.38
-10.09 -2.58 2.39
-10.06 -2.78 2.39
-10.03 -2.99 2.39
-9.99 -3.20 2.39
-9.94 -3.41 2.39
-9.89 -3.61 2.39
-9.83 -3.82 2.39
-9.77 -4.02 2.39
-9.70 -4.22 2.39
-9.63 -4.42 2.39
-9.55 -4.62 2.39
-9.38 -4.77 2.37
-9.39 -5.01 2.39
-9.30 -5.21 2.39
-9.21 -5.40 2.39
-9.11 -5.59 2.39
-9.01 -5.78 2.39
-8.90 -5.97 2.39
-8.79 -6.15 2.39
-8.68 -6.34 2.39
-8.56 -6.52 2.39
-8.44 -6.70 2.39
-8.32 -6.87 2.39
-8.19 -7.05 2.39
-8.06 -7.22 2.39
-7.92 -7.39 2.39
-7.78 -7.55 2.39
-7.64 -7.72 2.39
-7.49 -7.88 2.39
-7.34 -8.03 2.39
-7.18 -8.19 2.39
-7.03 -8.34 2.39
-6.86 -8.49 2.39
-6.70 -8.63 2.39
-6.53 -8.77 2.39
-6.36 -8.91 2.39
-6.19 -9.04 2.39
-6.01 -9.18 2.39
-5.94 -9.47 2.44
-5.89 -9.83 2.50
-5.70 -9.96 2.50
-5.50 -10.07 2.50
-5.31 -10.19 2.50
-5.11 -10.30 2.50
-4.90 -10.41 2.50
-4.70 -10.51 2.50
-4.49 -10.61 2.50
-4.28 -10.70 2.50
-4.06 -10.79 2.50
-3.85 -10.88 2.50
-3.63 -10.96 2.50
-3.41 -11.03 2.50
-3.19 -11.10 2.50
-2.97 -11.17 2.50
-2.75 -11.23 2.50
-2.53 -11.29 2.50
-2.30 -11.34 2.50
-2.07 -11.39 2.50
-1.85 -11.43 2.50
-1.62 -11.46 2.50
-1.39 -11.49 2.50
-1.16 -11.52 2.50
-0.93 -11.54 2.50
-0.70 -11.56 2.50
-0.47 -11.57 2.50
-0.23 -11.58 2.50
-0.00 -10.43 2.50
0.21 -10.43 2.50
0.41 -10.42 2.50
0.62 -10.41 2.50
0.83 -10.39 2.50
1.04 -10.37 2.50
1.24 -10.35 2.50
1.45 -10.32 2.50
1.65 -10.28 2.50
1.86 -10.24 2.50
2.06 -10.20 2.50
2.17 -9.73 2.39
2.36 -9.68 2.39
2.56 -9.63 2.39
2.75 -9.57 2.39
2.94 -9.51 2.39
3.12 -9.44 2.39
3.31 -9.37 2.39
3.49 -9.30 2.39
3.68 -9.22 2.39
3.86 -9.14 2.39
4.04 -9.05 2.39
4.21 -8.96 2.39
4.39 -8.87 2.39
4.56 -8.77 2.39
4.73 -8.67 2.39
4.90 -8.57 2.39
5.06 -8.46 2.39
5.23 -8.35 2.39
5.39 -8.24 2.39
5.55 -8.12 2.39
5.70 -8.00 2.39
5.86 -7.88 2.39
6.01 -7.75 2.39
5.82 -6.64 2.16
5.85 -6.42 2.13
5.88 -6.19 2.09
5.82 -5.89 2.04
5.87 -5.71 2.02
5.87 -5.49 1.98
5.87 -5.27 1.95
5.87 -5.06 1.91
5.87 -4.86 1.88
5.87 -4.66 1.86
5.87 -4.47 1.83
5.87 -4.29 1.80
5.87 -4.11 1.78
5.87 -3.94 1.76
5.87 -3.77 1.74
5.87 -3.61 1.72
5.87 -3.45 1.70
5.87 -3.29 1.68
5.87 -3.14 1.67
5.87 -2.99 1.65
5.86 -2.84 1.64
5.86 -2.70 1.63
5.86 -2.56 1.61
3.98 -1.64 1.09
3.92 -1.52 1.06
3.91 -1.43 1.05
3.92 -1.35 1.05
3.95 -1.27 1.05
4.00 -1.20 1.06
4.08 -1.13 1.08
4.26 -1.09 1.12
5.86 -1.38 1.54
5.86 -1.25 1.53
5.86 -1.13 1.53
5.86 -1.01 1.53
5.86 -0.89 1.52
5.86 -0.77 1.52
5.86 -0.65 1.52
5.86 -0.53 1.52
5.86 -0.41 1.52
5.86 -0.29 1.52
5.86 -0.18 1.52
5.86 -0.06 1.52
5.86 0.06 1.52
5.86 0.18 1.53
5.86 0.30 1.53
5.85 0.41 1.53
5.85 0.53 1.54
5.85 0.65 1.54
5.85 0.77 1.55
5.85 0.89 1.56
5.85 1.01 1.56
5.85 1.13 1.57
5.85 1.25 1.58
5.85 1.38 1.59
5.85 1.50 1.60
5.85 1.63 1.61
5.85 1.76 1.62
5.85 1.88 1.64
5.79 1.99 1.63
5.85 2.15 1.66
5.85 2.28 1.68
5.85 2.42 1.69
5.85 2.56 1.71
5.85 2.70 1.73
5.85 2.84 1.75
5.85 2.99 1.77
5.85 3.14 1.79
5.85 3.29 1.81
5.85 3.45 1.83
5.84 3.61 1.86
5.84 3.77 1.88
5.84 3.94 1.91
5.84 4.11 1.94
2.70 1.98 0.91
2.68 2.06 0.92
5.84 4.66 2.04
5.84 4.86 2.07
5.84 5.06 2.11
5.80 5.24 2.13
5.78 5.43 2.17
5.85 5.96 2.29
5.99 6.35 2.39
5.85 6.46 2.39
5.71 6.57 2.39
5.58 6.68 2.39
5.44 6.79 2.39
5.29 6.89 2.39
5.15 6.99 2.39
5.00 7.09 2.39
4.86 7.18 2.39
4.71 7.27 2.39
4.56 7.36 2.39
4.40 7.44 2.39
4.25 7.53 2.39
4.10 7.61 2.39
3.94 7.68 2.39
3.78 7.76 2.39
3.62 7.83 2.39
3.46 7.89 2.39
3.30 7.96 2.39
3.14 8.02 2.39
2.97 8.08 2.39
2.81 8.13 2.39
2.64 8.18 2.39
2.48 8.23 2.39
2.31 8.28 2.39
2.14 8.32 2.39
2.04 8.63 2.47
1.88 8.76 2.50
1.70 8.79 2.50
1.53 8.82 2.50
1.35 8.85 2.50
1.17 8.88 2.50
0.99 8.90 2.50
0.81 8.91 2.50
0.63 8.93 2.50
0.45 8.94 2.50
0.27 8.95 2.50
0.09 8.95 2.50
-0.09 8.95 2.50
-0.27 8.95 2.50
-0.45 8.94 2.50
-0.63 8.93 2.50
-0.81 8.92 2.50
-0.99 8.90 2.50
-1.17 8.89 2.50
-1.35 8.86 2.50
-1.53 8.84 2.50
-1.71 8.81 2.50
-1.89 8.77 2.50
-2.07 8.74 2.50
-2.24 8.70 2.50
-2.42 8.65 2.50
-2.59 8.61 2.50
-2.77 8.56 2.50
-2.94 8.50 2.50
-3.12 8.45 2.50
-3.29 8.39 2.50
-3.46 8.33 2.50
-3.63 8.26 2.50
-3.80 8.19 2.50
-3.96 8.12 2.50
-4.13 8.04 2.50
-4.29 7.96 2.50
-4.46 7.88 2.50
-4.62 7.80 2.50
-4.78 7.71 2.50
-4.94 7.62 2.50
-5.09 7.52 2.50
-5.25 7.42 2.50
-5.40 7.32 2.50
-5.55 7.22 2.50
-5.70 7.11 2.50
-5.85 7.01 2.50
-6.00 6.89 2.50
-6.00 6.62 2.44
-6.02 6.38 2.39
-6.16 6.27 2.39
-6.29 6.15 2.39
-6.42 6.03 2.39
-6.55 5.91 2.39
-6.67 5.78 2.39
-6.80 5.65 2.39
-6.92 5.52 2.39
-7.03 5.39 2.39
-7.15 5.25 2.39
-7.26 5.11 2.39
-7.37 4.97 2.39
-7.48 4.83 2.39
-7.59 4.68 2.39
-7.69 4.53 2.39
-7.79 4.38 2.39
-7.89 4.23 2.39
-7.98 4.08 2.39
-8.07 3.92 2.39
-8.16 3.76 2.39
-8.25 3.60 2.39
-8.33 3.44 2.39
-8.41 3.28 2.39
-8.49 3.11 2.39
-8.56 2.95 2.39
-8.63 2.78 2.39
-8.70 2.61 2.39
-8.76 2.44 2.39
-8.82 2.26 2.39
-8.88 2.09 2.39
-8.93 1.91 2.39
-8.98 1.74 2.39
-9.03 1.56 2.39
-9.07 1.38 2.39
-9.11 1.20 2.39
-9.15 1.02 2.39
-9.18 0.83 2.39
-9.21 0.65 2.39
-9.23 0.47 2.39
-9.25 0.28 2.39
-9.27 0.10 2.39
-9.29 -0.09 2.39
-9.30 -0.28 2.39
-9.30 -0.46 2.39
-9.31 -0.65 2.39
-9.31 -0.84 2.39
-9.30 -1.03 2.39
-9.29 -1.22 2.39
-9.28 -1.40 2.39
-9.27 -1.59 2.39
-9.25 -1.78 2.39
-9.22 -1.97 2.39
-9.20 -2.16 2.39
-9.16 -2.34 2.39
-9.13 -2.53 2.39
-9.09 -2.72 2.39
-9.05 -2.90 2.39
-9.00 -3.09 2.39
-8.95 -3.27 2.39
-8.89 -3.46 2.39
-8.84 -3.64 2.39
-8.77 -3.82 2.39
-8.71 -4.00 2.39
-8.64 -4.18 2.39
-8.56 -4.36 2.39
-8.49 -4.54 2.39
-8.41 -4.71 2.39
-8.32 -4.89 2.39
-8.23 -5.06 2.39
-8.14 -5.23 2.39
-8.04 -5.40 2.39
-7.94 -5.56 2.39
-7.84 -5.73 2.39
-7.73 -5.89 2.39
-7.62 -6.05 2.39
-7.51 -6.21 2.39
-7.39 -6.37 2.39
-7.27 -6.52 2.39
-7.15 -6.67 2.39
-7.02 -6.82 2.39
-6.89 -6.97 2.39
-6.76 -7.11 2.39
-6.62 -7.25 2.39
-6.48 -7.39 2.39
-6.34 -7.53 2.39
-6.19 -7.66 2.39
-6.04 -7.79 2.39
-5.94 -7.98 2.41
-5.94 -8.32 2.48
-5.82 -8.51 2.50
-5.65 -8.63 2.50
-5.49 -8.75 2.50
-5.31 -8.87 2.50
-5.14 -8.98 2.50
-4.96 -9.09 2.50
-4.78 -9.19 2.50
-4.60 -9.29 2.50
-4.42 -9.38 2.50
-4.23 -9.48 2.50
-4.04 -9.56 2.50
-3.85 -9.65 2.50
-3.66 -9.73 2.50
-3.47 -9.80 2.50
-3.27 -9.88 2.50
-3.08 -9.94 2.50
-2.88 -10.01 2.50
-2.68 -10.07 2.50
-2.48 -10.12 2.50
-2.28 -10.17 2.50
-2.07 -10.22 2.50
-1.87 -10.26 2.50
-1.66 -10.30 2.50
-1.46 -10.33 2.50
-1.25 -10.36 2.50
-1.04 -10.38 2.50
-0.84 -10.40 2.50
-0.63 -10.41 2.50
-0.42 -10.43 2.50
-0.21 -10.43 2.50
-0.00 -9.48 2.50
0.19 -9.48 2.50
0.38 -9.47 2.50
0.56 -9.46 2.50
0.75 -9.45 2.50
0.94 -9.43 2.50
1.13 -9.41 2.50
1.32 -9.38 2.50
1.50 -9.35 2.50
1.69 -9.31 2.50
1.87 -9.27 2.50
2.06 -9.23 2.50
2.15 -8.80 2.39
2.32 -8.76 2.39
2.50 -8.70 2.39
2.67 -8.65 2.39
2.84 -8.59 2.39
3.01 -8.52 2.39
3.18 -8.46 2.39
3.34 -8.39 2.39
3.51 -8.31 2.39
3.67 -8.24 2.39
3.83 -8.15 2.39
3.99 -8.07 2.39
4.15 -7.98 2.39
4.30 -7.89 2.39
4.46 -7.80 2.39
4.61 -7.70 2.39
4.76 -7.60 2.39
4.90 -7.50 2.39
5.05 -7.39 2.39
5.19 -7.28 2.39
5.33 -7.17 2.39
5.47 -7.06 2.39
5.60 -6.94 2.39
5.73 -6.82 2.39
5.86 -6.70 2.39
5.99 -6.57 2.39
5.82 -5.90 2.23
5.82 -5.66 2.19
5.82 -5.44 2.15
5.85 -5.25 2.13
5.87 -5.06 2.10
5.87 -4.86 2.07
5.87 -4.67 2.04
5.87 -4.48 2.01
5.87 -4.29 1.98
5.87 -4.12 1.95
5.87 -3.94 1.93
5.87 -3.77 1.91
5.87 -3.61 1.89
5.87 -3.45 1.86
5.87 -3.29 1.85
5.87 -3.14 1.83
5.87 -2.99 1.81
5.86 -2.84 1.80
5.86 -2.70 1.78
5.86 -2.56 1.77
3.98 -1.64 1.19
3.92 -1.53 1.17
3.91 -1.43 1.15
3.92 -1.35 1.15
3.95 -1.27 1.15
4.00 -1.20 1.16
4.08 -1.13 1.18
4.25 -1.09 1.22
5.86 -1.38 1.68
5.86 -1.25 1.68
5.86 -1.13 1.67
5.86 -1.01 1.67
5.86 -0.89 1.67
5.86 -0.77 1.66
5.86 -0.65 1.66
5.86 -0.53 1.66
5.86 -0.41 1.66
5.86 -0.30 1.66
5.86 -0.18 1.66
5.86 -0.06 1.66
5.86 0.06 1.67
5.86 0.17 1.67
5.86 0.29 1.67
5.85 0.41 1.68
5.85 0.53 1.68
5.85 0.65 1.69
5.85 0.77 1.69
5.85 0.89 1.70
5.85 1.01 1.71
5.85 1.13 1.72
5.85 1.25 1.73
5.85 1.37 1.74
5.85 1.50 1.75
5.85 1.63 1.76
5.85 1.75 1.77
5.85 1.88 1.78
5.79 1.99 1.78
5.85 2.14 1.81
5.85 2.28 1.83
5.85 2.42 1.85
5.85 2.55 1.86
5.85 2.70 1.88
5.85 2.84 1.90
5.85 2.99 1.93
5.85 3.14 1.95
5.85 3.29 1.97
5.85 3.44 2.00
5.84 3.60 2.02
5.84 3.77 2.05
5.84 3.94 2.08
5.84 4.11 2.11
2.70 1.98 0.99
2.68 2.05 1.00
5.79 4.62 2.20
5.97 5.39 2.39
5.86 5.50 2.39
5.74 5.61 2.39
5.62 5.72 2.39
5.50 5.83 2.39
5.38 5.93 2.39
5.25 6.04 2.39
5.12 6.14 2.39
5.00 6.23 2.39
4.86 6.33 2.39
4.73 6.42 2.39
4.60 6.51 2.39
4.46 6.60 2.39
4.33 6.68 2.39
4.19 6.76 2.39
4.05 6.84 2.39
3.91 6.92 2.39
3.76 6.99 2.39
3.62 7.06 2.39
3.48 7.13 2.39
3.33 7.19 2.39
3.18 7.25 2.39
3.03 7.31 2.39
2.88 7.37 2.39
2.73 7.42 2.39
2.58 7.48 2.39
2.43 7.52 2.39
2.28 7.57 2.39
2.12 7.61 2.39
2.04 7.92 2.48
1.89 8.02 2.50
1.73 8.05 2.50
1.57 8.08 2.50
1.40 8.11 2.50
1.24 8.14 2.50
1.07 8.16 2.50
0.91 8.18 2.50
0.74 8.20 2.50
0.58 8.21 2.50
0.41 8.22 2.50
0.25 8.23 2.50
0.08 8.23 2.50
-0.09 8.23 2.50
-0.25 8.23 2.50
-0.42 8.22 2.50
-0.58 8.21 2.50
-0.75 8.20 2.50
-0.92 8.19 2.50
-1.08 8.17 2.50
-1.25 8.15 2.50
-1.41 8.12 2.50
-1.57 8.10 2.50
-1.74 8.06 2.50
-1.90 8.03 2.50
-2.06 7.99 2.50
-2.23 7.95 2.50
-2.39 7.91 2.50
-2.55 7.87 2.50
-2.71 7.82 2.50
-2.86 7.76 2.50
-3.02 7.71 2.50
-3.18 7.65 2.50
-3.33 7.59 2.50
-3.49 7.53 2.50
-3.64 7.46 2.50
-3.79 7.39 2.50
-3.95 7.32 2.50
-4.10 7.24 2.50
-4.24 7.16 2.50
-4.39 7.08 2.50
-4.54 7.00 2.50
-4.68 6.91 2.50
-4.82 6.82 2.50
-4.96 6.73 2.50
-5.10 6.63 2.50
-5.24 6.53 2.50
-5.38 6.43 2.50
-5.51 6.33 2.50
-5.64 6.22 2.50
-5.77 6.11 2.50
-5.90 6.00 2.50
-6.00 5.86 2.49
-6.00 5.63 2.44
-6.01 5.42 2.39
-6.12 5.30 2.39
-6.24 5.18 2.39
-6.35 5.06 2.39
-6.46 4.94 2.39
-6.56 4.81 2.39
-6.66 4.68 2.39
-6.77 4.56 2.39
-6.86 4.42 2.39
-6.96 4.29 2.39
-7.05 4.15 2.39
-7.14 4.02 2.39
-7.23 3.88 2.39
-7.32 3.73 2.39
-7.40 3.59 2.39
-7.48 3.45 2.39
-7.56 3.30 2.39
-7.63 3.15 2.39
-7.71 3.00 2.39
-7.78 2.85 2.39
-7.84 2.70 2.39
-7.90 2.54 2.39
-7.97 2.39 2.39
-8.02 2.23 2.39
-8.08 2.07 2.39
-8.13 1.91 2.39
-8.18 1.75 2.39
-8.22 1.59 2.39
-8.26 1.42 2.39
-8.30 1.26 2.39
-8.34 1.09 2.39
-8.37 0.93 2.39
-8.40 0.76 2.39
-8.42 0.59 2.39
-8.44 0.42 2.39
-8.46 0.25 2.39
-8.48 0.08 2.39
-8.49 -0.09 2.39
-8.50 -0.26 2.39
-8.50 -0.43 2.39
-8.51 -0.60 2.39
-8.51 -0.77 2.39
-8.50 -0.94 2.39
-8.49 -1.12 2.39
-8.48 -1.29 2.39
-8.46 -1.46 2.39
-8.44 -1.63 2.39
-8.42 -1.80 2.39
-8.40 -1.97 2.39
-8.37 -2.14 2.39
-8.33 -2.31 2.39
-8.30 -2.48 2.39
-8.26 -2.65 2.39
-8.21 -2.82 2.39
-8.17 -2.99 2.39
-8.11 -3.16 2.39
-8.06 -3.32 2.39
-8.00 -3.49 2.39
-7.94 -3.65 2.39
-7.88 -3.82 2.39
-7.81 -3.98 2.39
-7.74 -4.14 2.39
-7.66 -4.30 2.39
-7.58 -4.46 2.39
-7.50 -4.61 2.39
-7.42 -4.77 2.39
-7.33 -4.92 2.39
-7.24 -5.07 2.39
-7.14 -5.22 2.39
-7.05 -5.37 2.39
-6.94 -5.52 2.39
-6.84 -5.66 2.39
-6.73 -5.80 2.39
-6.62 -5.94 2.39
-6.51 -6.08 2.39
-6.39 -6.21 2.39
-6.27 -6.35 2.39
-6.16 -6.49 2.40
-6.03 -6.61 2.39
-5.95 -6.79 2.41
-5.94 -7.06 2.47
-5.88 -7.27 2.50
-5.74 -7.40 2.50
-5.59 -7.52 2.50
-5.44 -7.63 2.50
-5.29 -7.75 2.50
-5.14 -7.86 2.50
-4.99 -7.96 2.50
-4.83 -8.07 2.50
-4.67 -8.17 2.50
-4.51 -8.26 2.50
-4.35 -8.36 2.50
-4.18 -8.45 2.50
-4.02 -8.54 2.50
-3.85 -8.62 2.50
-3.68 -8.70 2.50
-3.50 -8.77 2.50
-3.33 -8.85 2.50
-3.15 -8.92 2.50
-2.97 -8.98 2.50
-2.80 -9.04 2.50
-2.62 -9.10 2.50
-2.43 -9.15 2.50
-2.25 -9.20 2.50
-2.07 -9.25 2.50
-1.88 -9.29 2.50
-1.70 -9.33 2.50
-1.51 -9.36 2.50
-1.32 -9.39 2.50
-1.14 -9.41 2.50
-0.95 -9.44 2.50
-0.76 -9.45 2.50
-0.57 -9.47 2.50
-0.38 -9.48 2.50
-0.19 -9.48 2.50
-0.00 -8.68 2.50
0.17 -8.68 2.50
0.34 -8.68 2.50
0.52 -8.67 2.50
0.69 -8.65 2.50
0.86 -8.63 2.50
1.03 -8.61 2.50
1.21 -8.59 2.50
1.38 -8.56 2.50
1.55 -8.53 2.50
1.72 -8.49 2.50
1.88 -8.45 2.50
2.05 -8.41 2.50
2.13 -8.02 2.39
2.29 -7.97 2.39
2.44 -7.92 2.39
2.60 -7.87 2.39
2.75 -7.81 2.39
2.91 -7.75 2.39
3.06 -7.68 2.39
3.21 -7.62 2.39
3.36 -7.55 2.39
3.51 -7.47 2.39
3.65 -7.40 2.39
3.80 -7.32 2.39
3.94 -7.23 2.39
4.08 -7.15 2.39
4.22 -7.06 2.39
4.36 -6.97 2.39
4.49 -6.87 2.39
4.63 -6.78 2.39
4.76 -6.68 2.39
4.88 -6.58 2.39
5.01 -6.47 2.39
5.13 -6.36 2.39
5.25 -6.25 2.39
5.37 -6.14 2.39
5.49 -6.03 2.39
5.60 -5.91 2.39
5.72 -5.79 2.39
5.82 -5.67 2.39
5.93 -5.55 2.39
6.03 -5.42 2.39
5.82 -4.63 2.20
5.81 -4.44 2.17
5.82 -4.26 2.14
5.85 -4.11 2.12
5.87 -3.95 2.10
5.87 -3.78 2.08
5.87 -3.61 2.05
5.87 -3.45 2.03
5.87 -3.30 2.01
5.87 -3.14 1.99
5.87 -2.99 1.97
4.06 -1.97 1.35
4.05 -1.87 1.34
5.86 -2.56 1.92
3.96 -1.64 1.29
3.92 -1.53 1.27
3.91 -1.43 1.26
3.92 -1.35 1.25
3.95 -1.27 1.25
4.00 -1.20 1.26
4.08 -1.14 1.28
4.24 -1.09 1.33
5.86 -1.38 1.83
5.86 -1.26 1.83
5.86 -1.14 1.82
5.86 -1.01 1.82
5.86 -0.89 1.81
5.86 -0.77 1.81
5.86 -0.65 1.81
5.86 -0.53 1.81
5.86 -0.42 1.81
5.86 -0.30 1.81
5.86 -0.18 1.81
5.86 -0.06 1.81
5.86 0.05 1.81
5.86 0.17 1.81
5.86 0.29 1.82
5.85 0.41 1.82
5.85 0.53 1.83
5.85 0.65 1.83
5.85 0.76 1.84
5.85 0.88 1.85
5.85 1.00 1.85
5.85 1.13 1.86
5.85 1.25 1.87
5.85 1.37 1.88
5.85 1.50 1.90
5.85 1.62 1.91
5.85 1.75 1.92
5.85 1.88 1.94
5.79 1.99 1.93
5.85 2.14 1.97
5.85 2.28 1.98
5.85 2.41 2.00
5.85 2.55 2.02
5.85 2.69 2.04
5.85 2.84 2.06
5.85 2.98 2.09
5.85 3.13 2.11
5.82 3.27 2.13
5.79 3.41 2.14
5.79 3.57 2.17
5.79 3.73 2.20
2.70 1.98 1.07
2.68 2.05 1.08
5.82 4.64 2.39
5.72 4.76 2.39
5.62 4.87 2.39
5.52 4.97 2.39
5.41 5.08 2.39
5.30 5.18 2.39
5.19 5.28 2.39
5.08 5.38 2.39
4.97 5.48 2.39
4.85 5.57 2.39
4.73 5.67 2.39
4.62 5.76 2.39
4.50 5.84 2.39
4.37 5.93 2.39
4.25 6.01 2.39
4.13 6.09 2.39
4.00 6.17 2.39
3.87 6.25 2.39
3.74 6.32 2.39
3.61 6.39 2.39
3.48 6.46 2.39
3.35 6.52 2.39
3.21 6.59 2.39
3.08 6.65 2.39
2.94 6.70 2.39
2.81 6.76 2.39
2.67 6.81 2.39
2.53 6.86 2.39
2.39 6.91 2.39
2.25 6.97 2.40
2.11 7.00 2.39
2.04 7.31 2.49
1.90 7.38 2.50
1.75 7.41 2.50
1.60 7.44 2.50
1.45 7.47 2.50
1.30 7.50 2.50
1.15 7.52 2.50
0.99 7.54 2.50
0.84 7.56 2.50
0.69 7.58 2.50
0.53 7.59 2.50
0.38 7.60 2.50
0.23 7.61 2.50
0.07 7.61 2.50
-0.08 7.61 2.50
-0.23 7.61 2.50
-0.39 7.60 2.50
-0.54 7.59 2.50
-0.69 7.58 2.50
-0.85 7.57 2.50
-1.00 7.55 2.50
-1.15 7.53 2.50
-1.30 7.51 2.50
-1.46 7.48 2.50
-1.61 7.45 2.50
-1.76 7.42 2.50
-1.91 7.39 2.50
-2.06 7.35 2.50
-2.21 7.31 2.50
-2.35 7.27 2.50
-2.50 7.22 2.50
-2.65 7.18 2.50
-2.79 7.12 2.50
-2.94 7.07 2.50
-3.08 7.01 2.50
-3.23 6.95 2.50
-3.37 6.89 2.50
-3.51 6.83 2.50
-3.65 6.76 2.50
-3.79 6.69 2.50
-3.92 6.61 2.50
-4.06 6.54 2.50
-4.19 6.46 2.50
-4.32 6.38 2.50
-4.46 6.30 2.50
-4.59 6.21 2.50
-4.71 6.12 2.50
-4.84 6.03 2.50
-4.97 5.94 2.50
-5.09 5.84 2.50
-5.21 5.74 2.50
-5.33 5.64 2.50
-5.45 5.54 2.50
-5.56 5.43 2.50
-5.68 5.32 2.50
-5.79 5.21 2.50
-5.90 5.10 2.50
-6.00 4.98 2.49
-6.00 4.78 2.45
-6.00 4.59 2.41
-6.06 4.44 2.39
-6.15 4.32 2.39
-6.24 4.20 2.39
-6.33 4.08 2.39
-6.42 3.95 2.39
-6.51 3.83 2.39
-6.59 3.70 2.39
-6.67 3.57 2.39
-6.75 3.44 2.39
-6.83 3.31 2.39
-6.90 3.17 2.39
-6.97 3.04 2.39
-7.04 2.90 2.39
-7.10 2.76 2.39
-7.17 2.62 2.39
-7.23 2.48 2.39
-7.29 2.34 2.39
-7.34 2.19 2.39
-7.39 2.05 2.39
-7.44 1.90 2.39
-7.49 1.75 2.39
-7.53 1.61 2.39
-7.57 1.46 2.39
-7.61 1.31 2.39
-7.64 1.15 2.39
-7.68 1.00 2.39
-7.70 0.85 2.39
-7.73 0.69 2.39
-7.75 0.54 2.39
-7.77 0.39 2.39
-7.79 0.23 2.39
-7.80 0.07 2.39
-7.81 -0.08 2.39
-7.82 -0.24 2.39
-7.82 -0.40 2.39
-7.82 -0.56 2.39
-7.82 -0.71 2.39
-7.82 -0.87 2.39
-7.81 -1.03 2.39
-7.80 -1.19 2.39
-7.78 -1.34 2.39
-7.76 -1.50 2.39
-7.74 -1.66 2.39
-7.72 -1.82 2.39
-7.69 -1.97 2.39
-7.66 -2.13 2.39
-7.62 -2.29 2.39
-7.58 -2.44 2.39
-7.54 -2.60 2.39
-7.50 -2.75 2.39
-7.45 -2.90 2.39
-7.40 -3.06 2.39
-7.35 -3.21 2.39
-7.29 -3.36 2.39
-7.23 -3.51 2.39
-7.17 -3.66 2.39
-7.10 -3.80 2.39
-7.03 -3.95 2.39
-6.96 -4.09 2.39
-6.88 -4.24 2.39
-6.81 -4.38 2.39
-6.72 -4.52 2.39
-6.64 -4.66 2.39
-6.55 -4.79 2.39
-6.46 -4.93 2.39
-6.37 -5.06 2.39
-6.27 -5.19 2.39
-6.17 -5.32 2.39
-6.07 -5.45 2.39
-5.97 -5.58 2.39
-5.95 -5.79 2.43
-5.95 -6.02 2.48
-5.88 -6.20 2.50
-5.76 -6.32 2.50
-5.64 -6.44 2.50
-5.51 -6.56 2.50
-5.39 -6.67 2.50
-5.26 -6.78 2.50
-5.12 -6.89 2.50
-4.99 -7.00 2.50
-4.85 -7.10 2.50
-4.71 -7.20 2.50
-4.57 -7.30 2.50
-4.43 -7.39 2.50
-4.28 -7.48 2.50
-4.13 -7.57 2.50
-3.98 -7.66 2.50
-3.83 -7.74 2.50
-3.68 -7.82 2.50
-3.52 -7.90 2.50
-3.37 -7.97 2.50
-3.21 -8.04 2.50
-3.05 -8.10 2.50
-2.89 -8.17 2.50
-2.72 -8.22 2.50
-2.56 -8.28 2.50
-2.39 -8.33 2.50
-2.23 -8.38 2.50
-2.06 -8.43 2.50
-1.89 -8.47 2.50
-1.72 -8.51 2.50
-1.55 -8.54 2.50
-1.38 -8.57 2.50
-1.21 -8.60 2.50
-1.04 -8.62 2.50
-0.87 -8.64 2.50
-0.70 -8.66 2.50
-0.52 -8.67 2.50
-0.35 -8.68 2.50
-0.18 -8.68 2.50
-0.00 -8.00 2.50
0.16 -8.00 2.50
0.32 -7.99 2.50
0.48 -7.98 2.50
0.63 -7.97 2.50
0.79 -7.96 2.50
0.95 -7.94 2.50
1.11 -7.91 2.50
1.27 -7.89 2.50
1.42 -7.86 2.50
1.58 -7.83 2.50
1.74 -7.79 2.50
1.89 -7.75 2.50
2.04 -7.71 2.50
2.11 -7.35 2.39
2.25 -7.30 2.39
2.39 -7.25 2.39
2.54 -7.20 2.39
2.68 -7.14 2.39
2.82 -7.08 2.39
2.96 -7.02 2.39
3.10 -6.96 2.39
3.23 -6.89 2.39
3.37 -6.82 2.39
3.50 -6.75 2.39
3.63 -6.67 2.39
3.76 -6.59 2.39
3.89 -6.51 2.39
4.02 -6.43 2.39
4.14 -6.34 2.39
4.26 -6.25 2.39
4.38 -6.16 2.39
4.50 -6.07 2.39
4.62 -5.97 2.39
4.73 -5.87 2.39
4.85 -5.77 2.39
4.96 -5.67 2.39
5.06 -5.56 2.39
5.17 -5.46 2.39
5.27 -5.35 2.39
5.37 -5.23 2.39
5.47 -5.12 2.39
5.57 -5.01 2.39
5.66 -4.89 2.39
5.75 -4.77 2.39
5.84 -4.65 2.39
5.92 -4.53 2.39
6.01 -4.40 2.39
6.09 -4.28 2.39
5.82 -3.59 2.21
5.81 -3.42 2.18
5.81 -3.27 2.16
5.82 -3.12 2.14
5.84 -2.98 2.13
5.87 -2.85 2.12
5.86 -2.71 2.10
5.86 -2.56 2.08
3.94 -1.63 1.39
3.92 -1.53 1.37
3.91 -1.44 1.36
3.92 -1.35 1.35
3.95 -1.27 1.36
4.00 -1.20 1.37
4.07 -1.14 1.39
4.23 -1.09 1.44
5.86 -1.38 1.98
5.86 -1.26 1.97
5.86 -1.14 1.97
5.86 -1.02 1.96
5.86 -0.90 1.96
5.86 -0.78 1.96
5.86 -0.66 1.95
5.86 -0.54 1.95
5.86 -0.42 1.95
5.86 -0.30 1.95
5.86 -0.18 1.95
5.86 -0.07 1.95
5.86 0.05 1.96
5.86 0.17 1.96
5.86 0.29 1.96
5.85 0.41 1.97
5.85 0.52 1.97
5.85 0.64 1.98
5.85 0.76 1.99
5.85 0.88 1.99
5.85 1.00 2.00
5.85 1.12 2.01
5.85 1.25 2.02
5.85 1.37 2.03
5.85 1.49 2.05
5.85 1.62 2.06
5.85 1.75 2.07
5.85 1.88 2.09
5.79 1.99 2.08
5.85 2.14 2.12
5.82 2.26 2.13
5.80 2.39 2.14
5.79 2.52 2.16
5.79 2.66 2.18
5.81 2.81 2.21
6.07 3.41 2.39
6.00 3.53 2.39
5.92 3.64 2.39
5.84 3.76 2.39
5.75 3.87 2.39
5.67 3.98 2.39
2.70 1.98 1.16
2.68 2.05 1.17
5.40 4.31 2.39
5.31 4.41 2.39
5.22 4.51 2.39
5.12 4.61 2.39
5.02 4.71 2.39
4.92 4.81 2.39
4.82 4.90 2.39
4.72 4.99 2.39
4.61 5.08 2.39
4.50 5.17 2.39
4.40 5.26 2.39
4.29 5.34 2.39
4.17 5.42 2.39
4.06 5.50 2.39
3.95 5.58 2.39
3.83 5.66 2.39
3.71 5.73 2.39
3.60 5.80 2.39
3.48 5.87 2.39
3.36 5.93 2.39
3.23 6.00 2.39
3.11 6.06 2.39
2.99 6.12 2.39
2.86 6.17 2.39
2.73 6.23 2.39
2.61 6.28 2.39
2.48 6.33 2.39
2.35 6.37 2.39
2.22 6.42 2.39
2.09 6.46 2.39
2.04 6.78 2.50
1.90 6.82 2.50
1.77 6.85 2.50
1.63 6.88 2.50
1.49 6.91 2.50
1.35 6.94 2.50
1.21 6.97 2.50
1.06 6.99 2.50
0.92 7.01 2.50
0.78 7.02 2.50
0.64 7.04 2.50
0.50 7.05 2.50
0.35 7.06 2.50
0.21 7.06 2.50
0.07 7.07 2.50
-0.07 7.07 2.50
-0.22 7.07 2.50
-0.36 7.06 2.50
-0.50 7.05 2.50
-0.64 7.04 2.50
-0.79 7.03 2.50
-0.93 7.01 2.50
-1.07 6.99 2.50
-1.21 6.97 2.50
-1.35 6.95 2.50
-1.49 6.92 2.50
-1.63 6.89 2.50
-1.77 6.86 2.50
-1.91 6.83 2.50
-2.05 6.79 2.50
-2.19 6.75 2.50
-2.32 6.71 2.50
-2.46 6.66 2.50
-2.60 6.61 2.50
-2.73 6.56 2.50
-2.86 6.51 2.50
-3.00 6.46 2.50
-3.13 6.40 2.50
-3.26 6.34 2.50
-3.39 6.27 2.50
-3.52 6.21 2.50
-3.64 6.14 2.50
-3.77 6.07 2.50
-3.89 6.00 2.50
-4.02 5.92 2.50
-4.14 5.84 2.50
-4.26 5.76 2.50
-4.38 5.68 2.50
-4.49 5.59 2.50
-4.61 5.51 2.50
-4.72 5.42 2.50
-4.84 5.33 2.50
-4.95 5.23 2.50
-5.06 5.14 2.50
-5.16 5.04 2.50
-5.27 4.94 2.50
-5.37 4.83 2.50
-5.47 4.73 2.50
-5.57 4.62 2.50
-5.67 4.51 2.50
-5.77 4.40 2.50
-5.86 4.29 2.50
-5.95 4.18 2.50
-5.99 4.03 2.48
-5.99 3.86 2.44
-6.00 3.69 2.41
-6.03 3.55 2.39
-6.11 3.43 2.39
-6.18 3.31 2.39
-6.26 3.19 2.39
-6.33 3.06 2.39
-6.39 2.94 2.39
-6.46 2.81 2.39
-6.52 2.69 2.39
-6.58 2.56 2.39
-6.64 2.43 2.39
-6.70 2.30 2.39
-6.75 2.16 2.39
-6.80 2.03 2.39
-6.85 1.89 2.39
-6.89 1.76 2.39
-6.93 1.62 2.39
-6.97 1.48 2.39
-7.01 1.35 2.39
-7.05 1.21 2.39
-7.08 1.07 2.39
-7.11 0.92 2.39
-7.13 0.78 2.39
-7.15 0.64 2.39
-7.17 0.50 2.39
-7.19 0.35 2.39
-7.21 0.21 2.39
-7.22 0.06 2.39
-7.23 -0.08 2.39
-7.23 -0.23 2.39
-7.24 -0.37 2.39
-7.24 -0.52 2.39
-7.23 -0.66 2.39
-7.23 -0.81 2.39
-7.22 -0.95 2.39
-7.21 -1.10 2.39
-7.19 -1.25 2.39
-7.17 -1.39 2.39
-7.15 -1.54 2.39
-7.13 -1.68 2.39
-7.10 -1.83 2.39
-7.07 -1.97 2.39
-7.04 -2.12 2.39
-7.01 -2.26 2.39
-6.97 -2.40 2.39
-6.93 -2.54 2.39
-6.88 -2.68 2.39
-6.84 -2.82 2.39
-6.79 -2.96 2.39
-6.73 -3.10 2.39
-6.68 -3.24 2.39
-6.62 -3.38 2.39
-6.56 -3.51 2.39
-6.49 -3.65 2.39
-6.42 -3.78 2.39
-6.35 -3.91 2.39
-6.28 -4.04 2.39
-6.20 -4.17 2.39
-6.13 -4.30 2.39
-6.04 -4.43 2.39
-5.98 -4.56 2.40
-5.97 -4.75 2.43
-5.97 -4.94 2.47
-5.94 -5.13 2.50
-5.84 -5.25 2.50
-5.74 -5.37 2.50
-5.64 -5.49 2.50
-5.53 -5.60 2.50
-5.42 -5.72 2.50
-5.31 -5.83 2.50
-5.20 -5.94 2.50
-5.08 -6.05 2.50
-4.96 -6.15 2.50
-4.84 -6.25 2.50
-4.72 -6.35 2.50
-4.60 -6.45 2.50
-4.47 -6.55 2.50
-4.34 -6.64 2.50
-4.21 -6.73 2.50
-4.08 -6.82 2.50
-3.94 -6.90 2.50
-3.81 -6.98 2.50
-3.67 -7.06 2.50
-3.53 -7.13 2.50
-3.39 -7.21 2.50
-3.24 -7.28 2.50
-3.10 -7.34 2.50
-2.95 -7.41 2.50
-2.81 -7.47 2.50
-2.66 -7.53 2.50
-2.51 -7.58 2.50
-2.36 -7.63 2.50
-2.21 -7.68 2.50
-2.05 -7.72 2.50
-1.90 -7.76 2.50
-1.74 -7.80 2.50
-1.59 -7.84 2.50
-1.43 -7.87 2.50
-1.27 -7.90 2.50
-1.12 -7.92 2.50
-0.96 -7.94 2.50
-0.80 -7.96 2.50
-0.64 -7.98 2.50
-0.48 -7.99 2.50
-0.32 -7.99 2.50
-0.16 -8.00 2.50
-0.00 -7.41 2.50
0.14 -7.41 2.50
0.29 -7.40 2.50
0.44 -7.39 2.50
0.59 -7.38 2.50
0.73 -7.37 2.50
0.88 -7.35 2.50
1.03 -7.33 2.50
1.17 -7.31 2.50
1.32 -7.28 2.50
1.46 -7.25 2.50
1.61 -7.22 2.50
1.75 -7.18 2.50
1.89 -7.14 2.50
2.03 -7.10 2.50
2.08 -6.76 2.39
2.22 -6.72 2.39
2.35 -6.67 2.39
2.48 -6.62 2.39
2.61 -6.56 2.39
2.74 -6.51 2.39
2.87 -6.45 2.39
2.99 -6.38 2.39
3.12 -6.32 2.39
3.24 -6.25 2.39
3.36 -6.18 2.39
3.48 -6.11 2.39
3.60 -6.03 2.39
3.72 -5.96 2.39
3.84 -5.88 2.39
3.95 -5.80 2.39
4.06 -5.71 2.39
4.17 -5.62 2.39
4.28 -5.54 2.39
4.39 -5.44 2.39
4.49 -5.35 2.39
4.59 -5.26 2.39
4.69 -5.16 2.39
4.79 -5.06 2.39
4.89 -4.96 2.39
4.98 -4.86 2.39
5.07 -4.75 2.39
5.16 -4.64 2.39
5.25 -4.54 2.39
5.33 -4.43 2.39
5.41 -4.31 2.39
5.49 -4.20 2.39
5.57 -4.09 2.39
5.65 -3.97 2.39
5.72 -3.85 2.39
5.79 -3.73 2.39
5.86 -3.61 2.39
5.92 -3.49 2.39
5.98 -3.37 2.39
6.04 -3.24 2.39
3.92 -1.62 1.49
3.92 -1.53 1.48
3.91 -1.44 1.46
3.92 -1.35 1.46
3.94 -1.27 1.46
3.99 -1.20 1.47
4.07 -1.14 1.49
4.23 -1.09 1.54
5.84 -1.38 2.12
5.85 -1.26 2.12
5.86 -1.14 2.12
5.86 -1.02 2.11
5.86 -0.90 2.11
5.86 -0.78 2.10
5.86 -0.66 2.10
5.86 -0.54 2.10
5.86 -0.42 2.10
5.86 -0.30 2.10
5.86 -0.19 2.10
5.86 -0.07 2.10
5.86 0.05 2.10
5.86 0.17 2.11
5.86 0.28 2.11
5.85 0.40 2.11
5.85 0.52 2.12
5.84 0.64 2.12
5.83 0.76 2.13
5.82 0.87 2.13
5.81 0.99 2.14
5.80 1.11 2.14
5.80 1.23 2.15
5.79 1.35 2.16
5.79 1.48 2.18
5.79 1.60 2.19
5.82 1.73 2.21
5.79 1.98 2.24
6.03 2.48 2.39
5.97 2.60 2.39
5.92 2.72 2.39
5.85 2.83 2.39
5.79 2.95 2.39
5.72 3.06 2.39
5.65 3.17 2.39
5.58 3.28 2.39
5.51 3.39 2.39
5.44 3.50 2.39
5.36 3.60 2.39
5.28 3.71 2.39
2.70 1.98 1.24
2.68 2.05 1.25
5.04 4.01 2.39
4.95 4.11 2.39
4.86 4.20 2.39
4.77 4.30 2.39
4.68 4.39 2.39
4.59 4.48 2.39
4.49 4.57 2.39
4.40 4.65 2.39
4.30 4.74 2.39
4.20 4.82 2.39
4.10 4.90 2.39
4.00 4.98 2.39
3.89 5.05 2.39
3.79 5.13 2.39
3.68 5.20 2.39
3.57 5.27 2.39
3.46 5.34 2.39
3.35 5.40 2.39
3.24 5.47 2.39
3.13 5.53 2.39
3.02 5.59 2.39
2.90 5.65 2.39
2.78 5.70 2.39
2.67 5.75 2.39
2.55 5.80 2.39
2.43 5.85 2.39
2.31 5.90 2.39
2.19 5.94 2.39
2.07 5.98 2.39
2.03 6.28 2.50
1.90 6.32 2.50
1.78 6.36 2.50
1.65 6.39 2.50
1.52 6.42 2.50
1.39 6.45 2.50
1.26 6.47 2.50
1.12 6.50 2.50
0.99 6.52 2.50
0.86 6.53 2.50
0.73 6.55 2.50
0.60 6.56 2.50
0.46 6.57 2.50
0.33 6.58 2.50
0.20 6.59 2.50
0.06 6.59 2.50
-0.07 6.59 2.50
-0.20 6.59 2.50
-0.34 6.58 2.50
-0.47 6.58 2.50
-0.60 6.57 2.50
-0.73 6.55 2.50
-0.87 6.54 2.50
-1.00 6.52 2.50
-1.13 6.50 2.50
-1.26 6.48 2.50
-1.39 6.46 2.50
-1.52 6.43 2.50
-1.65 6.40 2.50
-1.78 6.37 2.50
-1.91 6.33 2.50
-2.04 6.29 2.50
-2.17 6.25 2.50
-2.30 6.21 2.50
-2.42 6.17 2.50
-2.55 6.12 2.50
-2.67 6.07 2.50
-2.79 6.02 2.50
-2.92 5.96 2.50
-3.04 5.91 2.50
-3.16 5.85 2.50
-3.28 5.79 2.50
-3.40 5.72 2.50
-3.51 5.66 2.50
-3.63 5.59 2.50
-3.74 5.52 2.50
-3.86 5.44 2.50
-3.97 5.37 2.50
-4.08 5.29 2.50
-4.19 5.21 2.50
-4.30 5.13 2.50
-4.40 5.05 2.50
-4.51 4.96 2.50
-4.61 4.87 2.50
-4.71 4.78 2.50
-4.81 4.69 2.50
-4.91 4.60 2.50
-5.00 4.50 2.50
-5.10 4.40 2.50
-5.19 4.30 2.50
-5.28 4.20 2.50
-5.37 4.10 2.50
-5.46 3.99 2.50
-5.54 3.89 2.50
-5.62 3.78 2.50
-5.71 3.67 2.50
-5.78 3.56 2.50
-5.86 3.44 2.50
-5.93 3.33 2.50
-5.99 3.20 2.49
-5.99 3.05 2.46
-5.99 2.90 2.43
-6.00 2.75 2.41
-6.01 2.62 2.39
-6.07 2.50 2.39
-6.13 2.38 2.39
-6.18 2.26 2.39
-6.23 2.13 2.39
-6.28 2.01 2.39
-6.33 1.89 2.39
-6.37 1.76 2.39
-6.41 1.63 2.39
-6.45 1.51 2.39
-6.49 1.38 2.39
-6.52 1.25 2.39
-6.55 1.12 2.39
-6.58 0.99 2.39
-6.61 0.86 2.39
-6.63 0.72 2.39
-6.65 0.59 2.39
-6.67 0.46 2.39
-6.69 0.33 2.39
-6.70 0.19 2.39
-6.71 0.06 2.39
-6.72 -0.08 2.39
-6.72 -0.21 2.39
-6.72 -0.35 2.39
-6.72 -0.48 2.39
-6.72 -0.62 2.39
-6.71 -0.75 2.39
-6.71 -0.89 2.39
-6.69 -1.03 2.39
-6.68 -1.16 2.39
-6.66 -1.30 2.39
-6.64 -1.43 2.39
-6.62 -1.57 2.39
-6.60 -1.70 2.39
-6.57 -1.83 2.39
-6.54 -1.97 2.39
-6.50 -2.10 2.39
-6.47 -2.23 2.39
-6.43 -2.36 2.39
-6.39 -2.49 2.39
-6.34 -2.62 2.39
-6.30 -2.75 2.39
-6.25 -2.88 2.39
-6.19 -3.01 2.39
-6.14 -3.14 2.39
-6.08 -3.26 2.39
-6.02 -3.39 2.39
-5.98 -3.52 2.40
-5.97 -3.68 2.43
-5.97 -3.85 2.45
-5.97 -4.02 2.48
-5.93 -4.16 2.50
-5.85 -4.28 2.50
-5.76 -4.40 2.50
-5.68 -4.52 2.50
-5.59 -4.64 2.50
-5.51 -4.75 2.50
-5.41 -4.87 2.50
-5.32 -4.98 2.50
-5.22 -5.09 2.50
-5.13 -5.20 2.50
-5.02 -5.30 2.50
-4.92 -5.40 2.50
-4.82 -5.51 2.50
-4.71 -5.61 2.50
-4.60 -5.70 2.50
-4.49 -5.80 2.50
-4.37 -5.89 2.50
-4.26 -5.98 2.50
-4.14 -6.07 2.50
-4.02 -6.15 2.50
-3.90 -6.24 2.50
-3.78 -6.32 2.50
-3.65 -6.39 2.50
-3.53 -6.47 2.50
-3.40 -6.54 2.50
-3.27 -6.61 2.50
-3.14 -6.68 2.50
-3.00 -6.74 2.50
-2.87 -6.80 2.50
-2.74 -6.86 2.50
-2.60 -6.92 2.50
-2.46 -6.97 2.50
-2.32 -7.02 2.50
-2.18 -7.07 2.50
-2.04 -7.11 2.50
-1.90 -7.15 2.50
-1.76 -7.19 2.50
-1.61 -7.23 2.50
-1.47 -7.26 2.50
-1.33 -7.29 2.50
-1.18 -7.31 2.50
-1.03 -7.34 2.50
-0.89 -7.36 2.50
-0.74 -7.37 2.50
-0.59 -7.39 2.50
-0.45 -7.40 2.50
-0.30 -7.40 2.50
-0.15 -7.41 2.50
-0.00 -6.89 2.50
0.13 -6.89 2.50
0.27 -6.89 2.50
0.41 -6.88 2.50
0.55 -6.87 2.50
0.68 -6.85 2.50
0.82 -6.84 2.50
0.95 -6.82 2.50
1.09 -6.80 2.50
1.23 -6.77 2.50
1.36 -6.74 2.50
1.49 -6.71 2.50
1.63 -6.68 2.50
1.76 -6.64 2.50
1.89 -6.61 2.50
2.02 -6.56 2.50
2.07 -6.29 2.41
2.18 -6.20 2.39
2.31 -6.16 2.39
2.43 -6.11 2.39
2.55 -6.05 2.39
2.67 -6.00 2.39
2.78 -5.94 2.39
2.90 -5.88 2.39
3.02 -5.82 2.39
3.13 -5.75 2.39
3.24 -5.69 2.39
3.35 -5.62 2.39
3.46 -5.55 2.39
3.57 -5.47 2.39
3.68 -5.40 2.39
3.78 -5.32 2.39
3.88 -5.24 2.39
3.98 -5.15 2.39
4.08 -5.07 2.39
4.18 -4.98 2.39
4.27 -4.90 2.39
4.37 -4.81 2.39
4.46 -4.71 2.39
4.55 -4.62 2.39
4.64 -4.52 2.39
4.72 -4.43 2.39
4.80 -4.33 2.39
4.89 -4.23 2.39
4.96 -4.12 2.39
5.04 -4.02 2.39
5.12 -3.92 2.39
5.19 -3.81 2.39
5.26 -3.70 2.39
5.33 -3.59 2.39
5.39 -3.48 2.39
5.45 -3.37 2.39
5.52 -3.26 2.39
5.57 -3.14 2.39
5.63 -3.03 2.39
5.68 -2.91 2.39
5.73 -2.79 2.39
5.78 -2.67 2.39
5.83 -2.56 2.39
3.99 -1.66 1.63
3.92 -1.53 1.59
3.91 -1.44 1.57
3.92 -1.35 1.56
3.94 -1.28 1.57
3.99 -1.20 1.58
4.07 -1.14 1.60
4.22 -1.09 1.65
6.08 1.03 2.39
6.05 1.16 2.39
6.02 1.28 2.39
5.98 1.39 2.39
5.95 1.51 2.39
5.91 1.63 2.39
5.87 1.75 2.39
5.83 1.86 2.39
5.78 1.98 2.39
5.74 2.09 2.39
5.69 2.21 2.39
5.64 2.32 2.39
5.58 2.43 2.39
5.53 2.54 2.39
5.47 2.65 2.39
5.41 2.75 2.39
5.35 2.86 2.39
5.29 2.96 2.39
5.22 3.07 2.39
5.15 3.17 2.39
5.08 3.27 2.39
5.01 3.37 2.39
2.76 1.94 1.34
2.70 1.98 1.33
2.66 2.03 1.33
4.71 3.75 2.39
4.63 3.84 2.39
4.55 3.93 2.39
4.46 4.02 2.39
4.38 4.10 2.39
4.29 4.19 2.39
4.20 4.27 2.39
4.11 4.35 2.39
4.02 4.43 2.39
3.93 4.51 2.39
3.83 4.58 2.39
3.74 4.66 2.39
3.64 4.73 2.39
3.54 4.80 2.39
3.44 4.86 2.39
3.34 4.93 2.39
3.24 4.99 2.39
3.14 5.06 2.39
3.03 5.12 2.39
2.93 5.17 2.39
2.82 5.23 2.39
2.71 5.28 2.39
2.61 5.33 2.39
2.50 5.38 2.39
2.39 5.43 2.39
2.28 5.48 2.39
2.16 5.52 2.39
2.06 5.58 2.40
2.02 5.84 2.50
1.90 5.88 2.50
1.78 5.91 2.50
1.66 5.95 2.50
1.54 5.98 2.50
1.42 6.01 2.50
1.30 6.03 2.50
1.18 6.06 2.50
1.05 6.08 2.50
0.93 6.10 2.50
0.81 6.12 2.50
0.68 6.13 2.50
0.56 6.14 2.50
0.43 6.15 2.50
0.31 6.16 2.50
0.18 6.16 2.50
0.06 6.17 2.50
-0.06 6.17 2.50
-0.19 6.17 2.50
-0.31 6.16 2.50
-0.44 6.15 2.50
-0.56 6.15 2.50
-0.69 6.13 2.50
-0.81 6.12 2.50
-0.94 6.10 2.50
-1.06 6.08 2.50
-1.18 6.06 2.50
-1.30 6.04 2.50
-1.43 6.01 2.50
-1.55 5.99 2.50
-1.67 5.96 2.50
-1.79 5.92 2.50
-1.91 5.89 2.50
-2.03 5.85 2.50
-2.15 5.81 2.50
-2.27 5.77 2.50
-2.38 5.72 2.50
-2.50 5.68 2.50
-2.62 5.63 2.50
-2.73 5.58 2.50
-2.84 5.52 2.50
-2.96 5.47 2.50
-3.07 5.41 2.50
-3.18 5.35 2.50
-3.29 5.29 2.50
-3.40 5.22 2.50
-3.50 5.16 2.50
-3.61 5.09 2.50
-3.71 5.02 2.50
-3.82 4.95 2.50
-3.92 4.87 2.50
-4.02 4.80 2.50
-4.12 4.72 2.50
-4.22 4.64 2.50
-4.31 4.55 2.50
-4.41 4.47 2.50
-4.50 4.38 2.50
-4.59 4.30 2.50
-4.68 4.21 2.50
-4.77 4.11 2.50
-4.85 4.02 2.50
-4.94 3.93 2.50
-5.02 3.83 2.50
-5.10 3.73 2.50
-5.18 3.63 2.50
-5.26 3.53 2.50
-5.33 3.42 2.50
-5.41 3.32 2.50
-5.48 3.21 2.50
-5.55 3.11 2.50
-5.61 3.00 2.50
-5.68 2.89 2.50
-5.74 2.77 2.50
-5.80 2.66 2.50
-5.86 2.55 2.50
-5.92 2.43 2.50
-5.97 2.31 2.50
-5.99 2.18 2.48
-5.99 2.05 2.46
-5.99 1.91 2.44
-5.99 1.78 2.43
-5.99 1.65 2.41
-6.00 1.52 2.40
-6.02 1.40 2.39
-6.06 1.28 2.39
-6.09 1.16 2.39
-6.12 1.04 2.39
-6.14 0.92 2.39
-6.18 0.80 2.40
-6.19 0.67 2.39
-6.21 0.55 2.39
-6.22 0.42 2.39
-6.24 0.30 2.39
-6.25 0.18 2.39
-6.26 0.05 2.39
-6.27 -0.08 2.39
-6.27 -0.20 2.39
-6.27 -0.33 2.39
-6.27 -0.45 2.39
-6.27 -0.58 2.39
-6.26 -0.71 2.39
-6.25 -0.83 2.39
-6.24 -0.96 2.39
-6.23 -1.09 2.39
-6.21 -1.21 2.39
-6.19 -1.34 2.39
-6.17 -1.46 2.39
-6.17 -1.59 2.40
-6.12 -1.71 2.39
-6.09 -1.84 2.39
-6.06 -1.96 2.39
-6.03 -2.08 2.39
-5.99 -2.21 2.39
-5.98 -2.34 2.41
-5.98 -2.48 2.42
-5.97 -2.62 2.44
-5.97 -2.76 2.46
-5.97 -2.91 2.48
-5.96 -3.05 2.50
-5.91 -3.17 2.50
-5.85 -3.29 2.50
-5.79 -3.41 2.50
-5.72 -3.53 2.50
-5.66 -3.65 2.50
-5.59 -3.76 2.50
-5.52 -3.88 2.50
-5.44 -3.99 2.50
-5.37 -4.10 2.50
-5.29 -4.21 2.50
-5.21 -4.32 2.50
-5.12 -4.43 2.50
-5.04 -4.53 2.50
-4.95 -4.64 2.50
-4.86 -4.74 2.50
-4.77 -4.84 2.50
-4.68 -4.94 2.50
-4.58 -5.03 2.50
-4.48 -5.13 2.50
-4.38 -5.22 2.50
-4.28 -5.31 2.50
-4.18 -5.40 2.50
-4.07 -5.48 2.50
-3.96 -5.57 2.50
-3.85 -5.65 2.50
-3.74 -5.73 2.50
-3.63 -5.80 2.50
-3.51 -5.88 2.50
-3.40 -5.95 2.50
-3.28 -6.02 2.50
-3.16 -6.09 2.50
-3.04 -6.15 2.50
-2.92 -6.21 2.50
-2.79 -6.27 2.50
-2.67 -6.33 2.50
-2.54 -6.38 2.50
-2.42 -6.44 2.50
