ply
format ascii 1.0
element vertex 2932
property float32 x
property float32 y
property float32 z
end_header
-12.48 -4.24 2.08
-12.46 -4.51 2.09
-12.44 -4.79 2.10
-12.41 -5.07 2.11
-12.38 -5.35 2.12
-12.35 -5.63 2.13
-12.39 -5.95 2.15
-12.46 -6.30 2.18
-12.43 -6.60 2.20
-12.38 -6.90 2.21
-12.34 -7.20 2.23
-12.29 -7.51 2.24
-12.24 -7.82 2.26
-12.24 -8.17 2.28
-12.22 -8.52 2.31
-12.12 -8.82 2.32
-12.01 -9.11 2.33
-11.90 -9.41 2.34
-11.76 -9.70 2.35
-11.62 -9.98 2.35
-11.48 -10.27 2.36
-11.37 -10.59 2.38
-11.33 -10.98 2.41
-11.22 -11.33 2.43
-11.10 -11.66 2.45
-10.25 -11.21 2.31
-10.08 -11.48 2.32
-10.10 -11.98 2.37
-9.96 -12.30 2.39
-9.73 -12.53 2.39
-9.49 -12.75 2.39
-9.25 -12.96 2.39
-9.01 -13.17 2.39
-8.76 -13.38 2.39
-8.51 -13.58 2.39
-8.25 -13.78 2.39
-7.99 -13.98 2.39
-7.73 -14.17 2.39
-7.46 -14.35 2.39
-7.19 -14.53 2.39
-6.91 -14.71 2.39
-6.62 -14.85 2.39
-6.34 -15.04 2.39
-6.31 -15.86 2.49
-6.01 -16.02 2.49
-5.70 -16.18 2.49
-5.39 -16.33 2.49
-5.07 -16.47 2.49
-4.75 -16.61 2.49
-4.43 -16.74 2.49
-4.10 -16.87 2.49
-3.77 -16.99 2.49
-3.44 -17.11 2.49
-3.10 -17.22 2.49
-2.76 -17.32 2.49
-2.42 -17.41 2.49
-2.07 -17.50 2.49
-1.73 -17.59 2.49
-1.38 -17.66 2.49
-1.02 -17.73 2.49
-0.67 -17.79 2.49
-0.31 -17.85 2.49
0.04 -15.36 2.49
0.35 -15.39 2.49
0.66 -15.41 2.49
0.97 -15.43 2.49
1.29 -15.44 2.49
1.60 -15.45 2.49
1.83 -14.80 2.39
2.13 -14.80 2.39
2.44 -14.78 2.39
2.74 -14.76 2.39
3.04 -14.74 2.39
3.34 -14.70 2.39
3.64 -14.67 2.39
3.95 -14.62 2.39
4.25 -14.57 2.39
4.55 -14.51 2.39
4.85 -14.45 2.39
5.15 -14.38 2.39
5.44 -14.30 2.39
5.74 -14.22 2.39
5.75 -13.44 2.28
5.77 -12.79 2.18
5.80 -12.20 2.09
5.83 -11.66 2.02
5.86 -11.15 1.95
5.89 -10.68 1.88
5.92 -10.24 1.82
5.94 -9.81 1.76
5.95 -9.40 1.71
5.96 -9.02 1.65
5.97 -8.65 1.61
6.09 -8.45 1.59
2.73 -3.63 0.69
27.08 -34.58 6.67
27.68 -33.92 6.64
16.18 -19.04 3.78
16.04 -18.12 3.66
16.01 -17.38 3.57
16.05 -16.73 3.49
16.07 -16.10 3.42
16.03 -15.43 3.34
16.04 -14.83 3.28
16.06 -14.26 3.22
16.06 -13.70 3.16
16.09 -13.17 3.11
16.26 -12.78 3.09
16.41 -12.38 3.07
16.55 -11.97 3.04
16.33 -11.32 2.96
15.84 -10.51 2.83
15.39 -9.78 2.71
14.88 -9.04 2.58
14.41 -8.36 2.47
14.02 -7.77 2.37
13.76 -7.27 2.30
13.61 -6.84 2.25
13.47 -6.44 2.20
13.31 -6.04 2.16
13.06 -5.61 2.10
12.87 -5.22 2.05
12.74 -4.88 2.01
12.55 -4.52 1.96
12.38 -4.18 1.92
12.20 -3.85 1.88
12.04 -3.53 1.84
11.93 -3.25 1.82
11.94 -2.99 1.81
11.95 -2.74 1.80
11.96 -2.49 1.79
11.88 -2.23 1.78
11.79 -1.97 1.75
11.70 -1.71 1.74
11.61 -1.46 1.72
11.54 -1.22 1.70
11.51 -0.99 1.70
11.49 -0.75 1.69
11.47 -0.52 1.69
11.44 -0.29 1.68
11.42 -0.06 1.68
11.39 0.17 1.67
11.36 0.39 1.67
11.32 0.62 1.67
11.28 0.85 1.67
11.27 1.07 1.67
11.26 1.30 1.67
11.24 1.52 1.67
11.23 1.75 1.68
11.21 1.98 1.68
11.19 2.21 1.69
11.09 2.42 1.68
10.61 2.54 1.61
10.37 2.70 1.59
10.31 2.91 1.59
10.30 3.13 1.60
10.46 3.41 1.63
11.15 3.88 1.76
11.15 4.13 1.77
11.15 4.39 1.79
11.14 4.65 1.80
11.14 4.91 1.82
11.16 5.19 1.84
11.17 5.47 1.86
11.19 5.76 1.89
8.72 4.71 1.49
8.44 4.78 1.46
8.39 4.97 1.47
11.25 6.98 2.00
8.50 5.51 1.53
8.29 5.62 1.52
8.08 5.71 1.50
7.92 5.84 1.49
7.76 5.97 1.49
7.58 6.08 1.48
7.48 6.24 1.49
7.41 6.44 1.50
8.49 7.69 1.75
8.39 7.90 1.77
11.54 11.32 2.48
11.54 11.78 2.54
11.53 12.25 2.60
9.33 10.32 2.15
7.64 8.80 1.80
6.78 8.14 1.64
6.79 8.48 1.69
6.32 8.23 1.62
6.43 8.74 1.69
7.92 11.22 2.15
6.69 9.89 1.87
6.37 9.83 1.84
6.15 9.92 1.84
5.92 10.00 1.83
5.73 10.14 1.84
5.72 10.61 1.91
5.51 10.73 1.91
5.40 11.06 1.96
5.31 11.45 2.01
5.12 11.64 2.03
5.74 13.79 2.39
5.45 13.87 2.39
5.16 13.95 2.39
4.86 14.02 2.39
4.57 14.08 2.39
4.28 14.14 2.39
3.99 14.19 2.39
3.69 14.24 2.39
3.40 14.28 2.39
3.10 14.31 2.39
2.93 14.96 2.49
2.63 14.98 2.49
2.32 15.00 2.49
2.01 15.01 2.49
1.71 15.01 2.49
1.40 15.01 2.49
1.10 15.00 2.49
0.80 14.99 2.49
0.49 14.97 2.49
0.19 14.95 2.49
-0.11 14.92 2.49
-0.41 14.88 2.49
-0.70 14.84 2.49
-1.00 14.79 2.49
-1.29 14.73 2.49
-1.58 14.67 2.49
-1.88 14.61 2.49
-2.16 14.54 2.49
-2.45 14.46 2.49
-2.73 14.38 2.49
-3.02 14.29 2.49
-3.30 14.20 2.49
-3.57 14.11 2.49
-3.85 14.00 2.49
-4.12 13.90 2.49
-4.39 13.78 2.49
-4.66 13.67 2.49
-4.92 13.55 2.49
-5.11 13.22 2.46
-5.22 12.74 2.39
-5.47 12.61 2.39
-5.71 12.47 2.39
-5.95 12.34 2.39
-6.18 12.19 2.39
-6.42 12.05 2.39
-6.65 11.89 2.39
-6.87 11.74 2.39
-7.10 11.58 2.39
-7.31 11.42 2.39
-7.53 11.25 2.39
-7.74 11.08 2.39
-7.95 10.90 2.39
-8.16 10.73 2.39
-8.36 10.54 2.39
-8.56 10.36 2.39
-8.75 10.17 2.39
-8.95 9.98 2.39
-9.13 9.79 2.39
-9.70 9.98 2.49
-9.81 9.70 2.47
-9.92 9.42 2.45
-10.02 9.14 2.44
-10.12 8.87 2.42
-10.17 8.55 2.39
-10.21 8.24 2.36
-10.25 7.94 2.34
-10.31 7.66 2.32
-10.39 7.40 2.30
-10.47 7.14 2.29
-10.59 6.91 2.29
-10.71 6.69 2.29
-10.82 6.46 2.29
-10.94 6.24 2.28
-11.05 6.01 2.28
-11.16 5.78 2.28
-11.24 5.54 2.28
-11.28 5.28 2.26
-11.31 5.02 2.25
-11.35 4.76 2.24
-11.38 4.51 2.23
-11.42 4.26 2.22
-11.45 4.01 2.21
-11.51 3.77 2.21
-11.53 3.52 2.20
-11.55 3.28 2.19
-11.57 3.03 2.18
-11.59 2.79 2.18
-11.60 2.55 2.17
-11.62 2.31 2.16
-11.63 2.07 2.16
-11.72 1.84 2.17
-11.76 1.60 2.17
-11.78 1.36 2.17
-11.79 1.13 2.17
-11.81 0.89 2.16
-11.82 0.65 2.16
-11.83 0.41 2.16
-11.84 0.17 2.16
-11.89 -0.06 2.17
-11.95 -0.31 2.18
-11.96 -0.55 2.18
-11.96 -0.79 2.19
-11.96 -1.03 2.19
-11.96 -1.27 2.19
-11.96 -1.52 2.20
-11.96 -1.76 2.20
-11.96 -2.01 2.21
-11.96 -2.26 2.21
-11.95 -2.51 2.22
-11.94 -2.76 2.23
-11.93 -3.01 2.23
-11.92 -3.26 2.24
-11.90 -3.52 2.25
-11.89 -3.77 2.26
-11.87 -4.03 2.27
-11.87 -4.30 2.28
-11.84 -4.56 2.29
-11.81 -4.83 2.30
-11.78 -5.09 2.31
-11.75 -5.36 2.33
-11.71 -5.63 2.34
-11.63 -5.88 2.34
-11.53 -6.13 2.34
-11.44 -6.38 2.35
-11.34 -6.63 2.35
-11.24 -6.87 2.36
-11.14 -7.13 2.36
-11.04 -7.38 2.37
-10.94 -7.63 2.37
-10.83 -7.88 2.38
-10.71 -8.14 2.39
-10.60 -8.39 2.40
-10.48 -8.64 2.40
-10.35 -8.90 2.41
-10.09 -9.03 2.39
-9.93 -9.25 2.39
-9.75 -9.46 2.39
-9.58 -9.67 2.39
-9.40 -9.88 2.39
-9.21 -10.08 2.39
-9.02 -10.28 2.39
-8.83 -10.48 2.39
-8.63 -10.67 2.39
-8.43 -10.87 2.39
-8.22 -11.05 2.39
-8.02 -11.24 2.39
-7.80 -11.42 2.39
-7.59 -11.59 2.39
-7.37 -11.76 2.39
-7.14 -11.93 2.39
-6.91 -12.10 2.39
-6.68 -12.26 2.39
-6.45 -12.41 2.39
-6.24 -12.62 2.40
-6.22 -13.26 2.49
-5.97 -13.41 2.49
-5.71 -13.56 2.49
-5.45 -13.70 2.49
-5.18 -13.83 2.49
-4.91 -13.96 2.49
-4.64 -14.09 2.49
-4.37 -14.21 2.49
-4.09 -14.32 2.49
-3.81 -14.43 2.49
-3.53 -14.54 2.49
-3.24 -14.64 2.49
-2.95 -14.73 2.49
-2.66 -14.82 2.49
-2.37 -14.90 2.49
-2.07 -14.98 2.49
-1.78 -15.05 2.49
-1.48 -15.12 2.49
-1.18 -15.18 2.49
-0.87 -15.23 2.49
-0.57 -15.28 2.49
-0.26 -15.32 2.49
0.04 -13.44 2.49
0.31 -13.46 2.49
0.59 -13.48 2.49
0.86 -13.49 2.49
1.13 -13.50 2.49
1.40 -13.50 2.49
1.68 -13.49 2.49
1.87 -12.92 2.39
2.13 -12.91 2.39
2.40 -12.89 2.39
2.66 -12.86 2.39
2.92 -12.83 2.39
3.18 -12.79 2.39
3.45 -12.75 2.39
3.71 -12.70 2.39
3.97 -12.65 2.39
4.23 -12.59 2.39
4.49 -12.52 2.39
4.75 -12.45 2.39
5.00 -12.38 2.39
5.26 -12.30 2.39
5.52 -12.21 2.39
5.77 -12.12 2.39
5.83 -11.65 2.32
5.86 -11.14 2.24
5.89 -10.67 2.16
5.92 -10.24 2.09
5.94 -9.80 2.02
5.95 -9.40 1.96
5.96 -9.01 1.90
5.97 -8.65 1.85
2.69 -3.73 0.81
2.73 -3.63 0.80
5.95 -7.59 1.69
5.95 -7.29 1.65
5.96 -7.01 1.61
6.04 -6.82 1.59
6.18 -6.70 1.59
14.00 -14.59 3.52
13.90 -13.91 3.41
13.77 -13.25 3.31
13.69 -12.65 3.23
13.71 -12.17 3.17
13.72 -11.69 3.12
13.81 -11.30 3.08
13.95 -10.96 3.06
14.15 -10.66 3.05
14.34 -10.36 3.04
14.52 -10.06 3.04
14.68 -9.74 3.03
14.35 -9.11 2.92
13.96 -8.48 2.80
13.60 -7.89 2.69
13.30 -7.37 2.60
13.17 -6.95 2.55
13.04 -6.55 2.49
12.91 -6.17 2.44
12.79 -5.80 2.40
12.65 -5.43 2.35
12.51 -5.08 2.30
12.33 -4.72 2.25
12.16 -4.38 2.20
12.00 -4.05 2.16
11.84 -3.73 2.11
11.68 -3.43 2.07
11.63 -3.16 2.05
11.64 -2.92 2.04
11.65 -2.67 2.03
11.66 -2.43 2.02
11.67 -2.19 2.02
11.60 -1.94 2.00
11.51 -1.69 1.98
11.43 -1.44 1.96
11.36 -1.20 1.94
11.34 -0.97 1.93
11.32 -0.74 1.93
11.29 -0.51 1.92
11.27 -0.29 1.92
11.24 -0.06 1.91
11.22 0.16 1.91
11.20 0.39 1.91
11.16 0.61 1.90
11.13 0.83 1.90
11.12 1.06 1.90
11.10 1.28 1.90
11.09 1.50 1.91
11.07 1.73 1.91
11.05 1.95 1.92
11.04 2.18 1.92
11.02 2.40 1.93
10.62 2.54 1.87
10.31 2.69 1.82
9.84 2.77 1.75
9.50 2.88 1.70
9.17 2.99 1.66
8.85 3.08 1.61
8.66 3.21 1.59
8.62 3.39 1.60
10.76 4.48 2.01
10.73 4.73 2.02
10.70 4.97 2.04
10.67 5.22 2.05
10.66 5.48 2.08
8.05 4.35 1.59
7.82 4.43 1.56
7.64 4.53 1.54
7.53 4.67 1.54
8.20 5.31 1.70
8.09 5.48 1.70
7.81 5.52 1.67
7.59 5.59 1.65
7.43 5.71 1.64
7.30 5.85 1.64
7.19 6.00 1.65
7.15 6.22 1.67
7.21 6.52 1.71
7.98 7.51 1.93
8.14 7.98 2.01
10.79 11.01 2.73
10.65 11.31 2.75
7.22 7.98 1.91
6.79 7.82 1.84
6.50 7.79 1.81
6.30 7.87 1.80
6.11 7.95 1.79
5.95 8.07 1.80
5.84 8.27 1.82
6.06 8.96 1.95
6.30 9.72 2.09
6.09 9.82 2.09
5.90 9.96 2.09
5.74 10.14 2.11
5.71 10.58 2.18
5.50 10.69 2.19
5.30 10.83 2.20
5.18 11.16 2.25
5.13 11.66 2.33
5.02 12.04 2.39
4.76 12.12 2.39
4.51 12.19 2.39
4.26 12.25 2.39
4.00 12.31 2.39
3.75 12.37 2.39
3.49 12.42 2.39
3.24 12.46 2.39
2.98 12.50 2.39
2.84 13.07 2.49
2.57 13.10 2.49
2.31 13.12 2.49
2.04 13.14 2.49
1.77 13.15 2.49
1.50 13.16 2.49
1.24 13.16 2.49
0.97 13.16 2.49
0.70 13.15 2.49
0.44 13.14 2.49
0.17 13.12 2.49
-0.09 13.10 2.49
-0.35 13.07 2.49
-0.61 13.03 2.49
-0.87 12.99 2.49
-1.13 12.95 2.49
-1.39 12.90 2.49
-1.64 12.85 2.49
-1.90 12.79 2.49
-2.15 12.72 2.49
-2.40 12.65 2.49
-2.65 12.58 2.49
-2.90 12.50 2.49
-3.14 12.42 2.49
-3.39 12.33 2.49
-3.63 12.24 2.49
-3.87 12.15 2.49
-4.10 12.05 2.49
-4.34 11.94 2.49
-4.57 11.83 2.49
-4.80 11.72 2.49
-5.02 11.60 2.49
-5.19 11.35 2.47
-5.24 10.88 2.39
-5.45 10.76 2.39
-5.66 10.63 2.39
-5.86 10.50 2.39
-6.06 10.37 2.39
-6.26 10.23 2.39
-6.46 10.08 2.39
-6.65 9.94 2.39
-6.84 9.79 2.39
-7.03 9.64 2.39
-7.21 9.48 2.39
-7.39 9.32 2.39
-7.56 9.16 2.39
-7.74 9.00 2.39
-7.91 8.83 2.39
-8.07 8.66 2.39
-8.24 8.48 2.39
-8.40 8.31 2.39
-8.55 8.13 2.39
-8.71 7.94 2.39
-8.86 7.76 2.39
-9.00 7.57 2.39
-9.14 7.38 2.39
-9.28 7.19 2.39
-9.66 7.18 2.45
-9.74 6.94 2.44
-9.82 6.70 2.43
-9.89 6.46 2.41
-10.01 6.25 2.41
-10.12 6.04 2.41
-10.23 5.83 2.41
-10.30 5.60 2.40
-10.36 5.36 2.39
-10.41 5.13 2.38
-10.48 4.90 2.37
-10.58 4.70 2.38
-10.69 4.49 2.38
-10.79 4.27 2.39
-10.89 4.06 2.39
-10.99 3.85 2.39
-11.05 3.62 2.39
-11.09 3.39 2.39
-11.14 3.16 2.38
-11.18 2.93 2.38
-11.22 2.70 2.38
-11.25 2.47 2.37
-11.28 2.24 2.37
-11.31 2.01 2.37
-11.33 1.78 2.36
-11.36 1.55 2.36
-11.38 1.32 2.36
-11.40 1.09 2.36
-11.42 0.86 2.36
-11.44 0.63 2.36
-11.45 0.40 2.36
-11.46 0.17 2.36
-11.46 -0.06 2.36
-11.46 -0.29 2.36
-11.46 -0.53 2.36
-11.46 -0.76 2.36
-11.45 -0.99 2.36
-11.44 -1.22 2.37
-11.42 -1.45 2.37
-11.41 -1.68 2.37
-11.39 -1.92 2.37
-11.36 -2.15 2.37
-11.34 -2.38 2.38
-11.31 -2.61 2.38
-11.27 -2.84 2.38
-11.23 -3.08 2.38
-11.19 -3.31 2.39
-11.14 -3.54 2.39
-11.09 -3.77 2.39
-11.04 -4.00 2.40
-10.99 -4.24 2.40
-10.92 -4.47 2.40
-10.84 -4.69 2.41
-10.76 -4.92 2.41
-10.68 -5.14 2.41
-10.59 -5.36 2.41
-10.50 -5.59 2.41
-10.42 -5.81 2.42
-10.32 -6.04 2.42
-10.23 -6.26 2.42
-9.98 -6.38 2.39
-9.86 -6.59 2.39
-9.73 -6.80 2.39
-9.61 -7.00 2.39
-9.48 -7.20 2.39
-9.34 -7.40 2.39
-9.20 -7.60 2.39
-9.06 -7.79 2.39
-8.91 -7.98 2.39
-8.76 -8.17 2.39
-8.61 -8.36 2.39
-8.45 -8.54 2.39
-8.29 -8.72 2.39
-8.13 -8.90 2.39
-7.96 -9.08 2.39
-7.79 -9.25 2.39
-7.61 -9.42 2.39
-7.43 -9.58 2.39
-7.25 -9.75 2.39
-7.06 -9.91 2.39
-6.87 -10.06 2.39
-6.68 -10.22 2.39
-6.48 -10.37 2.39
-6.29 -10.51 2.39
-6.15 -10.77 2.42
-6.13 -11.26 2.49
-5.92 -11.40 2.49
-5.69 -11.54 2.49
-5.47 -11.67 2.49
-5.25 -11.80 2.49
-5.02 -11.92 2.49
-4.78 -12.04 2.49
-4.55 -12.16 2.49
-4.31 -12.27 2.49
-4.07 -12.38 2.49
-3.83 -12.48 2.49
-3.59 -12.58 2.49
-3.34 -12.67 2.49
-3.09 -12.76 2.49
-2.84 -12.85 2.49
-2.59 -12.92 2.49
-2.33 -13.00 2.49
-2.07 -13.07 2.49
-1.81 -13.13 2.49
-1.55 -13.19 2.49
-1.29 -13.25 2.49
-1.03 -13.30 2.49
-0.76 -13.34 2.49
-0.49 -13.38 2.49
-0.23 -13.41 2.49
0.04 -11.93 2.49
0.28 -11.95 2.49
0.52 -11.96 2.49
0.77 -11.97 2.49
1.01 -11.97 2.49
1.25 -11.97 2.49
1.49 -11.97 2.49
1.73 -11.95 2.49
1.89 -11.44 2.39
2.13 -11.42 2.39
2.36 -11.40 2.39
2.59 -11.37 2.39
2.82 -11.33 2.39
3.06 -11.29 2.39
3.29 -11.25 2.39
3.52 -11.20 2.39
3.75 -11.14 2.39
3.98 -11.08 2.39
4.20 -11.02 2.39
4.43 -10.95 2.39
4.66 -10.87 2.39
4.88 -10.80 2.39
5.10 -10.71 2.39
5.33 -10.62 2.39
5.55 -10.53 2.39
5.76 -10.43 2.39
5.92 -10.23 2.37
5.94 -9.80 2.29
5.95 -9.39 2.22
5.96 -9.00 2.15
5.97 -8.64 2.09
2.69 -3.73 0.91
2.73 -3.63 0.90
5.95 -7.59 1.91
5.95 -7.29 1.86
5.96 -7.00 1.82
5.97 -6.73 1.78
5.97 -6.47 1.74
5.97 -6.22 1.70
5.98 -5.98 1.67
5.98 -5.75 1.63
6.00 -5.54 1.60
6.05 -5.37 1.59
6.16 -5.25 1.59
12.07 -9.88 3.06
12.22 -9.59 3.04
12.38 -9.33 3.03
12.57 -9.08 3.03
12.76 -8.83 3.03
12.94 -8.58 3.03
13.11 -8.32 3.03
13.19 -8.00 3.00
12.87 -7.47 2.90
12.74 -7.05 2.83
12.61 -6.65 2.77
12.42 -6.24 2.70
12.25 -5.85 2.63
12.07 -5.47 2.57
12.00 -5.15 2.53
11.97 -4.86 2.50
11.94 -4.57 2.48
11.79 -4.24 2.43
11.64 -3.93 2.38
11.49 -3.62 2.33
11.34 -3.33 2.29
11.34 -3.08 2.27
11.35 -2.84 2.26
11.36 -2.61 2.25
11.37 -2.37 2.24
11.38 -2.14 2.24
11.39 -1.90 2.23
11.33 -1.66 2.21
11.25 -1.42 2.19
11.19 -1.18 2.17
11.17 -0.96 2.17
11.15 -0.73 2.16
11.12 -0.51 2.15
11.10 -0.28 2.15
11.08 -0.06 2.14
11.05 0.16 2.14
11.03 0.38 2.13
11.00 0.60 2.13
10.98 0.82 2.13
10.96 1.04 2.13
10.93 1.26 2.13
10.87 1.47 2.13
10.82 1.69 2.12
10.76 1.90 2.12
10.70 2.11 2.12
10.64 2.32 2.12
10.58 2.53 2.11
10.32 2.69 2.07
9.84 2.77 1.99
9.50 2.88 1.93
9.18 2.99 1.88
8.87 3.08 1.83
8.58 3.18 1.79
8.30 3.26 1.74
8.04 3.35 1.70
7.64 3.36 1.63
7.42 3.45 1.60
10.24 5.01 2.24
8.01 4.12 1.77
7.71 4.16 1.72
7.44 4.21 1.68
7.32 4.33 1.68
7.20 4.46 1.67
7.10 4.60 1.67
7.05 4.77 1.68
7.59 5.36 1.84
7.32 5.39 1.80
7.05 5.42 1.77
7.00 5.60 1.78
6.91 5.76 1.79
6.98 6.06 1.84
7.07 6.39 1.90
7.96 7.49 2.18
7.95 7.79 2.23
8.25 8.42 2.36
8.17 8.67 2.39
7.07 7.81 2.12
6.82 7.85 2.09
6.38 7.64 2.01
6.23 7.78 2.01
6.07 7.90 2.02
5.83 7.91 1.99
5.57 7.87 1.96
5.40 7.98 1.96
5.36 8.26 2.00
6.08 9.80 2.35
5.88 9.92 2.35
5.74 10.14 2.38
5.55 10.27 2.39
5.33 10.36 2.39
5.11 10.45 2.39
4.89 10.53 2.39
4.67 10.61 2.39
4.45 10.68 2.39
4.23 10.75 2.39
4.01 10.81 2.39
3.78 10.87 2.39
3.56 10.93 2.39
3.33 10.98 2.39
3.11 11.02 2.39
2.88 11.06 2.39
2.77 11.58 2.49
2.53 11.61 2.49
2.29 11.64 2.49
2.05 11.66 2.49
1.82 11.68 2.49
1.58 11.70 2.49
1.34 11.70 2.49
1.10 11.71 2.49
0.87 11.71 2.49
0.63 11.70 2.49
0.40 11.69 2.49
0.16 11.68 2.49
-0.07 11.66 2.49
-0.31 11.64 2.49
-0.54 11.61 2.49
-0.77 11.58 2.49
-1.00 11.54 2.49
-1.23 11.50 2.49
-1.46 11.45 2.49
-1.69 11.40 2.49
-1.91 11.35 2.49
-2.14 11.29 2.49
-2.36 11.22 2.49
-2.58 11.16 2.49
-2.80 11.08 2.49
-3.02 11.01 2.49
-3.23 10.93 2.49
-3.45 10.85 2.49
-3.66 10.76 2.49
-3.87 10.67 2.49
-4.08 10.57 2.49
-4.28 10.47 2.49
-4.49 10.37 2.49
-4.69 10.26 2.49
-4.88 10.15 2.49
-5.08 10.04 2.49
-5.25 9.88 2.48
-5.28 9.46 2.41
-5.42 9.27 2.39
-5.60 9.15 2.39
-5.77 9.02 2.39
-5.95 8.89 2.39
-6.12 8.76 2.39
-6.28 8.63 2.39
-6.45 8.49 2.39
-6.61 8.35 2.39
-6.77 8.20 2.39
-6.93 8.06 2.39
-7.08 7.91 2.39
-7.23 7.75 2.39
-7.38 7.60 2.39
-7.52 7.44 2.39
-7.66 7.28 2.39
-7.80 7.12 2.39
-7.93 6.95 2.39
-8.06 6.79 2.39
-8.19 6.62 2.39
-8.32 6.45 2.39
-8.44 6.27 2.39
-8.56 6.10 2.39
-8.67 5.92 2.39
-8.78 5.74 2.39
-8.89 5.56 2.39
-8.99 5.37 2.39
-9.09 5.19 2.39
-9.19 5.00 2.39
-9.29 4.81 2.39
-9.38 4.62 2.39
-9.46 4.43 2.39
-9.81 4.35 2.46
-9.89 4.15 2.46
-9.98 3.96 2.46
-10.07 3.76 2.46
-10.12 3.55 2.46
-10.17 3.33 2.46
-10.21 3.12 2.45
-10.25 2.91 2.45
-10.29 2.70 2.44
-10.32 2.49 2.44
-10.35 2.27 2.43
-10.38 2.06 2.43
-10.41 1.85 2.43
-10.43 1.64 2.43
-10.45 1.42 2.42
-10.46 1.21 2.42
-10.48 1.00 2.42
-10.48 0.79 2.42
-10.50 0.58 2.41
-10.51 0.37 2.41
-10.52 0.15 2.41
-10.52 -0.06 2.41
-10.52 -0.27 2.42
-10.52 -0.48 2.42
-10.52 -0.70 2.42
-10.52 -0.91 2.42
-10.52 -1.12 2.42
-10.51 -1.34 2.43
-10.49 -1.55 2.43
-10.47 -1.76 2.43
-10.45 -1.98 2.43
-10.42 -2.19 2.43
-10.39 -2.40 2.44
-10.36 -2.62 2.44
-10.33 -2.83 2.44
-10.29 -3.04 2.45
-10.25 -3.26 2.45
-10.21 -3.47 2.46
-10.16 -3.69 2.46
-9.81 -3.78 2.39
-9.73 -3.98 2.39
-9.66 -4.18 2.39
-9.58 -4.38 2.39
-9.50 -4.57 2.39
-9.42 -4.77 2.39
-9.33 -4.96 2.39
-9.23 -5.15 2.39
-9.14 -5.34 2.39
-9.04 -5.53 2.39
-8.93 -5.72 2.39
-8.82 -5.90 2.39
-8.71 -6.09 2.39
-8.60 -6.27 2.39
-8.48 -6.45 2.39
-8.36 -6.63 2.39
-8.23 -6.80 2.39
-8.10 -6.97 2.39
-7.97 -7.14 2.39
-7.84 -7.31 2.39
-7.70 -7.48 2.39
-7.56 -7.64 2.39
-7.41 -7.80 2.39
-7.26 -7.96 2.39
-7.11 -8.12 2.39
-6.96 -8.27 2.39
-6.80 -8.42 2.39
-6.64 -8.57 2.39
-6.47 -8.71 2.39
-6.31 -8.85 2.39
-6.13 -8.99 2.39
-6.08 -9.31 2.44
-6.04 -9.66 2.49
-5.85 -9.79 2.49
-5.66 -9.92 2.49
-5.47 -10.05 2.49
-5.27 -10.17 2.49
-5.08 -10.29 2.49
-4.88 -10.41 2.49
-4.67 -10.52 2.49
-4.47 -10.63 2.49
-4.26 -10.74 2.49
-4.05 -10.84 2.49
-3.84 -10.94 2.49
-3.62 -11.03 2.49
-3.41 -11.12 2.49
-3.19 -11.20 2.49
-2.97 -11.28 2.49
-2.75 -11.36 2.49
-2.52 -11.43 2.49
-2.30 -11.50 2.49
-2.07 -11.57 2.49
-1.84 -11.62 2.49
-1.61 -11.68 2.49
-1.38 -11.73 2.49
-1.14 -11.78 2.49
-0.91 -11.82 2.49
-0.67 -11.85 2.49
-0.43 -11.88 2.49
-0.20 -11.91 2.49
0.04 -10.72 2.49
0.26 -10.74 2.49
0.48 -10.75 2.49
0.69 -10.75 2.49
0.91 -10.75 2.49
1.13 -10.75 2.49
1.34 -10.74 2.49
1.56 -10.73 2.49
1.78 -10.71 2.49
1.93 -10.35 2.41
2.14 -10.30 2.41
2.33 -10.19 2.39
2.54 -10.16 2.39
2.74 -10.12 2.39
2.95 -10.08 2.39
3.16 -10.03 2.39
3.36 -9.98 2.39
3.57 -9.93 2.39
3.77 -9.87 2.39
3.97 -9.81 2.39
4.17 -9.74 2.39
4.37 -9.67 2.39
4.57 -9.59 2.39
4.77 -9.51 2.39
4.97 -9.42 2.39
5.16 -9.34 2.39
5.35 -9.24 2.39
5.55 -9.15 2.39
5.74 -9.04 2.39
5.92 -8.94 2.39
5.98 -8.64 2.34
2.69 -3.72 1.02
2.73 -3.63 1.01
5.95 -7.58 2.14
5.95 -7.28 2.09
5.96 -7.00 2.04
5.97 -6.73 1.99
5.97 -6.47 1.94
5.97 -6.22 1.90
5.98 -5.98 1.86
5.98 -5.75 1.83
6.01 -5.55 1.80
6.02 -5.33 1.77
6.02 -5.13 1.74
6.03 -4.93 1.71
6.04 -4.74 1.68
6.04 -4.55 1.66
6.05 -4.37 1.63
6.06 -4.19 1.61
6.12 -4.05 1.60
6.20 -3.93 1.60
6.22 -3.77 1.59
6.30 -3.65 1.59
12.00 -6.64 2.99
11.84 -6.24 2.91
11.68 -5.87 2.85
11.53 -5.50 2.78
11.45 -5.19 2.73
11.43 -4.90 2.70
11.40 -4.63 2.67
11.38 -4.35 2.65
11.35 -4.09 2.62
11.29 -3.81 2.59
11.16 -3.52 2.54
11.05 -3.24 2.50
11.06 -3.01 2.49
11.08 -2.77 2.48
11.09 -2.54 2.47
11.10 -2.31 2.46
11.11 -2.08 2.45
11.11 -1.86 2.44
11.12 -1.63 2.43
11.08 -1.40 2.42
11.02 -1.17 2.40
11.00 -0.94 2.39
10.98 -0.72 2.38
10.96 -0.50 2.38
10.93 -0.28 2.37
10.91 -0.06 2.37
10.84 0.16 2.35
10.75 0.37 2.33
10.66 0.58 2.32
10.57 0.79 2.30
10.55 1.00 2.30
10.54 1.21 2.30
10.49 1.42 2.30
10.43 1.62 2.30
10.38 1.83 2.29
10.32 2.03 2.29
10.26 2.24 2.29
10.21 2.44 2.29
10.15 2.64 2.29
9.85 2.77 2.23
9.50 2.88 2.17
9.18 2.99 2.11
7.86 2.73 1.82
7.78 2.88 1.82
7.69 3.02 1.81
7.78 3.24 1.85
7.65 3.36 1.83
6.63 3.08 1.60
6.55 3.20 1.60
6.51 3.35 1.61
7.54 4.06 1.88
7.29 4.12 1.84
7.13 4.22 1.83
7.02 4.35 1.82
6.90 4.47 1.82
6.83 4.62 1.83
6.82 4.82 1.85
6.90 5.08 1.90
6.85 5.26 1.92
6.80 5.44 1.94
6.93 5.77 2.01
6.96 6.04 2.05
6.97 6.30 2.10
7.98 7.50 2.45
7.91 7.75 2.48
8.18 8.33 2.61
8.16 8.65 2.67
6.88 7.59 2.30
6.58 7.57 2.26
6.36 7.61 2.23
6.09 7.59 2.19
5.94 7.71 2.20
5.80 7.86 2.21
5.54 7.82 2.17
5.37 7.93 2.17
5.31 8.18 2.22
5.49 8.85 2.37
5.36 9.03 2.39
5.17 9.12 2.39
4.98 9.21 2.39
4.78 9.29 2.39
4.59 9.37 2.39
4.39 9.45 2.39
4.20 9.52 2.39
4.00 9.58 2.39
3.80 9.65 2.39
3.60 9.71 2.39
3.40 9.76 2.39
3.20 9.81 2.39
3.01 9.91 2.40
2.81 9.97 2.41
2.70 10.37 2.49
2.49 10.41 2.49
2.28 10.44 2.49
2.06 10.46 2.49
1.85 10.49 2.49
1.64 10.50 2.49
1.42 10.52 2.49
1.21 10.53 2.49
1.00 10.53 2.49
0.78 10.54 2.49
0.57 10.53 2.49
0.36 10.53 2.49
0.15 10.51 2.49
-0.06 10.50 2.49
-0.27 10.48 2.49
-0.48 10.46 2.49
-0.69 10.43 2.49
-0.90 10.40 2.49
-1.11 10.36 2.49
-1.31 10.32 2.49
-1.52 10.28 2.49
-1.72 10.23 2.49
-1.92 10.18 2.49
-2.12 10.12 2.49
-2.32 10.06 2.49
-2.52 10.00 2.49
-2.72 9.93 2.49
-2.91 9.86 2.49
-3.11 9.79 2.49
-3.30 9.71 2.49
-3.49 9.63 2.49
-3.68 9.54 2.49
-3.86 9.45 2.49
-4.05 9.36 2.49
-4.23 9.27 2.49
-4.41 9.17 2.49
-4.59 9.07 2.49
-4.76 8.96 2.49
-4.93 8.85 2.49
-5.11 8.74 2.49
-5.27 8.63 2.49
-5.32 8.32 2.44
-5.37 8.04 2.39
-5.53 7.93 2.39
-5.68 7.80 2.39
-5.83 7.68 2.39
-5.98 7.55 2.39
-6.12 7.42 2.39
-6.26 7.29 2.39
-6.40 7.15 2.39
-6.54 7.02 2.39
-6.67 6.88 2.39
-6.80 6.74 2.39
-6.93 6.59 2.39
-7.06 6.44 2.39
-7.18 6.30 2.39
-7.30 6.14 2.39
-7.41 5.99 2.39
-7.53 5.84 2.39
-7.64 5.68 2.39
-7.75 5.52 2.39
-7.85 5.36 2.39
-7.95 5.20 2.39
-8.05 5.03 2.39
-8.14 4.87 2.39
-8.24 4.70 2.39
-8.32 4.53 2.39
-8.41 4.36 2.39
-8.49 4.19 2.39
-8.57 4.01 2.39
-8.64 3.84 2.39
-8.72 3.66 2.39
-8.79 3.48 2.39
-8.85 3.30 2.39
-8.91 3.12 2.39
-8.97 2.94 2.39
-9.03 2.76 2.39
-9.08 2.58 2.39
-9.13 2.39 2.39
-9.17 2.21 2.39
-9.21 2.02 2.39
-9.25 1.84 2.39
-9.28 1.65 2.39
-9.32 1.46 2.39
-9.34 1.27 2.39
-9.37 1.09 2.39
-9.39 0.90 2.39
-9.40 0.71 2.39
-9.42 0.52 2.39
-9.43 0.33 2.39
-9.43 0.14 2.39
-9.44 -0.05 2.39
-9.43 -0.24 2.39
-9.43 -0.43 2.39
-9.42 -0.62 2.39
-9.41 -0.81 2.39
-9.40 -1.00 2.39
-9.38 -1.19 2.39
-9.35 -1.38 2.39
-9.33 -1.57 2.39
-9.30 -1.76 2.39
-9.27 -1.95 2.39
-9.23 -2.14 2.39
-9.19 -2.32 2.39
-9.15 -2.51 2.39
-9.10 -2.69 2.39
-9.05 -2.88 2.39
-8.99 -3.06 2.39
-8.94 -3.24 2.39
-8.88 -3.43 2.39
-8.81 -3.61 2.39
-8.74 -3.79 2.39
-8.67 -3.96 2.39
-8.60 -4.14 2.39
-8.52 -4.32 2.39
-8.44 -4.49 2.39
-8.35 -4.67 2.39
-8.26 -4.84 2.39
-8.17 -5.01 2.39
-8.08 -5.18 2.39
-7.98 -5.34 2.39
-7.88 -5.51 2.39
-7.77 -5.67 2.39
-7.67 -5.83 2.39
-7.56 -5.99 2.39
-7.44 -6.15 2.39
-7.32 -6.31 2.39
-7.20 -6.46 2.39
-7.08 -6.61 2.39
-6.95 -6.76 2.39
-6.83 -6.91 2.39
-6.69 -7.05 2.39
-6.56 -7.19 2.39
-6.42 -7.33 2.39
-6.28 -7.47 2.39
-6.14 -7.60 2.39
-6.03 -7.78 2.41
-6.03 -8.12 2.47
-5.93 -8.34 2.49
-5.77 -8.47 2.49
-5.61 -8.59 2.49
-5.44 -8.71 2.49
-5.27 -8.83 2.49
-5.10 -8.95 2.49
-4.93 -9.07 2.49
-4.75 -9.18 2.49
-4.57 -9.28 2.49
-4.39 -9.39 2.49
-4.21 -9.49 2.49
-4.02 -9.58 2.49
-3.84 -9.68 2.49
-3.65 -9.77 2.49
-3.45 -9.85 2.49
-3.26 -9.94 2.49
-3.07 -10.01 2.49
-2.87 -10.09 2.49
-2.67 -10.16 2.49
-2.47 -10.23 2.49
-2.27 -10.29 2.49
-2.06 -10.35 2.49
-1.86 -10.41 2.49
-1.65 -10.46 2.49
-1.44 -10.51 2.49
-1.23 -10.55 2.49
-1.02 -10.59 2.49
-0.81 -10.62 2.49
-0.60 -10.66 2.49
-0.39 -10.68 2.49
-0.17 -10.70 2.49
0.04 -9.72 2.49
0.24 -9.74 2.49
0.43 -9.74 2.49
0.63 -9.75 2.49
0.83 -9.75 2.49
1.02 -9.74 2.49
1.22 -9.73 2.49
1.42 -9.72 2.49
1.61 -9.70 2.49
1.81 -9.68 2.49
1.96 -9.45 2.44
2.11 -9.23 2.39
2.30 -9.20 2.39
2.49 -9.16 2.39
2.67 -9.12 2.39
2.86 -9.08 2.39
3.05 -9.03 2.39
3.23 -8.98 2.39
3.41 -8.93 2.39
3.60 -8.87 2.39
3.78 -8.81 2.39
3.96 -8.74 2.39
4.14 -8.67 2.39
4.32 -8.60 2.39
4.49 -8.52 2.39
4.67 -8.44 2.39
4.84 -8.35 2.39
5.02 -8.26 2.39
5.19 -8.17 2.39
5.35 -8.08 2.39
5.52 -7.98 2.39
2.68 -3.72 1.13
2.73 -3.63 1.12
5.95 -7.58 2.37
5.95 -7.28 2.31
5.96 -7.00 2.25
5.97 -6.73 2.20
5.97 -6.47 2.15
5.97 -6.22 2.11
5.98 -5.98 2.06
5.98 -5.75 2.02
6.01 -5.54 1.99
6.02 -5.33 1.96
6.02 -5.13 1.92
6.03 -4.93 1.89
6.04 -4.74 1.86
6.04 -4.55 1.84
6.05 -4.37 1.81
6.06 -4.19 1.79
6.06 -4.02 1.76
6.07 -3.85 1.74
6.08 -3.69 1.72
6.08 -3.52 1.70
6.09 -3.37 1.68
6.09 -3.21 1.66
6.10 -3.06 1.65
6.12 -2.92 1.64
6.12 -2.77 1.62
6.14 -2.63 1.61
6.17 -2.50 1.60
6.22 -2.38 1.60
6.20 -2.23 1.59
6.25 -2.11 1.59
6.29 -1.98 1.59
6.40 -1.88 1.60
6.43 -1.75 1.60
10.81 -2.71 2.68
6.44 -1.48 1.59
6.47 -1.35 1.59
10.84 -2.03 2.65
10.85 -1.81 2.64
10.86 -1.59 2.64
10.87 -1.37 2.63
10.85 -1.15 2.62
10.77 -0.92 2.60
10.69 -0.70 2.58
10.61 -0.48 2.55
10.53 -0.27 2.53
10.45 -0.06 2.51
10.37 0.15 2.49
10.29 0.35 2.48
10.20 0.56 2.46
10.12 0.75 2.44
10.08 0.95 2.44
6.55 0.75 1.59
6.53 0.88 1.59
6.51 1.01 1.59
6.55 1.15 1.60
6.52 1.28 1.60
6.49 1.41 1.60
6.39 1.53 1.59
6.36 1.65 1.59
6.34 1.78 1.59
6.34 1.92 1.60
6.36 2.07 1.62
6.36 2.21 1.63
6.37 2.36 1.65
6.38 2.50 1.66
6.38 2.66 1.68
6.39 2.81 1.70
6.40 2.97 1.71
6.40 3.13 1.73
6.52 3.34 1.78
6.82 3.68 1.89
6.81 3.85 1.91
6.91 4.09 1.96
6.89 4.26 1.98
6.79 4.39 1.98
6.75 4.56 2.00
6.74 4.75 2.02
6.68 4.91 2.03
6.76 5.18 2.09
6.72 5.37 2.12
6.67 5.55 2.14
6.91 5.99 2.26
6.92 6.25 2.30
7.96 7.48 2.70
7.91 7.74 2.74
7.88 8.02 2.79
6.62 7.01 2.39
6.47 7.13 2.39
6.31 7.25 2.39
6.16 7.37 2.39
6.00 7.48 2.39
5.84 7.59 2.39
5.68 7.70 2.39
5.52 7.80 2.39
5.36 7.90 2.39
5.19 7.99 2.39
5.02 8.08 2.39
4.85 8.17 2.39
4.68 8.25 2.39
4.51 8.34 2.39
4.34 8.41 2.39
4.16 8.49 2.39
3.98 8.56 2.39
3.81 8.62 2.39
3.63 8.68 2.39
3.45 8.74 2.39
3.27 8.80 2.39
3.09 8.85 2.39
2.90 8.90 2.39
2.77 9.10 2.43
2.65 9.37 2.49
2.46 9.40 2.49
2.26 9.44 2.49
2.07 9.47 2.49
1.88 9.49 2.49
1.68 9.52 2.49
1.49 9.53 2.49
1.30 9.55 2.49
1.10 9.56 2.49
0.91 9.56 2.49
0.72 9.57 2.49
0.52 9.57 2.49
0.33 9.56 2.49
0.14 9.55 2.49
-0.05 9.54 2.49
-0.24 9.52 2.49
-0.43 9.50 2.49
-0.62 9.48 2.49
-0.81 9.45 2.49
-1.00 9.42 2.49
-1.19 9.38 2.49
-1.38 9.34 2.49
-1.56 9.30 2.49
-1.75 9.26 2.49
-1.93 9.21 2.49
-2.11 9.15 2.49
-2.29 9.10 2.49
-2.47 9.04 2.49
-2.65 8.98 2.49
-2.82 8.91 2.49
-3.00 8.84 2.49
-3.17 8.77 2.49
-3.34 8.69 2.49
-3.51 8.61 2.49
-3.68 8.53 2.49
-3.85 8.44 2.49
-4.01 8.35 2.49
-4.17 8.26 2.49
-4.34 8.17 2.49
-4.49 8.07 2.49
-4.65 7.97 2.49
-4.80 7.86 2.49
-4.96 7.76 2.49
-5.11 7.65 2.49
-5.25 7.53 2.49
-5.36 7.37 2.48
-5.38 7.09 2.42
-5.45 6.89 2.39
-5.58 6.77 2.39
-5.71 6.65 2.39
-5.84 6.53 2.39
-5.96 6.40 2.39
-6.08 6.27 2.39
-6.20 6.14 2.39
-6.32 6.01 2.39
-6.44 5.88 2.39
-6.55 5.74 2.39
-6.66 5.61 2.39
-6.76 5.47 2.39
-6.87 5.33 2.39
-6.97 5.18 2.39
-7.07 5.04 2.39
-7.16 4.89 2.39
-7.26 4.74 2.39
-7.35 4.59 2.39
-7.43 4.44 2.39
-7.52 4.29 2.39
-7.60 4.14 2.39
-7.68 3.98 2.39
-7.75 3.82 2.39
-7.82 3.66 2.39
-7.89 3.50 2.39
-7.96 3.34 2.39
-8.02 3.18 2.39
-8.08 3.02 2.39
-8.14 2.85 2.39
-8.19 2.69 2.39
-8.24 2.52 2.39
-8.29 2.35 2.39
-8.33 2.19 2.39
-8.37 2.02 2.39
-8.41 1.85 2.39
-8.45 1.68 2.39
-8.48 1.51 2.39
-8.51 1.34 2.39
-8.53 1.16 2.39
-8.55 0.99 2.39
-8.57 0.82 2.39
-8.59 0.65 2.39
-8.60 0.47 2.39
-8.61 0.30 2.39
-8.61 0.12 2.39
-8.62 -0.05 2.39
-8.61 -0.22 2.39
-8.61 -0.40 2.39
-8.60 -0.57 2.39
-8.59 -0.74 2.39
-8.58 -0.92 2.39
-8.56 -1.09 2.39
-8.54 -1.26 2.39
-8.52 -1.44 2.39
-8.49 -1.61 2.39
-8.46 -1.78 2.39
-8.42 -1.95 2.39
-8.39 -2.12 2.39
-8.35 -2.29 2.39
-8.30 -2.46 2.39
-8.26 -2.63 2.39
-8.21 -2.80 2.39
-8.15 -2.96 2.39
-8.10 -3.13 2.39
-8.04 -3.29 2.39
-7.98 -3.46 2.39
-7.91 -3.62 2.39
-7.84 -3.78 2.39
-7.77 -3.94 2.39
-7.70 -4.10 2.39
-7.62 -4.26 2.39
-7.54 -4.41 2.39
-7.45 -4.57 2.39
-7.37 -4.72 2.39
-7.28 -4.87 2.39
-7.18 -5.02 2.39
-7.09 -5.17 2.39
-6.99 -5.32 2.39
-6.89 -5.46 2.39
-6.78 -5.61 2.39
-6.67 -5.75 2.39
-6.56 -5.89 2.39
-6.45 -6.03 2.39
-6.33 -6.16 2.39
-6.22 -6.29 2.39
-6.10 -6.43 2.39
-5.98 -6.56 2.39
-5.98 -6.83 2.44
-5.96 -7.10 2.49
-5.83 -7.23 2.49
-5.69 -7.35 2.49
-5.54 -7.47 2.49
-5.40 -7.59 2.49
-5.25 -7.71 2.49
-5.10 -7.82 2.49
-4.95 -7.93 2.49
-4.80 -8.04 2.49
-4.64 -8.15 2.49
-4.48 -8.25 2.49
-4.32 -8.35 2.49
-4.16 -8.45 2.49
-3.99 -8.54 2.49
-3.82 -8.63 2.49
-3.65 -8.72 2.49
-3.48 -8.80 2.49
-3.31 -8.88 2.49
-3.14 -8.96 2.49
-2.96 -9.03 2.49
-2.78 -9.10 2.49
-2.60 -9.17 2.49
-2.42 -9.23 2.49
-2.24 -9.29 2.49
-2.05 -9.35 2.49
-1.87 -9.40 2.49
-1.68 -9.45 2.49
-1.49 -9.50 2.49
-1.30 -9.54 2.49
-1.11 -9.58 2.49
-0.92 -9.61 2.49
-0.73 -9.64 2.49
-0.54 -9.67 2.49
-0.35 -9.69 2.49
-0.15 -9.71 2.49
0.04 -8.89 2.49
0.22 -8.90 2.49
0.40 -8.90 2.49
0.58 -8.90 2.49
0.76 -8.90 2.49
0.94 -8.90 2.49
1.12 -8.89 2.49
1.30 -8.88 2.49
1.48 -8.86 2.49
1.66 -8.84 2.49
1.84 -8.82 2.49
2.00 -8.71 2.47
2.10 -8.40 2.39
2.27 -8.36 2.39
2.44 -8.33 2.39
2.61 -8.29 2.39
2.78 -8.24 2.39
2.95 -8.19 2.39
3.12 -8.14 2.39
3.28 -8.09 2.39
3.45 -8.03 2.39
3.61 -7.97 2.39
3.78 -7.91 2.39
3.94 -7.84 2.39
4.10 -7.77 2.39
4.26 -7.69 2.39
4.42 -7.61 2.39
4.57 -7.53 2.39
4.73 -7.45 2.39
4.88 -7.36 2.39
5.03 -7.27 2.39
2.68 -3.71 1.24
2.73 -3.63 1.23
5.48 -6.97 2.39
5.62 -6.87 2.39
5.76 -6.76 2.39
5.90 -6.65 2.39
5.97 -6.46 2.36
5.97 -6.21 2.31
5.98 -5.97 2.27
5.98 -5.74 2.22
6.01 -5.54 2.19
6.02 -5.33 2.15
6.02 -5.12 2.11
6.03 -4.93 2.08
6.04 -4.73 2.05
6.04 -4.55 2.02
6.05 -4.37 1.99
6.06 -4.19 1.96
6.06 -4.02 1.94
6.07 -3.85 1.91
6.08 -3.68 1.89
6.08 -3.52 1.87
6.09 -3.37 1.85
6.09 -3.21 1.83
6.10 -3.06 1.81
6.12 -2.92 1.80
6.13 -2.78 1.78
6.14 -2.63 1.77
6.14 -2.49 1.76
6.15 -2.35 1.74
6.16 -2.21 1.73
6.16 -2.08 1.72
6.17 -1.94 1.71
6.17 -1.81 1.70
6.18 -1.68 1.69
6.19 -1.55 1.69
6.19 -1.42 1.68
6.20 -1.29 1.67
6.21 -1.16 1.67
6.21 -1.04 1.66
6.22 -0.91 1.66
6.23 -0.79 1.66
6.24 -0.66 1.66
6.25 -0.54 1.66
6.25 -0.41 1.66
6.26 -0.29 1.66
6.27 -0.16 1.66
6.27 -0.04 1.66
6.28 0.09 1.66
6.28 0.22 1.66
6.29 0.34 1.67
6.30 0.47 1.67
6.30 0.60 1.68
6.30 0.72 1.68
6.31 0.85 1.69
6.31 0.98 1.69
6.32 1.11 1.70
6.32 1.24 1.71
6.33 1.38 1.72
6.33 1.51 1.73
6.34 1.65 1.74
6.35 1.78 1.75
6.35 1.92 1.77
6.36 2.07 1.78
6.36 2.21 1.79
6.37 2.35 1.81
6.38 2.50 1.83
6.38 2.65 1.84
6.39 2.81 1.86
6.40 2.97 1.88
6.40 3.13 1.91
6.39 3.28 1.92
6.37 3.43 1.94
6.35 3.59 1.95
6.63 3.92 2.07
6.76 4.18 2.13
6.74 4.36 2.16
6.76 4.57 2.20
6.74 4.75 2.22
6.67 4.91 2.23
6.66 5.11 2.26
6.59 5.26 2.28
6.55 5.45 2.30
6.49 5.63 2.33
6.55 5.91 2.39
6.43 6.04 2.39
6.30 6.16 2.39
6.17 6.27 2.39
6.03 6.39 2.39
5.90 6.50 2.39
5.76 6.61 2.39
5.62 6.72 2.39
5.48 6.82 2.39
5.33 6.92 2.39
5.19 7.02 2.39
5.04 7.11 2.39
4.89 7.20 2.39
4.74 7.29 2.39
4.59 7.37 2.39
4.43 7.45 2.39
4.28 7.53 2.39
4.12 7.61 2.39
3.96 7.68 2.39
3.80 7.75 2.39
3.64 7.81 2.39
3.48 7.87 2.39
3.32 7.93 2.39
3.15 7.98 2.39
2.99 8.03 2.39
2.82 8.08 2.39
2.74 8.37 2.46
2.60 8.52 2.49
2.42 8.56 2.49
2.25 8.59 2.49
2.07 8.63 2.49
1.90 8.65 2.49
1.72 8.68 2.49
1.54 8.70 2.49
1.37 8.72 2.49
1.19 8.73 2.49
1.01 8.74 2.49
0.84 8.75 2.49
0.66 8.75 2.49
0.48 8.75 2.49
0.31 8.75 2.49
0.13 8.74 2.49
-0.04 8.73 2.49
-0.22 8.72 2.49
-0.39 8.70 2.49
-0.57 8.68 2.49
-0.74 8.65 2.49
-0.91 8.63 2.49
-1.09 8.59 2.49
-1.26 8.56 2.49
-1.43 8.52 2.49
-1.60 8.48 2.49
-1.76 8.44 2.49
-1.93 8.39 2.49
-2.10 8.34 2.49
-2.26 8.28 2.49
-2.42 8.23 2.49
-2.59 8.17 2.49
-2.75 8.10 2.49
-2.91 8.04 2.49
-3.06 7.97 2.49
-3.22 7.90 2.49
-3.37 7.82 2.49
-3.53 7.74 2.49
-3.68 7.66 2.49
-3.83 7.58 2.49
-3.97 7.49 2.49
-4.12 7.40 2.49
-4.26 7.31 2.49
-4.41 7.22 2.49
-4.55 7.12 2.49
-4.68 7.02 2.49
-4.82 6.92 2.49
-4.95 6.81 2.49
-5.08 6.70 2.49
-5.21 6.59 2.49
-5.34 6.48 2.49
-5.41 6.30 2.47
-5.42 6.07 2.42
-5.47 5.88 2.39
-5.58 5.76 2.39
-5.69 5.64 2.39
-5.80 5.52 2.39
-5.91 5.40 2.39
-6.01 5.28 2.39
-6.11 5.15 2.39
-6.21 5.02 2.39
-6.31 4.89 2.39
-6.40 4.76 2.39
-6.49 4.63 2.39
-6.58 4.50 2.39
-6.67 4.36 2.39
-6.75 4.22 2.39
-6.83 4.08 2.39
-6.91 3.94 2.39
-6.98 3.80 2.39
-7.05 3.66 2.39
-7.12 3.51 2.39
-7.19 3.37 2.39
-7.25 3.22 2.39
-7.31 3.07 2.39
-7.37 2.92 2.39
-7.43 2.77 2.39
-7.48 2.62 2.39
-7.53 2.47 2.39
-7.58 2.32 2.39
-7.62 2.16 2.39
-7.66 2.01 2.39
-7.70 1.85 2.39
-7.73 1.70 2.39
-7.76 1.54 2.39
-7.79 1.38 2.39
-7.82 1.23 2.39
-7.84 1.07 2.39
-7.86 0.91 2.39
-7.88 0.75 2.39
-7.89 0.59 2.39
-7.90 0.43 2.39
-7.91 0.27 2.39
-7.92 0.11 2.39
-7.92 -0.05 2.39
-7.92 -0.21 2.39
-7.91 -0.36 2.39
-7.91 -0.52 2.39
-7.90 -0.68 2.39
-7.88 -0.84 2.39
-7.87 -1.00 2.39
-7.85 -1.16 2.39
-7.83 -1.32 2.39
-7.80 -1.48 2.39
-7.77 -1.64 2.39
-7.74 -1.79 2.39
-7.71 -1.95 2.39
-7.67 -2.11 2.39
-7.63 -2.26 2.39
-7.59 -2.42 2.39
-7.54 -2.57 2.39
-7.49 -2.72 2.39
-7.44 -2.88 2.39
-7.38 -3.03 2.39
-7.33 -3.18 2.39
-7.27 -3.33 2.39
-7.20 -3.47 2.39
-7.14 -3.62 2.39
-7.07 -3.77 2.39
-6.99 -3.91 2.39
-6.92 -4.06 2.39
-6.84 -4.20 2.39
-6.76 -4.34 2.39
-6.68 -4.48 2.39
-6.59 -4.61 2.39
-6.50 -4.75 2.39
-6.41 -4.88 2.39
-6.32 -5.02 2.39
-6.22 -5.15 2.39
-6.12 -5.28 2.39
-6.02 -5.41 2.39
-5.93 -5.54 2.40
-5.93 -5.77 2.44
-5.94 -6.02 2.49
-5.83 -6.15 2.49
-5.71 -6.27 2.49
-5.59 -6.39 2.49
-5.47 -6.51 2.49
-5.34 -6.63 2.49
-5.21 -6.74 2.49
-5.08 -6.85 2.49
-4.95 -6.96 2.49
-4.81 -7.07 2.49
-4.67 -7.17 2.49
-4.53 -7.27 2.49
-4.39 -7.37 2.49
-4.25 -7.47 2.49
-4.10 -7.56 2.49
-3.95 -7.65 2.49
-3.80 -7.74 2.49
-3.65 -7.82 2.49
-3.50 -7.91 2.49
-3.34 -7.98 2.49
-3.19 -8.06 2.49
-3.03 -8.13 2.49
-2.87 -8.20 2.49
-2.71 -8.27 2.49
-2.54 -8.33 2.49
-2.38 -8.39 2.49
-2.21 -8.45 2.49
-2.04 -8.50 2.49
-1.88 -8.56 2.49
-1.71 -8.60 2.49
-1.53 -8.65 2.49
-1.36 -8.69 2.49
-1.19 -8.72 2.49
-1.02 -8.76 2.49
-0.84 -8.79 2.49
-0.67 -8.82 2.49
-0.49 -8.84 2.49
-0.31 -8.86 2.49
-0.13 -8.88 2.49
0.04 -8.18 2.49
0.21 -8.18 2.49
0.37 -8.19 2.49
0.54 -8.19 2.49
0.70 -8.19 2.49
0.87 -8.18 2.49
1.03 -8.17 2.49
1.20 -8.16 2.49
1.36 -8.14 2.49
1.53 -8.12 2.49
1.69 -8.10 2.49
1.86 -8.08 2.49
2.02 -8.05 2.49
2.09 -7.68 2.39
2.25 -7.67 2.40
2.40 -7.61 2.39
2.56 -7.57 2.39
2.71 -7.53 2.39
2.87 -7.48 2.39
3.02 -7.43 2.39
3.17 -7.37 2.39
3.32 -7.32 2.39
3.47 -7.26 2.39
3.62 -7.19 2.39
3.77 -7.13 2.39
3.91 -7.06 2.39
4.06 -6.99 2.39
4.20 -6.91 2.39
4.34 -6.83 2.39
4.48 -6.75 2.39
4.62 -6.67 2.39
2.66 -3.67 1.33
2.72 -3.61 1.33
5.03 -6.39 2.39
5.16 -6.30 2.39
5.29 -6.20 2.39
5.41 -6.10 2.39
5.54 -5.99 2.39
5.66 -5.89 2.39
5.78 -5.78 2.39
5.90 -5.66 2.39
6.01 -5.54 2.39
6.02 -5.33 2.34
6.02 -5.12 2.31
6.03 -4.92 2.27
6.04 -4.73 2.23
6.04 -4.55 2.20
6.05 -4.36 2.17
6.06 -4.19 2.14
6.06 -4.02 2.11
6.07 -3.85 2.09
6.08 -3.68 2.06
6.08 -3.52 2.04
6.09 -3.36 2.02
6.09 -3.21 2.00
6.10 -3.06 1.98
6.12 -2.92 1.96
6.13 -2.77 1.95
6.14 -2.63 1.93
6.14 -2.49 1.92
6.15 -2.35 1.90
6.16 -2.21 1.89
6.16 -2.08 1.88
6.17 -1.94 1.87
6.17 -1.81 1.86
6.18 -1.68 1.85
6.19 -1.55 1.84
6.19 -1.42 1.83
6.20 -1.29 1.83
6.21 -1.16 1.82
6.21 -1.04 1.82
6.22 -0.91 1.81
6.23 -0.79 1.81
6.24 -0.66 1.81
6.25 -0.54 1.81
6.25 -0.41 1.81
6.26 -0.29 1.81
6.27 -0.16 1.81
6.27 -0.04 1.81
6.28 0.09 1.81
6.28 0.22 1.82
6.29 0.34 1.82
6.30 0.47 1.82
6.30 0.60 1.83
6.30 0.72 1.83
6.31 0.85 1.84
6.31 0.98 1.85
6.32 1.11 1.86
6.32 1.24 1.87
6.33 1.38 1.88
6.33 1.51 1.89
6.34 1.65 1.90
6.35 1.78 1.91
6.35 1.92 1.93
6.36 2.06 1.94
6.36 2.21 1.96
6.37 2.35 1.97
6.38 2.50 1.99
6.38 2.65 2.01
6.39 2.81 2.03
6.40 2.96 2.05
6.37 3.11 2.07
6.26 3.21 2.05
6.22 3.35 2.06
6.22 3.51 2.09
6.28 3.71 2.13
6.64 4.11 2.29
6.67 4.31 2.33
6.70 4.52 2.37
6.68 4.70 2.40
6.56 4.82 2.39
6.45 4.94 2.39
6.35 5.07 2.39
6.24 5.19 2.39
6.13 5.31 2.39
6.02 5.42 2.39
5.90 5.54 2.39
5.78 5.65 2.39
5.66 5.76 2.39
5.54 5.86 2.39
5.42 5.97 2.39
5.29 6.07 2.39
5.16 6.17 2.39
5.03 6.26 2.39
4.90 6.35 2.39
4.77 6.44 2.39
4.63 6.53 2.39
4.49 6.61 2.39
4.36 6.69 2.39
4.22 6.77 2.39
4.08 6.85 2.39
3.93 6.92 2.39
3.79 6.99 2.39
3.64 7.05 2.39
3.50 7.12 2.39
3.35 7.18 2.39
3.20 7.23 2.39
3.05 7.29 2.39
2.91 7.35 2.39
2.75 7.39 2.39
2.71 7.75 2.49
2.55 7.80 2.49
2.39 7.84 2.49
2.23 7.87 2.49
2.07 7.90 2.49
1.91 7.94 2.49
1.75 7.96 2.49
1.59 7.99 2.49
1.42 8.01 2.49
1.26 8.02 2.49
1.10 8.04 2.49
0.94 8.05 2.49
0.77 8.05 2.49
0.61 8.06 2.49
0.45 8.06 2.49
0.29 8.06 2.49
0.12 8.05 2.49
-0.04 8.04 2.49
-0.20 8.03 2.49
-0.36 8.01 2.49
-0.52 7.99 2.49
-0.68 7.97 2.49
-0.84 7.95 2.49
-1.00 7.92 2.49
-1.15 7.89 2.49
-1.31 7.85 2.49
-1.47 7.82 2.49
-1.62 7.78 2.49
-1.78 7.73 2.49
-1.93 7.69 2.49
-2.08 7.64 2.49
-2.23 7.59 2.49
-2.38 7.53 2.49
-2.53 7.47 2.49
-2.68 7.41 2.49
-2.82 7.35 2.49
-2.97 7.28 2.49
-3.11 7.22 2.49
-3.25 7.14 2.49
-3.39 7.07 2.49
-3.53 6.99 2.49
-3.66 6.91 2.49
-3.80 6.83 2.49
-3.93 6.75 2.49
-4.06 6.66 2.49
-4.19 6.57 2.49
-4.32 6.48 2.49
-4.45 6.39 2.49
-4.57 6.29 2.49
-4.69 6.19 2.49
-4.81 6.09 2.49
-4.93 5.99 2.49
-5.04 5.88 2.49
-5.16 5.77 2.49
-5.27 5.66 2.49
-5.38 5.55 2.49
-5.45 5.40 2.48
-5.46 5.20 2.43
-5.47 5.01 2.40
-5.55 4.88 2.39
-5.66 4.78 2.40
-5.74 4.64 2.39
-5.83 4.52 2.39
-5.91 4.40 2.39
-6.00 4.28 2.39
-6.08 4.16 2.39
-6.16 4.03 2.39
-6.23 3.90 2.39
-6.31 3.77 2.39
-6.38 3.64 2.39
-6.45 3.51 2.39
-6.52 3.38 2.39
-6.58 3.25 2.39
-6.64 3.11 2.39
-6.70 2.98 2.39
-6.76 2.84 2.39
-6.81 2.70 2.39
-6.86 2.56 2.39
-6.91 2.42 2.39
-6.96 2.28 2.39
-7.00 2.14 2.39
-7.04 2.00 2.39
-7.08 1.86 2.39
-7.11 1.71 2.39
-7.15 1.57 2.39
-7.18 1.43 2.39
-7.20 1.28 2.39
-7.23 1.13 2.39
-7.25 0.99 2.39
-7.27 0.84 2.39
-7.28 0.69 2.39
-7.30 0.55 2.39
-7.31 0.40 2.39
-7.31 0.25 2.39
-7.32 0.11 2.39
-7.32 -0.04 2.39
-7.32 -0.19 2.39
-7.31 -0.34 2.39
-7.31 -0.49 2.39
-7.30 -0.63 2.39
-7.29 -0.78 2.39
-7.27 -0.93 2.39
-7.25 -1.07 2.39
-7.23 -1.22 2.39
-7.21 -1.37 2.39
-7.18 -1.51 2.39
-7.15 -1.66 2.39
-7.12 -1.80 2.39
-7.09 -1.95 2.39
-7.05 -2.09 2.39
-7.01 -2.23 2.39
-6.97 -2.38 2.39
-6.92 -2.52 2.39
-6.87 -2.66 2.39
-6.82 -2.80 2.39
-6.77 -2.94 2.39
-6.71 -3.07 2.39
-6.65 -3.21 2.39
-6.59 -3.35 2.39
-6.53 -3.48 2.39
-6.46 -3.61 2.39
-6.39 -3.75 2.39
-6.32 -3.88 2.39
-6.24 -4.01 2.39
-6.17 -4.14 2.39
-6.09 -4.26 2.39
-6.00 -4.39 2.39
-5.92 -4.51 2.39
-5.89 -4.68 2.41
-5.89 -4.88 2.45
-5.89 -5.08 2.49
-5.80 -5.21 2.49
-5.70 -5.33 2.49
-5.59 -5.45 2.49
-5.49 -5.56 2.49
-5.38 -5.68 2.49
-5.27 -5.79 2.49
-5.16 -5.90 2.49
-5.04 -6.01 2.49
-4.92 -6.12 2.49
-4.81 -6.22 2.49
-4.68 -6.32 2.49
-4.56 -6.42 2.49
-4.44 -6.52 2.49
-4.31 -6.62 2.49
-4.18 -6.71 2.49
-4.05 -6.80 2.49
-3.91 -6.89 2.49
-3.78 -6.97 2.49
-3.64 -7.05 2.49
-3.50 -7.13 2.49
-3.36 -7.21 2.49
-3.22 -7.29 2.49
-3.08 -7.36 2.49
-2.93 -7.43 2.49
-2.79 -7.49 2.49
-2.64 -7.56 2.49
-2.49 -7.62 2.49
-2.34 -7.68 2.49
-2.19 -7.73 2.49
-2.03 -7.78 2.49
-1.88 -7.83 2.49
-1.72 -7.88 2.49
-1.57 -7.92 2.49
-1.41 -7.96 2.49
-1.25 -8.00 2.49
-1.09 -8.03 2.49
-0.93 -8.06 2.49
-0.77 -8.09 2.49
-0.61 -8.11 2.49
-0.45 -8.13 2.49
-0.28 -8.15 2.49
-0.12 -8.16 2.49
0.04 -7.56 2.49
0.20 -7.57 2.49
0.35 -7.57 2.49
0.50 -7.57 2.49
0.65 -7.57 2.49
0.80 -7.56 2.49
0.96 -7.55 2.49
1.11 -7.54 2.49
1.26 -7.53 2.49
1.41 -7.51 2.49
1.57 -7.49 2.49
1.72 -7.46 2.49
1.87 -7.43 2.49
2.02 -7.40 2.49
2.08 -7.07 2.39
2.22 -7.03 2.39
2.37 -6.99 2.39
2.51 -6.95 2.39
2.65 -6.91 2.39
2.79 -6.86 2.39
2.93 -6.81 2.39
3.07 -6.76 2.39
3.21 -6.70 2.39
3.34 -6.64 2.39
3.48 -6.58 2.39
3.61 -6.51 2.39
3.75 -6.45 2.39
3.88 -6.38 2.39
4.01 -6.30 2.39
4.14 -6.23 2.39
4.27 -6.15 2.39
2.65 -3.67 1.44
2.72 -3.60 1.44
4.64 -5.90 2.39
4.76 -5.81 2.39
4.88 -5.72 2.39
5.00 -5.62 2.39
5.11 -5.53 2.39
5.23 -5.43 2.39
5.34 -5.33 2.39
5.45 -5.22 2.39
5.55 -5.12 2.39
5.66 -5.01 2.39
5.76 -4.90 2.39
5.86 -4.78 2.39
5.96 -4.67 2.39
6.04 -4.54 2.39
6.05 -4.36 2.35
6.06 -4.19 2.32
6.06 -4.01 2.29
6.07 -3.85 2.26
6.08 -3.68 2.24
6.08 -3.52 2.21
6.09 -3.36 2.19
6.09 -3.21 2.16
6.10 -3.06 2.14
6.12 -2.92 2.13
6.13 -2.77 2.11
6.14 -2.63 2.09
6.14 -2.49 2.08
6.15 -2.35 2.06
6.16 -2.21 2.05
6.16 -2.08 2.04
6.17 -1.94 2.03
6.17 -1.81 2.02
6.18 -1.68 2.01
6.19 -1.55 2.00
6.19 -1.42 1.99
6.20 -1.29 1.98
6.21 -1.16 1.98
6.21 -1.04 1.97
6.22 -0.91 1.97
6.23 -0.79 1.97
6.24 -0.66 1.96
6.25 -0.54 1.96
6.25 -0.41 1.96
6.26 -0.29 1.96
6.27 -0.16 1.96
6.27 -0.04 1.96
6.28 0.09 1.97
6.28 0.22 1.97
6.29 0.34 1.97
6.30 0.47 1.98
6.30 0.59 1.98
6.30 0.72 1.99
6.31 0.85 2.00
6.31 0.98 2.00
6.32 1.11 2.01
6.32 1.24 2.02
6.33 1.37 2.03
6.33 1.51 2.05
6.34 1.64 2.06
6.35 1.78 2.07
6.35 1.92 2.09
6.36 2.06 2.11
6.36 2.21 2.12
6.37 2.35 2.14
6.38 2.50 2.16
6.38 2.65 2.18
6.39 2.80 2.20
6.40 2.96 2.23
6.28 3.06 2.21
6.18 3.17 2.20
6.16 3.31 2.21
6.15 3.47 2.24
6.24 3.68 2.30
6.41 3.96 2.39
6.32 4.08 2.39
6.23 4.21 2.39
6.14 4.33 2.39
6.05 4.44 2.39
5.96 4.56 2.39
5.86 4.67 2.39
5.76 4.79 2.39
5.66 4.90 2.39
5.55 5.00 2.39
5.45 5.11 2.39
5.34 5.21 2.39
5.23 5.31 2.39
5.12 5.41 2.39
5.00 5.51 2.39
4.89 5.60 2.39
4.77 5.69 2.39
4.65 5.78 2.39
4.53 5.87 2.39
4.40 5.95 2.39
4.28 6.03 2.39
4.15 6.11 2.39
4.03 6.18 2.39
3.90 6.25 2.39
3.77 6.32 2.39
3.64 6.39 2.39
3.50 6.46 2.39
3.37 6.52 2.39
3.23 6.58 2.39
3.10 6.63 2.39
2.96 6.69 2.39
2.82 6.74 2.39
2.69 6.78 2.39
2.66 7.12 2.49
2.51 7.17 2.49
2.36 7.21 2.49
2.22 7.24 2.49
2.07 7.28 2.49
1.92 7.31 2.49
1.77 7.34 2.49
1.62 7.36 2.49
1.47 7.39 2.49
1.32 7.41 2.49
1.17 7.42 2.49
1.02 7.44 2.49
0.87 7.45 2.49
0.72 7.45 2.49
0.57 7.46 2.49
0.42 7.46 2.49
0.27 7.46 2.49
0.12 7.45 2.49
-0.03 7.44 2.49
-0.18 7.43 2.49
-0.33 7.42 2.49
-0.48 7.40 2.49
-0.63 7.38 2.49
-0.77 7.36 2.49
-0.92 7.34 2.49
-1.07 7.31 2.49
-1.21 7.28 2.49
-1.36 7.24 2.49
-1.50 7.21 2.49
-1.64 7.17 2.49
-1.78 7.12 2.49
-1.93 7.08 2.49
-2.07 7.03 2.49
-2.20 6.98 2.49
-2.34 6.93 2.49
-2.48 6.87 2.49
-2.61 6.81 2.49
-2.75 6.75 2.49
-2.88 6.69 2.49
-3.01 6.62 2.49
-3.14 6.56 2.49
-3.27 6.49 2.49
-3.40 6.41 2.49
-3.52 6.34 2.49
-3.64 6.26 2.49
-3.77 6.18 2.49
-3.89 6.10 2.49
-4.01 6.01 2.49
-4.12 5.92 2.49
-4.24 5.84 2.49
-4.35 5.74 2.49
-4.46 5.65 2.49
-4.57 5.56 2.49
-4.68 5.46 2.49
-4.78 5.36 2.49
-4.89 5.26 2.49
-4.99 5.15 2.49
-5.09 5.05 2.49
-5.19 4.94 2.49
-5.28 4.83 2.49
-5.37 4.72 2.49
-5.46 4.61 2.49
-5.49 4.44 2.46
-5.50 4.27 2.43
-5.51 4.11 2.40
-5.57 3.97 2.39
-5.64 3.86 2.39
-5.72 3.74 2.39
-5.79 3.62 2.39
-5.86 3.51 2.39
-5.92 3.38 2.39
-5.99 3.26 2.39
-6.05 3.14 2.39
-6.11 3.02 2.39
-6.17 2.89 2.39
-6.22 2.77 2.39
-6.27 2.64 2.39
-6.33 2.51 2.39
-6.37 2.38 2.39
-6.42 2.25 2.39
-6.46 2.12 2.39
-6.50 1.99 2.39
-6.54 1.86 2.39
-6.57 1.73 2.39
-6.61 1.59 2.39
-6.64 1.46 2.39
-6.66 1.32 2.39
-6.69 1.19 2.39
-6.71 1.05 2.39
-6.73 0.92 2.39
-6.75 0.78 2.39
-6.76 0.65 2.39
-6.77 0.51 2.39
-6.78 0.37 2.39
-6.79 0.23 2.39
-6.80 0.10 2.39
-6.80 -0.04 2.39
-6.80 -0.18 2.39
-6.79 -0.31 2.39
-6.79 -0.45 2.39
-6.78 -0.59 2.39
-6.77 -0.73 2.39
-6.75 -0.86 2.39
-6.73 -1.00 2.39
-6.71 -1.13 2.39
-6.69 -1.27 2.39
-6.67 -1.41 2.39
-6.64 -1.54 2.39
-6.61 -1.67 2.39
-6.58 -1.81 2.39
-6.54 -1.94 2.39
-6.51 -2.07 2.39
-6.47 -2.21 2.39
-6.42 -2.34 2.39
-6.38 -2.47 2.39
-6.33 -2.60 2.39
-6.28 -2.73 2.39
-6.23 -2.85 2.39
-6.17 -2.98 2.39
-6.12 -3.11 2.39
-6.06 -3.23 2.39
-5.99 -3.36 2.39
-5.93 -3.48 2.39
-5.86 -3.60 2.39
-5.85 -3.76 2.41
-5.85 -3.93 2.45
-5.86 -4.11 2.48
-5.81 -4.25 2.49
-5.73 -4.37 2.49
-5.64 -4.49 2.49
-5.56 -4.60 2.49
-5.47 -4.72 2.49
-5.37 -4.83 2.49
-5.28 -4.94 2.49
-5.18 -5.05 2.49
-5.09 -5.16 2.49
-4.99 -5.27 2.49
-4.88 -5.37 2.49
-4.78 -5.47 2.49
-4.67 -5.57 2.49
-4.56 -5.67 2.49
-4.45 -5.77 2.49
-4.34 -5.86 2.49
-4.23 -5.96 2.49
-4.11 -6.05 2.49
-3.99 -6.13 2.49
-3.87 -6.22 2.49
-3.75 -6.30 2.49
-3.62 -6.38 2.49
-3.50 -6.46 2.49
-3.37 -6.54 2.49
-3.24 -6.61 2.49
-3.11 -6.68 2.49
-2.98 -6.75 2.49
-2.85 -6.82 2.49
-2.71 -6.88 2.49
-2.58 -6.94 2.49
-2.44 -7.00 2.49
-2.30 -7.06 2.49
-2.16 -7.11 2.49
-2.02 -7.16 2.49
-1.88 -7.21 2.49
-1.74 -7.25 2.49
-1.59 -7.29 2.49
-1.45 -7.33 2.49
-1.30 -7.37 2.49
-1.15 -7.40 2.49
-1.01 -7.43 2.49
-0.86 -7.46 2.49
-0.71 -7.48 2.49
-0.56 -7.51 2.49
-0.41 -7.52 2.49
-0.26 -7.54 2.49
-0.11 -7.55 2.49
0.04 -7.03 2.49
0.18 -7.03 2.49
0.33 -7.03 2.49
0.47 -7.03 2.49
0.61 -7.03 2.49
0.75 -7.02 2.49
0.89 -7.02 2.49
1.03 -7.00 2.49
1.17 -6.99 2.49
1.32 -6.97 2.49
1.46 -6.95 2.49
1.60 -6.93 2.49
1.74 -6.90 2.49
1.88 -6.87 2.49
2.02 -6.84 2.49
2.09 -6.61 2.42
2.20 -6.49 2.39
2.33 -6.45 2.39
2.46 -6.41 2.39
2.59 -6.36 2.39
2.72 -6.32 2.39
2.85 -6.27 2.39
2.98 -6.21 2.39
3.10 -6.16 2.39
3.23 -6.10 2.39
3.35 -6.04 2.39
3.48 -5.98 2.39
3.60 -5.91 2.39
3.72 -5.85 2.39
3.84 -5.78 2.39
3.96 -5.70 2.39
2.65 -3.67 1.56
2.72 -3.60 1.55
4.30 -5.47 2.39
4.42 -5.39 2.39
4.53 -5.30 2.39
4.63 -5.21 2.39
4.74 -5.12 2.39
4.85 -5.03 2.39
4.95 -4.94 2.39
5.05 -4.84 2.39
5.15 -4.74 2.39
5.25 -4.64 2.39
5.34 -4.54 2.39
5.43 -4.43 2.39
5.52 -4.33 2.39
5.61 -4.22 2.39
5.70 -4.11 2.39
5.78 -3.99 2.39
5.86 -3.88 2.39
5.94 -3.76 2.39
6.02 -3.65 2.39
6.08 -3.52 2.39
6.09 -3.36 2.36
6.09 -3.21 2.34
6.10 -3.06 2.31
6.12 -2.92 2.30
6.13 -2.77 2.28
6.14 -2.63 2.26
6.14 -2.49 2.24
6.15 -2.35 2.23
6.16 -2.21 2.21
6.16 -2.08 2.20
6.17 -1.94 2.19
6.17 -1.81 2.18
6.18 -1.68 2.17
6.19 -1.55 2.16
6.19 -1.42 2.15
6.20 -1.29 2.14
6.21 -1.16 2.13
6.21 -1.04 2.13
6.22 -0.91 2.12
6.23 -0.79 2.12
6.24 -0.66 2.12
6.25 -0.54 2.12
6.25 -0.41 2.12
6.26 -0.29 2.12
6.26 -0.16 2.12
6.27 -0.04 2.12
6.28 0.09 2.12
6.28 0.21 2.13
6.29 0.34 2.13
6.30 0.47 2.14
6.30 0.59 2.14
6.30 0.72 2.15
6.31 0.85 2.15
6.31 0.98 2.16
6.32 1.11 2.17
6.32 1.24 2.18
6.33 1.37 2.20
6.33 1.51 2.21
6.34 1.64 2.22
6.35 1.78 2.24
6.35 1.92 2.25
6.36 2.06 2.27
6.36 2.20 2.29
6.37 2.35 2.31
6.38 2.50 2.33
6.38 2.65 2.35
6.39 2.80 2.38
6.36 2.94 2.39
6.25 3.04 2.37
6.19 3.17 2.37
6.16 3.31 2.39
6.09 3.43 2.39
6.02 3.55 2.39
5.94 3.67 2.39
5.86 3.78 2.39
5.78 3.90 2.39
5.70 4.01 2.39
5.61 4.12 2.39
5.52 4.23 2.39
5.43 4.33 2.39
5.34 4.44 2.39
5.25 4.54 2.39
5.15 4.64 2.39
5.05 4.74 2.39
4.95 4.83 2.39
4.85 4.93 2.39
4.75 5.02 2.39
4.64 5.11 2.39
4.53 5.19 2.39
4.43 5.28 2.39
4.32 5.36 2.39
4.20 5.44 2.39
4.09 5.52 2.39
3.97 5.59 2.39
3.86 5.67 2.39
3.74 5.74 2.39
3.62 5.80 2.39
3.50 5.87 2.39
3.38 5.93 2.39
3.26 5.99 2.39
3.13 6.05 2.39
3.01 6.11 2.39
2.88 6.16 2.39
2.75 6.21 2.39
2.65 6.32 2.42
2.60 6.57 2.49
2.47 6.62 2.49
2.33 6.66 2.49
2.20 6.69 2.49
2.06 6.73 2.49
1.92 6.76 2.49
1.79 6.79 2.49
1.65 6.82 2.49
1.51 6.84 2.49
1.37 6.86 2.49
1.23 6.88 2.49
1.09 6.90 2.49
0.95 6.91 2.49
0.81 6.92 2.49
0.67 6.93 2.49
0.53 6.93 2.49
0.39 6.93 2.49
0.25 6.93 2.49
0.11 6.93 2.49
-0.03 6.92 2.49
-0.17 6.91 2.49
-0.30 6.90 2.49
-0.44 6.89 2.49
-0.58 6.87 2.49
-0.72 6.85 2.49
-0.85 6.82 2.49
-0.99 6.80 2.49
-1.12 6.77 2.49
-1.26 6.74 2.49
-1.39 6.71 2.49
-1.53 6.67 2.49
-1.66 6.63 2.49
-1.79 6.59 2.49
-1.92 6.55 2.49
-2.05 6.50 2.49
-2.18 6.45 2.49
-2.30 6.40 2.49
-2.43 6.35 2.49
-2.56 6.29 2.49
-2.68 6.23 2.49
-2.80 6.17 2.49
-2.92 6.11 2.49
-3.04 6.04 2.49
-3.16 5.97 2.49
-3.28 5.90 2.49
-3.39 5.83 2.49
-3.51 5.76 2.49
-3.62 5.68 2.49
-3.73 5.60 2.49
-3.84 5.52 2.49
-3.95 5.44 2.49
-4.05 5.35 2.49
-4.16 5.27 2.49
-4.26 5.18 2.49
-4.36 5.09 2.49
-4.46 4.99 2.49
-4.55 4.90 2.49
-4.65 4.80 2.49
-4.74 4.71 2.49
-4.83 4.61 2.49
-4.92 4.50 2.49
-5.01 4.40 2.49
-5.09 4.30 2.49
-5.17 4.19 2.49
-5.26 4.08 2.49
-5.33 3.98 2.49
-5.41 3.86 2.49
-5.48 3.75 2.49
-5.52 3.62 2.48
-5.53 3.46 2.45
-5.54 3.32 2.43
-5.55 3.17 2.40
-5.58 3.04 2.39
-5.64 2.93 2.39
-5.70 2.81 2.39
-5.76 2.70 2.39
-5.80 2.58 2.39
-5.85 2.46 2.39
-5.90 2.34 2.39
-5.94 2.22 2.39
-5.98 2.10 2.39
-6.02 1.98 2.39
-6.06 1.86 2.39
-6.10 1.73 2.39
-6.13 1.61 2.39
-6.16 1.48 2.39
-6.19 1.36 2.39
-6.21 1.23 2.39
-6.24 1.11 2.39
-6.26 0.98 2.39
-6.28 0.86 2.39
-6.29 0.73 2.39
-6.31 0.60 2.39
-6.32 0.47 2.39
-6.33 0.35 2.39
-6.33 0.22 2.39
-6.34 0.09 2.39
-6.34 -0.04 2.39
-6.34 -0.17 2.39
-6.33 -0.29 2.39
-6.33 -0.42 2.39
-6.32 -0.55 2.39
-6.31 -0.68 2.39
-6.29 -0.80 2.39
-6.28 -0.93 2.39
-6.26 -1.06 2.39
-6.24 -1.19 2.39
-6.22 -1.31 2.39
-6.19 -1.44 2.39
-6.16 -1.56 2.39
-6.13 -1.69 2.39
-6.10 -1.81 2.39
-6.06 -1.94 2.39
-6.03 -2.06 2.39
-5.99 -2.18 2.39
-5.95 -2.30 2.39
-5.90 -2.42 2.39
-5.85 -2.54 2.39
-5.81 -2.66 2.39
-5.81 -2.81 2.41
-5.81 -2.95 2.44
-5.81 -3.11 2.46
-5.82 -3.26 2.49
-5.76 -3.38 2.49
-5.70 -3.50 2.49
-5.63 -3.62 2.49
-5.56 -3.73 2.49
-5.49 -3.85 2.49
-5.41 -3.96 2.49
-5.33 -4.07 2.49
-5.25 -4.18 2.49
-5.17 -4.29 2.49
-5.09 -4.40 2.49
-5.00 -4.50 2.49
-4.92 -4.61 2.49
-4.83 -4.71 2.49
-4.74 -4.81 2.49
-4.64 -4.91 2.49
-4.55 -5.00 2.49
-4.45 -5.10 2.49
-4.35 -5.19 2.49
-4.25 -5.28 2.49
-4.14 -5.37 2.49
-4.04 -5.46 2.49
-3.93 -5.55 2.49
-3.82 -5.63 2.49
-3.71 -5.71 2.49
-3.60 -5.79 2.49
-3.49 -5.87 2.49
-3.37 -5.94 2.49
-3.25 -6.01 2.49
-3.14 -6.08 2.49
-3.02 -6.15 2.49
-2.89 -6.22 2.49
-2.77 -6.28 2.49
-2.65 -6.34 2.49
-2.52 -6.40 2.49
-2.40 -6.46 2.49
-2.27 -6.51 2.49
-2.14 -6.56 2.49
-2.01 -6.61 2.49
-1.88 -6.66 2.49
-1.75 -6.70 2.49
-1.61 -6.74 2.49
-1.48 -6.78 2.49
-1.34 -6.82 2.49
-1.21 -6.85 2.49
-1.07 -6.88 2.49
-0.93 -6.91 2.49
-0.80 -6.93 2.49
-0.66 -6.96 2.49
-0.52 -6.98 2.49
-0.38 -6.99 2.49
-0.24 -7.01 2.49
-0.10 -7.02 2.49
0.04 -6.55 2.49
0.18 -6.56 2.49
0.31 -6.56 2.49
0.44 -6.56 2.49
0.57 -6.56 2.49
0.70 -6.55 2.49
0.83 -6.54 2.49
0.97 -6.53 2.49
1.10 -6.52 2.49
1.23 -6.50 2.49
1.36 -6.48 2.49
1.49 -6.46 2.49
1.62 -6.43 2.49
1.75 -6.41 2.49
1.88 -6.38 2.49
2.01 -6.34 2.49
2.10 -6.20 2.45
2.17 -6.01 2.39
2.30 -5.97 2.39
2.42 -5.93 2.39
2.54 -5.89 2.39
2.66 -5.84 2.39
2.78 -5.79 2.39
2.89 -5.74 2.39
3.01 -5.68 2.39
3.13 -5.63 2.39
3.24 -5.57 2.39
3.36 -5.51 2.39
3.47 -5.44 2.39
3.58 -5.38 2.39
3.69 -5.31 2.39
2.65 -3.66 1.67
2.72 -3.60 1.67
4.01 -5.09 2.39
4.11 -5.01 2.39
4.22 -4.93 2.39
4.32 -4.85 2.39
4.42 -4.77 2.39
4.51 -4.68 2.39
4.61 -4.59 2.39
4.70 -4.50 2.39
4.79 -4.41 2.39
4.88 -4.32 2.39
4.97 -4.22 2.39
5.06 -4.13 2.39
5.14 -4.03 2.39
5.23 -3.92 2.39
5.31 -3.82 2.39
5.38 -3.72 2.39
5.46 -3.61 2.39
5.53 -3.50 2.39
5.60 -3.39 2.39
5.67 -3.28 2.39
