ply
format ascii 1.0
element vertex 2866
property float32 x
property float32 y
property float32 z
end_header
12.27 -2.05 -0.05
12.18 -1.78 -0.05
12.17 -1.53 -0.05
12.16 -1.29 -0.05
12.15 -1.04 -0.05
12.14 -0.79 -0.05
12.14 -0.55 -0.05
12.22 -0.31 -0.05
12.41 -0.06 -0.05
12.40 0.19 -0.05
12.39 0.44 -0.06
12.38 0.68 -0.06
12.18 0.92 -0.06
12.08 1.16 -0.06
12.07 1.40 -0.06
11.26 1.53 -0.05
42.31 26.35 -0.23
40.36 26.28 -0.22
38.54 26.21 -0.21
36.83 26.14 -0.20
35.23 26.08 -0.19
33.71 26.03 -0.18
2.41 1.94 -0.01
2.37 1.99 -0.01
32.64 28.49 -0.17
32.60 29.63 -0.17
32.56 30.81 -0.17
32.52 32.03 -0.17
32.48 33.30 -0.17
32.43 34.62 -0.17
32.39 35.99 -0.16
31.14 36.03 -0.16
20.40 29.04 -0.10
17.35 25.79 -0.08
15.82 24.56 -0.07
15.38 24.97 -0.07
14.94 25.38 -0.06
14.50 25.80 -0.06
14.05 26.22 -0.06
13.59 26.64 -0.05
13.13 27.07 -0.05
12.62 27.41 -0.04
12.15 27.85 -0.04
11.72 28.40 -0.03
10.66 27.37 -0.03
10.74 29.31 -0.02
10.24 29.78 -0.02
9.73 30.26 -0.01
9.21 30.75 -0.01
11.50 41.37 -0.00
11.12 43.37 0.00
11.01 46.82 0.01
1.81 25.76 0.05
-7.42 31.59 0.16
-11.10 43.34 0.23
-10.98 39.53 0.22
-10.82 36.14 0.21
-10.79 33.55 0.20
-10.71 31.14 0.19
-10.64 29.04 0.19
-10.58 27.17 0.18
-10.52 25.50 0.18
-10.48 24.01 0.18
-10.43 22.65 0.17
-10.39 21.42 0.17
-10.29 20.17 0.17
-10.32 19.27 0.17
-10.29 18.32 0.16
-10.26 17.44 0.16
-10.23 16.62 0.16
-10.21 15.86 0.16
-10.19 15.15 0.16
-10.16 14.48 0.16
-10.14 13.85 0.15
-10.12 13.25 0.15
-10.11 12.69 0.15
-10.06 12.13 0.15
-10.07 11.66 0.15
-10.06 11.18 0.15
-10.04 10.72 0.15
-10.03 10.28 0.15
-10.01 9.87 0.15
-10.00 9.47 0.15
-9.99 9.08 0.15
-9.98 8.71 0.15
-9.97 8.35 0.15
-9.95 8.01 0.15
-9.94 7.68 0.15
-9.93 7.36 0.15
-9.92 7.04 0.15
-9.91 6.74 0.15
-9.90 6.45 0.15
-9.89 6.16 0.15
-9.88 5.89 0.15
-9.88 5.62 0.15
-9.87 5.35 0.15
-9.86 5.09 0.15
-9.85 4.84 0.15
-9.84 4.59 0.15
-9.83 4.35 0.15
-9.83 4.11 0.15
-9.82 3.88 0.15
-9.81 3.65 0.15
-9.80 3.43 0.15
-9.80 3.21 0.15
-9.79 2.99 0.15
-9.78 2.77 0.15
-9.78 2.56 0.15
-9.77 2.35 0.15
-9.76 2.14 0.15
-9.76 1.93 0.15
-9.75 1.73 0.15
-9.74 1.53 0.15
-9.74 1.33 0.15
-6.08 0.71 0.09
-5.99 0.57 0.09
-5.98 0.45 0.09
-6.00 0.33 0.09
-9.70 0.34 0.15
-9.66 0.15 0.15
-9.69 -0.05 0.15
-9.69 -0.24 0.15
-9.68 -0.44 0.15
-9.67 -0.63 0.15
-9.67 -0.83 0.15
-9.66 -1.02 0.15
-9.65 -1.22 0.16
-9.65 -1.41 0.16
-9.64 -1.61 0.16
-9.63 -1.81 0.16
-9.63 -2.01 0.16
-9.62 -2.21 0.16
-9.61 -2.41 0.16
-9.61 -2.62 0.16
-9.60 -2.82 0.16
-9.59 -3.03 0.16
-9.59 -3.24 0.16
-9.58 -3.46 0.16
-9.57 -3.89 0.17
-9.56 -4.11 0.17
-9.55 -4.34 0.17
-9.54 -4.57 0.17
-9.54 -4.81 0.17
-9.53 -5.04 0.17
-9.52 -5.29 0.17
-9.51 -5.53 0.17
-9.50 -5.79 0.18
-9.50 -6.05 0.18
-9.49 -6.31 0.18
-9.48 -6.59 0.18
-9.47 -6.87 0.18
-9.46 -7.15 0.18
-9.45 -7.45 0.19
-9.39 -7.71 0.19
-9.43 -8.07 0.19
-9.42 -8.39 0.19
-9.41 -8.73 0.19
-9.40 -9.07 0.20
-9.39 -9.43 0.20
-9.37 -9.81 0.20
-9.36 -10.20 0.20
-9.35 -10.60 0.21
-9.33 -11.02 0.21
-9.32 -11.47 0.21
-9.30 -11.93 0.22
-9.29 -12.42 0.22
-9.27 -12.93 0.22
-9.25 -13.46 0.23
-9.24 -14.03 0.23
-9.22 -14.63 0.24
-9.20 -15.27 0.24
-9.17 -15.95 0.25
-9.15 -16.68 0.25
-9.12 -17.45 0.26
-9.10 -18.29 0.26
-9.07 -19.18 0.27
-9.04 -20.15 0.28
-9.00 -21.21 0.29
-8.97 -22.36 0.30
-8.92 -23.62 0.31
-8.88 -25.00 0.32
-8.83 -26.54 0.33
-8.77 -28.26 0.34
-8.71 -30.18 0.36
-8.64 -32.36 0.38
-8.56 -34.85 0.40
-8.46 -37.72 0.42
-8.36 -41.07 0.45
-8.23 -45.05 0.48
4.03 -39.92 1.21
6.50 -35.53 1.06
6.46 -31.70 0.95
6.58 -29.26 0.87
6.23 -25.33 0.75
6.76 -25.28 0.75
6.56 -22.71 0.67
7.04 -22.66 0.67
6.89 -20.70 0.61
7.25 -20.40 0.60
7.68 -20.30 0.60
5.33 -13.28 0.39
5.50 -12.96 0.38
5.74 -12.79 0.38
9.56 -20.22 0.60
10.03 -20.15 0.60
10.52 -20.10 0.60
11.15 -20.30 0.60
11.54 -20.05 0.60
12.04 -19.98 0.60
12.56 -19.92 0.60
13.26 -20.14 0.61
13.81 -20.08 0.61
14.29 -19.91 0.61
14.83 -19.81 0.61
15.58 -19.96 0.62
16.25 -19.99 0.63
16.80 -19.83 0.63
17.40 -19.73 0.63
18.14 -19.74 0.64
18.75 -19.61 0.64
13.91 -13.97 0.46
13.76 -13.28 0.44
14.01 -12.98 0.44
13.99 -12.46 0.43
13.97 -11.95 0.42
13.96 -11.46 0.40
13.94 -10.98 0.39
13.93 -10.53 0.39
13.91 -10.08 0.38
13.90 -9.65 0.37
13.88 -9.24 0.36
11.54 -7.35 0.29
13.46 -8.19 0.33
12.35 -7.18 0.30
12.34 -6.85 0.30
12.43 -6.58 0.29
12.61 -6.35 0.29
12.60 -6.03 0.29
11.47 -5.21 0.26
12.29 -5.29 0.27
12.28 -4.99 0.27
12.27 -4.71 0.26
12.26 -4.42 0.26
12.25 -4.14 0.25
12.24 -3.87 0.25
12.31 -3.62 0.25
12.35 -3.36 0.25
12.34 -3.09 0.24
12.33 -2.83 0.24
12.32 -2.57 0.24
12.31 -2.31 0.24
12.27 -2.05 0.23
12.18 -1.78 0.23
12.17 -1.53 0.23
12.16 -1.29 0.23
12.15 -1.04 0.22
12.14 -0.79 0.22
12.14 -0.55 0.22
12.22 -0.31 0.22
12.41 -0.06 0.23
12.40 0.19 0.22
12.39 0.44 0.22
12.38 0.68 0.22
12.18 0.92 0.22
12.08 1.16 0.22
12.07 1.40 0.22
11.25 1.53 0.20
25.88 4.06 0.47
25.85 4.59 0.47
24.78 4.91 0.45
24.73 5.42 0.45
40.37 26.28 0.87
39.05 26.55 0.86
36.87 26.16 0.82
35.71 26.44 0.81
33.76 26.06 0.78
2.41 1.94 0.06
2.37 1.99 0.06
32.93 28.73 0.81
32.58 29.61 0.82
32.54 30.79 0.84
32.81 32.31 0.87
32.74 33.56 0.89
32.42 34.60 0.90
32.37 35.97 0.93
31.81 36.80 0.94
20.42 29.07 0.70
17.37 25.81 0.62
15.82 24.56 0.59
15.38 24.97 0.59
14.94 25.38 0.60
14.50 25.79 0.61
14.05 26.22 0.61
13.60 26.64 0.62
13.14 27.07 0.63
12.63 27.40 0.64
12.16 27.84 0.65
11.73 28.39 0.66
10.66 27.36 0.63
10.75 29.31 0.68
10.25 29.78 0.69
9.74 30.26 0.70
9.22 30.74 0.71
11.50 41.37 0.96
10.62 41.38 0.97
11.01 46.78 1.10
10.03 46.81 1.10
5.35 40.72 0.97
-7.42 31.59 0.89
-11.11 43.38 1.24
-10.98 39.58 1.14
-10.82 36.14 1.06
-10.79 33.58 1.00
-10.71 31.17 0.94
-10.64 29.06 0.89
-10.58 27.19 0.84
-8.21 19.91 0.63
-10.48 24.02 0.77
-10.43 22.67 0.74
-10.39 21.44 0.71
-10.29 20.18 0.68
-10.32 19.28 0.66
-10.29 18.33 0.64
-10.26 17.45 0.62
-10.23 16.63 0.60
-10.21 15.87 0.58
-10.19 15.15 0.57
-10.16 14.48 0.55
-10.14 13.85 0.54
-10.13 13.26 0.53
-10.11 12.70 0.52
-10.06 12.14 0.51
-10.07 11.66 0.50
-10.06 11.18 0.49
-10.04 10.73 0.48
-10.03 10.29 0.47
-10.01 9.87 0.47
-10.00 9.47 0.46
-9.99 9.08 0.45
-9.98 8.71 0.45
-9.97 8.36 0.44
-9.95 8.01 0.43
-9.94 7.68 0.43
-9.93 7.36 0.42
-9.92 7.05 0.42
-9.91 6.75 0.42
-9.90 6.45 0.41
-9.89 6.17 0.41
-9.89 5.89 0.40
-9.88 5.62 0.40
-9.87 5.35 0.40
-9.86 5.10 0.40
-9.85 4.84 0.39
-9.84 4.60 0.39
-9.84 4.35 0.39
-9.83 4.12 0.39
-9.82 3.88 0.38
-9.81 3.65 0.38
-9.80 3.43 0.38
-9.80 3.21 0.38
-9.79 2.99 0.38
-9.78 2.77 0.38
-9.78 2.56 0.37
-9.77 2.35 0.37
-9.76 2.14 0.37
-9.76 1.94 0.37
-9.75 1.73 0.37
-9.74 1.53 0.37
-9.74 1.33 0.37
-6.08 0.71 0.23
-5.99 0.57 0.23
-5.98 0.45 0.23
-9.71 0.54 0.37
-9.70 0.34 0.37
-9.66 0.15 0.37
-9.69 -0.05 0.37
-9.69 -0.24 0.37
-9.68 -0.44 0.37
-9.67 -0.63 0.37
-9.67 -0.83 0.37
-9.66 -1.02 0.37
-9.65 -1.22 0.37
-9.65 -1.41 0.38
-9.64 -1.61 0.38
-9.63 -1.81 0.38
-9.63 -2.01 0.38
-9.62 -2.21 0.38
-9.61 -2.41 0.38
-9.61 -2.62 0.38
-9.60 -2.82 0.39
-9.59 -3.03 0.39
-9.59 -3.24 0.39
-9.58 -3.46 0.39
-9.57 -3.89 0.40
-9.56 -4.12 0.40
-9.55 -4.34 0.40
-9.54 -4.57 0.41
-9.54 -4.81 0.41
-9.53 -5.04 0.41
-9.52 -5.29 0.42
-9.51 -5.54 0.42
-9.50 -5.79 0.43
-9.50 -6.05 0.43
-9.49 -6.31 0.44
-9.48 -6.59 0.44
-9.47 -6.87 0.45
-9.46 -7.15 0.45
-9.45 -7.45 0.46
-9.39 -7.71 0.46
-9.43 -8.07 0.47
-9.42 -8.39 0.48
-9.41 -8.73 0.48
-9.40 -9.08 0.49
-9.39 -9.44 0.50
-9.37 -9.81 0.51
-9.36 -10.20 0.52
-9.35 -10.60 0.53
-9.33 -11.03 0.54
-9.32 -11.47 0.55
-9.30 -11.93 0.56
-9.29 -12.42 0.57
-9.27 -12.93 0.58
-9.25 -13.47 0.60
-9.24 -14.04 0.61
-9.22 -14.64 0.63
-9.20 -15.28 0.64
-9.17 -15.96 0.66
-9.15 -16.68 0.68
-9.12 -17.46 0.70
-9.10 -18.29 0.72
-9.07 -19.19 0.75
-9.04 -20.16 0.78
-9.00 -21.22 0.81
-8.96 -22.37 0.84
-8.92 -23.63 0.87
-8.88 -25.02 0.92
-8.83 -26.56 0.96
-8.77 -28.27 1.01
-8.71 -30.20 1.07
-8.64 -32.38 1.13
-8.56 -34.87 1.21
-8.46 -37.75 1.29
-8.35 -41.11 1.39
-8.22 -45.09 1.51
0.02 -46.30 2.49
0.96 -46.46 2.49
1.90 -46.61 2.49
2.84 -46.74 2.49
3.79 -46.86 2.49
4.04 -39.92 2.12
5.48 -45.09 2.39
6.41 -45.15 2.39
7.01 -43.16 2.28
6.48 -35.35 1.87
6.38 -31.28 1.65
5.74 -25.51 1.35
6.22 -25.27 1.34
6.75 -25.23 1.34
6.56 -22.69 1.20
7.04 -22.63 1.20
4.54 -13.64 0.73
4.83 -13.57 0.72
7.67 -20.27 1.09
8.12 -20.22 1.09
8.58 -20.18 1.09
6.33 -14.09 0.76
9.56 -20.20 1.10
10.01 -20.10 1.10
10.50 -20.06 1.11
11.11 -20.22 1.12
11.53 -20.03 1.12
12.04 -19.98 1.12
12.53 -19.87 1.13
13.15 -19.96 1.14
13.78 -20.03 1.16
14.25 -19.85 1.16
14.84 -19.81 1.17
15.48 -19.83 1.18
16.21 -19.92 1.20
16.75 -19.77 1.21
10.59 -12.00 0.74
7.13 -7.76 0.49
7.07 -7.39 0.47
7.04 -7.07 0.46
7.01 -6.76 0.44
7.25 -6.71 0.45
13.99 -12.45 0.85
13.97 -11.94 0.83
13.96 -11.45 0.81
13.94 -10.98 0.79
13.93 -10.52 0.78
13.91 -10.08 0.76
13.90 -9.65 0.75
13.88 -9.23 0.74
7.26 -4.62 0.38
13.46 -8.19 0.69
12.35 -7.18 0.62
12.34 -6.85 0.61
12.43 -6.57 0.61
12.61 -6.35 0.61
12.60 -6.03 0.60
11.47 -5.21 0.54
12.29 -5.29 0.57
12.28 -4.99 0.56
12.27 -4.70 0.56
12.26 -4.42 0.55
12.25 -4.14 0.55
12.24 -3.87 0.54
12.31 -3.62 0.54
12.35 -3.36 0.54
12.34 -3.09 0.53
12.33 -2.83 0.53
12.32 -2.57 0.52
12.31 -2.31 0.52
12.27 -2.05 0.51
12.18 -1.78 0.51
12.17 -1.53 0.50
12.16 -1.28 0.50
12.15 -1.04 0.50
12.14 -0.79 0.50
12.14 -0.55 0.50
12.22 -0.31 0.50
12.41 -0.06 0.50
12.40 0.19 0.50
12.39 0.44 0.50
12.38 0.69 0.50
12.18 0.92 0.49
12.08 1.16 0.49
12.07 1.40 0.49
11.25 1.53 0.46
25.33 3.97 1.03
24.88 4.42 1.02
22.89 4.54 0.94
20.93 4.59 0.86
17.92 4.31 0.74
17.25 4.51 0.72
15.23 4.31 0.64
13.61 4.15 0.57
13.03 4.26 0.55
12.96 4.53 0.55
12.92 4.81 0.55
12.96 5.12 0.56
12.93 5.41 0.56
33.23 14.70 1.46
33.17 15.48 1.47
33.15 16.28 1.49
42.61 22.00 1.94
42.31 26.35 2.02
40.38 26.28 1.96
32.02 21.77 1.57
30.66 21.76 1.53
29.29 21.68 1.49
28.08 21.67 1.45
2.41 1.94 0.13
2.37 1.99 0.13
24.71 21.56 1.35
23.70 21.53 1.32
22.73 21.50 1.29
21.80 21.47 1.27
20.92 21.44 1.24
20.07 21.41 1.22
19.22 21.35 1.20
18.44 21.32 1.18
17.87 21.52 1.17
15.87 21.65 1.13
15.75 22.42 1.16
15.64 23.24 1.19
15.82 24.55 1.25
15.43 25.04 1.26
14.99 25.45 1.27
14.55 25.87 1.28
14.05 26.21 1.28
13.60 26.64 1.30
13.14 27.07 1.31
12.63 27.40 1.32
12.16 27.84 1.33
11.73 28.39 1.35
10.67 27.36 1.30
10.75 29.30 1.38
10.28 29.86 1.40
9.77 30.34 1.42
9.22 30.74 1.44
11.33 40.70 1.90
10.44 40.67 1.90
9.57 40.64 1.89
8.70 40.58 1.89
7.85 40.55 1.89
5.96 34.50 1.61
5.49 36.04 1.68
5.25 39.86 1.86
1.48 48.25 2.28
-8.20 47.77 2.39
-9.12 47.39 2.39
-10.03 47.00 2.39
-7.40 31.57 1.62
-10.98 39.62 2.07
-10.81 36.16 1.91
-10.79 33.61 1.79
-10.71 31.20 1.68
-10.64 29.08 1.59
-10.58 27.21 1.50
-8.11 19.67 1.10
-10.48 24.04 1.36
-10.43 22.68 1.30
-10.39 21.45 1.25
-10.28 20.19 1.19
-10.32 19.29 1.15
-10.29 18.34 1.11
-10.26 17.46 1.08
-10.24 16.64 1.04
-10.21 15.87 1.01
-10.19 15.16 0.98
-10.17 14.49 0.95
-10.14 13.86 0.93
-10.13 13.27 0.91
-10.11 12.71 0.88
-10.06 12.14 0.86
-10.07 11.67 0.85
-10.06 11.19 0.83
-10.04 10.73 0.81
-10.03 10.29 0.80
-10.01 9.88 0.78
-10.00 9.47 0.77
-9.99 9.09 0.76
-9.98 8.72 0.74
-9.97 8.36 0.73
-9.95 8.02 0.72
-9.94 7.68 0.71
-9.93 7.36 0.70
-9.92 7.05 0.69
-9.91 6.75 0.69
-9.90 6.45 0.68
-9.89 6.17 0.67
-9.89 5.89 0.66
-9.88 5.62 0.66
-9.87 5.36 0.65
-9.86 5.10 0.65
-9.85 4.85 0.64
-9.84 4.60 0.64
-9.84 4.36 0.63
-9.83 4.12 0.63
-9.82 3.89 0.62
-9.81 3.66 0.62
-9.80 3.43 0.61
-9.80 3.21 0.61
-9.79 2.99 0.61
-9.78 2.77 0.61
-9.78 2.56 0.60
-9.77 2.35 0.60
-9.76 2.14 0.60
-9.76 1.94 0.60
-9.75 1.73 0.59
-9.74 1.53 0.59
-9.74 1.33 0.59
-6.08 0.71 0.37
-9.72 0.93 0.59
-6.11 0.46 0.37
-9.71 0.54 0.59
-9.70 0.34 0.59
-9.66 0.15 0.59
-9.69 -0.05 0.59
-9.69 -0.24 0.59
-9.68 -0.44 0.59
-9.67 -0.63 0.59
-9.67 -0.83 0.59
-9.66 -1.02 0.59
-9.65 -1.22 0.59
-9.65 -1.41 0.60
-9.64 -1.61 0.60
-9.63 -1.81 0.60
-9.63 -2.01 0.60
-9.62 -2.21 0.60
-9.61 -2.41 0.61
-9.61 -2.62 0.61
-9.60 -2.82 0.61
-9.59 -3.03 0.62
-9.59 -3.24 0.62
-9.58 -3.46 0.62
-9.57 -3.89 0.63
-9.56 -4.12 0.64
-9.55 -4.34 0.64
-9.54 -4.57 0.65
-9.54 -4.81 0.65
-9.53 -5.04 0.66
-9.52 -5.29 0.66
-9.51 -5.54 0.67
-9.50 -5.79 0.68
-9.50 -6.05 0.69
-9.49 -6.32 0.69
-9.48 -6.59 0.70
-9.47 -6.87 0.71
-9.46 -7.16 0.72
-9.45 -7.45 0.73
-9.39 -7.71 0.73
-9.43 -8.07 0.75
-9.42 -8.39 0.76
-9.41 -8.73 0.77
-9.40 -9.08 0.79
-9.39 -9.44 0.80
-9.37 -9.81 0.81
-9.36 -10.20 0.83
-9.35 -10.61 0.84
-9.33 -11.03 0.86
-9.32 -11.47 0.88
-9.30 -11.94 0.90
-9.29 -12.42 0.92
-9.27 -12.93 0.94
-9.25 -13.47 0.96
-9.24 -14.04 0.99
-9.22 -14.64 1.02
-9.20 -15.28 1.05
-9.17 -15.96 1.08
-9.15 -16.69 1.11
-9.12 -17.47 1.15
-9.10 -18.30 1.19
-9.07 -19.20 1.23
-9.04 -20.17 1.28
-9.00 -21.23 1.33
-8.96 -22.38 1.38
-8.92 -23.64 1.45
-8.88 -25.03 1.51
-8.83 -26.57 1.59
-8.77 -28.29 1.68
-8.71 -30.22 1.78
-8.64 -32.40 1.89
-8.56 -34.90 2.02
-7.55 -33.72 1.93
-7.64 -37.66 2.14
-7.70 -42.29 2.39
-6.88 -42.58 2.39
-6.04 -42.85 2.39
-5.20 -43.12 2.39
-4.44 -44.35 2.44
-3.64 -45.48 2.49
-2.73 -45.71 2.49
-1.82 -45.92 2.49
-0.90 -46.12 2.49
0.02 -32.61 2.49
0.68 -32.69 2.49
1.34 -32.75 2.49
2.00 -32.81 2.49
2.67 -32.85 2.49
3.20 -31.52 2.39
3.84 -31.54 2.39
4.49 -31.54 2.39
5.13 -31.53 2.39
5.78 -31.51 2.39
6.43 -31.48 2.39
5.74 -25.50 1.94
6.23 -25.27 1.93
6.76 -25.25 1.93
6.56 -22.66 1.74
7.04 -22.62 1.74
4.52 -13.55 1.04
4.80 -13.47 1.04
7.66 -20.23 1.57
8.12 -20.20 1.58
8.59 -20.19 1.59
6.31 -14.03 1.11
9.55 -20.17 1.60
10.01 -20.09 1.61
10.51 -20.07 1.62
11.12 -20.23 1.64
11.52 -19.99 1.64
12.03 -19.94 1.65
12.56 -19.91 1.66
13.16 -19.96 1.68
13.76 -19.98 1.70
14.25 -19.84 1.71
14.84 -19.81 1.73
15.52 -19.87 1.76
16.24 -19.95 1.79
10.34 -12.20 1.11
10.40 -11.77 1.08
7.14 -7.76 0.73
7.03 -7.35 0.70
7.04 -7.07 0.68
7.01 -6.76 0.67
7.14 -6.61 0.66
7.35 -6.54 0.67
7.65 -6.54 0.68
6.99 -5.73 0.61
6.96 -5.48 0.60
6.99 -5.28 0.59
6.97 -5.05 0.58
6.95 -4.83 0.57
7.03 -4.67 0.56
7.10 -4.51 0.56
7.44 -4.52 0.58
12.35 -7.18 0.95
7.00 -3.88 0.53
6.91 -3.65 0.52
6.82 -3.43 0.50
6.90 -3.30 0.50
6.87 -3.12 0.49
6.85 -2.95 0.49
7.06 -2.87 0.50
7.21 -2.76 0.50
7.53 -2.71 0.52
12.25 -4.14 0.84
12.24 -3.86 0.83
12.31 -3.61 0.83
12.35 -3.36 0.82
6.76 -1.69 0.45
6.74 -1.55 0.44
6.72 -1.40 0.44
12.31 -2.31 0.80
12.27 -2.05 0.80
6.86 -1.00 0.44
7.00 -0.88 0.45
12.16 -1.28 0.78
12.15 -1.04 0.78
11.32 -0.74 0.72
12.14 -0.55 0.77
12.22 -0.30 0.77
6.93 -0.03 0.44
12.18 0.19 0.77
12.17 0.43 0.77
12.17 0.67 0.77
12.18 0.92 0.77
12.08 1.16 0.76
12.07 1.40 0.77
11.25 1.53 0.71
25.27 3.97 1.61
24.88 4.42 1.59
22.83 4.53 1.46
20.94 4.59 1.35
17.37 4.17 1.12
6.89 1.80 0.45
15.06 4.26 0.98
13.11 4.00 0.86
12.93 4.23 0.85
11.63 4.06 0.77
11.07 4.12 0.74
7.21 2.85 0.49
6.84 2.86 0.47
6.60 2.92 0.45
6.65 3.10 0.46
6.63 3.26 0.46
6.61 3.42 0.47
6.60 3.58 0.47
7.51 4.27 0.54
7.48 4.45 0.55
7.49 4.66 0.56
7.44 4.84 0.56
7.38 5.02 0.56
30.67 21.76 2.38
29.29 21.68 2.31
28.09 21.67 2.25
2.41 1.94 0.20
2.37 1.99 0.20
24.72 21.56 2.09
23.70 21.53 2.04
22.73 21.50 2.00
21.81 21.47 1.96
20.92 21.44 1.92
20.07 21.41 1.88
19.23 21.35 1.85
18.44 21.32 1.81
17.87 21.52 1.80
20.82 26.12 2.16
20.27 26.51 2.16
15.88 21.65 1.74
15.75 22.41 1.78
15.64 23.23 1.82
15.83 24.55 1.91
15.39 24.96 1.92
14.95 25.37 1.93
14.51 25.79 1.94
14.06 26.21 1.96
13.60 26.63 1.97
13.15 27.06 1.99
12.64 27.40 2.00
12.10 27.68 2.01
11.51 27.85 2.01
10.64 27.28 1.95
10.76 29.30 2.09
10.26 29.77 2.11
9.75 30.24 2.14
9.23 30.73 2.16
8.88 31.89 2.24
8.25 32.12 2.25
7.63 32.37 2.26
7.02 32.69 2.28
6.42 33.15 2.31
5.88 33.99 2.36
5.28 34.63 2.41
4.54 34.40 2.39
3.84 34.39 2.39
3.14 34.37 2.39
2.05 28.82 2.01
1.75 34.27 2.39
1.05 34.20 2.39
0.38 35.59 2.49
-0.33 35.48 2.49
-1.04 35.37 2.49
-1.74 35.24 2.49
-2.44 35.09 2.49
-3.14 34.94 2.49
-3.83 34.77 2.49
-4.51 34.58 2.49
-5.19 34.38 2.49
-5.86 34.17 2.49
-6.53 33.95 2.49
-6.94 32.57 2.41
-7.39 31.57 2.35
-8.13 31.83 2.39
-8.74 31.57 2.39
-9.35 31.30 2.39
-9.95 31.01 2.39
-10.54 30.72 2.39
-10.52 27.07 2.15
-8.10 19.67 1.58
-10.48 24.06 1.95
-10.43 22.70 1.87
-10.39 21.47 1.79
-10.28 20.19 1.70
-10.32 19.30 1.65
-10.29 18.35 1.59
-10.26 17.47 1.53
-10.24 16.65 1.48
-10.21 15.88 1.44
-10.19 15.17 1.39
-10.17 14.50 1.36
-10.14 13.87 1.32
-10.13 13.27 1.28
-10.11 12.71 1.25
-10.06 12.14 1.22
-10.07 11.68 1.20
-10.06 11.19 1.17
-10.04 10.74 1.15
-10.03 10.30 1.12
-10.02 9.88 1.10
-10.00 9.48 1.08
-9.99 9.09 1.06
-9.98 8.72 1.04
-9.97 8.36 1.03
-9.95 8.02 1.01
-9.94 7.69 1.00
-9.93 7.37 0.98
-9.92 7.05 0.97
-9.91 6.75 0.96
-9.90 6.46 0.95
-9.89 6.17 0.94
-9.89 5.89 0.92
-9.88 5.62 0.92
-9.87 5.36 0.91
-9.86 5.10 0.90
-9.85 4.85 0.89
-9.84 4.60 0.88
-9.84 4.36 0.87
-9.83 4.12 0.87
-9.82 3.89 0.86
-9.81 3.66 0.86
-9.81 3.43 0.85
-9.80 3.21 0.84
-9.79 2.99 0.84
-9.78 2.78 0.84
-9.78 2.56 0.83
-9.77 2.35 0.83
-9.76 2.14 0.82
-9.76 1.94 0.82
-9.75 1.73 0.82
-9.74 1.53 0.82
-9.74 1.33 0.81
-6.08 0.71 0.51
-9.72 0.93 0.81
-9.72 0.74 0.81
-9.71 0.54 0.81
-9.70 0.34 0.81
-9.66 0.15 0.81
-9.69 -0.05 0.81
-9.69 -0.24 0.81
-9.68 -0.44 0.81
-9.67 -0.63 0.81
-9.67 -0.82 0.81
-9.66 -1.02 0.81
-9.65 -1.22 0.81
-9.65 -1.41 0.82
-9.64 -1.61 0.82
-9.63 -1.81 0.82
-9.63 -2.01 0.82
-9.62 -2.21 0.83
-9.61 -2.41 0.83
-9.61 -2.62 0.84
-9.60 -2.82 0.84
-9.59 -3.03 0.84
-9.59 -3.24 0.85
-9.58 -3.46 0.85
-9.57 -3.89 0.87
-9.56 -4.12 0.87
-7.78 -3.54 0.72
-7.58 -3.63 0.70
-7.52 -3.79 0.71
-9.53 -5.05 0.90
-9.52 -5.29 0.91
-9.51 -5.54 0.92
-9.50 -5.79 0.93
-9.50 -6.05 0.94
-9.49 -6.32 0.95
-9.48 -6.59 0.96
-9.47 -6.87 0.97
-9.46 -7.16 0.99
-9.45 -7.45 1.00
-9.39 -7.71 1.01
-9.43 -8.07 1.03
-9.42 -8.40 1.05
-9.41 -8.73 1.06
-9.40 -9.08 1.08
-9.39 -9.44 1.10
-9.37 -9.81 1.12
-9.36 -10.20 1.14
-9.35 -10.61 1.16
-9.33 -11.03 1.19
-9.32 -11.48 1.21
-9.30 -11.94 1.24
-9.29 -12.43 1.27
-9.27 -12.94 1.30
-9.25 -13.48 1.33
-9.24 -14.05 1.37
-9.22 -14.65 1.41
-9.20 -15.29 1.45
-9.17 -15.97 1.49
-9.15 -16.70 1.54
-9.12 -17.47 1.59
-9.10 -18.31 1.65
-9.07 -19.21 1.71
-9.04 -20.18 1.78
-9.00 -21.24 1.85
-8.96 -22.39 1.93
-8.92 -23.65 2.02
-8.88 -25.05 2.12
-8.81 -26.55 2.22
-8.14 -26.28 2.18
-8.13 -28.23 2.33
-7.79 -29.23 2.39
-7.22 -29.47 2.39
-6.64 -29.67 2.39
-6.06 -29.87 2.39
-5.47 -30.06 2.39
-4.92 -30.48 2.41
-4.46 -31.72 2.49
-3.84 -31.88 2.49
-3.20 -32.03 2.49
-2.57 -32.17 2.49
-1.92 -32.29 2.49
-1.28 -32.41 2.49
-0.63 -32.51 2.49
0.02 -25.14 2.49
0.53 -25.19 2.49
1.04 -25.23 2.49
1.55 -25.25 2.49
2.06 -25.27 2.49
2.57 -25.28 2.49
2.96 -24.23 2.39
3.45 -24.22 2.39
3.94 -24.20 2.39
4.44 -24.16 2.39
4.93 -24.12 2.39
5.43 -24.07 2.39
5.92 -24.01 2.39
6.42 -23.94 2.39
6.56 -22.64 2.27
6.71 -21.53 2.17
4.52 -13.54 1.37
4.80 -13.47 1.37
7.68 -20.26 2.07
8.15 -20.27 2.08
6.18 -14.51 1.50
6.34 -14.09 1.46
9.55 -20.16 2.11
10.05 -20.14 2.12
10.56 -20.15 2.14
11.13 -20.24 2.17
11.51 -19.97 2.16
12.02 -19.91 2.17
12.62 -20.00 2.21
12.60 -19.10 2.13
12.96 -18.82 2.12
13.32 -18.54 2.12
13.68 -18.25 2.11
14.04 -17.96 2.10
14.40 -17.68 2.10
10.24 -12.07 1.45
10.25 -11.61 1.42
6.99 -7.60 0.94
6.97 -7.28 0.92
7.00 -7.02 0.90
6.97 -6.72 0.88
7.05 -6.53 0.87
7.19 -6.40 0.87
7.57 -6.46 0.90
6.93 -5.68 0.81
6.93 -5.45 0.79
6.97 -5.26 0.78
6.95 -5.03 0.77
6.95 -4.82 0.76
6.98 -4.64 0.75
7.10 -4.52 0.75
7.19 -4.37 0.75
12.35 -7.17 1.27
7.00 -3.88 0.71
6.91 -3.65 0.69
6.82 -3.43 0.67
6.90 -3.30 0.67
6.88 -3.12 0.67
6.85 -2.95 0.66
6.91 -2.81 0.66
7.01 -2.68 0.66
7.46 -2.69 0.69
12.25 -4.14 1.13
6.85 -2.16 0.63
6.83 -2.01 0.62
6.76 -1.84 0.61
6.68 -1.67 0.60
6.67 -1.53 0.59
6.72 -1.40 0.60
6.70 -1.26 0.59
6.68 -1.11 0.59
6.66 -0.97 0.58
6.79 -0.85 0.59
6.84 -0.72 0.59
12.15 -1.03 1.05
11.27 -0.73 0.97
11.26 -0.51 0.97
6.71 -0.17 0.58
6.71 -0.03 0.58
6.70 0.10 0.58
6.62 0.23 0.57
6.52 0.36 0.56
6.52 0.49 0.56
6.51 0.62 0.56
6.51 0.76 0.56
6.54 0.89 0.57
6.61 1.04 0.57
6.60 1.17 0.57
6.59 1.31 0.57
6.58 1.44 0.58
6.57 1.58 0.58
6.56 1.72 0.58
6.70 1.90 0.59
6.74 2.06 0.60
12.92 4.23 1.16
11.49 4.02 1.04
10.99 4.09 1.00
7.18 2.84 0.66
6.71 2.81 0.62
6.61 2.92 0.62
6.58 3.07 0.62
6.52 3.20 0.62
6.62 3.42 0.64
6.60 3.58 0.64
7.51 4.27 0.74
7.48 4.45 0.75
7.52 4.68 0.76
7.51 4.88 0.77
24.02 16.32 2.49
23.67 16.79 2.49
23.31 17.24 2.49
22.60 17.44 2.46
2.41 1.94 0.27
2.37 1.99 0.27
20.87 18.20 2.39
20.48 18.60 2.39
20.08 18.99 2.39
19.68 19.36 2.39
19.26 19.73 2.39
18.84 20.09 2.39
18.41 20.44 2.39
17.97 20.78 2.39
17.53 21.11 2.39
17.06 21.40 2.39
15.88 20.77 2.28
15.89 21.65 2.35
15.76 22.41 2.40
15.32 22.75 2.41
14.84 23.01 2.41
14.35 23.27 2.41
13.86 23.52 2.41
13.37 23.75 2.41
12.80 23.85 2.39
12.22 23.92 2.38
11.67 24.01 2.37
11.11 24.07 2.36
10.55 24.13 2.35
9.98 24.13 2.33
9.43 24.17 2.32
8.89 24.21 2.31
8.42 24.43 2.32
8.10 25.12 2.37
7.69 25.59 2.41
7.16 25.68 2.41
6.63 25.77 2.41
6.10 25.85 2.41
5.57 25.91 2.41
5.00 25.79 2.39
4.48 25.83 2.39
3.95 25.87 2.39
3.42 25.88 2.39
2.89 25.89 2.39
2.37 25.89 2.39
1.85 25.88 2.39
1.32 25.86 2.39
0.84 26.93 2.49
0.30 26.89 2.49
-0.24 26.83 2.49
-0.78 26.76 2.49
-1.31 26.68 2.49
-1.84 26.59 2.49
-2.37 26.49 2.49
-2.90 26.38 2.49
-3.42 26.26 2.49
-3.94 26.12 2.49
-4.45 25.98 2.49
-4.96 25.83 2.49
-5.46 25.67 2.49
-5.97 25.50 2.49
-6.46 25.31 2.49
-6.68 24.15 2.40
-7.13 23.89 2.39
-7.59 23.69 2.39
-6.57 19.16 1.95
-6.50 17.79 1.83
-6.73 17.35 1.80
-8.10 19.68 2.06
-9.82 22.56 2.39
-10.25 22.31 2.39
-10.28 20.20 2.22
-10.28 19.23 2.14
-10.29 18.36 2.07
-10.26 17.48 1.99
-10.24 16.66 1.93
-10.21 15.89 1.87
-10.19 15.18 1.81
-10.17 14.51 1.76
-10.15 13.88 1.71
-10.13 13.28 1.66
-10.11 12.72 1.62
-10.05 12.14 1.58
-10.07 11.68 1.55
-10.06 11.20 1.51
-10.04 10.74 1.48
-10.03 10.30 1.45
-10.02 9.88 1.42
-10.00 9.48 1.39
-9.99 9.10 1.37
-9.98 8.73 1.35
-9.97 8.37 1.32
-9.95 8.02 1.30
-9.94 7.69 1.28
-9.93 7.37 1.26
-9.92 7.06 1.25
-9.91 6.75 1.23
-9.90 6.46 1.21
-9.89 6.17 1.20
-9.89 5.90 1.19
-9.88 5.62 1.17
-9.87 5.36 1.16
-9.86 5.10 1.15
-9.85 4.85 1.14
-9.84 4.60 1.13
-9.84 4.36 1.12
-9.83 4.12 1.11
-9.82 3.89 1.10
-9.81 3.66 1.09
-9.81 3.43 1.09
-9.80 3.21 1.08
-9.79 2.99 1.07
-9.78 2.78 1.07
-9.78 2.56 1.06
-9.77 2.35 1.06
-9.76 2.15 1.05
-9.76 1.94 1.05
-9.75 1.74 1.04
-9.74 1.53 1.04
-9.74 1.33 1.04
-6.08 0.71 0.65
-9.72 0.93 1.03
-9.72 0.74 1.03
-9.71 0.54 1.03
-9.70 0.34 1.03
-9.66 0.15 1.02
-9.69 -0.05 1.03
-9.69 -0.24 1.03
-9.68 -0.43 1.03
-9.67 -0.63 1.03
-9.67 -0.82 1.03
-9.66 -1.02 1.03
-9.65 -1.22 1.04
-9.65 -1.41 1.04
-9.64 -1.61 1.04
-9.63 -1.81 1.04
-9.63 -2.01 1.05
-9.62 -2.21 1.05
-9.61 -2.41 1.06
-9.61 -2.62 1.06
-9.60 -2.82 1.07
-9.59 -3.03 1.07
-9.59 -3.24 1.08
-9.58 -3.46 1.09
-9.57 -3.89 1.10
-9.56 -4.12 1.11
-7.64 -3.47 0.89
-7.49 -3.59 0.88
-7.43 -3.75 0.89
-7.47 -3.96 0.90
-9.52 -5.29 1.16
-9.51 -5.54 1.17
-9.50 -5.79 1.18
-9.50 -6.05 1.20
-9.49 -6.32 1.21
-9.48 -6.59 1.23
-9.47 -6.87 1.24
-9.46 -7.16 1.26
-9.45 -7.45 1.27
-9.38 -7.71 1.29
-9.43 -8.07 1.31
-9.42 -8.40 1.33
-9.41 -8.73 1.36
-9.40 -9.08 1.38
-9.39 -9.44 1.40
-9.37 -9.82 1.43
-9.36 -10.21 1.46
-9.35 -10.61 1.49
-9.33 -11.04 1.52
-9.32 -11.48 1.55
-9.30 -11.94 1.59
-9.29 -12.43 1.62
-9.27 -12.94 1.66
-9.25 -13.48 1.71
-9.24 -14.05 1.75
-9.22 -14.65 1.80
-9.20 -15.29 1.85
-9.17 -15.98 1.91
-9.15 -16.70 1.97
-9.12 -17.48 2.04
-9.10 -18.32 2.11
-9.01 -19.10 2.18
-9.06 -21.39 2.39
-8.65 -21.61 2.39
-8.22 -21.81 2.39
-7.80 -22.01 2.39
-7.36 -22.20 2.39
-6.93 -22.38 2.39
-6.49 -22.55 2.39
-6.05 -22.72 2.39
-5.60 -22.88 2.39
-5.16 -23.08 2.40
-4.90 -24.17 2.49
-4.42 -24.31 2.49
-3.94 -24.44 2.49
-3.45 -24.56 2.49
-2.96 -24.67 2.49
-2.47 -24.77 2.49
-1.98 -24.86 2.49
-1.48 -24.95 2.49
-0.98 -25.02 2.49
-0.48 -25.09 2.49
0.02 -20.44 2.49
0.44 -20.47 2.49
0.85 -20.50 2.49
1.26 -20.51 2.49
1.68 -20.52 2.49
2.09 -20.51 2.49
2.51 -20.50 2.49
2.80 -19.64 2.39
3.20 -19.61 2.39
3.60 -19.58 2.39
4.00 -19.54 2.39
4.40 -19.49 2.39
4.80 -19.43 2.39
5.20 -19.36 2.39
5.59 -19.29 2.39
5.99 -19.21 2.39
4.52 -13.54 1.69
4.80 -13.47 1.69
7.12 -18.77 2.37
7.46 -18.53 2.36
6.14 -14.41 1.84
6.21 -13.80 1.78
6.55 -13.81 1.79
8.75 -17.53 2.29
9.06 -17.28 2.28
9.36 -17.01 2.27
9.65 -16.74 2.25
9.94 -16.46 2.24
10.22 -16.18 2.22
10.49 -15.89 2.21
10.76 -15.61 2.19
11.02 -15.33 2.18
11.29 -15.05 2.17
11.55 -14.77 2.16
10.23 -12.56 1.86
10.34 -12.18 1.83
10.23 -11.57 1.77
6.98 -7.58 1.18
6.96 -7.26 1.15
6.96 -6.98 1.12
6.96 -6.71 1.10
7.03 -6.51 1.09
7.17 -6.37 1.09
7.12 -6.07 1.06
6.92 -5.67 1.01
6.88 -5.42 0.99
6.89 -5.20 0.97
6.89 -4.98 0.96
6.85 -4.75 0.94
6.88 -4.57 0.93
6.99 -4.44 0.93
7.15 -4.35 0.94
7.54 -4.38 0.97
6.91 -3.83 0.88
6.84 -3.61 0.86
6.82 -3.43 0.85
6.81 -3.25 0.84
6.84 -3.10 0.83
6.83 -2.93 0.82
6.88 -2.79 0.82
6.95 -2.66 0.82
7.08 -2.55 0.83
12.25 -4.14 1.42
6.86 -2.16 0.79
6.78 -1.99 0.78
6.71 -1.82 0.76
6.68 -1.67 0.76
6.67 -1.53 0.75
6.68 -1.39 0.75
6.70 -1.25 0.75
6.68 -1.11 0.74
6.66 -0.97 0.74
6.80 -0.85 0.75
6.85 -0.72 0.75
12.15 -1.03 1.33
11.26 -0.73 1.23
11.26 -0.50 1.23
6.72 -0.17 0.73
6.71 -0.03 0.73
6.70 0.10 0.73
6.62 0.23 0.72
6.62 0.37 0.72
6.61 0.50 0.72
6.56 0.63 0.71
6.51 0.76 0.71
6.54 0.89 0.72
6.61 1.04 0.72
6.59 1.17 0.72
6.59 1.31 0.73
6.58 1.44 0.73
6.57 1.58 0.73
6.56 1.72 0.73
6.71 1.90 0.75
6.75 2.06 0.76
12.94 4.23 1.47
11.44 4.00 1.31
10.98 4.08 1.27
7.05 2.78 0.82
6.70 2.81 0.79
6.58 2.91 0.78
6.58 3.07 0.79
6.52 3.20 0.79
6.59 3.40 0.80
6.58 3.56 0.81
6.64 3.77 0.83
7.46 4.44 0.94
7.44 4.63 0.95
7.44 4.84 0.96
7.44 5.06 0.98
7.52 5.33 1.00
18.43 13.64 2.49
18.15 14.00 2.49
2.41 1.94 0.34
2.37 1.99 0.34
17.23 15.03 2.49
16.91 15.36 2.49
16.59 15.68 2.49
16.26 16.00 2.49
15.92 16.30 2.49
15.57 16.60 2.49
15.22 16.90 2.49
14.86 17.18 2.49
14.25 17.16 2.45
13.67 17.15 2.41
13.19 17.24 2.39
12.83 17.48 2.39
12.46 17.72 2.39
12.09 17.94 2.39
11.71 18.16 2.39
11.33 18.37 2.39
10.95 18.57 2.39
10.56 18.76 2.39
10.17 18.94 2.39
9.77 19.12 2.39
9.37 19.28 2.39
8.97 19.44 2.39
8.57 19.59 2.39
8.16 19.72 2.39
7.75 19.86 2.39
7.34 19.98 2.39
6.93 20.09 2.39
6.52 20.19 2.39
6.10 20.29 2.39
5.68 20.37 2.39
5.27 20.45 2.39
4.85 20.52 2.39
4.43 20.58 2.39
4.01 20.63 2.39
3.59 20.67 2.39
3.16 20.71 2.39
2.74 20.73 2.39
2.32 20.75 2.39
1.92 20.88 2.41
1.55 21.65 2.49
1.11 21.64 2.49
0.68 21.62 2.49
0.24 21.59 2.49
-0.19 21.55 2.49
-0.62 21.50 2.49
-1.05 21.45 2.49
-1.48 21.39 2.49
-1.90 21.31 2.49
-2.33 21.23 2.49
-2.75 21.14 2.49
-3.17 21.05 2.49
-3.58 20.94 2.49
-3.99 20.83 2.49
-4.40 20.71 2.49
-4.81 20.58 2.49
-5.21 20.44 2.49
-5.61 20.29 2.49
-6.01 20.14 2.49
-6.40 19.98 2.49
-6.52 19.03 2.40
-6.82 18.68 2.37
-6.73 17.35 2.22
-6.43 15.63 2.02
-6.43 14.79 1.93
-6.37 13.88 1.84
-6.37 13.18 1.76
-6.53 12.84 1.74
-9.32 17.46 2.39
-9.66 17.24 2.39
-9.98 17.01 2.39
-10.31 16.78 2.39
-10.17 15.16 2.22
-10.11 14.43 2.15
-10.15 13.88 2.10
-10.13 13.29 2.05
-10.11 12.72 1.99
-10.05 12.14 1.94
-10.07 11.69 1.90
-10.06 11.20 1.86
-10.04 10.75 1.82
-10.03 10.31 1.78
-10.02 9.89 1.74
-10.00 9.49 1.71
-9.99 9.10 1.68
-9.98 8.73 1.65
-9.97 8.37 1.62
-9.95 8.03 1.59
-9.94 7.69 1.57
-9.93 7.37 1.55
-9.92 7.06 1.52
-9.91 6.76 1.50
-9.90 6.46 1.48
-9.89 6.18 1.47
-9.89 5.90 1.45
-9.88 5.63 1.43
-9.87 5.36 1.42
-9.86 5.10 1.40
-9.85 4.85 1.39
-9.84 4.60 1.38
-9.84 4.36 1.36
-9.83 4.12 1.35
-9.82 3.89 1.34
-9.81 3.66 1.33
-9.81 3.44 1.32
-9.80 3.21 1.31
-9.79 2.99 1.31
-9.78 2.78 1.30
-9.78 2.57 1.29
-9.77 2.36 1.29
-9.76 2.15 1.28
-9.76 1.94 1.27
-9.75 1.74 1.27
-9.74 1.53 1.27
-9.74 1.33 1.26
-6.08 0.71 0.79
-9.72 0.94 1.26
-9.72 0.74 1.25
-9.71 0.54 1.25
-9.70 0.35 1.25
-9.66 0.15 1.25
-9.69 -0.04 1.25
-9.69 -0.24 1.25
-9.68 -0.43 1.25
-9.67 -0.63 1.25
-9.67 -0.82 1.25
-9.66 -1.02 1.26
-9.65 -1.22 1.26
-9.65 -1.41 1.26
-9.64 -1.61 1.26
-9.63 -1.81 1.27
-9.63 -2.01 1.27
-9.62 -2.21 1.28
-9.61 -2.41 1.28
-9.61 -2.62 1.29
-9.60 -2.82 1.30
-9.59 -3.03 1.30
-9.59 -3.24 1.31
-9.58 -3.46 1.32
-9.57 -3.89 1.34
-9.56 -4.12 1.35
-7.63 -3.47 1.08
-7.49 -3.59 1.07
-7.43 -3.74 1.08
-7.47 -3.95 1.09
-9.52 -5.29 1.41
-9.51 -5.54 1.42
-9.50 -5.79 1.44
-9.50 -6.05 1.45
-9.49 -6.32 1.47
-9.48 -6.59 1.49
-9.47 -6.87 1.51
-9.46 -7.16 1.53
-9.45 -7.46 1.55
-9.38 -7.71 1.56
-9.43 -8.07 1.60
-9.42 -8.40 1.62
-9.41 -8.74 1.65
-9.40 -9.08 1.68
-9.39 -9.44 1.71
-9.37 -9.82 1.74
-9.36 -10.21 1.77
-9.35 -10.61 1.81
-9.33 -11.04 1.85
-9.32 -11.48 1.89
-9.30 -11.95 1.93
-9.29 -12.43 1.98
-9.27 -12.95 2.03
-9.25 -13.48 2.08
-9.21 -14.01 2.13
-9.16 -14.57 2.18
-9.08 -16.58 2.39
-8.75 -16.78 2.39
-8.42 -16.97 2.39
-8.09 -17.16 2.39
-7.76 -17.34 2.39
-7.41 -17.51 2.39
-7.07 -17.68 2.39
-6.72 -17.84 2.39
-6.37 -18.00 2.39
-6.02 -18.15 2.39
-5.66 -18.29 2.39
-5.31 -18.47 2.40
-5.15 -19.36 2.49
-4.76 -19.49 2.49
-4.38 -19.61 2.49
-3.99 -19.72 2.49
-3.60 -19.83 2.49
-3.20 -19.93 2.49
-2.81 -20.02 2.49
-2.41 -20.10 2.49
-2.01 -20.18 2.49
-1.61 -20.25 2.49
-1.20 -20.31 2.49
-0.79 -20.36 2.49
-0.39 -20.41 2.49
0.02 -17.21 2.49
0.37 -17.23 2.49
0.72 -17.24 2.49
1.07 -17.25 2.49
1.41 -17.25 2.49
1.76 -17.25 2.49
2.11 -17.23 2.49
2.46 -17.21 2.49
2.70 -16.51 2.40
3.03 -16.44 2.39
3.36 -16.40 2.39
3.70 -16.35 2.39
4.03 -16.30 2.39
4.36 -16.24 2.39
4.70 -16.18 2.39
5.03 -16.10 2.39
4.53 -13.54 2.02
4.81 -13.47 2.02
6.01 -15.84 2.39
6.34 -15.74 2.39
6.14 -14.40 2.20
6.21 -13.80 2.13
6.55 -13.81 2.14
7.50 -15.02 2.35
7.77 -14.80 2.34
8.11 -14.72 2.35
8.49 -14.72 2.37
8.94 -14.80 2.41
9.25 -14.64 2.41
9.54 -14.45 2.40
9.83 -14.26 2.40
9.51 -13.22 2.25
9.74 -12.99 2.24
9.97 -12.75 2.23
10.19 -12.51 2.22
10.41 -12.26 2.21
10.62 -12.01 2.20
7.01 -7.62 1.42
6.98 -7.28 1.38
6.96 -6.98 1.35
6.90 -6.65 1.31
7.04 -6.51 1.31
7.15 -6.35 1.30
6.99 -5.96 1.25
6.91 -5.66 1.21
6.90 -5.42 1.19
6.89 -5.19 1.17
6.90 -4.99 1.15
6.85 -4.75 1.13
6.90 -4.58 1.12
6.97 -4.43 1.11
7.12 -4.32 1.12
7.58 -4.40 1.18
6.88 -3.81 1.06
6.83 -3.61 1.04
6.82 -3.43 1.02
6.80 -3.25 1.01
6.79 -3.08 1.00
6.76 -2.90 0.98
6.79 -2.75 0.98
6.86 -2.62 0.98
7.09 -2.55 1.00
11.56 -3.90 1.62
6.77 -2.13 0.94
6.69 -1.96 0.93
6.68 -1.81 0.92
6.62 -1.66 0.90
6.65 -1.52 0.90
6.63 -1.38 0.90
6.66 -1.25 0.90
6.66 -1.11 0.89
6.65 -0.97 0.89
6.68 -0.84 0.89
6.77 -0.71 0.90
6.91 -0.59 0.91
11.26 -0.73 1.49
6.75 -0.30 0.89
6.72 -0.17 0.88
6.62 -0.03 0.87
6.63 0.10 0.87
6.56 0.23 0.86
6.55 0.36 0.86
6.55 0.50 0.86
6.50 0.62 0.86
6.51 0.76 0.86
6.53 0.89 0.86
6.52 1.02 0.87
6.51 1.16 0.87
6.55 1.30 0.88
6.56 1.44 0.88
6.55 1.58 0.88
6.54 1.71 0.89
6.55 1.86 0.89
6.61 2.01 0.90
6.69 2.19 0.92
11.30 3.95 1.57
10.98 4.09 1.53
7.05 2.78 0.99
6.72 2.81 0.95
6.57 2.91 0.94
6.56 3.06 0.95
6.48 3.18 0.95
6.53 3.37 0.96
6.54 3.54 0.98
6.54 3.71 0.99
7.45 4.43 1.14
7.44 4.63 1.15
7.45 4.85 1.17
7.45 5.06 1.18
7.52 5.34 1.21
15.23 11.27 2.49
15.00 11.57 2.49
2.41 1.94 0.41
2.37 1.99 0.41
14.25 12.42 2.49
13.99 12.70 2.49
13.72 12.97 2.49
13.45 13.23 2.49
13.17 13.49 2.49
12.89 13.74 2.49
12.60 13.98 2.49
12.31 14.22 2.49
12.01 14.45 2.49
11.71 14.68 2.49
11.40 14.89 2.49
11.09 15.10 2.49
10.77 15.31 2.49
10.45 15.51 2.49
10.13 15.70 2.49
9.80 15.88 2.49
9.47 16.06 2.49
9.14 16.23 2.49
8.80 16.39 2.49
8.46 16.54 2.49
8.12 16.69 2.49
7.77 16.83 2.49
7.42 16.96 2.49
7.04 17.00 2.48
6.66 17.04 2.47
6.29 17.09 2.46
5.94 17.22 2.46
5.60 17.34 2.47
5.25 17.46 2.47
4.91 17.58 2.48
4.57 17.73 2.49
4.21 17.81 2.49
3.85 17.87 2.49
3.48 17.92 2.49
3.12 17.96 2.49
2.75 17.99 2.49
2.39 18.02 2.49
2.02 18.04 2.49
1.66 18.05 2.49
1.30 18.05 2.49
0.93 18.05 2.49
0.57 18.04 2.49
0.21 18.02 2.49
-0.15 17.99 2.49
-0.52 17.96 2.49
-0.87 17.92 2.49
-1.23 17.87 2.49
-1.59 17.81 2.49
-1.94 17.75 2.49
-2.29 17.68 2.49
-2.64 17.61 2.49
-2.99 17.52 2.49
-3.34 17.43 2.49
-3.68 17.34 2.49
-4.02 17.23 2.49
-4.36 17.12 2.49
-4.70 17.01 2.49
-5.03 16.88 2.49
-5.36 16.75 2.49
-5.69 16.62 2.49
-6.01 16.47 2.49
-6.33 16.33 2.49
-6.40 15.57 2.40
-6.59 15.16 2.36
-6.97 15.19 2.39
-7.26 15.02 2.39
-6.33 12.45 2.00
-6.34 11.87 1.93
-6.29 11.24 1.85
-6.27 10.69 1.79
-8.67 14.12 2.39
-8.93 13.92 2.39
-9.20 13.72 2.39
-9.46 13.51 2.39
-9.71 13.30 2.39
-9.97 13.08 2.39
-10.21 12.86 2.39
-10.05 12.14 2.30
-10.00 11.14 2.19
-9.99 10.69 2.14
-10.03 10.31 2.11
-10.02 9.89 2.07
-10.00 9.49 2.03
-9.99 9.10 1.99
-9.98 8.73 1.95
-9.97 8.38 1.92
-9.95 8.03 1.89
-9.94 7.70 1.86
-9.93 7.37 1.83
-9.92 7.06 1.80
-9.91 6.76 1.78
-9.90 6.46 1.76
-9.89 6.18 1.73
-9.89 5.90 1.71
-9.88 5.63 1.69
-9.87 5.36 1.68
-9.86 5.11 1.66
-9.85 4.85 1.64
-9.84 4.61 1.63
-9.84 4.36 1.61
-9.83 4.13 1.60
-9.82 3.89 1.58
-9.81 3.66 1.57
-9.81 3.44 1.56
-9.80 3.22 1.55
-9.79 3.00 1.54
-9.78 2.78 1.53
-9.78 2.57 1.52
-9.77 2.36 1.52
-9.76 2.15 1.51
-9.76 1.94 1.50
-9.75 1.74 1.50
-9.74 1.54 1.49
-9.74 1.33 1.49
-6.08 0.71 0.93
-9.72 0.94 1.48
-9.72 0.74 1.48
-9.71 0.54 1.48
-9.70 0.35 1.47
-9.66 0.15 1.47
-9.69 -0.04 1.47
-9.69 -0.24 1.47
-9.68 -0.43 1.47
-9.67 -0.63 1.47
-9.67 -0.82 1.48
-9.66 -1.02 1.48
-9.65 -1.21 1.48
-9.65 -1.41 1.48
-9.64 -1.61 1.49
-9.63 -1.81 1.49
-9.63 -2.01 1.50
-9.62 -2.21 1.50
-9.61 -2.41 1.51
-9.61 -2.62 1.52
-9.60 -2.82 1.53
-9.59 -3.03 1.53
-9.59 -3.24 1.54
-9.58 -3.46 1.55
-9.57 -3.89 1.57
-9.56 -4.12 1.59
-7.63 -3.47 1.28
-7.49 -3.59 1.26
-7.43 -3.74 1.27
-7.47 -3.95 1.29
-9.52 -5.29 1.66
-9.51 -5.54 1.67
-9.50 -5.79 1.69
-9.50 -6.05 1.71
-9.49 -6.32 1.73
-9.48 -6.59 1.75
-9.47 -6.87 1.78
-9.46 -7.16 1.80
-9.45 -7.46 1.83
-9.38 -7.72 1.84
-9.43 -8.08 1.88
-9.42 -8.40 1.91
-9.41 -8.74 1.94
-9.40 -9.09 1.98
-9.39 -9.45 2.01
-9.37 -9.82 2.05
-9.36 -10.21 2.09
-9.32 -10.59 2.13
-9.28 -10.98 2.17
-9.31 -11.47 2.22
-9.26 -12.93 2.39
-9.01 -13.13 2.39
-8.75 -13.32 2.39
-8.49 -13.51 2.39
-8.22 -13.69 2.39
-7.95 -13.86 2.39
-7.68 -14.03 2.39
-7.40 -14.20 2.39
-7.13 -14.36 2.39
-6.84 -14.52 2.39
-6.56 -14.67 2.39
-6.27 -14.81 2.39
-5.98 -14.95 2.39
-5.68 -15.08 2.39
-5.41 -15.29 2.40
-5.30 -16.00 2.49
-4.98 -16.12 2.49
-4.67 -16.24 2.49
-4.34 -16.35 2.49
-4.02 -16.45 2.49
-3.69 -16.55 2.49
-3.36 -16.64 2.49
-3.03 -16.73 2.49
-2.70 -16.81 2.49
-2.36 -16.88 2.49
-2.03 -16.95 2.49
-1.69 -17.01 2.49
-1.35 -17.06 2.49
-1.01 -17.11 2.49
-0.66 -17.15 2.49
-0.32 -17.18 2.49
0.02 -14.85 2.49
0.32 -14.86 2.49
0.62 -14.87 2.49
0.92 -14.87 2.49
1.22 -14.87 2.49
1.52 -14.86 2.49
1.82 -14.85 2.49
2.12 -14.83 2.49
2.42 -14.80 2.49
2.62 -14.22 2.40
2.90 -14.12 2.39
3.19 -14.08 2.39
3.47 -14.03 2.39
3.76 -13.97 2.39
4.04 -13.91 2.39
4.33 -13.85 2.39
4.61 -13.78 2.39
4.88 -13.67 2.39
5.17 -13.62 2.39
5.45 -13.53 2.39
5.73 -13.43 2.39
6.01 -13.33 2.39
6.28 -13.23 2.39
6.55 -13.11 2.39
6.79 -12.93 2.38
7.02 -12.75 2.37
7.25 -12.56 2.36
7.48 -12.38 2.35
7.70 -12.19 2.34
7.92 -11.99 2.32
5.81 -8.42 1.65
5.91 -8.21 1.63
6.16 -8.20 1.65
8.75 -11.18 2.29
8.95 -10.97 2.28
9.14 -10.76 2.27
9.33 -10.55 2.26
7.03 -7.64 1.66
6.99 -7.29 1.62
6.97 -6.99 1.58
6.94 -6.68 1.54
6.98 -6.45 1.51
7.13 -6.33 1.52
7.01 -5.98 1.47
6.95 -5.69 1.43
6.92 -5.44 1.40
6.91 -5.21 1.37
6.90 -4.99 1.35
6.85 -4.75 1.32
6.91 -4.58 1.31
6.97 -4.43 1.30
7.08 -4.30 1.31
7.36 -4.27 1.34
6.84 -3.79 1.23
6.82 -3.60 1.21
6.81 -3.42 1.20
6.79 -3.24 1.18
6.80 -3.08 1.17
6.76 -2.90 1.15
6.80 -2.76 1.15
6.86 -2.62 1.15
7.09 -2.55 1.18
11.14 -3.76 1.83
6.78 -2.13 1.11
6.69 -1.96 1.09
6.67 -1.81 1.08
6.63 -1.66 1.06
6.63 -1.52 1.06
6.62 -1.38 1.05
6.62 -1.24 1.05
6.62 -1.10 1.04
6.61 -0.96 1.04
6.61 -0.83 1.03
6.67 -0.70 1.04
6.67 -0.57 1.04
11.27 -0.73 1.75
6.75 -0.30 1.04
6.72 -0.17 1.04
6.63 -0.03 1.02
6.56 0.10 1.01
6.55 0.23 1.01
6.55 0.36 1.01
6.52 0.49 1.01
6.50 0.62 1.01
6.46 0.75 1.00
6.52 0.89 1.01
6.51 1.02 1.02
6.51 1.16 1.02
6.51 1.29 1.02
6.51 1.43 1.03
6.51 1.57 1.03
6.51 1.70 1.04
6.51 1.84 1.04
6.58 2.01 1.06
6.58 2.15 1.07
6.58 2.30 1.07
10.96 4.08 1.80
7.05 2.78 1.17
6.73 2.81 1.12
6.56 2.90 1.10
6.55 3.06 1.11
6.49 3.19 1.11
6.53 3.37 1.13
6.54 3.55 1.15
6.55 3.72 1.16
7.39 4.40 1.33
7.46 4.64 1.36
7.45 4.84 1.37
7.47 5.08 1.39
7.53 5.34 1.43
12.97 9.59 2.49
12.77 9.85 2.49
2.41 1.94 0.48
2.37 1.99 0.48
12.14 10.58 2.49
11.91 10.81 2.49
11.69 11.04 2.49
11.46 11.27 2.49
11.22 11.49 2.49
10.98 11.70 2.49
10.74 11.91 2.49
10.49 12.12 2.49
10.24 12.32 2.49
9.98 12.51 2.49
9.72 12.70 2.49
9.46 12.88 2.49
9.19 13.05 2.49
8.92 13.22 2.49
8.64 13.39 2.49
8.37 13.55 2.49
8.08 13.70 2.49
7.80 13.85 2.49
7.51 13.99 2.49
7.23 14.12 2.49
6.93 14.25 2.49
6.64 14.37 2.49
6.34 14.49 2.49
6.05 14.59 2.49
5.75 14.70 2.49
5.44 14.79 2.49
5.14 14.88 2.49
4.84 14.97 2.49
4.53 15.04 2.49
4.22 15.12 2.49
3.91 15.18 2.49
3.61 15.24 2.49
3.30 15.29 2.49
2.98 15.33 2.49
2.67 15.37 2.49
2.36 15.40 2.49
2.05 15.43 2.49
1.74 15.45 2.49
1.43 15.46 2.49
1.11 15.47 2.49
0.80 15.47 2.49
0.49 15.46 2.49
0.18 15.45 2.49
-0.13 15.43 2.49
-0.44 15.40 2.49
-0.75 15.37 2.49
-1.05 15.33 2.49
-1.36 15.29 2.49
-1.66 15.24 2.49
-1.97 15.18 2.49
-2.27 15.12 2.49
-2.57 15.05 2.49
-2.86 14.98 2.49
-3.16 14.90 2.49
-3.45 14.81 2.49
-3.75 14.72 2.49
-4.04 14.62 2.49
-4.32 14.52 2.49
-4.61 14.41 2.49
-4.89 14.30 2.49
-5.17 14.18 2.49
-5.44 14.05 2.49
-5.72 13.92 2.49
-5.99 13.79 2.49
-6.26 13.65 2.49
-6.31 13.06 2.41
-6.51 12.81 2.39
-6.75 12.65 2.39
-6.99 12.49 2.39
-7.23 12.34 2.39
-6.25 10.19 2.00
-6.26 9.76 1.94
-6.25 9.32 1.88
-6.21 8.87 1.82
-6.21 8.51 1.77
-8.60 11.29 2.39
-8.81 11.10 2.39
-9.02 10.91 2.39
-9.23 10.72 2.39
-9.43 10.52 2.39
-9.63 10.31 2.39
-9.82 10.11 2.39
-10.01 9.89 2.39
-10.20 9.68 2.39
-9.93 8.35 2.21
-9.90 7.99 2.17
-9.90 7.66 2.14
-9.93 7.38 2.12
-9.92 7.06 2.09
-9.91 6.76 2.06
-9.90 6.47 2.03
-9.89 6.18 2.00
-9.89 5.90 1.98
-9.88 5.63 1.96
-9.87 5.37 1.93
-9.86 5.11 1.91
-9.85 4.86 1.90
-9.84 4.61 1.88
-9.84 4.37 1.86
-9.83 4.13 1.84
-9.82 3.89 1.83
-9.81 3.66 1.81
-9.81 3.44 1.80
-9.80 3.22 1.79
-9.79 3.00 1.78
-9.78 2.78 1.77
-9.78 2.57 1.76
-9.77 2.36 1.75
-9.76 2.15 1.74
-9.76 1.94 1.73
-9.75 1.74 1.73
-9.74 1.54 1.72
-9.74 1.34 1.72
-6.08 0.71 1.07
-9.72 0.94 1.71
-9.72 0.74 1.70
-9.71 0.54 1.70
-9.70 0.35 1.70
-9.66 0.15 1.69
-9.69 -0.04 1.70
-9.69 -0.24 1.70
-9.68 -0.43 1.70
-9.67 -0.63 1.70
-9.67 -0.82 1.70
-9.66 -1.02 1.70
-9.65 -1.21 1.71
-9.65 -1.41 1.71
-9.64 -1.61 1.71
-9.63 -1.81 1.72
-9.63 -2.01 1.73
-9.62 -2.21 1.73
-9.61 -2.41 1.74
-9.61 -2.62 1.75
-9.60 -2.82 1.76
-9.59 -3.03 1.77
-9.59 -3.24 1.78
-9.58 -3.46 1.79
-9.57 -3.89 1.81
-9.56 -4.12 1.83
-7.63 -3.47 1.47
-7.46 -3.57 1.45
-7.43 -3.74 1.46
-7.47 -3.96 1.48
-9.52 -5.29 1.91
-9.51 -5.54 1.93
-9.50 -5.79 1.95
-9.50 -6.05 1.97
-9.49 -6.32 2.00
-9.48 -6.59 2.02
-9.47 -6.87 2.05
-9.46 -7.16 2.08
-9.45 -7.46 2.10
-9.38 -7.72 2.12
-9.38 -8.03 2.16
-9.37 -8.35 2.19
-9.47 -9.93 2.39
-9.28 -10.12 2.39
-9.08 -10.31 2.39
-8.87 -10.50 2.39
-8.67 -10.68 2.39
-8.46 -10.86 2.39
-8.24 -11.04 2.39
-8.03 -11.21 2.39
-7.80 -11.38 2.39
-7.58 -11.54 2.39
-7.35 -11.70 2.39
-7.12 -11.86 2.39
-6.89 -12.01 2.39
-6.65 -12.15 2.39
-6.41 -12.30 2.39
-6.17 -12.43 2.39
-5.92 -12.57 2.39
-5.67 -12.70 2.39
-5.48 -12.96 2.42
-5.39 -13.50 2.49
-5.12 -13.62 2.49
-4.85 -13.73 2.49
-4.58 -13.84 2.49
-4.31 -13.94 2.49
-4.03 -14.04 2.49
-3.75 -14.13 2.49
-3.47 -14.22 2.49
-3.19 -14.31 2.49
-2.90 -14.38 2.49
-2.62 -14.45 2.49
-2.33 -14.52 2.49
-2.04 -14.58 2.49
-1.75 -14.64 2.49
-1.46 -14.69 2.49
-1.16 -14.73 2.49
-0.87 -14.77 2.49
-0.57 -14.80 2.49
-0.27 -14.83 2.49
0.02 -13.04 2.49
0.29 -13.05 2.49
0.55 -13.06 2.49
0.81 -13.06 2.49
1.08 -13.05 2.49
1.34 -13.05 2.49
1.60 -13.03 2.49
1.87 -13.01 2.49
2.13 -12.98 2.49
2.39 -12.95 2.49
2.56 -12.48 2.41
2.80 -12.35 2.39
3.05 -12.30 2.39
3.30 -12.25 2.39
3.55 -12.20 2.39
3.80 -12.14 2.39
4.04 -12.07 2.39
4.29 -12.00 2.39
4.53 -11.93 2.39
4.78 -11.85 2.39
5.02 -11.76 2.39
5.26 -11.67 2.39
5.50 -11.58 2.39
5.74 -11.48 2.39
5.98 -11.38 2.39
6.21 -11.27 2.39
6.44 -11.15 2.39
6.65 -11.00 2.38
6.85 -10.83 2.37
7.05 -10.66 2.36
5.82 -8.43 1.89
5.93 -8.23 1.87
6.18 -8.23 1.90
7.80 -9.96 2.33
7.97 -9.77 2.32
8.15 -9.59 2.31
8.32 -9.40 2.30
7.01 -7.61 1.90
6.97 -7.26 1.84
6.96 -6.97 1.80
6.96 -6.70 1.77
6.99 -6.46 1.74
7.12 -6.32 1.74
7.01 -5.97 1.68
6.97 -5.71 1.64
6.86 -5.39 1.59
6.92 -5.21 1.57
6.91 -4.99 1.55
6.85 -4.75 1.51
6.88 -4.56 1.50
6.97 -4.42 1.49
7.05 -4.28 1.49
7.24 -4.20 1.51
6.86 -3.80 1.42
6.86 -3.62 1.40
6.75 -3.39 1.36
6.82 -3.25 1.36
6.80 -3.08 1.34
6.76 -2.90 1.32
6.81 -2.76 1.32
6.87 -2.62 1.32
7.05 -2.53 1.34
7.29 -2.46 1.38
6.76 -2.13 1.27
6.68 -1.96 1.25
6.66 -1.81 1.23
6.64 -1.66 1.22
6.63 -1.52 1.21
6.62 -1.37 1.21
6.63 -1.24 1.20
6.62 -1.10 1.20
6.62 -0.96 1.19
6.62 -0.83 1.19
6.67 -0.70 1.19
6.67 -0.57 1.19
11.27 -0.73 2.01
6.75 -0.30 1.20
6.74 -0.17 1.20
6.62 -0.03 1.18
6.55 0.10 1.16
6.55 0.23 1.16
6.54 0.36 1.16
6.53 0.50 1.16
6.49 0.62 1.16
6.47 0.75 1.15
6.51 0.89 1.17
6.51 1.02 1.17
6.50 1.16 1.17
6.52 1.29 1.18
6.52 1.43 1.18
6.52 1.57 1.19
6.52 1.71 1.19
6.52 1.85 1.20
6.59 2.01 1.22
6.59 2.15 1.23
6.58 2.30 1.24
10.99 4.09 2.08
6.95 2.74 1.32
6.62 2.77 1.27
6.55 2.90 1.27
6.54 3.05 1.28
6.49 3.19 1.28
6.52 3.36 1.30
6.54 3.54 1.32
6.56 3.73 1.34
7.47 4.44 1.54
7.45 4.64 1.56
7.45 4.85 1.58
7.48 5.08 1.61
7.52 5.33 1.64
10.81 8.00 2.39
10.65 8.21 2.39
2.41 1.94 0.55
2.37 1.99 0.55
10.12 8.82 2.39
10.37 9.41 2.49
10.17 9.61 2.49
9.97 9.80 2.49
9.77 10.00 2.49
9.56 10.18 2.49
9.35 10.37 2.49
9.13 10.55 2.49
8.91 10.72 2.49
8.69 10.89 2.49
5.24 6.84 1.54
5.11 6.95 1.55
4.98 7.08 1.55
4.85 7.20 1.56
4.68 7.24 1.55
4.51 7.31 1.54
7.05 11.94 2.49
6.80 12.06 2.49
6.55 12.19 2.49
6.30 12.31 2.49
6.05 12.42 2.49
5.79 12.53 2.49
5.53 12.63 2.49
5.27 12.73 2.49
5.01 12.82 2.49
4.75 12.90 2.49
4.49 12.98 2.49
4.22 13.06 2.49
3.96 13.13 2.49
3.69 13.19 2.49
3.42 13.25 2.49
3.15 13.30 2.49
2.88 13.35 2.49
2.61 13.39 2.49
2.34 13.42 2.49
2.07 13.45 2.49
1.79 13.48 2.49
1.52 13.50 2.49
1.25 13.51 2.49
0.98 13.52 2.49
0.70 13.52 2.49
0.43 13.52 2.49
0.16 13.51 2.49
-0.11 13.49 2.49
-0.38 13.47 2.49
-0.65 13.45 2.49
-0.92 13.41 2.49
-1.19 13.38 2.49
-1.45 13.34 2.49
-1.72 13.29 2.49
-1.98 13.24 2.49
-2.24 13.18 2.49
-2.51 13.12 2.49
-2.76 13.05 2.49
-3.02 12.98 2.49
-3.28 12.90 2.49
-3.53 12.81 2.49
-3.78 12.73 2.49
-4.03 12.63 2.49
-4.28 12.53 2.49
-4.53 12.43 2.49
-4.77 12.32 2.49
-5.01 12.21 2.49
-5.25 12.09 2.49
-5.49 11.97 2.49
-5.72 11.85 2.49
-5.95 11.72 2.49
-6.18 11.58 2.49
-6.25 11.17 2.43
-6.35 10.83 2.39
-6.56 10.69 2.39
-6.76 10.54 2.39
-6.96 10.40 2.39
-7.16 10.24 2.39
-6.20 8.49 2.01
-6.20 8.15 1.96
-6.20 7.82 1.92
-6.18 7.47 1.86
-6.15 7.15 1.81
-6.16 6.87 1.78
-6.31 6.76 1.78
-8.64 8.89 2.39
-8.81 8.70 2.39
-8.97 8.52 2.39
-9.13 8.33 2.39
-9.29 8.13 2.39
-9.44 7.94 2.39
-9.59 7.74 2.39
-9.73 7.54 2.39
-9.87 7.33 2.39
-10.01 7.13 2.39
-10.14 6.92 2.39
-9.85 5.62 2.21
-9.81 5.34 2.18
-9.80 5.08 2.16
-9.80 4.83 2.14
-9.82 4.60 2.13
-9.84 4.37 2.11
-9.83 4.13 2.09
-9.82 3.90 2.08
-9.81 3.67 2.06
-9.81 3.44 2.04
-9.80 3.22 2.03
-9.79 3.00 2.02
-9.78 2.78 2.00
-9.78 2.57 1.99
-9.77 2.36 1.98
-9.76 2.15 1.97
-9.76 1.94 1.96
-9.75 1.74 1.96
-9.74 1.54 1.95
-9.74 1.34 1.94
-6.08 0.71 1.21
-9.72 0.94 1.93
-9.72 0.74 1.93
-9.71 0.54 1.93
-9.70 0.35 1.92
-9.66 0.15 1.91
-9.69 -0.04 1.92
-9.69 -0.24 1.92
-9.68 -0.43 1.92
-9.67 -0.63 1.92
-9.67 -0.82 1.93
-9.66 -1.02 1.93
-9.65 -1.21 1.93
-9.65 -1.41 1.94
-9.64 -1.61 1.94
-9.63 -1.81 1.95
-9.63 -2.01 1.96
-9.62 -2.21 1.96
-9.61 -2.41 1.97
-9.61 -2.62 1.98
-9.60 -2.82 1.99
-9.59 -3.03 2.00
-9.59 -3.24 2.01
-9.58 -3.46 2.03
-9.57 -3.89 2.05
-9.56 -4.12 2.07
-7.63 -3.47 1.67
-7.49 -3.59 1.65
-7.43 -3.74 1.65
-7.47 -3.96 1.68
-9.47 -5.26 2.15
-9.46 -5.51 2.17
-9.45 -5.76 2.20
-9.61 -7.28 2.39
-9.47 -7.47 2.39
-9.32 -7.67 2.39
-9.17 -7.86 2.39
-9.01 -8.04 2.39
-8.85 -8.23 2.39
-8.69 -8.41 2.39
-8.52 -8.58 2.39
-8.35 -8.76 2.39
-8.18 -8.93 2.39
-8.00 -9.10 2.39
-7.82 -9.26 2.39
-7.64 -9.42 2.39
-7.46 -9.58 2.39
-7.27 -9.73 2.39
-7.07 -9.88 2.39
-6.88 -10.03 2.39
-6.68 -10.17 2.39
-6.48 -10.31 2.39
-6.27 -10.45 2.39
-6.07 -10.58 2.39
-5.86 -10.71 2.39
-5.65 -10.83 2.39
-5.54 -11.17 2.44
-5.44 -11.55 2.49
-5.21 -11.67 2.49
-4.98 -11.78 2.49
-4.75 -11.89 2.49
-4.51 -11.99 2.49
-4.27 -12.09 2.49
-4.03 -12.18 2.49
-3.79 -12.27 2.49
-3.55 -12.36 2.49
-3.30 -12.44 2.49
-3.05 -12.51 2.49
-2.80 -12.58 2.49
-2.55 -12.65 2.49
-2.30 -12.71 2.49
-2.05 -12.77 2.49
-1.79 -12.82 2.49
-1.53 -12.87 2.49
-1.28 -12.91 2.49
-1.02 -12.95 2.49
-0.76 -12.98 2.49
-0.50 -13.00 2.49
-0.24 -13.02 2.49
0.02 -11.62 2.49
0.26 -11.63 2.49
0.49 -11.63 2.49
0.73 -11.63 2.49
0.96 -11.62 2.49
1.20 -11.61 2.49
1.43 -11.60 2.49
1.66 -11.58 2.49
1.90 -11.56 2.49
2.13 -11.53 2.49
2.37 -11.49 2.49
2.52 -11.10 2.42
2.71 -10.94 2.39
2.94 -10.90 2.39
3.16 -10.85 2.39
3.38 -10.79 2.39
3.60 -10.73 2.39
3.82 -10.67 2.39
4.03 -10.60 2.39
4.25 -10.53 2.39
4.46 -10.45 2.39
4.68 -10.37 2.39
4.89 -10.29 2.39
5.10 -10.20 2.39
5.31 -10.10 2.39
5.52 -10.01 2.39
5.72 -9.90 2.39
5.93 -9.80 2.39
6.13 -9.68 2.39
6.33 -9.57 2.39
5.83 -8.45 2.14
5.94 -8.24 2.11
6.20 -8.26 2.15
7.02 -8.97 2.36
6.27 -7.68 2.06
6.26 -7.36 2.00
6.27 -7.08 1.96
6.41 -6.96 1.96
6.97 -7.27 2.08
6.96 -6.97 2.03
6.97 -6.71 1.99
6.88 -6.35 1.93
7.21 -6.40 1.98
7.44 -6.34 2.01
6.97 -5.71 1.85
6.92 -5.43 1.80
6.91 -5.21 1.77
6.92 -5.00 1.75
6.85 -4.74 1.71
6.93 -4.59 1.70
6.92 -4.39 1.67
7.03 -4.26 1.68
7.59 -4.40 1.79
6.90 -3.82 1.61
6.86 -3.62 1.58
6.84 -3.43 1.56
6.82 -3.25 1.54
6.81 -3.08 1.52
6.76 -2.90 1.49
6.79 -2.75 1.49
6.87 -2.62 1.49
6.99 -2.51 1.51
7.35 -2.48 1.57
6.78 -2.13 1.44
6.71 -1.97 1.41
6.70 -1.82 1.40
6.65 -1.66 1.39
6.64 -1.52 1.37
6.64 -1.38 1.37
6.63 -1.24 1.36
6.61 -1.10 1.35
6.63 -0.97 1.35
6.63 -0.83 1.34
6.68 -0.70 1.35
6.67 -0.57 1.35
13.09 -0.84 2.64
6.75 -0.30 1.36
6.67 -0.16 1.34
6.62 -0.03 1.33
6.53 0.10 1.31
6.58 0.23 1.32
6.57 0.37 1.32
6.53 0.50 1.31
6.49 0.62 1.31
6.48 0.75 1.31
6.52 0.89 1.32
6.53 1.03 1.33
6.52 1.16 1.33
6.52 1.29 1.33
6.51 1.43 1.34
6.54 1.57 1.35
6.51 1.70 1.35
6.53 1.85 1.36
6.59 2.01 1.38
6.59 2.15 1.39
6.59 2.30 1.40
10.98 4.08 2.35
6.94 2.74 1.50
6.65 2.78 1.44
6.58 2.91 1.44
6.58 3.07 1.46
6.56 3.22 1.46
6.55 3.38 1.48
6.54 3.54 1.49
6.57 3.73 1.52
7.45 4.43 1.74
7.47 4.65 1.77
7.38 4.80 1.77
7.49 5.08 1.82
7.52 5.33 1.85
9.56 7.07 2.39
9.41 7.26 2.39
2.41 1.94 0.62
2.37 1.99 0.62
8.95 7.80 2.39
8.79 7.97 2.39
8.62 8.14 2.39
8.45 8.31 2.39
8.28 8.47 2.39
8.11 8.63 2.39
7.93 8.79 2.39
8.08 9.33 2.49
4.93 5.93 1.56
4.76 5.96 1.54
5.15 6.72 1.71
5.08 6.91 1.74
4.96 7.05 1.75
4.83 7.16 1.75
4.66 7.21 1.74
4.46 7.22 1.72
3.86 6.54 1.54
3.77 6.68 1.56
5.80 10.79 2.49
5.58 10.89 2.49
5.36 11.00 2.49
5.13 11.09 2.49
4.90 11.18 2.49
4.67 11.27 2.49
4.44 11.35 2.49
4.21 11.43 2.49
3.98 11.50 2.49
3.74 11.57 2.49
3.51 11.63 2.49
3.27 11.69 2.49
3.03 11.74 2.49
2.79 11.79 2.49
2.56 11.83 2.49
2.32 11.87 2.49
2.08 11.90 2.49
1.83 11.93 2.49
1.59 11.95 2.49
1.35 11.97 2.49
1.11 11.98 2.49
0.87 11.99 2.49
0.63 12.00 2.49
0.39 11.99 2.49
0.15 11.99 2.49
-0.09 11.98 2.49
-0.33 11.96 2.49
-0.57 11.94 2.49
-0.81 11.91 2.49
-1.05 11.88 2.49
-1.29 11.85 2.49
-1.52 11.81 2.49
-1.76 11.76 2.49
-1.99 11.71 2.49
-2.22 11.66 2.49
-2.45 11.60 2.49
-2.68 11.53 2.49
-2.91 11.47 2.49
-3.14 11.39 2.49
-3.36 11.32 2.49
-3.59 11.23 2.49
-3.81 11.15 2.49
-4.02 11.06 2.49
-4.24 10.96 2.49
-4.46 10.87 2.49
-4.67 10.76 2.49
-4.88 10.66 2.49
-5.09 10.54 2.49
-5.29 10.43 2.49
-5.49 10.31 2.49
-5.69 10.19 2.49
-5.89 10.06 2.49
-6.09 9.93 2.49
-6.20 9.67 2.46
-6.20 9.26 2.39
-6.39 9.15 2.40
-6.38 8.75 2.33
-6.73 8.84 2.39
-6.90 8.70 2.39
-7.06 8.55 2.39
-6.15 7.15 2.04
-6.15 6.86 1.99
-6.16 6.60 1.95
-6.16 6.34 1.91
-6.13 6.07 1.87
-6.11 5.80 1.83
-6.10 5.57 1.79
-6.12 5.36 1.77
-8.42 7.08 2.39
-8.55 6.91 2.39
-8.68 6.73 2.39
-8.81 6.55 2.39
-8.93 6.36 2.39
-9.05 6.18 2.39
-9.16 5.99 2.39
-9.27 5.80 2.39
-9.38 5.61 2.39
-9.49 5.41 2.39
-9.59 5.22 2.39
-9.68 5.02 2.39
-9.77 4.82 2.39
-9.86 4.62 2.39
-9.95 4.42 2.39
-10.03 4.21 2.39
-9.73 2.35 2.21
-9.71 2.14 2.20
-9.70 1.93 2.19
-9.69 1.73 2.18
-9.69 1.53 2.17
-9.68 1.33 2.16
-6.08 0.71 1.35
-9.67 0.93 2.15
-9.66 0.74 2.15
-9.66 0.54 2.14
-9.65 0.35 2.14
-9.65 0.15 2.14
-9.64 -0.04 2.14
-9.64 -0.24 2.14
-9.63 -0.43 2.14
-9.62 -0.62 2.14
-9.61 -0.82 2.14
-9.60 -1.01 2.15
-9.60 -1.21 2.15
-9.59 -1.40 2.15
-9.58 -1.60 2.16
-9.58 -1.80 2.17
-9.57 -2.00 2.17
-9.56 -2.20 2.18
-9.56 -2.40 2.19
-9.56 -2.60 2.20
-9.58 -2.82 2.22
-7.63 -3.47 1.86
-7.49 -3.59 1.85
-7.43 -3.74 1.85
-7.47 -3.96 1.88
-9.41 -5.23 2.39
-9.30 -5.42 2.39
-9.19 -5.60 2.39
-9.08 -5.79 2.39
-8.96 -5.97 2.39
-8.84 -6.15 2.39
-8.72 -6.33 2.39
-8.59 -6.51 2.39
-8.47 -6.68 2.39
-8.33 -6.85 2.39
-8.20 -7.02 2.39
-8.06 -7.19 2.39
-7.91 -7.35 2.39
-7.77 -7.51 2.39
-7.62 -7.67 2.39
-7.47 -7.83 2.39
-7.31 -7.98 2.39
-7.15 -8.13 2.39
-6.99 -8.28 2.39
-6.83 -8.42 2.39
-6.66 -8.56 2.39
-6.49 -8.70 2.39
-6.32 -8.83 2.39
-6.14 -8.96 2.39
-5.96 -9.09 2.39
-5.78 -9.21 2.39
-5.61 -9.34 2.39
-5.58 -9.74 2.46
-5.45 -9.98 2.49
-5.26 -10.09 2.49
-5.06 -10.20 2.49
