ply
format ascii 1.0
element vertex 2864
property float32 x
property float32 y
property float32 z
end_header
15.82 8.58 -0.23
14.33 8.15 -0.21
14.38 8.56 -0.21
13.20 8.22 -0.20
12.69 8.26 -0.19
12.45 8.47 -0.19
12.42 8.82 -0.19
11.52 8.53 -0.18
10.92 8.43 -0.17
11.02 8.87 -0.18
10.47 8.77 -0.17
10.61 9.26 -0.18
10.66 9.69 -0.18
31.99 30.27 -0.55
32.33 31.84 -0.57
31.75 32.56 -0.57
8.86 9.46 -0.16
8.50 9.45 -0.16
8.31 9.62 -0.16
8.20 9.88 -0.16
24.42 31.96 -0.51
23.43 31.98 -0.50
22.47 32.00 -0.50
21.51 31.98 -0.49
20.60 31.99 -0.49
8.94 14.52 -0.22
8.55 14.52 -0.22
8.19 14.57 -0.21
7.91 14.76 -0.22
18.97 37.17 -0.54
19.00 39.17 -0.56
19.04 41.34 -0.59
8.90 20.39 -0.29
8.48 20.54 -0.29
9.14 24.93 -0.35
8.53 24.79 -0.35
9.14 30.49 -0.42
8.50 30.61 -0.42
8.86 34.54 -0.48
8.66 36.82 -0.51
8.64 40.38 -0.56
8.95 46.33 -0.64
-36.52 29.39 -0.83
1.97 -32.67 0.10
12.02 -45.01 0.18
12.71 -44.04 0.18
13.68 -44.07 0.18
14.66 -44.07 0.19
15.02 -42.29 0.18
15.06 -39.86 0.18
15.10 -37.66 0.17
15.14 -35.66 0.17
15.17 -33.83 0.16
16.85 -35.64 0.18
9.43 -18.95 0.10
10.04 -19.20 0.10
10.59 -19.30 0.11
11.10 -19.29 0.11
11.51 -19.11 0.11
11.87 -18.84 0.11
12.17 -18.49 0.11
12.41 -18.06 0.11
12.49 -17.41 0.11
16.07 -21.48 0.14
16.04 -20.56 0.14
16.05 -19.75 0.14
16.72 -19.75 0.15
17.47 -19.81 0.15
18.16 -19.78 0.16
18.92 -19.79 0.16
19.70 -19.81 0.17
20.58 -19.87 0.17
21.39 -19.83 0.18
16.27 -14.49 0.14
16.28 -13.93 0.14
16.29 -13.38 0.14
16.30 -12.85 0.14
14.85 -11.23 0.12
16.32 -11.83 0.13
16.33 -11.34 0.13
16.26 -10.82 0.13
16.24 -10.34 0.13
14.89 -9.07 0.12
16.30 -9.49 0.13
16.37 -9.09 0.13
16.37 -8.67 0.13
16.38 -8.25 0.13
16.39 -7.85 0.13
2.49 -1.13 0.02
2.49 -1.07 0.02
2.55 -1.04 0.02
16.42 -6.30 0.14
16.42 -5.93 0.14
16.43 -5.56 0.14
17.29 -5.46 0.14
18.66 -5.49 0.16
20.25 -5.52 0.17
22.11 -5.55 0.19
46.22 -10.62 0.39
46.39 -9.68 0.39
46.45 -8.73 0.40
46.47 -7.77 0.40
46.49 -6.82 0.40
46.51 -5.87 0.40
46.53 -4.92 0.40
46.54 -3.98 0.41
46.56 -3.04 0.41
46.58 -2.11 0.41
46.59 -1.17 0.41
46.67 -0.24 0.42
21.36 1.18 0.19
17.91 1.35 0.16
17.92 1.71 0.17
17.92 2.08 0.17
17.98 2.45 0.17
17.99 2.82 0.17
17.94 3.18 0.17
17.95 3.56 0.17
17.96 3.94 0.17
17.96 4.32 0.18
17.97 4.70 0.18
17.98 5.09 0.18
17.98 5.49 0.18
17.99 5.89 0.18
18.00 6.29 0.18
18.01 6.70 0.19
18.01 7.12 0.19
20.36 8.52 0.22
16.54 7.32 0.18
18.17 8.48 0.20
17.96 8.82 0.20
17.86 9.23 0.20
15.62 8.47 0.18
15.77 8.96 0.18
14.14 8.42 0.16
13.18 8.21 0.15
12.94 8.42 0.15
12.56 8.54 0.15
12.54 8.90 0.15
10.81 8.34 0.14
10.95 8.81 0.14
10.83 9.08 0.14
10.63 9.28 0.14
10.63 9.66 0.14
26.75 25.31 0.37
32.42 31.93 0.45
31.96 32.78 0.46
8.64 9.23 0.13
8.49 9.43 0.13
8.31 9.61 0.13
8.18 9.87 0.13
24.42 31.96 0.40
23.43 31.98 0.39
22.47 32.00 0.38
21.51 31.98 0.38
9.21 14.30 0.17
8.95 14.53 0.17
8.58 14.57 0.16
8.32 14.81 0.16
7.96 14.86 0.16
8.05 15.77 0.17
19.00 39.17 0.42
9.33 20.27 0.21
8.85 20.28 0.21
8.47 20.52 0.21
9.18 25.04 0.25
8.59 24.99 0.25
9.11 30.42 0.29
8.58 30.88 0.29
8.83 34.46 0.33
8.71 37.06 0.35
8.63 40.34 0.37
8.99 46.57 0.43
-8.73 -42.90 0.10
-7.84 -42.91 0.10
1.97 -32.67 0.84
12.47 -46.72 1.27
13.71 -47.50 1.31
13.76 -44.33 1.23
14.66 -44.07 1.23
14.99 -42.22 1.19
15.03 -39.79 1.14
15.07 -37.59 1.09
15.11 -35.60 1.04
15.47 -34.51 1.02
15.30 -32.36 0.97
9.42 -18.95 0.57
10.04 -19.20 0.59
10.59 -19.30 0.60
11.09 -19.29 0.61
11.51 -19.11 0.61
11.86 -18.84 0.61
12.17 -18.49 0.61
12.41 -18.06 0.61
12.49 -17.41 0.60
16.08 -21.50 0.75
16.04 -20.57 0.73
16.05 -19.75 0.72
16.72 -19.75 0.73
17.47 -19.81 0.75
18.15 -19.78 0.76
18.91 -19.79 0.78
19.70 -19.81 0.80
20.57 -19.87 0.82
21.38 -19.83 0.84
16.27 -14.50 0.63
16.28 -13.93 0.62
16.29 -13.38 0.61
16.30 -12.85 0.60
14.85 -11.23 0.54
16.32 -11.83 0.59
16.33 -11.35 0.58
16.26 -10.83 0.57
16.24 -10.35 0.57
14.89 -9.07 0.52
16.30 -9.49 0.56
16.37 -9.09 0.56
16.37 -8.67 0.55
16.38 -8.26 0.55
16.39 -7.85 0.54
2.49 -1.13 0.08
2.49 -1.07 0.08
2.55 -1.04 0.08
16.42 -6.30 0.53
16.42 -5.93 0.53
16.43 -5.56 0.53
17.28 -5.46 0.55
18.65 -5.49 0.59
20.24 -5.52 0.64
22.10 -5.55 0.70
46.22 -10.62 1.46
46.39 -9.69 1.46
46.45 -8.73 1.46
46.47 -7.77 1.46
46.49 -6.82 1.46
46.51 -5.87 1.46
46.52 -4.93 1.46
46.54 -3.98 1.46
46.56 -3.05 1.46
46.57 -2.11 1.46
46.59 -1.17 1.46
46.66 -0.24 1.47
21.38 1.18 0.68
17.91 1.35 0.57
17.92 1.71 0.57
17.92 2.08 0.57
17.98 2.45 0.58
17.99 2.82 0.58
17.94 3.18 0.58
17.95 3.56 0.58
17.96 3.94 0.59
17.96 4.32 0.59
17.97 4.70 0.60
17.98 5.09 0.60
17.98 5.49 0.60
18.00 5.89 0.61
18.01 6.29 0.61
18.01 6.70 0.62
18.01 7.12 0.63
42.23 17.68 1.48
16.54 7.32 0.58
18.04 8.42 0.64
18.03 8.86 0.65
18.22 9.41 0.66
15.92 8.63 0.59
15.69 8.92 0.59
14.51 8.64 0.55
14.18 8.83 0.54
12.87 8.38 0.50
12.61 8.57 0.50
12.37 8.78 0.49
12.85 9.51 0.52
11.24 8.68 0.46
10.74 8.64 0.45
10.84 9.09 0.46
10.80 9.43 0.47
10.59 9.62 0.46
26.80 25.36 1.20
33.79 33.28 1.54
32.01 32.83 1.49
8.75 9.34 0.42
8.45 9.39 0.41
8.28 9.58 0.41
8.17 9.85 0.42
24.42 31.96 1.30
23.43 31.98 1.28
22.47 32.00 1.26
21.51 31.98 1.25
20.60 31.99 1.23
8.93 14.51 0.55
8.57 14.56 0.54
8.40 14.95 0.55
8.08 15.09 0.55
18.97 37.18 1.34
19.00 39.17 1.40
9.25 20.08 0.71
8.87 20.32 0.71
8.48 20.55 0.71
15.36 39.45 1.35
9.13 24.90 0.85
8.60 25.01 0.84
9.13 30.48 1.01
8.60 30.97 1.02
8.85 34.52 1.13
6.83 29.05 0.94
6.75 31.55 1.02
6.92 35.86 1.15
6.94 40.30 1.29
7.01 46.24 1.47
-30.20 33.55 1.26
-32.77 33.60 1.31
-36.56 29.41 1.28
-8.73 -42.90 1.08
-7.85 -42.95 1.08
1.14 -28.50 1.37
1.72 -28.63 1.38
3.97 -49.45 2.39
4.84 -48.12 2.33
5.96 -49.32 2.40
6.60 -46.70 2.28
5.33 -32.95 1.62
5.57 -30.54 1.51
5.87 -28.89 1.43
6.38 -28.44 1.42
6.93 -28.24 1.42
7.53 -28.21 1.43
8.15 -28.26 1.44
8.78 -28.30 1.45
9.41 -28.31 1.47
10.05 -28.33 1.48
10.70 -28.34 1.49
11.36 -28.35 1.51
12.03 -28.36 1.52
12.72 -28.37 1.54
13.41 -28.39 1.56
9.42 -18.95 1.05
10.03 -19.20 1.08
10.58 -19.30 1.10
11.09 -19.29 1.11
11.50 -19.11 1.12
11.86 -18.84 1.12
12.17 -18.49 1.11
12.41 -18.06 1.10
12.49 -17.41 1.08
16.08 -21.50 1.36
16.04 -20.57 1.32
16.05 -19.76 1.29
16.72 -19.75 1.31
17.42 -19.76 1.34
13.65 -14.87 1.03
14.03 -14.68 1.04
14.57 -14.65 1.06
15.18 -14.66 1.08
15.82 -14.68 1.11
16.27 -14.50 1.12
16.28 -13.93 1.10
16.29 -13.38 1.09
16.30 -12.85 1.07
14.85 -11.23 0.96
16.32 -11.84 1.04
16.33 -11.35 1.03
16.26 -10.83 1.01
16.24 -10.35 1.00
14.89 -9.07 0.91
16.30 -9.49 0.98
16.37 -9.09 0.98
16.37 -8.67 0.97
16.38 -8.26 0.96
16.39 -7.85 0.95
2.49 -1.13 0.14
2.49 -1.07 0.14
2.55 -1.04 0.14
16.42 -6.30 0.93
16.42 -5.93 0.92
16.43 -5.56 0.92
17.28 -5.46 0.96
18.65 -5.49 1.03
17.68 -4.82 0.97
17.88 -4.49 0.98
19.95 -4.59 1.09
21.97 -4.59 1.20
41.23 -7.75 2.24
41.32 -6.91 2.24
41.40 -6.08 2.24
41.47 -5.24 2.24
41.51 -4.40 2.24
41.55 -3.56 2.24
41.56 -2.72 2.24
41.56 -1.89 2.24
41.55 -1.05 2.24
41.51 -0.21 2.24
41.47 0.62 2.24
40.61 1.42 2.20
17.96 0.99 0.97
17.10 1.29 0.93
16.45 1.57 0.90
16.45 1.91 0.90
16.46 2.24 0.90
16.46 2.58 0.91
16.47 2.92 0.91
16.48 3.26 0.92
16.48 3.61 0.92
16.49 3.96 0.93
16.50 4.31 0.93
17.98 5.09 1.02
17.98 5.48 1.03
18.01 5.89 1.04
18.02 6.30 1.05
18.01 6.70 1.05
18.01 7.12 1.06
17.48 7.32 1.04
16.50 7.30 0.99
16.35 7.63 0.99
18.10 8.89 1.11
14.61 7.55 0.90
33.52 18.17 2.10
15.55 8.84 0.98
12.73 7.58 0.82
12.35 7.69 0.80
11.82 7.70 0.78
12.69 8.63 0.84
10.73 7.62 0.72
10.44 7.73 0.72
32.25 24.90 2.24
11.25 9.05 0.79
10.92 9.15 0.78
10.70 9.34 0.78
30.15 27.40 2.24
22.88 21.65 1.73
16.34 16.10 1.26
8.98 9.20 0.71
8.77 9.36 0.71
8.53 9.48 0.70
8.30 9.61 0.70
8.25 9.95 0.71
8.18 10.27 0.72
24.39 31.92 2.21
23.40 31.94 2.18
22.44 31.96 2.14
21.51 31.98 2.12
9.57 14.87 0.97
8.97 14.56 0.94
8.65 14.70 0.93
6.46 11.51 0.72
8.23 15.36 0.95
6.53 12.80 0.79
6.55 13.51 0.82
9.45 20.53 1.23
6.57 15.05 0.90
6.47 15.68 0.93
6.60 16.96 0.99
6.51 17.76 1.03
6.71 19.51 1.12
6.68 20.77 1.19
6.58 21.97 1.25
6.61 23.82 1.34
6.65 25.96 1.45
6.70 28.51 1.59
6.75 31.56 1.75
6.86 35.54 1.96
6.94 40.32 2.21
6.64 43.80 2.39
5.76 43.97 2.39
4.89 44.13 2.39
4.00 44.27 2.39
3.13 44.60 2.40
2.32 46.42 2.49
1.39 46.51 2.49
0.46 46.59 2.49
-0.48 46.65 2.49
-1.41 46.69 2.49
-2.35 46.71 2.49
-3.30 46.71 2.49
-4.24 46.70 2.49
-4.97 44.74 2.39
-5.57 42.42 2.27
-6.78 44.63 2.39
-7.68 44.55 2.39
-8.59 44.45 2.39
-8.96 41.84 2.26
-9.22 33.15 1.81
-9.94 33.17 1.82
-10.68 33.18 1.82
-11.42 33.19 1.83
-12.18 33.21 1.85
-9.61 24.67 1.38
-10.14 24.55 1.38
-14.52 33.25 1.88
-15.33 33.26 1.90
-16.15 33.28 1.91
-12.55 24.59 1.43
-17.85 33.31 1.95
-18.73 33.32 1.97
-19.63 33.34 1.99
-15.18 24.64 1.49
-21.50 33.37 2.03
-22.47 33.39 2.06
-23.47 33.41 2.09
-18.10 24.69 1.56
-25.56 33.44 2.14
-23.19 29.11 1.89
-20.51 24.71 1.63
-21.37 24.72 1.66
-22.27 24.74 1.68
-23.20 24.76 1.71
-24.17 24.77 1.74
-25.18 24.79 1.78
-26.23 24.81 1.81
-27.33 24.83 1.85
-28.48 24.85 1.89
-29.69 24.87 1.93
-30.95 24.89 1.98
-32.29 24.92 2.03
-33.70 24.94 2.08
-35.19 24.97 2.14
-36.77 25.00 2.20
-38.46 25.03 2.27
-40.25 25.06 2.34
-42.17 25.09 2.42
-4.71 -23.12 1.12
-4.23 -23.13 1.11
-3.75 -23.14 1.11
-3.28 -23.14 1.11
-2.98 -24.55 1.18
-0.01 -35.37 2.49
0.70 -35.33 2.49
1.14 -28.50 2.02
1.72 -28.62 2.03
2.70 -33.66 2.39
3.37 -33.57 2.39
4.04 -33.46 2.39
4.71 -33.34 2.39
5.33 -32.95 2.37
5.57 -30.56 2.21
5.87 -28.90 2.10
6.38 -28.44 2.08
6.93 -28.24 2.08
7.53 -28.21 2.09
8.15 -28.26 2.10
8.78 -28.30 2.12
9.41 -28.31 2.14
10.05 -28.33 2.16
10.70 -28.34 2.18
11.36 -28.35 2.20
6.15 -14.50 1.14
6.50 -14.51 1.15
6.86 -14.52 1.16
7.22 -14.52 1.17
7.59 -14.53 1.19
7.97 -14.54 1.20
8.36 -14.54 1.22
8.76 -14.55 1.23
9.16 -14.56 1.25
9.58 -14.57 1.27
10.01 -14.57 1.29
10.45 -14.58 1.31
10.91 -14.59 1.33
11.38 -14.60 1.35
11.86 -14.61 1.38
12.37 -14.61 1.40
12.89 -14.62 1.43
13.43 -14.63 1.46
13.99 -14.64 1.49
14.57 -14.65 1.52
15.18 -14.66 1.56
15.81 -14.68 1.59
16.27 -14.50 1.61
16.37 -14.01 1.60
16.38 -13.46 1.57
16.39 -12.92 1.55
14.85 -11.23 1.38
16.32 -11.84 1.50
16.33 -11.35 1.48
16.27 -10.83 1.46
16.24 -10.35 1.44
14.89 -9.07 1.30
16.30 -9.49 1.41
16.37 -9.09 1.40
16.37 -8.67 1.39
16.38 -8.26 1.38
16.39 -7.86 1.37
2.49 -1.13 0.21
2.49 -1.07 0.20
2.54 -1.04 0.21
12.06 -4.63 0.97
12.15 -4.39 0.98
13.01 -4.40 1.04
14.06 -4.45 1.12
15.18 -4.47 1.20
16.60 -4.53 1.30
17.98 -4.52 1.41
19.94 -4.59 1.55
21.97 -4.59 1.71
28.97 -5.45 2.24
29.05 -4.86 2.24
29.12 -4.28 2.24
29.17 -3.69 2.24
29.22 -3.10 2.24
29.25 -2.51 2.24
29.27 -1.92 2.24
29.28 -1.33 2.24
29.28 -0.74 2.24
29.26 -0.15 2.24
29.24 0.43 2.24
28.21 0.99 2.17
18.20 1.00 1.40
13.76 1.04 1.06
12.62 1.20 0.97
17.92 2.07 1.39
16.48 2.24 1.28
16.49 2.58 1.29
17.94 3.18 1.41
17.95 3.56 1.41
16.50 3.61 1.30
17.96 4.31 1.43
17.97 4.70 1.44
16.02 4.54 1.29
17.98 5.48 1.45
18.00 5.88 1.46
18.00 6.29 1.48
18.01 6.70 1.49
18.01 7.12 1.50
17.48 7.32 1.47
16.54 7.32 1.40
16.12 7.52 1.38
15.34 7.53 1.33
14.61 7.55 1.28
13.94 7.56 1.23
13.32 7.57 1.19
12.73 7.58 1.15
12.35 7.69 1.13
13.13 8.55 1.22
12.66 8.61 1.19
10.73 7.62 1.02
10.44 7.73 1.01
22.86 17.65 2.24
22.50 18.10 2.24
22.13 18.55 2.24
8.76 7.65 0.90
8.44 7.67 0.89
17.61 16.67 1.88
16.27 16.03 1.77
7.62 7.81 0.85
7.33 7.82 0.83
7.05 7.84 0.82
6.69 7.75 0.79
6.50 7.84 0.79
6.51 8.17 0.81
6.50 8.50 0.83
17.09 23.33 2.24
6.48 9.23 0.87
6.40 9.52 0.89
15.79 24.52 2.26
6.49 10.54 0.96
6.50 11.04 0.99
6.46 11.51 1.02
8.27 15.44 1.36
6.53 12.80 1.11
6.55 13.51 1.16
6.44 13.98 1.19
6.45 14.79 1.25
6.47 15.68 1.31
6.49 16.66 1.38
6.51 17.76 1.46
6.53 18.99 1.55
6.55 20.39 1.65
6.58 21.98 1.77
6.61 23.82 1.90
6.65 25.97 2.06
6.70 28.51 2.25
6.51 30.46 2.39
5.90 30.61 2.39
5.29 30.74 2.39
4.68 30.87 2.39
4.06 30.98 2.39
3.44 31.08 2.39
2.90 32.10 2.46
2.29 32.59 2.49
1.63 32.66 2.49
0.98 32.71 2.49
0.32 32.75 2.49
-0.34 32.78 2.49
-1.00 32.80 2.49
-1.66 32.80 2.49
-2.32 32.79 2.49
-2.98 32.77 2.49
-3.64 32.73 2.49
-4.30 32.69 2.49
-4.96 32.63 2.49
-5.39 31.21 2.39
-6.02 31.12 2.39
-6.65 31.03 2.39
-7.28 30.92 2.39
-7.90 30.80 2.39
-8.53 30.67 2.39
-9.15 30.52 2.39
-9.24 28.71 2.26
-9.80 28.47 2.25
-10.38 28.30 2.25
-9.55 24.51 1.97
-10.13 24.52 1.98
-9.37 21.46 1.75
-11.31 24.54 2.01
-9.41 19.38 1.60
-9.42 18.45 1.54
-13.18 24.58 2.07
-13.83 24.59 2.09
-14.49 24.60 2.11
-15.17 24.61 2.14
-15.87 24.63 2.16
-16.59 24.64 2.19
-17.32 24.65 2.22
-18.08 24.66 2.25
-18.87 24.68 2.28
-19.68 24.69 2.32
-20.51 24.71 2.36
-21.38 24.72 2.39
-22.27 24.74 2.44
-23.21 24.76 2.48
-24.17 24.77 2.53
-25.18 24.79 2.58
-26.23 24.81 2.63
-27.33 24.83 2.69
-28.48 24.85 2.75
-29.69 24.87 2.81
-30.96 24.89 2.88
-32.30 24.92 2.95
-33.71 24.94 3.03
-35.20 24.97 3.12
-36.78 25.00 3.21
-38.46 25.03 3.31
-40.26 25.06 3.41
-42.18 25.09 3.53
-18.31 -35.02 2.74
-10.11 -20.31 1.57
-16.83 -35.58 2.73
-16.45 -36.67 2.79
-15.47 -36.42 2.75
-10.22 -25.48 1.91
-14.35 -37.95 2.82
-14.22 -40.01 2.95
-10.30 -30.93 2.27
-10.19 -32.78 2.39
-9.52 -32.96 2.39
-8.85 -33.12 2.39
-8.18 -33.26 2.39
-4.81 -21.41 1.53
-4.38 -21.49 1.53
-3.94 -21.56 1.53
-3.51 -21.61 1.53
-3.07 -21.66 1.53
-2.97 -24.53 1.73
-3.57 -35.35 2.49
-2.86 -35.38 2.49
-2.14 -35.40 2.49
-1.43 -35.41 2.49
-0.72 -35.39 2.49
-0.01 -26.76 2.49
0.53 -26.74 2.49
1.06 -26.70 2.49
1.60 -26.66 2.49
2.04 -25.50 2.39
2.55 -25.43 2.39
3.06 -25.36 2.39
3.57 -25.27 2.39
4.07 -25.17 2.39
4.57 -25.07 2.39
5.07 -24.95 2.39
5.56 -24.82 2.39
6.10 -24.87 2.41
6.60 -24.74 2.41
7.09 -24.59 2.41
7.57 -24.41 2.41
8.05 -24.23 2.41
8.52 -24.03 2.41
8.97 -23.76 2.40
9.35 -23.34 2.38
6.15 -14.50 1.49
6.50 -14.51 1.51
6.86 -14.52 1.52
7.22 -14.52 1.54
7.59 -14.53 1.56
7.97 -14.54 1.58
8.36 -14.54 1.60
8.75 -14.55 1.62
9.16 -14.56 1.64
9.58 -14.57 1.66
10.01 -14.57 1.69
10.45 -14.58 1.72
10.91 -14.59 1.74
11.38 -14.60 1.77
11.86 -14.61 1.81
12.36 -14.61 1.84
12.88 -14.62 1.87
13.42 -14.63 1.91
13.98 -14.64 1.95
14.57 -14.65 1.99
15.18 -14.66 2.04
15.81 -14.68 2.08
16.27 -14.51 2.11
16.28 -13.94 2.07
16.29 -13.39 2.04
16.30 -12.86 2.01
14.85 -11.24 1.81
16.32 -11.84 1.96
16.33 -11.35 1.93
16.27 -10.83 1.90
16.24 -10.35 1.87
14.89 -9.07 1.70
16.30 -9.49 1.84
16.37 -9.10 1.83
8.82 -4.67 0.97
8.91 -4.49 0.97
9.04 -4.33 0.98
2.49 -1.13 0.27
2.49 -1.07 0.27
2.54 -1.04 0.27
11.55 -4.44 1.21
12.23 -4.42 1.28
13.08 -4.43 1.36
14.06 -4.45 1.45
15.17 -4.47 1.56
16.60 -4.53 1.69
17.98 -4.52 1.83
19.93 -4.59 2.02
21.97 -4.59 2.22
22.32 -4.20 2.24
22.38 -3.75 2.24
22.44 -3.30 2.24
22.48 -2.84 2.24
22.52 -2.39 2.24
22.55 -1.94 2.24
22.57 -1.48 2.24
21.85 -0.99 2.17
21.85 -0.55 2.17
21.84 -0.12 2.17
21.83 0.32 2.17
22.54 0.79 2.24
18.20 1.00 1.81
14.20 1.07 1.42
11.83 1.13 1.18
9.72 1.12 0.97
9.69 1.32 0.97
16.08 2.52 1.62
16.09 2.85 1.63
16.07 3.18 1.64
16.46 3.61 1.68
16.47 3.96 1.69
16.48 4.31 1.70
15.88 4.50 1.65
16.32 4.98 1.71
16.33 5.34 1.72
16.34 5.71 1.73
16.34 6.08 1.75
16.35 6.46 1.76
16.36 6.84 1.78
16.36 7.24 1.79
15.78 7.36 1.75
15.34 7.53 1.71
14.61 7.55 1.65
13.94 7.56 1.59
13.32 7.57 1.54
12.73 7.58 1.49
12.19 7.59 1.44
11.67 7.60 1.40
11.19 7.61 1.36
10.73 7.62 1.32
10.30 7.62 1.29
9.88 7.63 1.25
9.49 7.64 1.22
9.12 7.64 1.19
8.76 7.65 1.17
8.44 7.67 1.14
15.95 15.09 2.20
15.56 15.33 2.19
7.62 7.81 1.10
7.33 7.82 1.08
7.05 7.84 1.06
6.69 7.75 1.03
6.50 7.84 1.02
6.51 8.17 1.05
6.50 8.50 1.07
13.37 18.25 2.27
6.48 9.23 1.13
6.40 9.52 1.15
6.41 9.96 1.19
6.37 10.35 1.22
6.38 10.85 1.26
6.39 11.38 1.31
6.40 11.96 1.36
6.41 12.58 1.41
6.43 13.25 1.47
6.44 13.99 1.54
6.45 14.79 1.61
6.47 15.68 1.69
6.49 16.66 1.79
6.51 17.76 1.89
6.53 18.99 2.00
6.55 20.39 2.14
6.58 21.98 2.29
6.42 23.13 2.39
5.96 23.27 2.39
5.49 23.39 2.39
5.02 23.51 2.39
4.55 23.62 2.39
4.08 23.72 2.39
3.61 23.81 2.39
3.13 23.89 2.39
2.76 25.00 2.49
2.26 25.07 2.49
1.76 25.12 2.49
1.26 25.17 2.49
0.75 25.21 2.49
0.25 25.23 2.49
-0.26 25.25 2.49
-0.77 25.26 2.49
-1.28 25.25 2.49
-1.78 25.24 2.49
-2.29 25.22 2.49
-2.80 25.19 2.49
-3.31 25.14 2.49
-3.82 25.09 2.49
-4.32 25.03 2.49
-4.83 24.96 2.49
-5.28 24.63 2.47
-5.59 23.76 2.39
-5.77 22.46 2.27
-6.26 22.51 2.28
-7.03 23.44 2.39
-7.51 23.31 2.39
-7.98 23.17 2.39
-8.45 23.03 2.39
-8.92 22.87 2.39
-5.71 13.81 1.45
-9.37 21.45 2.28
-11.32 24.54 2.63
-11.92 24.56 2.65
-9.44 18.48 2.01
-13.18 24.58 2.70
-13.83 24.59 2.73
-14.49 24.60 2.76
-9.48 15.38 1.75
-15.87 24.63 2.83
-16.59 24.64 2.87
-17.33 24.65 2.90
-9.52 12.98 1.55
-18.87 24.68 2.99
-19.68 24.69 3.03
-20.52 24.71 3.08
-21.38 24.72 3.14
-22.28 24.74 3.19
-23.21 24.76 3.25
-24.18 24.77 3.31
-25.19 24.79 3.38
-26.24 24.81 3.45
-27.34 24.83 3.52
-28.49 24.85 3.60
-29.70 24.87 3.69
-30.97 24.89 3.78
-32.33 24.94 3.88
-33.82 25.02 4.00
-35.58 25.24 4.14
-37.26 25.32 4.27
-39.06 25.41 4.41
-40.98 25.50 4.57
-9.99 -13.93 1.57
-19.13 -29.05 3.19
-18.04 -28.64 3.11
-17.03 -28.28 3.03
-16.32 -28.37 3.01
-16.19 -29.50 3.09
-15.54 -29.71 3.08
-14.67 -29.47 3.03
-13.80 -29.18 2.97
-11.80 -26.29 2.65
-10.15 -23.89 2.39
-9.66 -24.08 2.39
-9.17 -24.26 2.39
-8.68 -24.43 2.39
-8.19 -24.59 2.39
-7.69 -24.73 2.39
-6.82 -23.60 2.27
-6.51 -24.34 2.33
-6.17 -25.11 2.39
-4.79 -21.30 2.02
-4.34 -21.31 2.01
-3.90 -21.32 2.01
-3.46 -21.33 2.00
-3.02 -21.34 2.00
-2.77 -22.80 2.13
-2.70 -26.72 2.49
-2.16 -26.75 2.49
-1.62 -26.77 2.49
-1.08 -26.78 2.49
-0.55 -26.78 2.49
-0.01 -21.51 2.49
0.42 -21.49 2.49
0.85 -21.47 2.49
1.28 -21.43 2.49
1.71 -21.39 2.49
2.05 -20.45 2.39
2.46 -20.40 2.39
2.87 -20.33 2.39
3.27 -20.26 2.39
3.68 -20.17 2.39
4.08 -20.08 2.39
4.48 -19.98 2.39
4.87 -19.87 2.39
5.27 -19.76 2.39
5.66 -19.64 2.39
6.10 -19.67 2.41
6.48 -19.51 2.41
6.86 -19.36 2.41
7.25 -19.21 2.41
6.11 -15.26 1.93
6.15 -14.50 1.85
6.50 -14.51 1.87
6.85 -14.52 1.89
7.22 -14.52 1.91
7.59 -14.53 1.93
7.97 -14.54 1.95
8.35 -14.54 1.98
8.75 -14.55 2.01
9.16 -14.56 2.03
9.58 -14.57 2.06
10.01 -14.57 2.09
10.30 -14.37 2.09
10.54 -14.11 2.09
10.78 -13.84 2.08
11.02 -13.57 2.07
11.88 -14.04 2.18
12.16 -13.80 2.19
12.43 -13.55 2.19
12.70 -13.30 2.19
12.96 -13.04 2.19
13.22 -12.78 2.19
13.47 -12.51 2.19
13.72 -12.23 2.20
13.85 -11.86 2.18
14.44 -11.87 2.24
14.23 -11.23 2.17
14.45 -10.93 2.17
14.65 -10.63 2.17
6.67 -4.64 0.97
6.76 -4.50 0.97
6.84 -4.36 0.97
7.05 -4.30 0.99
7.39 -4.30 1.03
7.87 -4.37 1.08
8.20 -4.34 1.12
8.70 -4.39 1.17
9.09 -4.36 1.22
2.49 -1.13 0.33
2.49 -1.07 0.33
2.54 -1.04 0.33
11.55 -4.44 1.50
12.22 -4.42 1.57
13.08 -4.43 1.67
14.05 -4.45 1.79
15.17 -4.47 1.92
16.59 -4.53 2.09
17.92 -4.51 2.24
18.00 -4.14 2.24
18.07 -3.78 2.24
18.13 -3.41 2.24
18.19 -3.05 2.24
18.23 -2.68 2.24
18.27 -2.31 2.24
18.31 -1.94 2.24
18.33 -1.57 2.24
17.75 -1.17 2.17
17.76 -0.81 2.17
17.77 -0.45 2.17
17.77 -0.10 2.17
17.76 0.26 2.17
17.74 0.62 2.17
18.20 1.00 2.23
14.20 1.07 1.74
11.84 1.13 1.46
10.04 1.16 1.24
8.32 1.13 1.03
7.86 1.23 0.97
7.83 1.39 0.97
16.46 3.26 2.06
15.61 3.42 1.96
16.47 3.95 2.08
15.60 4.08 1.98
15.85 4.49 2.02
15.86 4.83 2.04
15.87 5.19 2.05
15.87 5.54 2.07
15.88 5.91 2.08
15.88 6.27 2.10
15.89 6.65 2.12
15.90 7.03 2.14
14.75 6.88 2.00
14.04 6.90 1.92
13.85 7.15 1.92
12.78 6.93 1.79
12.86 7.31 1.82
12.74 7.58 1.82
12.19 7.59 1.77
11.67 7.60 1.72
11.19 7.61 1.67
10.73 7.62 1.62
10.30 7.62 1.58
9.89 7.63 1.54
9.49 7.64 1.50
9.12 7.64 1.47
8.76 7.65 1.43
8.43 7.66 1.40
8.12 7.68 1.38
7.81 7.69 1.35
7.52 7.71 1.33
7.23 7.72 1.30
6.96 7.73 1.28
6.69 7.75 1.26
6.50 7.84 1.25
6.40 8.04 1.26
6.39 8.37 1.30
6.39 8.72 1.33
6.38 9.08 1.37
6.37 9.47 1.40
6.37 9.89 1.45
6.37 10.35 1.49
6.38 10.85 1.55
6.39 11.38 1.60
6.40 11.96 1.67
6.41 12.58 1.73
6.43 13.25 1.81
6.44 13.99 1.89
6.45 14.79 1.98
6.47 15.68 2.08
6.49 16.67 2.19
6.51 17.76 2.32
6.34 18.45 2.39
5.97 18.58 2.39
5.60 18.71 2.39
5.22 18.82 2.39
4.85 18.93 2.39
4.47 19.03 2.39
4.09 19.13 2.39
3.70 19.21 2.39
3.32 19.29 2.39
2.93 19.37 2.39
2.65 20.27 2.49
2.25 20.33 2.49
1.84 20.38 2.49
1.43 20.42 2.49
1.02 20.46 2.49
0.61 20.49 2.49
0.20 20.50 2.49
-0.21 20.52 2.49
-0.63 20.52 2.49
-1.04 20.51 2.49
-1.45 20.50 2.49
-1.86 20.48 2.49
-2.28 20.45 2.49
-2.69 20.41 2.49
-3.10 20.37 2.49
-3.51 20.31 2.49
-3.92 20.25 2.49
-4.33 20.18 2.49
-4.74 20.11 2.49
-5.14 20.02 2.49
-5.38 19.33 2.42
-5.70 19.00 2.39
-5.78 17.94 2.27
-6.34 18.39 2.34
-6.85 18.66 2.39
-7.23 18.54 2.39
-5.71 13.81 1.79
-7.98 18.26 2.39
-8.35 18.11 2.39
-8.72 17.95 2.39
-9.08 17.78 2.39
-13.18 24.58 3.34
-13.83 24.59 3.37
-14.50 24.60 3.41
-15.18 24.61 3.45
-15.88 24.63 3.50
-16.59 24.64 3.54
-17.33 24.65 3.59
-18.09 24.66 3.64
-18.87 24.68 3.70
-19.68 24.69 3.75
-20.52 24.71 3.82
-21.40 24.74 3.88
-9.57 10.62 1.70
-23.43 24.99 4.06
-24.45 25.04 4.15
-25.50 25.10 4.24
-9.59 9.06 1.56
-27.77 25.22 4.43
-28.99 25.28 4.54
-30.28 25.35 4.66
-31.64 25.43 4.79
-33.07 25.51 4.92
-34.60 25.59 5.07
-36.27 25.72 5.23
-38.23 25.97 5.43
-9.91 -9.19 1.55
-9.92 -9.57 1.58
-19.04 -19.14 3.09
-18.68 -19.54 3.09
-18.29 -19.92 3.09
-17.90 -20.29 3.10
-17.48 -20.64 3.10
-17.11 -21.05 3.11
-16.56 -21.23 3.08
-16.01 -21.39 3.06
-15.63 -21.78 3.07
-10.02 -14.57 2.02
-10.02 -15.22 2.09
-14.32 -22.72 3.08
-13.65 -22.67 3.03
-12.20 -21.20 2.81
-10.03 -18.28 2.39
-9.66 -18.47 2.39
-9.29 -18.65 2.39
-8.91 -18.83 2.39
-8.52 -19.00 2.39
-8.14 -19.16 2.39
-7.75 -19.31 2.39
-7.36 -19.46 2.39
-6.96 -19.59 2.39
-6.57 -19.72 2.39
-6.17 -19.84 2.39
-6.01 -20.81 2.49
-5.59 -20.92 2.49
-5.17 -21.02 2.49
-4.75 -21.11 2.49
-4.32 -21.19 2.49
-3.89 -21.26 2.49
-3.46 -21.32 2.49
-3.03 -21.38 2.49
-2.60 -21.42 2.49
-2.17 -21.46 2.49
-1.74 -21.49 2.49
-1.30 -21.51 2.49
-0.87 -21.52 2.49
-0.44 -21.52 2.49
-0.01 -17.96 2.49
0.35 -17.95 2.49
0.71 -17.93 2.49
1.07 -17.91 2.49
1.43 -17.87 2.49
1.79 -17.83 2.49
2.05 -17.04 2.39
2.39 -16.99 2.39
2.73 -16.93 2.39
3.07 -16.86 2.39
3.41 -16.79 2.39
3.74 -16.71 2.39
4.07 -16.62 2.39
4.40 -16.52 2.39
4.73 -16.42 2.39
5.06 -16.32 2.39
5.38 -16.20 2.39
5.70 -16.08 2.39
6.02 -15.95 2.39
6.13 -15.31 2.31
6.15 -14.50 2.21
6.50 -14.51 2.23
6.85 -14.52 2.26
7.12 -14.32 2.25
7.34 -14.06 2.23
7.56 -13.80 2.22
7.78 -13.54 2.20
7.99 -13.28 2.19
8.19 -13.02 2.17
8.39 -12.76 2.16
8.58 -12.50 2.14
8.80 -12.28 2.14
9.01 -12.06 2.13
9.22 -11.84 2.12
9.53 -11.74 2.14
9.93 -11.74 2.18
10.67 -12.11 2.29
10.20 -11.12 2.14
10.38 -10.87 2.13
10.79 -10.86 2.18
10.99 -10.62 2.17
11.18 -10.38 2.17
11.37 -10.14 2.17
11.55 -9.89 2.17
11.72 -9.64 2.16
11.89 -9.39 2.16
12.18 -9.22 2.18
6.09 -4.42 1.07
6.24 -4.34 1.09
6.47 -4.31 1.11
6.83 -4.35 1.16
7.15 -4.36 1.20
7.43 -4.33 1.23
7.86 -4.37 1.29
8.20 -4.34 1.33
8.70 -4.39 1.40
9.09 -4.36 1.45
2.49 -1.13 0.39
2.49 -1.07 0.39
2.54 -1.04 0.39
11.55 -4.44 1.78
12.22 -4.42 1.87
13.08 -4.43 1.99
14.05 -4.45 2.12
14.93 -4.40 2.24
15.01 -4.10 2.24
15.08 -3.79 2.24
15.14 -3.49 2.24
15.20 -3.18 2.24
15.26 -2.87 2.24
15.30 -2.57 2.24
15.34 -2.26 2.24
15.38 -1.95 2.24
15.41 -1.64 2.24
15.43 -1.33 2.24
14.92 -0.98 2.17
14.93 -0.68 2.17
14.93 -0.38 2.17
14.93 -0.08 2.17
14.93 0.22 2.17
14.91 0.52 2.17
14.89 0.82 2.17
14.20 1.07 2.07
11.85 1.13 1.73
10.04 1.16 1.47
8.49 1.15 1.25
7.68 1.20 1.13
6.60 1.17 0.97
6.57 1.30 0.97
6.54 1.43 0.97
14.98 3.59 2.24
14.90 3.89 2.24
14.81 4.19 2.24
14.62 4.46 2.23
14.15 4.62 2.17
14.05 4.91 2.17
13.94 5.19 2.17
13.48 5.32 2.11
13.38 5.60 2.12
13.28 5.87 2.12
13.17 6.15 2.12
13.06 6.42 2.12
13.65 7.05 2.24
12.76 6.92 2.12
12.19 6.93 2.05
11.87 7.07 2.02
12.19 7.59 2.10
10.68 6.95 1.86
10.24 6.96 1.81
10.36 7.35 1.86
9.94 7.36 1.81
9.89 7.63 1.82
9.49 7.64 1.78
9.12 7.64 1.74
8.76 7.65 1.70
8.43 7.66 1.66
8.12 7.68 1.63
7.81 7.69 1.60
7.52 7.71 1.57
7.23 7.72 1.55
6.96 7.73 1.52
6.69 7.75 1.50
6.50 7.84 1.49
6.40 8.04 1.50
6.39 8.37 1.54
6.39 8.72 1.58
6.38 9.08 1.62
6.37 9.47 1.67
6.37 9.89 1.72
6.37 10.35 1.77
6.38 10.85 1.84
6.39 11.38 1.90
6.40 11.96 1.98
6.41 12.58 2.06
6.43 13.25 2.15
6.44 13.99 2.24
6.45 14.80 2.35
6.26 15.18 2.39
5.96 15.31 2.39
5.65 15.43 2.39
5.34 15.54 2.39
5.03 15.65 2.39
4.71 15.76 2.39
4.40 15.85 2.39
4.08 15.94 2.39
3.76 16.03 2.39
3.44 16.11 2.39
3.12 16.18 2.39
2.79 16.24 2.39
2.57 17.01 2.49
2.23 17.06 2.49
1.89 17.11 2.49
1.55 17.15 2.49
1.20 17.19 2.49
0.86 17.22 2.49
0.51 17.24 2.49
0.17 17.25 2.49
-0.18 17.26 2.49
-0.53 17.26 2.49
-0.88 17.26 2.49
-1.22 17.24 2.49
-1.57 17.23 2.49
-1.92 17.20 2.49
-2.26 17.17 2.49
-2.61 17.13 2.49
-2.95 17.08 2.49
-3.30 17.03 2.49
-3.64 16.97 2.49
-3.98 16.90 2.49
-4.32 16.82 2.49
-4.66 16.74 2.49
-5.00 16.66 2.49
-5.34 16.56 2.49
-5.45 15.81 2.40
-5.76 15.68 2.39
-5.81 14.89 2.29
-5.71 13.81 2.14
-6.40 14.64 2.28
-7.01 15.20 2.39
-7.32 15.07 2.39
-7.63 14.92 2.39
-7.93 14.78 2.39
-8.23 14.62 2.39
-8.53 14.47 2.39
-8.82 14.30 2.39
-9.11 14.13 2.39
-9.40 13.95 2.39
-17.58 25.00 4.34
-18.37 25.04 4.41
-19.19 25.08 4.48
-20.03 25.13 4.56
-20.91 25.18 4.64
-21.83 25.23 4.72
-22.77 25.28 4.82
-23.76 25.34 4.91
-24.80 25.40 5.02
-25.88 25.46 5.13
-27.07 25.59 5.26
-28.38 25.77 5.41
-32.79 28.59 6.13
-37.51 30.14 6.78
-37.53 28.94 6.67
-38.81 28.70 6.79
-9.65 5.73 1.57
-9.65 5.48 1.56
-9.66 5.23 1.54
-9.84 -5.47 1.55
-9.85 -5.73 1.56
-19.01 -11.58 3.06
-9.88 -6.29 1.61
-18.52 -12.33 3.05
-18.25 -12.68 3.05
-17.98 -13.04 3.05
-17.70 -13.39 3.05
-17.41 -13.72 3.04
-17.11 -14.05 3.04
-9.90 -8.47 1.79
-16.54 -14.73 3.04
-16.27 -15.08 3.05
-15.99 -15.44 3.05
-15.69 -15.77 3.05
-9.94 -10.40 1.97
-14.99 -16.32 3.04
-14.63 -16.59 3.04
-14.36 -16.96 3.05
-14.05 -17.28 3.06
-13.71 -17.57 3.06
-11.18 -14.93 2.56
-10.79 -15.04 2.54
-9.86 -14.34 2.39
-9.57 -14.53 2.39
-9.27 -14.72 2.39
-8.97 -14.90 2.39
-8.67 -15.07 2.39
-8.36 -15.24 2.39
-8.06 -15.40 2.39
-7.74 -15.55 2.39
-7.43 -15.70 2.39
-7.11 -15.84 2.39
-6.79 -15.98 2.39
-6.46 -16.10 2.39
-6.14 -16.23 2.39
-6.02 -16.93 2.48
-5.71 -17.16 2.49
-5.37 -17.26 2.49
-5.02 -17.36 2.49
-4.67 -17.45 2.49
-4.31 -17.54 2.49
-3.96 -17.61 2.49
-3.60 -17.68 2.49
-3.25 -17.74 2.49
-2.89 -17.80 2.49
-2.53 -17.84 2.49
-2.17 -17.88 2.49
-1.81 -17.91 2.49
-1.45 -17.94 2.49
-1.09 -17.96 2.49
-0.73 -17.97 2.49
-0.37 -17.97 2.49
-0.01 -15.41 2.49
0.30 -15.40 2.49
0.61 -15.38 2.49
0.92 -15.36 2.49
1.22 -15.33 2.49
1.53 -15.30 2.49
1.84 -15.26 2.49
2.07 -14.73 2.42
2.34 -14.53 2.39
2.63 -14.47 2.39
2.92 -14.41 2.39
3.21 -14.34 2.39
3.50 -14.27 2.39
3.78 -14.19 2.39
4.06 -14.10 2.39
4.34 -14.01 2.39
4.62 -13.91 2.39
4.89 -13.81 2.39
5.17 -13.70 2.39
5.44 -13.59 2.39
5.71 -13.47 2.39
5.97 -13.35 2.39
6.27 -13.28 2.40
6.27 -12.62 2.31
6.48 -12.41 2.29
6.68 -12.19 2.28
6.87 -11.97 2.26
7.09 -11.80 2.26
7.42 -11.79 2.29
8.05 -12.25 2.41
8.29 -12.08 2.41
8.00 -11.16 2.26
8.17 -10.93 2.25
8.35 -10.72 2.24
8.52 -10.50 2.23
8.69 -10.28 2.22
8.86 -10.06 2.21
9.02 -9.84 2.20
9.18 -9.62 2.20
9.34 -9.40 2.19
9.49 -9.17 2.18
9.88 -9.18 2.23
10.43 -9.30 2.31
10.56 -9.05 2.30
10.69 -8.79 2.29
10.81 -8.53 2.28
10.93 -8.28 2.27
6.09 -4.42 1.25
6.24 -4.34 1.26
6.47 -4.31 1.29
6.83 -4.35 1.34
7.15 -4.36 1.39
7.43 -4.33 1.43
7.86 -4.37 1.50
8.20 -4.34 1.54
8.69 -4.39 1.62
9.09 -4.36 1.68
2.49 -1.13 0.46
2.49 -1.07 0.45
2.54 -1.04 0.46
11.55 -4.44 2.06
12.22 -4.42 2.17
12.72 -4.31 2.24
12.79 -4.05 2.24
12.87 -3.79 2.24
12.94 -3.53 2.24
13.00 -3.27 2.24
13.06 -3.01 2.24
13.11 -2.74 2.24
13.15 -2.48 2.24
13.20 -2.21 2.24
13.23 -1.95 2.24
13.26 -1.68 2.24
13.29 -1.41 2.24
12.80 -1.10 2.16
12.82 -0.84 2.16
12.83 -0.59 2.16
12.83 -0.33 2.16
12.83 -0.07 2.16
12.82 0.19 2.16
12.81 0.44 2.16
12.80 0.70 2.16
13.29 1.00 2.24
11.85 1.13 2.00
10.05 1.16 1.70
8.49 1.15 1.44
7.69 1.20 1.31
6.83 1.21 1.17
6.47 1.28 1.11
6.47 1.42 1.12
12.93 3.10 2.24
12.86 3.36 2.24
12.79 3.62 2.24
12.71 3.87 2.24
12.63 4.13 2.24
12.54 4.38 2.24
12.09 4.50 2.18
11.85 4.68 2.15
11.77 4.92 2.16
11.68 5.16 2.16
11.58 5.40 2.16
11.48 5.64 2.16
11.38 5.87 2.17
11.27 6.11 2.17
11.16 6.34 2.17
11.04 6.57 2.17
11.35 7.07 2.26
10.72 6.98 2.16
10.24 6.96 2.09
9.82 6.97 2.04
9.78 7.24 2.06
9.89 7.63 2.11
9.49 7.64 2.06
9.12 7.64 2.01
8.76 7.65 1.97
8.43 7.66 1.93
8.11 7.68 1.89
7.81 7.69 1.85
7.52 7.71 1.82
7.23 7.72 1.79
6.96 7.73 1.76
6.69 7.75 1.73
6.50 7.84 1.72
6.40 8.04 1.74
6.39 8.37 1.78
6.39 8.72 1.83
6.38 9.09 1.88
6.37 9.47 1.93
6.37 9.89 1.99
6.37 10.35 2.05
6.38 10.85 2.13
6.39 11.38 2.21
6.40 11.96 2.29
6.43 12.62 2.39
6.18 12.75 2.39
5.92 12.87 2.39
5.66 12.99 2.39
5.40 13.10 2.39
5.14 13.21 2.39
4.88 13.32 2.39
4.61 13.42 2.39
4.34 13.51 2.39
4.07 13.60 2.39
3.80 13.68 2.39
3.52 13.76 2.39
3.24 13.83 2.39
2.97 13.90 2.39
2.69 13.96 2.39
2.51 14.62 2.49
2.22 14.67 2.49
1.92 14.72 2.49
1.63 14.76 2.49
1.33 14.80 2.49
1.04 14.83 2.49
0.74 14.85 2.49
0.44 14.87 2.49
0.14 14.88 2.49
-0.16 14.89 2.49
-0.46 14.89 2.49
-0.76 14.88 2.49
-1.05 14.87 2.49
-1.35 14.85 2.49
-1.65 14.83 2.49
-1.95 14.80 2.49
-2.25 14.76 2.49
-2.55 14.72 2.49
-2.84 14.67 2.49
-3.14 14.62 2.49
-3.43 14.56 2.49
-3.73 14.50 2.49
-4.02 14.42 2.49
-4.31 14.35 2.49
-4.60 14.27 2.49
-4.89 14.18 2.49
-5.17 14.08 2.49
-5.46 13.98 2.49
-5.50 13.31 2.39
-5.77 13.20 2.39
-6.04 13.09 2.39
-6.30 12.97 2.39
-6.57 12.85 2.39
-6.83 12.72 2.39
-7.08 12.59 2.39
-7.34 12.45 2.39
-7.59 12.31 2.39
-7.84 12.16 2.39
-8.09 12.00 2.39
-8.33 11.85 2.39
-8.57 11.68 2.39
-8.81 11.51 2.39
-9.04 11.34 2.39
-9.28 11.16 2.39
-9.50 10.98 2.39
-27.29 29.09 6.56
-9.58 9.81 2.25
-32.44 29.45 7.19
-32.80 28.59 7.14
-37.51 30.14 7.88
-37.53 28.93 7.76
-38.81 28.70 7.90
-9.65 5.73 1.83
-9.66 5.23 1.79
-9.70 2.74 1.64
-9.71 2.53 1.63
-9.73 1.12 1.58
-9.73 0.93 1.58
-9.73 0.73 1.58
-9.74 0.53 1.57
-9.74 0.34 1.57
-9.74 0.14 1.57
-9.75 -0.05 1.57
-9.75 -0.25 1.57
-9.76 -0.45 1.57
-9.76 -0.64 1.58
-9.76 -0.84 1.58
-19.99 -2.12 3.24
-19.37 -2.45 3.14
-18.91 -2.78 3.08
-18.82 -3.15 3.07
-9.78 -1.84 1.60
-18.63 -3.89 3.06
-18.52 -4.26 3.05
-18.40 -4.62 3.05
-18.29 -4.99 3.05
-18.18 -5.35 3.04
-18.06 -5.71 3.04
-17.94 -6.07 3.04
-17.81 -6.43 3.04
-17.67 -6.78 3.04
-17.53 -7.14 3.04
-17.37 -7.48 3.04
-17.21 -7.82 3.03
-17.05 -8.17 3.03
-9.84 -4.96 1.77
-16.69 -8.84 3.03
-9.85 -5.47 1.81
-16.32 -9.50 3.03
-16.13 -9.82 3.03
-15.93 -10.14 3.03
-15.72 -10.46 3.03
-15.50 -10.77 3.03
-9.90 -7.17 1.96
-15.00 -11.34 3.02
-14.68 -11.57 3.00
-14.35 -11.78 2.98
-14.02 -11.99 2.96
-13.71 -12.21 2.94
-13.40 -12.42 2.93
-9.93 -9.59 2.21
-9.93 -9.98 2.26
-11.34 -11.86 2.63
-10.98 -11.96 2.60
-9.86 -11.18 2.39
-9.64 -11.38 2.39
-9.41 -11.57 2.39
-9.17 -11.75 2.39
-8.93 -11.93 2.39
-8.69 -12.11 2.39
-8.44 -12.28 2.39
-8.20 -12.44 2.39
-7.94 -12.60 2.39
-7.69 -12.76 2.39
-7.43 -12.91 2.39
-7.17 -13.05 2.39
-6.90 -13.19 2.39
-6.63 -13.32 2.39
-6.36 -13.45 2.39
-6.09 -13.57 2.39
-5.97 -14.04 2.45
-5.78 -14.39 2.49
-5.49 -14.50 2.49
-5.19 -14.61 2.49
-4.90 -14.70 2.49
-4.60 -14.79 2.49
-4.30 -14.88 2.49
-4.00 -14.96 2.49
-3.70 -15.03 2.49
-3.40 -15.10 2.49
-3.09 -15.16 2.49
-2.79 -15.21 2.49
-2.48 -15.26 2.49
-2.17 -15.30 2.49
-1.86 -15.33 2.49
-1.55 -15.36 2.49
-1.25 -15.38 2.49
-0.94 -15.40 2.49
-0.63 -15.41 2.49
-0.32 -15.41 2.49
-0.01 -13.48 2.49
0.26 -13.47 2.49
0.53 -13.46 2.49
0.80 -13.44 2.49
1.07 -13.41 2.49
1.34 -13.38 2.49
1.61 -13.35 2.49
1.87 -13.31 2.49
2.10 -13.02 2.45
2.31 -12.72 2.40
2.56 -12.61 2.39
2.81 -12.55 2.39
3.06 -12.49 2.39
3.31 -12.42 2.39
3.55 -12.34 2.39
3.80 -12.26 2.39
4.04 -12.18 2.39
4.28 -12.09 2.39
4.52 -12.00 2.39
4.76 -11.90 2.39
5.00 -11.80 2.39
5.23 -11.69 2.39
5.46 -11.58 2.39
5.69 -11.46 2.39
5.92 -11.34 2.39
6.14 -11.21 2.39
6.32 -11.02 2.38
6.51 -10.83 2.37
6.68 -10.63 2.35
6.86 -10.44 2.34
7.03 -10.24 2.33
7.19 -10.04 2.32
7.35 -9.85 2.31
7.51 -9.65 2.30
7.66 -9.44 2.29
7.81 -9.24 2.28
8.03 -9.12 2.29
8.37 -9.13 2.33
8.83 -9.25 2.41
9.01 -9.07 2.41
9.18 -8.88 2.41
9.33 -8.67 2.40
9.46 -8.44 2.39
9.58 -8.21 2.38
9.70 -7.98 2.37
9.82 -7.75 2.36
9.93 -7.52 2.35
6.09 -4.42 1.42
6.24 -4.34 1.44
6.47 -4.31 1.47
6.82 -4.35 1.53
7.15 -4.36 1.59
7.43 -4.33 1.63
7.86 -4.37 1.71
8.19 -4.34 1.76
8.69 -4.39 1.85
9.09 -4.36 1.91
2.49 -1.13 0.52
2.49 -1.07 0.52
2.54 -1.04 0.52
11.11 -4.27 2.26
11.17 -4.04 2.26
11.22 -3.81 2.26
11.28 -3.57 2.25
11.32 -3.34 2.25
11.37 -3.11 2.24
11.41 -2.87 2.24
11.46 -2.64 2.24
11.51 -2.41 2.24
11.55 -2.18 2.24
11.59 -1.94 2.24
11.62 -1.71 2.24
11.65 -1.48 2.24
11.67 -1.24 2.24
11.23 -0.97 2.15
11.25 -0.74 2.15
11.25 -0.51 2.15
11.26 -0.29 2.15
11.26 -0.06 2.15
11.25 0.16 2.15
11.25 0.39 2.15
11.23 0.62 2.15
11.21 0.84 2.15
11.65 1.11 2.24
10.05 1.16 1.94
8.71 1.18 1.69
7.69 1.20 1.49
6.83 1.21 1.33
6.47 1.28 1.27
6.47 1.42 1.27
11.40 2.74 2.25
11.36 2.97 2.25
11.31 3.20 2.26
11.27 3.43 2.26
11.22 3.67 2.27
11.16 3.90 2.27
11.10 4.13 2.28
11.04 4.36 2.28
10.81 4.52 2.25
10.44 4.61 2.19
10.36 4.83 2.20
10.28 5.05 2.20
10.20 5.26 2.21
10.11 5.48 2.21
10.02 5.69 2.22
9.92 5.91 2.22
9.82 6.12 2.23
9.72 6.33 2.23
9.62 6.54 2.24
10.03 7.12 2.37
9.92 7.35 2.38
9.81 7.57 2.39
9.49 7.64 2.34
9.12 7.64 2.29
8.76 7.65 2.24
8.43 7.66 2.19
8.11 7.68 2.15
7.81 7.69 2.11
7.52 7.71 2.07
7.23 7.72 2.04
6.96 7.73 2.00
6.69 7.75 1.97
6.50 7.84 1.96
6.40 8.04 1.98
6.39 8.37 2.03
6.39 8.72 2.08
6.38 9.09 2.13
6.37 9.47 2.20
6.37 9.89 2.26
6.37 10.35 2.34
6.31 10.72 2.39
6.09 10.85 2.39
5.87 10.97 2.39
5.65 11.09 2.39
5.43 11.20 2.39
5.21 11.31 2.39
4.98 11.42 2.39
4.75 11.52 2.39
4.52 11.61 2.39
4.28 11.70 2.39
4.05 11.79 2.39
3.81 11.87 2.39
3.57 11.95 2.39
3.33 12.02 2.39
3.09 12.09 2.39
2.85 12.15 2.39
2.61 12.21 2.39
2.46 12.79 2.49
2.21 12.85 2.49
1.95 12.89 2.49
1.69 12.93 2.49
1.43 12.97 2.49
1.17 13.00 2.49
0.91 13.02 2.49
0.65 13.04 2.49
0.39 13.06 2.49
0.12 13.07 2.49
-0.14 13.07 2.49
-0.40 13.07 2.49
-0.66 13.07 2.49
-0.93 13.05 2.49
-1.19 13.04 2.49
-1.45 13.02 2.49
-1.71 12.99 2.49
-1.98 12.96 2.49
-2.24 12.92 2.49
-2.50 12.88 2.49
-2.76 12.83 2.49
-3.01 12.78 2.49
-3.27 12.72 2.49
-3.53 12.66 2.49
-3.78 12.59 2.49
-4.04 12.52 2.49
-4.29 12.44 2.49
-4.54 12.36 2.49
-4.79 12.27 2.49
-5.04 12.18 2.49
-5.28 12.08 2.49
-5.51 11.93 2.48
-5.53 11.38 2.39
-5.76 11.27 2.39
-5.99 11.16 2.39
-6.21 11.04 2.39
-6.44 10.92 2.39
-6.66 10.79 2.39
-6.88 10.66 2.39
-7.09 10.52 2.39
-7.31 10.38 2.39
-7.52 10.24 2.39
-7.72 10.09 2.39
-7.93 9.94 2.39
-8.13 9.78 2.39
-8.33 9.62 2.39
-8.52 9.46 2.39
-8.72 9.29 2.39
-8.91 9.12 2.39
-9.09 8.94 2.39
-9.27 8.76 2.39
-9.45 8.58 2.39
-32.81 28.59 8.15
-37.51 30.13 9.00
-9.62 7.42 2.27
-38.82 28.70 9.02
-9.65 5.73 2.09
-9.67 4.74 2.01
-9.67 4.27 1.97
-9.70 2.74 1.87
-9.72 1.92 1.83
-9.73 1.12 1.81
-20.30 0.30 3.75
-19.42 -0.11 3.58
-18.57 -0.48 3.43
-17.98 -0.82 3.32
-17.57 -1.16 3.25
-17.31 -1.49 3.20
-17.07 -1.81 3.16
-16.84 -2.13 3.13
-16.62 -2.44 3.09
-16.45 -2.76 3.07
-9.78 -1.84 1.83
-16.30 -3.41 3.06
-16.22 -3.73 3.06
-16.12 -4.05 3.06
-9.80 -2.67 1.87
-15.89 -4.68 3.04
-15.78 -4.99 3.04
-15.68 -5.31 3.04
-15.58 -5.62 3.04
-15.46 -5.94 3.04
-15.33 -6.24 3.04
-15.21 -6.55 3.04
-15.07 -6.85 3.04
-14.90 -7.14 3.03
-9.84 -4.96 2.02
-14.55 -7.70 3.02
-14.36 -7.98 3.02
-14.15 -8.23 3.00
-13.91 -8.47 2.99
-13.66 -8.70 2.97
-13.42 -8.93 2.96
-13.18 -9.16 2.95
-12.77 -9.26 2.89
-9.89 -7.48 2.27
-11.88 -9.37 2.78
-11.45 -9.40 2.72
-11.06 -9.46 2.67
-9.73 -8.67 2.39
-9.56 -8.86 2.39
-9.38 -9.05 2.39
-9.19 -9.24 2.39
-9.00 -9.42 2.39
-8.81 -9.60 2.39
-8.62 -9.77 2.39
-8.42 -9.94 2.39
-8.22 -10.11 2.39
-8.01 -10.27 2.39
-7.80 -10.43 2.39
-7.59 -10.58 2.39
-7.38 -10.73 2.39
-6.85 -10.40 2.29
-6.83 -10.83 2.35
-6.38 -10.58 2.27
-6.27 -10.89 2.31
-6.26 -11.41 2.39
-6.03 -11.53 2.39
-5.93 -11.90 2.45
-5.80 -12.26 2.49
-5.55 -12.37 2.49
-5.30 -12.48 2.49
-5.05 -12.58 2.49
-4.80 -12.68 2.49
-4.54 -12.77 2.49
-4.28 -12.85 2.49
-4.02 -12.93 2.49
-3.76 -13.01 2.49
-3.50 -13.07 2.49
-3.23 -13.14 2.49
-2.97 -13.20 2.49
-2.70 -13.25 2.49
-2.44 -13.30 2.49
-2.17 -13.34 2.49
-1.90 -13.38 2.49
-1.63 -13.41 2.49
-1.36 -13.43 2.49
-1.09 -13.45 2.49
-0.82 -13.47 2.49
-0.55 -13.48 2.49
-0.28 -13.48 2.49
-0.01 -11.96 2.49
0.23 -11.96 2.49
0.47 -11.95 2.49
0.71 -11.93 2.49
0.95 -11.91 2.49
1.19 -11.88 2.49
1.43 -11.85 2.49
1.66 -11.82 2.49
1.90 -11.78 2.49
2.12 -11.67 2.48
2.27 -11.20 2.39
2.49 -11.15 2.39
2.72 -11.09 2.39
2.94 -11.03 2.39
3.16 -10.97 2.39
3.37 -10.90 2.39
3.59 -10.82 2.39
3.81 -10.74 2.39
4.02 -10.66 2.39
4.23 -10.57 2.39
4.44 -10.48 2.39
4.65 -10.39 2.39
4.85 -10.29 2.39
5.06 -10.18 2.39
5.26 -10.08 2.39
5.46 -9.96 2.39
5.65 -9.85 2.39
5.85 -9.73 2.39
6.04 -9.60 2.39
6.22 -9.47 2.39
6.38 -9.30 2.38
6.53 -9.12 2.37
6.78 -9.08 2.39
7.00 -8.99 2.41
7.18 -8.85 2.41
7.35 -8.70 2.41
7.52 -8.54 2.41
7.69 -8.39 2.41
7.85 -8.23 2.41
8.01 -8.07 2.41
5.43 -5.25 1.60
5.46 -5.07 1.58
5.54 -4.94 1.57
5.66 -4.85 1.58
8.76 -7.21 2.41
8.90 -7.03 2.41
9.03 -6.84 2.41
6.09 -4.42 1.60
6.24 -4.34 1.62
6.47 -4.31 1.65
6.82 -4.35 1.72
7.14 -4.36 1.78
7.43 -4.33 1.83
7.86 -4.37 1.92
8.19 -4.34 1.98
8.69 -4.39 2.07
9.09 -4.36 2.15
2.49 -1.13 0.58
2.49 -1.08 0.58
2.54 -1.04 0.59
10.21 -3.93 2.34
10.27 -3.71 2.33
10.32 -3.50 2.33
10.37 -3.29 2.33
10.41 -3.07 2.32
10.45 -2.86 2.32
10.49 -2.64 2.32
10.53 -2.43 2.31
10.56 -2.21 2.31
10.59 -2.00 2.31
10.62 -1.78 2.31
10.64 -1.57 2.31
10.66 -1.35 2.30
10.03 -1.07 2.16
10.05 -0.87 2.16
10.06 -0.66 2.16
10.07 -0.46 2.16
10.07 -0.26 2.16
10.07 -0.06 2.16
10.07 0.15 2.16
10.06 0.35 2.16
10.05 0.55 2.16
10.04 0.75 2.16
10.02 0.95 2.16
10.05 1.16 2.18
8.72 1.18 1.89
7.69 1.20 1.68
6.83 1.21 1.49
6.47 1.28 1.42
6.47 1.42 1.43
10.49 2.52 2.32
10.45 2.73 2.33
10.41 2.94 2.33
10.36 3.16 2.34
10.31 3.37 2.34
10.26 3.58 2.34
10.21 3.80 2.35
10.15 4.01 2.35
10.09 4.22 2.36
10.02 4.43 2.36
9.74 4.54 2.32
9.35 4.59 2.25
9.27 4.79 2.25
9.19 4.98 2.26
9.11 5.18 2.26
9.02 5.37 2.27
8.93 5.56 2.27
8.84 5.75 2.28
8.74 5.94 2.28
8.64 6.13 2.29
8.53 6.32 2.29
8.43 6.50 2.30
8.69 6.99 2.41
8.54 7.16 2.41
8.40 7.33 2.41
8.25 7.50 2.41
8.10 7.66 2.41
7.81 7.69 2.37
7.52 7.71 2.32
7.23 7.72 2.28
6.96 7.73 2.25
6.69 7.75 2.21
6.50 7.84 2.20
6.40 8.04 2.22
6.39 8.37 2.27
6.39 8.72 2.33
6.37 9.07 2.39
6.18 9.20 2.39
6.00 9.32 2.39
5.81 9.44 2.39
5.62 9.56 2.39
5.43 9.67 2.39
5.23 9.78 2.39
5.04 9.88 2.39
4.84 9.98 2.39
4.64 10.08 2.39
4.44 10.17 2.39
4.23 10.26 2.39
4.02 10.35 2.39
3.82 10.43 2.39
3.61 10.51 2.39
3.40 10.58 2.39
3.18 10.65 2.39
2.97 10.71 2.39
2.75 10.77 2.39
2.54 10.83 2.39
2.42 11.35 2.49
2.19 11.40 2.49
1.96 11.44 2.49
1.73 11.48 2.49
1.50 11.52 2.49
1.27 11.55 2.49
1.04 11.58 2.49
0.81 11.60 2.49
0.58 11.62 2.49
0.34 11.63 2.49
0.11 11.64 2.49
-0.13 11.64 2.49
-0.36 11.64 2.49
-0.59 11.63 2.49
-0.83 11.62 2.49
-1.06 11.61 2.49
-1.29 11.59 2.49
-1.53 11.57 2.49
-1.76 11.54 2.49
-1.99 11.50 2.49
-2.22 11.47 2.49
-2.45 11.42 2.49
-2.68 11.38 2.49
-2.91 11.32 2.49
-3.14 11.27 2.49
-3.37 11.21 2.49
-3.59 11.14 2.49
-3.82 11.07 2.49
-4.04 11.00 2.49
-4.26 10.92 2.49
-4.48 10.83 2.49
-4.70 10.75 2.49
-4.92 10.65 2.49
-5.13 10.56 2.49
-5.35 10.46 2.49
-5.53 10.31 2.48
-5.55 9.86 2.40
-5.74 9.73 2.40
-5.92 9.60 2.39
-5.91 9.16 2.31
-5.99 8.88 2.27
-6.39 9.08 2.35
-6.50 8.86 2.33
-6.52 8.52 2.27
-7.05 8.84 2.39
-7.23 8.70 2.39
-7.41 8.56 2.39
-7.58 8.41 2.39
-7.75 8.26 2.39
-7.92 8.10 2.39
-8.08 7.95 2.39
-8.24 7.79 2.39
-8.40 7.62 2.39
-8.56 7.46 2.39
-8.71 7.29 2.39
-8.86 7.11 2.39
-9.00 6.94 2.39
-9.14 6.76 2.39
-9.28 6.58 2.39
-9.42 6.39 2.39
-9.55 6.20 2.39
-9.65 5.73 2.35
-9.67 4.98 2.28
-9.67 4.74 2.26
-9.67 4.27 2.21
-9.68 4.04 2.20
-46.11 14.03 10.07
-9.70 2.74 2.10
-46.98 12.26 10.14
-9.71 2.33 2.08
-47.20 10.31 10.08
-47.25 9.33 10.04
-47.32 8.36 10.02
-47.79 7.46 10.08
-9.73 1.12 2.04
-20.43 1.94 4.27
-19.30 1.44 4.03
-18.35 1.00 3.82
-17.54 0.61 3.65
-9.75 0.14 2.03
-16.30 -0.09 3.39
-16.03 -0.41 3.33
-15.77 -0.72 3.28
-15.57 -1.03 3.24
-9.77 -0.84 2.04
-15.28 -1.62 3.19
-15.14 -1.92 3.17
-9.78 -1.44 2.05
-14.68 -2.46 3.09
-9.78 -1.84 2.06
-14.40 -3.01 3.05
-9.79 -2.25 2.08
-14.14 -3.55 3.02
-14.00 -3.82 3.01
-13.96 -4.11 3.02
-9.81 -3.10 2.13
-13.87 -4.70 3.03
-13.79 -4.98 3.04
-13.68 -5.25 3.04
-13.56 -5.52 3.03
-13.43 -5.79 3.03
-13.29 -6.04 3.02
-9.84 -4.71 2.26
-9.84 -4.96 2.28
-11.95 -6.33 2.80
-11.24 -6.24 2.66
-10.91 -6.35 2.61
-10.73 -6.54 2.60
-9.75 -6.21 2.39
-9.62 -6.40 2.39
-9.49 -6.60 2.39
-9.36 -6.79 2.39
-9.22 -6.97 2.39
-9.08 -7.16 2.39
-8.93 -7.34 2.39
-8.78 -7.51 2.39
-8.63 -7.69 2.39
-8.48 -7.86 2.39
-8.32 -8.03 2.39
-8.15 -8.19 2.39
-7.99 -8.35 2.39
-7.82 -8.51 2.39
-7.64 -8.67 2.39
-7.47 -8.82 2.39
-6.92 -8.51 2.27
-6.82 -8.74 2.29
-6.81 -9.10 2.35
-6.63 -9.23 2.35
-6.24 -9.07 2.28
-6.24 -9.48 2.35
-6.16 -9.77 2.39
-5.96 -9.89 2.39
-5.90 -10.25 2.45
-5.80 -10.55 2.49
-5.58 -10.67 2.49
-5.37 -10.77 2.49
-5.15 -10.88 2.49
-4.93 -10.98 2.49
-4.71 -11.07 2.49
-4.48 -11.16 2.49
-4.26 -11.25 2.49
-4.03 -11.33 2.49
-3.80 -11.40 2.49
-3.57 -11.47 2.49
-3.34 -11.54 2.49
-3.11 -11.60 2.49
-2.87 -11.66 2.49
-2.64 -11.71 2.49
-2.40 -11.76 2.49
-2.16 -11.80 2.49
-1.93 -11.84 2.49
-1.69 -11.87 2.49
-1.45 -11.90 2.49
-1.21 -11.92 2.49
-0.97 -11.94 2.49
-0.73 -11.95 2.49
-0.49 -11.96 2.49
-0.25 -11.97 2.49
-0.01 -10.75 2.49
0.21 -10.74 2.49
0.42 -10.73 2.49
0.64 -10.72 2.49
0.85 -10.70 2.49
1.07 -10.68 2.49
1.28 -10.65 2.49
1.49 -10.62 2.49
1.70 -10.58 2.49
1.92 -10.54 2.49
2.13 -10.50 2.49
2.24 -10.02 2.39
2.44 -9.97 2.39
2.64 -9.91 2.39
2.83 -9.86 2.39
3.03 -9.79 2.39
3.23 -9.73 2.39
3.42 -9.66 2.39
3.61 -9.58 2.39
3.80 -9.50 2.39
3.99 -9.42 2.39
4.18 -9.34 2.39
4.36 -9.25 2.39
4.54 -9.15 2.39
4.72 -9.06 2.39
4.90 -8.96 2.39
5.08 -8.85 2.39
5.26 -8.75 2.39
5.43 -8.64 2.39
5.60 -8.52 2.39
5.77 -8.41 2.39
5.93 -8.28 2.39
6.09 -8.16 2.39
6.30 -8.09 2.41
6.45 -7.96 2.41
6.61 -7.82 2.41
6.76 -7.69 2.41
6.91 -7.55 2.41
7.06 -7.40 2.41
7.20 -7.26 2.41
7.35 -7.11 2.41
5.45 -5.07 1.75
5.52 -4.92 1.74
5.65 -4.85 1.76
7.88 -6.48 2.41
8.01 -6.32 2.41
8.13 -6.16 2.41
6.09 -4.43 1.78
6.24 -4.34 1.80
6.47 -4.31 1.84
6.82 -4.35 1.91
7.14 -4.36 1.98
7.43 -4.33 2.03
7.86 -4.37 2.13
8.19 -4.34 2.19
8.69 -4.39 2.30
9.08 -4.36 2.39
2.49 -1.13 0.65
2.49 -1.08 0.64
2.54 -1.04 0.65
9.44 -3.63 2.40
9.49 -3.43 2.40
9.54 -3.24 2.39
9.59 -3.04 2.39
9.63 -2.84 2.39
9.67 -2.64 2.38
9.71 -2.45 2.38
9.74 -2.25 2.38
9.77 -2.05 2.38
9.80 -1.85 2.37
9.83 -1.65 2.37
9.85 -1.45 2.37
9.87 -1.25 2.37
9.12 -0.97 2.18
9.13 -0.79 2.18
9.14 -0.60 2.18
9.15 -0.42 2.18
9.15 -0.24 2.18
9.15 -0.05 2.18
9.15 0.13 2.18
9.15 0.32 2.18
9.14 0.50 2.18
9.13 0.68 2.18
9.11 0.87 2.19
9.87 1.14 2.37
8.72 1.18 2.10
7.69 1.20 1.86
6.83 1.21 1.66
6.47 1.28 1.58
6.47 1.42 1.58
9.71 2.33 2.39
9.67 2.53 2.39
9.63 2.72 2.39
9.59 2.92 2.40
9.54 3.12 2.40
9.49 3.31 2.41
9.43 3.51 2.41
9.35 3.69 2.41
9.28 3.88 2.41
9.20 4.07 2.41
9.11 4.25 2.41
9.02 4.43 2.41
8.93 4.61 2.41
8.45 4.58 2.30
8.34 4.74 2.30
8.26 4.92 2.30
8.18 5.09 2.31
8.09 5.27 2.31
8.00 5.44 2.32
7.91 5.61 2.32
7.81 5.78 2.33
7.71 5.95 2.33
7.61 6.12 2.34
7.50 6.29 2.34
7.39 6.45 2.35
7.28 6.62 2.36
7.30 6.91 2.41
7.16 7.05 2.41
7.01 7.19 2.41
6.87 7.33 2.41
6.72 7.47 2.41
6.57 7.60 2.41
6.37 7.68 2.39
6.22 7.81 2.39
6.06 7.94 2.39
5.90 8.06 2.39
5.74 8.17 2.39
5.57 8.29 2.39
5.41 8.40 2.39
5.24 8.51 2.39
5.06 8.61 2.39
4.89 8.71 2.39
4.72 8.81 2.39
4.54 8.90 2.39
4.36 9.00 2.39
4.18 9.08 2.39
4.00 9.17 2.39
3.81 9.25 2.39
3.63 9.32 2.39
3.44 9.40 2.39
3.25 9.46 2.39
3.06 9.53 2.39
2.87 9.59 2.39
2.67 9.65 2.39
2.51 9.82 2.42
2.38 10.17 2.49
2.18 10.22 2.49
1.98 10.27 2.49
1.77 10.31 2.49
1.56 10.34 2.49
1.35 10.38 2.49
1.15 10.40 2.49
0.94 10.43 2.49
0.73 10.45 2.49
0.52 10.46 2.49
0.31 10.47 2.49
0.10 10.48 2.49
-0.11 10.48 2.49
-0.32 10.48 2.49
-0.53 10.48 2.49
-0.75 10.47 2.49
-0.96 10.45 2.49
-1.17 10.44 2.49
-1.38 10.41 2.49
-1.58 10.39 2.49
-1.79 10.36 2.49
-2.00 10.32 2.49
-2.21 10.28 2.49
-2.42 10.24 2.49
-2.62 10.19 2.49
-2.83 10.14 2.49
-3.03 10.09 2.49
-3.24 10.03 2.49
-3.44 9.96 2.49
-3.64 9.90 2.49
-3.84 9.82 2.49
-4.04 9.75 2.49
-4.23 9.67 2.49
-4.43 9.59 2.49
-4.62 9.50 2.49
-4.81 9.41 2.49
-5.00 9.31 2.49
-5.19 9.21 2.49
-5.38 9.11 2.49
-5.56 9.00 2.49
-5.57 8.63 2.42
-5.68 8.42 2.39
-5.85 8.31 2.39
-5.93 8.08 2.36
-5.94 7.75 2.30
-6.02 7.54 2.27
-6.40 7.69 2.35
-6.53 7.54 2.34
-6.53 7.25 2.29
-6.62 7.05 2.27
-7.12 7.29 2.39
-7.27 7.15 2.39
-7.41 7.00 2.39
-7.56 6.85 2.39
-7.70 6.70 2.39
-7.83 6.55 2.39
-7.96 6.39 2.39
-8.09 6.24 2.39
-8.22 6.07 2.39
-8.34 5.91 2.39
-8.46 5.74 2.39
-8.58 5.57 2.39
-8.69 5.40 2.39
-8.80 5.23 2.39
-8.91 5.05 2.39
-9.01 4.88 2.39
-9.11 4.70 2.39
-9.21 4.51 2.39
-9.30 4.33 2.39
-9.39 4.14 2.39
-9.47 3.96 2.39
-9.55 3.77 2.39
-9.63 3.58 2.39
-46.15 15.05 11.29
-45.57 13.86 11.08
-9.70 2.74 2.34
-46.07 12.02 11.06
-46.05 11.03 11.00
-46.18 10.08 10.98
-46.26 9.13 10.95
-21.62 3.82 5.10
-19.91 3.11 4.68
-9.73 1.32 2.28
-9.73 1.12 2.27
-9.74 0.92 2.27
-9.74 0.73 2.26
-9.74 0.53 2.26
-9.75 0.34 2.26
-9.75 0.14 2.26
-9.75 -0.06 2.26
-9.76 -0.25 2.26
-9.76 -0.45 2.26
-9.77 -0.64 2.26
-9.77 -0.84 2.27
-9.77 -1.04 2.27
-9.78 -1.24 2.28
-11.29 -1.66 2.64
-11.02 -1.85 2.58
-9.78 -1.84 2.30
-10.92 -2.28 2.58
-10.89 -2.51 2.58
-10.87 -2.73 2.59
-10.65 -2.91 2.55
-10.61 -3.13 2.55
-10.57 -3.35 2.56
-10.52 -3.56 2.56
-9.75 -3.52 2.39
-9.68 -3.72 2.39
-9.60 -3.91 2.39
-9.52 -4.10 2.39
-9.44 -4.29 2.39
-9.35 -4.48 2.39
-9.26 -4.67 2.39
-9.17 -4.85 2.39
-9.07 -5.04 2.39
-8.97 -5.22 2.39
-8.86 -5.40 2.39
-8.75 -5.57 2.39
-8.64 -5.75 2.39
-8.52 -5.92 2.39
-8.40 -6.09 2.39
-8.28 -6.26 2.39
-8.15 -6.42 2.39
-8.02 -6.59 2.39
-7.89 -6.74 2.39
-7.75 -6.90 2.39
-7.61 -7.06 2.39
-7.47 -7.21 2.39
-7.32 -7.35 2.39
-6.80 -7.12 2.27
-6.79 -7.40 2.31
-6.75 -7.65 2.35
-6.59 -7.79 2.35
-6.22 -7.65 2.27
-6.22 -7.96 2.33
-6.22 -8.30 2.39
-6.06 -8.44 2.40
-5.88 -8.55 2.39
-5.88 -8.92 2.46
-5.77 -9.15 2.49
-5.58 -9.26 2.49
-5.39 -9.37 2.49
-5.20 -9.47 2.49
-5.01 -9.58 2.49
-4.82 -9.67 2.49
-4.62 -9.77 2.49
-4.42 -9.85 2.49
-4.23 -9.94 2.49
-4.02 -10.02 2.49
-3.82 -10.10 2.49
-3.62 -10.17 2.49
-3.41 -10.24 2.49
-3.21 -10.30 2.49
-3.00 -10.36 2.49
-2.79 -10.42 2.49
-2.58 -10.47 2.49
-2.37 -10.52 2.49
-2.16 -10.56 2.49
-1.94 -10.60 2.49
-1.73 -10.63 2.49
-1.52 -10.66 2.49
-1.30 -10.69 2.49
-1.09 -10.71 2.49
-0.87 -10.72 2.49
-0.66 -10.74 2.49
-0.44 -10.74 2.49
-0.22 -10.75 2.49
-0.01 -9.75 2.49
0.19 -9.74 2.49
0.38 -9.73 2.49
0.58 -9.72 2.49
0.77 -9.70 2.49
0.97 -9.68 2.49
1.16 -9.66 2.49
1.35 -9.63 2.49
1.55 -9.60 2.49
1.74 -9.56 2.49
1.93 -9.52 2.49
2.12 -9.48 2.49
2.21 -9.04 2.39
2.39 -8.99 2.39
2.57 -8.94 2.39
2.75 -8.88 2.39
2.93 -8.82 2.39
3.10 -8.76 2.39
3.27 -8.69 2.39
3.45 -8.62 2.39
3.62 -8.55 2.39
3.79 -8.47 2.39
3.96 -8.39 2.39
4.12 -8.31 2.39
4.29 -8.22 2.39
4.45 -8.13 2.39
4.61 -8.04 2.39
4.77 -7.94 2.39
4.92 -7.84 2.39
5.08 -7.74 2.39
5.23 -7.63 2.39
5.38 -7.52 2.39
5.53 -7.41 2.39
5.68 -7.29 2.39
5.82 -7.17 2.39
5.96 -7.05 2.39
6.10 -6.93 2.39
6.27 -6.85 2.41
6.41 -6.72 2.41
6.54 -6.59 2.41
6.67 -6.45 2.41
5.46 -5.08 1.94
5.52 -4.93 1.92
5.66 -4.85 1.94
7.15 -5.89 2.41
7.27 -5.74 2.41
7.38 -5.59 2.41
6.09 -4.43 1.96
6.24 -4.34 1.98
6.47 -4.31 2.02
6.82 -4.35 2.11
7.14 -4.36 2.18
7.43 -4.33 2.24
7.85 -4.37 2.34
8.16 -4.33 2.41
8.24 -4.16 2.41
8.32 -3.99 2.41
2.49 -1.13 0.71
2.49 -1.08 0.71
2.54 -1.04 0.72
8.60 -3.31 2.41
8.66 -3.14 2.41
8.72 -2.96 2.41
8.78 -2.78 2.41
8.83 -2.61 2.41
8.88 -2.43 2.41
8.92 -2.25 2.41
8.96 -2.07 2.41
9.00 -1.89 2.41
9.03 -1.71 2.41
9.06 -1.52 2.41
9.09 -1.34 2.41
8.38 -1.06 2.21
8.39 -0.89 2.21
8.40 -0.73 2.21
8.41 -0.56 2.21
8.42 -0.39 2.21
8.42 -0.22 2.21
8.42 -0.05 2.21
8.42 0.12 2.21
8.42 0.29 2.21
8.41 0.46 2.21
8.40 0.63 2.21
8.39 0.80 2.21
8.38 0.97 2.22
8.72 1.18 2.31
7.70 1.20 2.05
6.83 1.21 1.82
6.47 1.28 1.74
6.47 1.42 1.74
8.90 2.13 2.41
8.85 2.31 2.41
8.80 2.49 2.41
8.75 2.66 2.41
8.69 2.84 2.41
8.63 3.01 2.41
8.57 3.19 2.41
8.50 3.36 2.41
8.43 3.53 2.41
8.36 3.70 2.41
8.28 3.86 2.41
8.20 4.03 2.41
8.12 4.19 2.41
8.03 4.35 2.41
7.94 4.51 2.41
7.74 4.60 2.37
7.54 4.69 2.34
7.46 4.85 2.34
7.37 5.01 2.35
7.28 5.17 2.35
7.19 5.32 2.36
7.10 5.48 2.36
7.00 5.63 2.37
6.90 5.79 2.37
6.80 5.94 2.38
6.70 6.09 2.39
6.59 6.24 2.39
6.48 6.38 2.40
6.33 6.50 2.39
6.20 6.62 2.39
6.07 6.75 2.39
5.93 6.87 2.39
5.79 6.99 2.39
5.65 7.10 2.39
5.51 7.21 2.39
5.36 7.32 2.39
5.22 7.43 2.39
5.07 7.53 2.39
4.91 7.64 2.39
4.76 7.73 2.39
4.60 7.83 2.39
4.45 7.92 2.39
4.29 8.01 2.39
4.13 8.09 2.39
3.96 8.18 2.39
3.80 8.26 2.39
3.63 8.33 2.39
3.46 8.41 2.39
3.30 8.47 2.39
3.12 8.54 2.39
2.95 8.60 2.39
2.78 8.66 2.39
2.61 8.72 2.39
2.49 8.98 2.45
2.35 9.20 2.49
2.17 9.25 2.49
1.98 9.29 2.49
1.79 9.33 2.49
1.61 9.37 2.49
1.42 9.40 2.49
1.23 9.43 2.49
1.04 9.45 2.49
0.85 9.48 2.49
0.66 9.49 2.49
0.47 9.51 2.49
0.28 9.52 2.49
0.09 9.52 2.49
-0.10 9.53 2.49
-0.30 9.52 2.49
-0.49 9.52 2.49
-0.68 9.51 2.49
-0.87 9.50 2.49
-1.06 9.48 2.49
-1.25 9.46 2.49
-1.44 9.44 2.49
-1.63 9.41 2.49
-1.82 9.38 2.49
-2.01 9.34 2.49
-2.20 9.30 2.49
-2.38 9.26 2.49
-2.57 9.21 2.49
