ply
format ascii 1.0
element vertex 2962
property float32 x
property float32 y
property float32 z
end_header
-9.30 9.52 2.39
-9.49 9.34 2.39
-9.68 9.15 2.39
-9.86 8.95 2.39
-10.04 8.76 2.39
-10.84 9.08 2.54
-10.93 8.79 2.52
-11.02 8.50 2.49
-11.10 8.21 2.47
-11.13 7.89 2.44
-11.14 7.57 2.41
-11.14 7.25 2.38
-11.14 6.93 2.35
-11.13 6.63 2.32
-11.13 6.32 2.29
-11.15 6.04 2.27
-11.19 5.78 2.25
-11.22 5.51 2.24
-11.25 5.25 2.22
-11.28 4.99 2.21
-11.31 4.73 2.19
-11.33 4.48 2.18
-11.32 4.21 2.16
-11.32 3.96 2.15
-11.31 3.70 2.13
-11.30 3.45 2.12
-11.29 3.20 2.10
-11.29 2.96 2.09
-11.28 2.71 2.08
-11.26 2.47 2.06
-11.20 2.22 2.05
-11.18 1.99 2.03
-11.19 1.76 2.03
-11.20 1.53 2.03
-11.21 1.30 2.02
-11.21 1.08 2.02
-11.22 0.85 2.02
-11.23 0.63 2.02
-11.22 0.40 2.02
-11.22 0.18 2.02
-11.22 -0.05 2.02
-11.23 -0.27 2.02
-11.24 -0.50 2.02
-11.25 -0.73 2.03
-11.26 -0.95 2.03
-11.27 -1.18 2.04
-11.30 -1.42 2.05
-11.48 -1.67 2.09
-11.66 -1.94 2.13
-11.67 -2.18 2.14
-11.65 -2.42 2.15
-11.64 -2.66 2.16
-11.62 -2.90 2.17
-11.83 -3.21 2.22
-12.23 -3.58 2.31
-12.62 -3.98 2.40
-12.68 -4.27 2.43
-12.68 -4.56 2.44
-12.68 -4.85 2.46
-12.67 -5.14 2.48
-12.08 -5.18 2.39
-11.97 -5.42 2.39
-11.85 -5.66 2.39
-11.72 -5.89 2.39
-11.59 -6.12 2.39
-11.46 -6.34 2.39
-11.32 -6.57 2.39
-11.18 -6.79 2.39
-11.03 -7.00 2.39
-10.88 -7.22 2.39
-10.72 -7.43 2.39
-10.56 -7.64 2.39
-10.40 -7.84 2.39
-10.23 -8.04 2.39
-10.06 -8.24 2.39
-7.02 -5.99 1.70
-9.70 -8.62 2.39
-9.93 -9.18 2.49
-9.74 -9.37 2.49
-9.54 -9.56 2.49
-9.34 -9.74 2.49
-9.13 -9.91 2.49
-8.92 -10.09 2.49
-8.71 -10.25 2.49
-8.49 -10.42 2.49
-8.27 -10.57 2.49
-8.05 -10.73 2.49
-7.83 -10.88 2.49
-7.60 -11.02 2.49
-7.37 -11.16 2.49
-7.14 -11.30 2.49
-6.90 -11.43 2.49
-6.67 -11.55 2.49
-6.43 -11.67 2.49
-6.19 -11.79 2.49
-5.94 -11.90 2.49
-5.70 -12.00 2.49
-5.45 -12.10 2.49
-5.20 -12.20 2.49
-4.95 -12.29 2.49
-4.70 -12.37 2.49
-4.45 -12.45 2.49
-4.19 -12.53 2.49
-3.93 -12.60 2.49
-3.68 -12.66 2.49
-3.42 -12.72 2.49
-3.16 -12.77 2.49
-2.90 -12.82 2.49
-2.64 -12.87 2.49
-2.38 -12.90 2.49
-2.12 -12.94 2.49
-1.85 -12.97 2.49
-1.59 -12.99 2.49
-1.33 -13.01 2.49
-1.07 -13.02 2.49
-0.81 -13.03 2.49
-0.54 -13.03 2.49
-0.28 -13.02 2.49
-0.02 -11.60 2.49
0.21 -11.59 2.49
0.45 -11.57 2.49
0.68 -11.55 2.49
0.91 -11.53 2.49
1.14 -11.50 2.49
1.37 -11.46 2.49
1.60 -11.42 2.49
1.83 -11.38 2.49
2.05 -11.33 2.49
2.28 -11.28 2.49
2.50 -11.23 2.49
2.73 -11.17 2.49
2.95 -11.10 2.49
3.17 -11.03 2.49
3.39 -10.96 2.49
3.60 -10.88 2.49
3.82 -10.80 2.49
4.03 -10.72 2.49
4.25 -10.63 2.49
4.46 -10.53 2.49
4.66 -10.44 2.49
4.87 -10.33 2.49
5.07 -10.23 2.49
5.28 -10.12 2.49
5.48 -10.01 2.49
5.67 -9.89 2.49
5.87 -9.77 2.49
6.06 -9.64 2.49
6.25 -9.52 2.49
6.44 -9.38 2.49
4.39 -6.13 1.65
6.80 -9.11 2.49
6.98 -8.97 2.49
5.35 -6.60 1.86
7.33 -8.67 2.49
7.50 -8.52 2.49
7.67 -8.37 2.49
7.51 -7.87 2.39
7.66 -7.71 2.39
7.81 -7.55 2.39
7.96 -7.39 2.39
8.11 -7.23 2.39
8.25 -7.06 2.39
8.39 -6.89 2.39
8.52 -6.72 2.39
8.65 -6.55 2.39
8.78 -6.37 2.39
8.91 -6.19 2.39
9.03 -6.01 2.39
9.15 -5.83 2.39
6.55 -3.99 1.69
6.46 -3.76 1.65
6.45 -3.58 1.63
6.48 -3.43 1.62
6.52 -3.29 1.61
6.64 -3.18 1.62
6.75 -3.07 1.63
6.99 -3.01 1.68
10.04 -4.08 2.39
10.14 -3.89 2.39
10.21 -3.68 2.39
10.28 -3.48 2.39
10.35 -3.27 2.39
10.42 -3.06 2.39
10.48 -2.85 2.39
10.54 -2.64 2.39
10.59 -2.43 2.39
10.64 -2.22 2.39
10.68 -2.00 2.39
10.72 -1.79 2.39
10.76 -1.57 2.39
10.79 -1.35 2.39
10.82 -1.14 2.39
8.63 -0.73 1.91
2.88 -0.19 0.63
2.87 -0.13 0.63
10.88 -0.27 2.39
10.89 -0.05 2.39
10.89 0.17 2.39
10.89 0.39 2.39
10.89 0.61 2.39
10.88 0.83 2.39
10.86 1.05 2.39
10.84 1.27 2.39
10.82 1.49 2.39
10.79 1.70 2.39
10.76 1.92 2.39
10.72 2.14 2.39
10.68 2.35 2.39
10.64 2.57 2.39
10.59 2.79 2.39
10.54 3.00 2.39
10.48 3.21 2.39
10.42 3.42 2.39
10.36 3.63 2.39
10.29 3.84 2.39
10.21 4.05 2.39
10.14 4.26 2.39
10.06 4.47 2.39
9.97 4.67 2.39
9.88 4.87 2.39
9.79 5.07 2.39
9.69 5.27 2.39
9.59 5.47 2.39
9.48 5.66 2.39
9.37 5.86 2.39
9.26 6.05 2.39
9.14 6.24 2.39
9.02 6.43 2.39
8.90 6.61 2.39
8.77 6.79 2.39
8.64 6.97 2.39
8.50 7.15 2.39
8.36 7.33 2.39
8.22 7.50 2.39
8.08 7.67 2.39
7.93 7.83 2.39
7.77 8.00 2.39
7.62 8.16 2.39
7.46 8.32 2.39
7.29 8.47 2.39
7.13 8.62 2.39
6.96 8.77 2.39
6.79 8.92 2.39
6.61 9.06 2.39
6.44 9.20 2.39
6.25 9.33 2.39
6.07 9.47 2.39
5.88 9.58 2.39
5.69 9.71 2.39
5.50 9.83 2.39
5.30 9.94 2.39
5.11 10.06 2.39
4.91 10.17 2.39
4.71 10.27 2.39
4.50 10.37 2.39
4.30 10.47 2.39
4.09 10.56 2.39
3.88 10.65 2.39
3.67 10.74 2.39
3.46 10.82 2.39
3.24 10.89 2.39
3.03 10.97 2.39
2.81 11.04 2.39
2.59 11.10 2.39
2.37 11.16 2.39
2.14 11.21 2.39
1.92 11.26 2.39
1.77 11.80 2.49
1.53 11.84 2.49
1.30 11.88 2.49
1.06 11.91 2.49
0.82 11.94 2.49
0.58 11.96 2.49
0.34 11.98 2.49
0.10 12.00 2.49
-0.14 12.01 2.49
-0.38 12.01 2.49
-0.62 12.01 2.49
-0.86 12.00 2.49
-1.11 11.99 2.49
-1.35 11.98 2.49
-1.59 11.96 2.49
-1.83 11.93 2.49
-2.07 11.90 2.49
-2.31 11.87 2.49
-2.55 11.83 2.49
-2.79 11.78 2.49
-3.03 11.73 2.49
-3.26 11.68 2.49
-3.50 11.62 2.49
-3.73 11.55 2.49
-3.97 11.48 2.49
-4.20 11.41 2.49
-4.43 11.33 2.49
-4.66 11.25 2.49
-4.89 11.16 2.49
-5.11 11.06 2.49
-5.34 10.97 2.49
-5.56 10.86 2.49
-5.78 10.75 2.49
-5.99 10.64 2.49
-6.20 10.51 2.49
-6.19 10.02 2.40
-6.38 9.89 2.40
-6.56 9.73 2.39
-6.76 9.60 2.39
-6.95 9.47 2.39
-7.14 9.33 2.39
-7.33 9.19 2.39
-7.52 9.04 2.39
-7.70 8.89 2.39
-7.88 8.74 2.39
-8.05 8.59 2.39
-8.23 8.43 2.39
-8.40 8.26 2.39
-8.56 8.09 2.39
-8.73 7.92 2.39
-8.89 7.75 2.39
-9.04 7.57 2.39
-9.19 7.39 2.39
-9.34 7.21 2.39
-9.49 7.02 2.39
-9.63 6.83 2.39
-9.76 6.64 2.39
-9.90 6.44 2.39
-10.21 6.35 2.43
-10.26 6.10 2.42
-10.33 5.87 2.40
-10.39 5.63 2.39
-10.48 5.41 2.39
-10.56 5.19 2.38
-10.65 4.97 2.38
-10.73 4.75 2.37
-10.80 4.52 2.37
-10.88 4.30 2.37
-10.93 4.07 2.36
-10.94 3.82 2.34
-10.94 3.58 2.33
-10.94 3.34 2.31
-10.93 3.10 2.30
-10.93 2.86 2.29
-10.92 2.63 2.27
-10.91 2.40 2.26
-10.90 2.16 2.25
-10.90 1.94 2.24
-10.91 1.72 2.24
-10.92 1.49 2.23
-10.93 1.27 2.23
-10.94 1.05 2.23
-10.95 0.83 2.23
-10.95 0.61 2.23
-10.96 0.39 2.22
-10.95 0.17 2.22
-10.96 -0.05 2.23
-10.97 -0.27 2.23
-10.98 -0.49 2.23
-10.99 -0.71 2.24
-11.00 -0.93 2.24
-11.00 -1.15 2.25
-11.01 -1.38 2.26
-11.01 -1.60 2.27
-11.18 -1.86 2.31
-11.22 -2.10 2.33
-11.21 -2.33 2.33
-11.19 -2.56 2.34
-11.17 -2.79 2.35
-11.15 -3.02 2.36
-11.13 -3.26 2.37
-11.15 -3.51 2.39
-11.50 -3.87 2.48
-11.56 -4.15 2.52
-11.48 -4.39 2.52
-11.39 -4.62 2.52
-11.30 -4.85 2.52
-10.61 -4.80 2.39
-10.50 -5.01 2.39
-10.39 -5.22 2.39
-10.28 -5.42 2.39
-10.16 -5.62 2.39
-10.04 -5.82 2.39
-9.91 -6.02 2.39
-9.78 -6.21 2.39
-9.65 -6.40 2.39
-9.51 -6.59 2.39
-9.37 -6.77 2.39
-9.23 -6.95 2.39
-9.08 -7.13 2.39
-8.93 -7.31 2.39
-7.02 -5.98 1.91
-8.61 -7.65 2.39
-8.47 -7.83 2.40
-8.64 -8.32 2.49
-8.47 -8.48 2.49
-8.29 -8.64 2.49
-8.11 -8.80 2.49
-7.92 -8.95 2.49
-7.73 -9.10 2.49
-7.54 -9.25 2.49
-7.35 -9.39 2.49
-7.15 -9.53 2.49
-6.96 -9.66 2.49
-6.75 -9.79 2.49
-6.55 -9.91 2.49
-6.35 -10.04 2.49
-6.14 -10.15 2.49
-5.93 -10.26 2.49
-5.72 -10.37 2.49
-5.50 -10.48 2.49
-5.29 -10.57 2.49
-5.07 -10.67 2.49
-4.85 -10.76 2.49
-4.63 -10.85 2.49
-4.41 -10.93 2.49
-4.18 -11.00 2.49
-3.96 -11.08 2.49
-3.73 -11.14 2.49
-3.50 -11.21 2.49
-3.27 -11.26 2.49
-3.04 -11.32 2.49
-2.81 -11.37 2.49
-2.58 -11.41 2.49
-2.35 -11.45 2.49
-2.12 -11.49 2.49
-1.89 -11.52 2.49
-1.65 -11.54 2.49
-1.42 -11.57 2.49
-1.19 -11.58 2.49
-0.95 -11.59 2.49
-0.72 -11.60 2.49
-0.49 -11.60 2.49
-0.25 -11.60 2.49
-0.02 -10.45 2.49
0.19 -10.44 2.49
0.40 -10.42 2.49
0.61 -10.41 2.49
0.82 -10.39 2.49
1.02 -10.36 2.49
1.23 -10.33 2.49
1.44 -10.30 2.49
1.64 -10.26 2.49
1.85 -10.22 2.49
2.05 -10.17 2.49
2.25 -10.12 2.49
2.46 -10.07 2.49
2.66 -10.01 2.49
2.86 -9.95 2.49
3.05 -9.88 2.49
3.25 -9.81 2.49
3.44 -9.74 2.49
3.64 -9.67 2.49
3.83 -9.59 2.49
4.02 -9.50 2.49
4.21 -9.41 2.49
4.39 -9.32 2.49
4.58 -9.23 2.49
4.76 -9.13 2.49
4.94 -9.03 2.49
5.12 -8.92 2.49
5.29 -8.81 2.49
5.47 -8.70 2.49
5.64 -8.59 2.49
5.81 -8.47 2.49
4.39 -6.13 1.83
6.14 -8.22 2.49
6.30 -8.09 2.49
5.35 -6.60 2.07
6.34 -7.50 2.39
6.49 -7.37 2.39
6.63 -7.24 2.39
6.78 -7.10 2.39
6.92 -6.96 2.39
7.05 -6.82 2.39
7.19 -6.67 2.39
7.32 -6.53 2.39
7.45 -6.38 2.39
7.57 -6.22 2.39
7.69 -6.07 2.39
7.81 -5.91 2.39
7.93 -5.75 2.39
8.04 -5.59 2.39
8.15 -5.43 2.39
8.26 -5.26 2.39
8.36 -5.09 2.39
6.58 -3.83 1.86
6.52 -3.62 1.82
6.55 -3.47 1.81
6.60 -3.33 1.81
6.71 -3.22 1.82
6.87 -3.12 1.84
9.00 -3.87 2.39
9.08 -3.69 2.39
9.15 -3.51 2.39
9.22 -3.32 2.39
9.28 -3.14 2.39
9.35 -2.95 2.39
9.41 -2.76 2.39
9.46 -2.57 2.39
9.51 -2.38 2.39
9.56 -2.19 2.39
9.60 -2.00 2.39
9.64 -1.81 2.39
9.68 -1.61 2.39
9.59 -1.40 2.36
9.72 -1.22 2.39
9.76 -1.03 2.39
9.78 -0.83 2.39
2.88 -0.19 0.70
2.87 -0.13 0.70
9.82 -0.24 2.39
9.83 -0.04 2.39
9.83 0.16 2.39
9.83 0.35 2.39
9.82 0.55 2.39
9.81 0.75 2.39
9.80 0.95 2.39
9.78 1.14 2.39
9.76 1.34 2.39
9.74 1.54 2.39
9.71 1.73 2.39
9.68 1.93 2.39
9.64 2.13 2.39
9.60 2.32 2.39
9.55 2.51 2.39
9.51 2.71 2.39
9.46 2.90 2.39
9.40 3.09 2.39
9.34 3.28 2.39
9.28 3.47 2.39
9.21 3.66 2.39
9.14 3.84 2.39
9.07 4.03 2.39
8.99 4.21 2.39
8.91 4.39 2.39
8.82 4.58 2.39
8.73 4.75 2.39
8.64 4.93 2.39
8.55 5.11 2.39
8.45 5.28 2.39
8.35 5.45 2.39
8.24 5.62 2.39
8.13 5.79 2.39
8.02 5.96 2.39
7.90 6.12 2.39
7.78 6.28 2.39
7.66 6.44 2.39
7.53 6.60 2.39
7.40 6.76 2.39
7.27 6.91 2.39
7.14 7.06 2.39
7.00 7.21 2.39
6.86 7.35 2.39
6.71 7.49 2.39
6.57 7.63 2.39
6.42 7.77 2.39
6.26 7.90 2.39
6.11 8.03 2.39
5.94 8.15 2.39
5.78 8.27 2.39
5.62 8.39 2.39
5.45 8.51 2.39
5.29 8.62 2.39
5.12 8.73 2.39
4.94 8.84 2.39
4.77 8.95 2.39
4.59 9.05 2.39
4.41 9.15 2.39
4.23 9.24 2.39
4.05 9.33 2.39
3.86 9.42 2.39
3.68 9.50 2.39
3.49 9.58 2.39
3.30 9.65 2.39
3.11 9.73 2.39
2.91 9.79 2.39
2.72 9.86 2.39
2.52 9.92 2.39
2.32 9.98 2.39
2.12 10.03 2.39
1.92 10.08 2.39
1.80 10.56 2.49
1.59 10.60 2.49
1.37 10.64 2.49
1.16 10.67 2.49
0.95 10.70 2.49
0.73 10.72 2.49
0.52 10.75 2.49
0.30 10.76 2.49
0.09 10.77 2.49
-0.13 10.78 2.49
-0.34 10.78 2.49
-0.56 10.78 2.49
-0.78 10.78 2.49
-0.99 10.77 2.49
-1.21 10.75 2.49
-1.43 10.73 2.49
-1.64 10.71 2.49
-1.86 10.68 2.49
-2.07 10.65 2.49
-2.29 10.61 2.49
-2.50 10.57 2.49
-2.72 10.53 2.49
-2.93 10.48 2.49
-3.14 10.42 2.49
-3.35 10.36 2.49
-3.56 10.30 2.49
-3.77 10.23 2.49
-3.97 10.16 2.49
-4.18 10.08 2.49
-4.38 10.00 2.49
-4.58 9.92 2.49
-4.79 9.83 2.49
-4.98 9.74 2.49
-5.18 9.64 2.49
-5.38 9.54 2.49
-5.57 9.43 2.49
-5.76 9.33 2.49
-5.95 9.21 2.49
-6.13 9.09 2.49
-6.12 8.69 2.42
-6.23 8.48 2.39
-6.40 8.36 2.39
-6.57 8.23 2.39
-6.74 8.10 2.39
-6.90 7.97 2.39
-7.06 7.83 2.39
-7.22 7.69 2.39
-7.37 7.55 2.39
-7.52 7.40 2.39
-7.67 7.25 2.39
-7.82 7.10 2.39
-7.96 6.94 2.39
-8.10 6.78 2.39
-8.24 6.62 2.39
-8.37 6.46 2.39
-8.50 6.29 2.39
-8.63 6.12 2.39
-8.75 5.94 2.39
-8.87 5.77 2.39
-8.98 5.59 2.39
-9.09 5.41 2.39
-9.20 5.23 2.39
-9.30 5.04 2.39
-9.40 4.85 2.39
-9.50 4.67 2.39
-9.59 4.47 2.39
-9.68 4.28 2.39
-9.76 4.09 2.39
-9.84 3.89 2.39
-10.12 3.77 2.44
-10.16 3.55 2.43
-10.19 3.33 2.42
-10.20 3.11 2.41
-10.20 2.89 2.40
-10.21 2.67 2.38
-10.21 2.46 2.37
-10.20 2.24 2.36
-10.23 2.03 2.36
-10.26 1.83 2.36
-10.29 1.62 2.36
-10.33 1.41 2.36
-10.38 1.21 2.36
-10.42 1.00 2.37
-10.45 0.80 2.37
-10.49 0.59 2.38
-10.52 0.38 2.38
-10.55 0.17 2.39
-10.57 -0.04 2.39
-10.62 -0.26 2.41
-10.68 -0.47 2.42
-10.73 -0.69 2.44
-10.74 -0.91 2.45
-10.75 -1.13 2.45
-10.75 -1.35 2.46
-10.76 -1.57 2.47
-10.76 -1.79 2.48
-10.81 -2.02 2.50
-10.79 -2.24 2.51
-10.77 -2.46 2.52
-10.75 -2.69 2.52
-10.73 -2.91 2.53
-10.71 -3.14 2.54
-10.69 -3.36 2.56
-10.66 -3.59 2.57
-10.63 -3.82 2.58
-10.62 -4.06 2.60
-9.69 -3.93 2.39
-9.60 -4.12 2.39
-9.51 -4.31 2.39
-9.42 -4.49 2.39
-9.32 -4.68 2.39
-9.22 -4.86 2.39
-9.12 -5.04 2.39
-9.01 -5.22 2.39
-8.89 -5.40 2.39
-8.78 -5.57 2.39
-8.66 -5.74 2.39
-8.54 -5.91 2.39
-8.41 -6.08 2.39
-8.28 -6.24 2.39
-8.15 -6.40 2.39
-8.01 -6.56 2.39
-7.02 -5.98 2.13
-7.73 -6.86 2.39
-7.59 -7.01 2.39
-7.44 -7.16 2.39
-7.61 -7.62 2.49
-7.45 -7.76 2.49
-7.28 -7.90 2.49
-7.12 -8.04 2.49
-6.95 -8.18 2.49
-6.78 -8.31 2.49
-6.61 -8.43 2.49
-6.43 -8.56 2.49
-6.25 -8.68 2.49
-6.07 -8.80 2.49
-5.89 -8.91 2.49
-5.71 -9.02 2.49
-5.52 -9.12 2.49
-5.33 -9.23 2.49
-5.14 -9.32 2.49
-4.95 -9.42 2.49
-4.76 -9.51 2.49
-4.56 -9.59 2.49
-4.36 -9.68 2.49
-4.16 -9.75 2.49
-3.96 -9.83 2.49
-3.76 -9.90 2.49
-3.56 -9.96 2.49
-3.36 -10.03 2.49
-3.15 -10.08 2.49
-2.95 -10.14 2.49
-2.74 -10.19 2.49
-2.54 -10.23 2.49
-2.33 -10.27 2.49
-2.12 -10.31 2.49
-1.91 -10.34 2.49
-1.70 -10.37 2.49
-1.49 -10.39 2.49
-1.28 -10.41 2.49
-1.07 -10.43 2.49
-0.86 -10.44 2.49
-0.65 -10.45 2.49
-0.44 -10.45 2.49
-0.23 -10.45 2.49
-0.02 -9.49 2.49
0.17 -9.49 2.49
0.36 -9.47 2.49
0.55 -9.46 2.49
0.74 -9.44 2.49
0.93 -9.42 2.49
1.12 -9.39 2.49
1.31 -9.36 2.49
1.49 -9.33 2.49
1.68 -9.29 2.49
1.86 -9.25 2.49
2.05 -9.20 2.49
2.23 -9.16 2.49
2.41 -9.10 2.49
2.60 -9.05 2.49
2.78 -8.99 2.49
2.95 -8.93 2.49
3.13 -8.86 2.49
3.31 -8.79 2.49
3.48 -8.72 2.49
3.65 -8.64 2.49
3.83 -8.57 2.49
3.99 -8.48 2.49
4.16 -8.40 2.49
4.33 -8.31 2.49
4.49 -8.22 2.49
4.66 -8.12 2.49
4.82 -8.02 2.49
4.97 -7.92 2.49
5.13 -7.81 2.49
5.28 -7.71 2.49
4.31 -6.02 1.98
5.59 -7.48 2.49
5.50 -7.06 2.39
5.35 -6.60 2.27
5.77 -6.83 2.39
5.91 -6.71 2.39
6.04 -6.59 2.39
6.17 -6.46 2.39
6.30 -6.34 2.39
6.42 -6.21 2.39
6.54 -6.08 2.39
6.66 -5.94 2.39
6.78 -5.81 2.39
6.89 -5.67 2.39
7.00 -5.53 2.39
7.11 -5.38 2.39
7.22 -5.24 2.39
7.32 -5.09 2.39
7.42 -4.94 2.39
7.52 -4.79 2.39
7.61 -4.64 2.39
7.70 -4.48 2.39
6.71 -3.73 2.06
6.68 -3.54 2.03
6.73 -3.39 2.02
6.86 -3.28 2.04
7.44 -3.38 2.19
8.20 -3.53 2.39
8.27 -3.36 2.39
8.33 -3.20 2.39
8.39 -3.03 2.39
8.45 -2.86 2.39
8.51 -2.69 2.39
8.56 -2.52 2.39
8.61 -2.34 2.39
8.66 -2.17 2.39
8.70 -2.00 2.39
8.74 -1.82 2.39
8.78 -1.64 2.39
8.81 -1.47 2.39
8.84 -1.29 2.39
8.87 -1.11 2.39
8.89 -0.93 2.39
8.91 -0.76 2.39
2.88 -0.19 0.77
2.87 -0.13 0.77
8.94 -0.22 2.39
8.95 -0.04 2.39
8.95 0.14 2.39
8.95 0.32 2.39
8.94 0.50 2.39
8.93 0.68 2.39
8.92 0.86 2.39
8.90 1.04 2.39
8.88 1.22 2.39
8.86 1.40 2.39
8.84 1.58 2.39
8.81 1.76 2.39
8.77 1.94 2.39
8.73 2.11 2.39
8.69 2.29 2.39
8.65 2.46 2.39
8.60 2.64 2.39
8.55 2.81 2.39
8.50 2.98 2.39
8.44 3.16 2.39
8.38 3.33 2.39
8.31 3.50 2.39
8.25 3.67 2.39
8.18 3.83 2.39
8.10 4.00 2.39
8.02 4.16 2.39
7.94 4.33 2.39
7.86 4.49 2.39
7.77 4.65 2.39
7.68 4.80 2.39
7.59 4.96 2.39
7.49 5.12 2.39
7.39 5.27 2.39
7.29 5.42 2.39
7.18 5.57 2.39
7.07 5.71 2.39
6.96 5.86 2.39
6.85 6.00 2.39
6.73 6.14 2.39
6.61 6.28 2.39
6.49 6.42 2.39
6.36 6.55 2.39
6.23 6.68 2.39
6.10 6.81 2.39
5.96 6.92 2.39
5.82 7.05 2.39
5.68 7.17 2.39
5.54 7.29 2.39
5.40 7.40 2.39
5.25 7.51 2.39
5.10 7.62 2.39
4.95 7.73 2.39
4.80 7.83 2.39
4.64 7.93 2.39
4.49 8.03 2.39
4.33 8.12 2.39
4.17 8.21 2.39
4.00 8.30 2.39
3.84 8.39 2.39
3.67 8.47 2.39
3.51 8.55 2.39
3.34 8.62 2.39
3.16 8.69 2.39
2.99 8.76 2.39
2.82 8.83 2.39
2.64 8.89 2.39
2.46 8.95 2.39
2.29 9.00 2.39
2.11 9.09 2.40
1.93 9.13 2.40
1.82 9.53 2.49
1.63 9.58 2.49
1.44 9.61 2.49
1.24 9.65 2.49
1.05 9.68 2.49
0.86 9.70 2.49
0.66 9.72 2.49
0.47 9.74 2.49
0.27 9.76 2.49
0.08 9.77 2.49
-0.12 9.77 2.49
-0.31 9.78 2.49
-0.51 9.77 2.49
-0.71 9.77 2.49
-0.90 9.76 2.49
-1.10 9.74 2.49
-1.30 9.73 2.49
-1.49 9.70 2.49
-1.69 9.68 2.49
-1.88 9.65 2.49
-2.08 9.61 2.49
-2.27 9.58 2.49
-2.46 9.53 2.49
-2.65 9.49 2.49
-2.85 9.44 2.49
-3.04 9.39 2.49
-3.22 9.33 2.49
-3.41 9.27 2.49
-3.60 9.20 2.49
-3.79 9.13 2.49
-3.97 9.06 2.49
-4.15 8.98 2.49
-4.33 8.90 2.49
-4.51 8.82 2.49
-4.69 8.73 2.49
-4.87 8.64 2.49
-5.04 8.54 2.49
-5.21 8.44 2.49
-5.38 8.34 2.49
-5.55 8.23 2.49
-5.72 8.12 2.49
-5.88 8.01 2.49
-6.04 7.89 2.49
-6.05 7.59 2.43
-6.10 7.33 2.39
-6.24 7.21 2.39
-6.39 7.09 2.39
-6.53 6.96 2.39
-6.67 6.83 2.39
-6.81 6.70 2.39
-6.94 6.56 2.39
-7.08 6.42 2.39
-7.21 6.28 2.39
-7.33 6.14 2.39
-7.45 5.99 2.39
-7.57 5.84 2.39
-7.69 5.69 2.39
-7.80 5.53 2.39
-7.91 5.38 2.39
-8.02 5.22 2.39
-8.13 5.06 2.39
-8.23 4.89 2.39
-8.32 4.73 2.39
-8.42 4.56 2.39
-8.51 4.39 2.39
-8.59 4.22 2.39
-8.68 4.05 2.39
-8.76 3.87 2.39
-8.83 3.70 2.39
-8.90 3.52 2.39
-8.97 3.34 2.39
-9.04 3.16 2.39
-9.10 2.98 2.39
-9.15 2.80 2.39
-9.21 2.61 2.39
-9.26 2.43 2.39
-9.30 2.24 2.39
-9.34 2.05 2.39
-9.38 1.86 2.39
-9.42 1.68 2.39
-9.45 1.49 2.39
-9.47 1.30 2.39
-9.49 1.11 2.39
-9.51 0.92 2.39
-9.53 0.73 2.39
-9.54 0.53 2.39
-9.54 0.34 2.39
-9.55 0.15 2.39
-9.54 -0.04 2.39
-9.54 -0.23 2.39
-9.53 -0.42 2.39
-9.52 -0.61 2.39
-9.50 -0.80 2.39
-9.48 -0.99 2.39
-9.45 -1.18 2.39
-9.42 -1.37 2.39
-9.39 -1.56 2.39
-9.35 -1.74 2.39
-9.31 -1.93 2.39
-9.27 -2.12 2.39
-9.22 -2.30 2.39
-9.17 -2.48 2.39
-9.11 -2.67 2.39
-9.05 -2.85 2.39
-8.99 -3.03 2.39
-8.92 -3.20 2.39
-8.85 -3.38 2.39
-8.78 -3.55 2.39
-8.70 -3.73 2.39
-8.62 -3.90 2.39
-8.53 -4.07 2.39
-8.44 -4.24 2.39
-8.35 -4.40 2.39
-8.26 -4.57 2.39
-8.16 -4.73 2.39
-8.06 -4.89 2.39
-7.96 -5.05 2.39
-7.85 -5.20 2.39
-7.74 -5.35 2.39
-7.62 -5.50 2.39
-7.51 -5.65 2.39
-7.39 -5.80 2.39
-7.26 -5.94 2.39
-7.02 -5.98 2.35
-7.01 -6.22 2.39
-6.88 -6.36 2.39
-6.88 -6.61 2.44
-6.90 -6.90 2.49
-6.75 -7.03 2.49
-6.61 -7.16 2.49
-6.46 -7.29 2.49
-6.30 -7.41 2.49
-6.15 -7.53 2.49
-5.99 -7.65 2.49
-5.83 -7.76 2.49
-5.67 -7.87 2.49
-5.51 -7.98 2.49
-5.35 -8.08 2.49
-5.18 -8.18 2.49
-5.01 -8.28 2.49
-4.84 -8.37 2.49
-4.67 -8.46 2.49
-4.49 -8.55 2.49
-4.32 -8.63 2.49
-4.14 -8.71 2.49
-3.96 -8.78 2.49
-3.78 -8.85 2.49
-3.60 -8.92 2.49
-3.42 -8.98 2.49
-3.24 -9.05 2.49
-3.05 -9.10 2.49
-2.87 -9.15 2.49
-2.68 -9.20 2.49
-2.49 -9.25 2.49
-2.30 -9.29 2.49
-2.12 -9.33 2.49
-1.93 -9.36 2.49
-1.74 -9.39 2.49
-1.55 -9.42 2.49
-1.36 -9.44 2.49
-1.17 -9.46 2.49
-0.97 -9.48 2.49
-0.78 -9.49 2.49
-0.59 -9.49 2.49
-0.40 -9.50 2.49
-0.21 -9.50 2.49
-0.02 -8.69 2.49
0.15 -8.69 2.49
0.33 -8.68 2.49
0.50 -8.66 2.49
0.68 -8.65 2.49
0.85 -8.63 2.49
1.02 -8.60 2.49
1.19 -8.57 2.49
1.37 -8.54 2.49
1.54 -8.51 2.49
1.71 -8.47 2.49
1.88 -8.43 2.49
2.04 -8.39 2.49
2.21 -8.34 2.49
2.38 -8.29 2.49
2.54 -8.24 2.49
2.70 -8.18 2.49
2.87 -8.12 2.49
3.03 -8.06 2.49
3.19 -7.99 2.49
3.35 -7.92 2.49
3.50 -7.85 2.49
3.66 -7.77 2.49
3.81 -7.70 2.49
3.97 -7.61 2.49
4.12 -7.53 2.49
4.27 -7.44 2.49
4.41 -7.35 2.49
4.56 -7.26 2.49
4.70 -7.16 2.49
4.84 -7.07 2.49
4.36 -6.10 2.18
3.13 -4.20 1.53
3.09 -3.97 1.47
5.17 -6.37 2.39
5.29 -6.26 2.39
5.41 -6.15 2.39
5.54 -6.04 2.39
5.65 -5.93 2.39
5.77 -5.81 2.39
5.89 -5.69 2.39
6.00 -5.57 2.39
6.11 -5.45 2.39
6.21 -5.32 2.39
6.32 -5.20 2.39
6.42 -5.07 2.39
6.52 -4.94 2.39
6.62 -4.80 2.39
6.71 -4.67 2.39
6.80 -4.53 2.39
6.89 -4.39 2.39
6.98 -4.25 2.39
7.06 -4.11 2.39
7.06 -3.92 2.36
6.73 -3.57 2.23
6.77 -3.41 2.22
7.33 -3.51 2.38
7.45 -3.39 2.39
7.52 -3.23 2.39
7.58 -3.08 2.39
7.64 -2.93 2.39
7.70 -2.78 2.39
7.75 -2.62 2.39
7.80 -2.46 2.39
7.85 -2.31 2.39
7.90 -2.15 2.39
7.94 -1.99 2.39
7.98 -1.83 2.39
8.02 -1.67 2.39
8.05 -1.51 2.39
8.08 -1.35 2.39
8.11 -1.18 2.39
8.13 -1.02 2.39
8.15 -0.86 2.39
8.17 -0.69 2.39
2.88 -0.19 0.84
2.87 -0.13 0.84
8.20 -0.20 2.39
8.20 -0.03 2.39
8.20 0.13 2.39
8.20 0.30 2.39
8.20 0.46 2.39
8.19 0.63 2.39
8.18 0.79 2.39
8.16 0.96 2.39
8.14 1.12 2.39
8.12 1.29 2.39
8.10 1.45 2.39
8.07 1.61 2.39
8.04 1.77 2.39
8.00 1.94 2.39
7.97 2.10 2.39
7.93 2.26 2.39
7.88 2.42 2.39
7.84 2.58 2.39
7.79 2.74 2.39
7.73 2.89 2.39
7.68 3.05 2.39
7.62 3.21 2.39
7.56 3.36 2.39
7.49 3.51 2.39
7.42 3.66 2.39
7.35 3.81 2.39
7.28 3.96 2.39
7.20 4.11 2.39
7.12 4.26 2.39
7.03 4.40 2.39
6.95 4.54 2.39
6.86 4.69 2.39
6.77 4.83 2.39
6.67 4.96 2.39
6.58 5.10 2.39
6.48 5.23 2.39
6.37 5.37 2.39
6.27 5.50 2.39
6.16 5.62 2.39
6.04 5.74 2.39
5.93 5.87 2.39
5.81 5.99 2.39
5.69 6.11 2.39
5.57 6.22 2.39
5.45 6.34 2.39
5.33 6.45 2.39
5.20 6.56 2.39
5.07 6.67 2.39
4.94 6.77 2.39
4.80 6.88 2.39
4.67 6.98 2.39
4.53 7.07 2.39
4.39 7.17 2.39
4.25 7.26 2.39
4.10 7.35 2.39
3.96 7.43 2.39
3.81 7.52 2.39
3.66 7.60 2.39
3.51 7.67 2.39
3.36 7.75 2.39
3.20 7.82 2.39
3.05 7.89 2.39
2.89 7.95 2.39
2.73 8.01 2.39
2.57 8.07 2.39
2.41 8.13 2.39
2.25 8.18 2.39
2.09 8.23 2.39
1.96 8.42 2.43
1.83 8.67 2.49
1.66 8.72 2.49
1.49 8.75 2.49
1.31 8.79 2.49
1.14 8.82 2.49
0.96 8.84 2.49
0.78 8.87 2.49
0.60 8.89 2.49
0.43 8.90 2.49
0.25 8.91 2.49
0.07 8.92 2.49
-0.11 8.93 2.49
-0.29 8.93 2.49
-0.47 8.93 2.49
-0.65 8.92 2.49
-0.83 8.91 2.49
-1.01 8.90 2.49
-1.18 8.88 2.49
-1.36 8.86 2.49
-1.54 8.84 2.49
-1.72 8.81 2.49
-1.90 8.78 2.49
-2.07 8.74 2.49
-2.25 8.71 2.49
-2.42 8.66 2.49
-2.60 8.62 2.49
-2.77 8.57 2.49
-2.95 8.51 2.49
-3.12 8.46 2.49
-3.29 8.40 2.49
-3.46 8.33 2.49
-3.62 8.27 2.49
-3.79 8.20 2.49
-3.96 8.12 2.49
-4.12 8.05 2.49
-4.28 7.97 2.49
-4.44 7.88 2.49
-4.60 7.79 2.49
-4.76 7.70 2.49
-4.91 7.61 2.49
-5.07 7.51 2.49
-5.22 7.41 2.49
-5.37 7.31 2.49
-5.52 7.20 2.49
-5.66 7.09 2.49
-5.80 6.98 2.49
-5.94 6.86 2.49
-6.01 6.66 2.46
-6.00 6.40 2.41
-6.09 6.23 2.39
-6.21 6.11 2.39
-6.34 5.98 2.39
-6.46 5.86 2.39
-6.57 5.73 2.39
-6.69 5.60 2.39
-6.80 5.46 2.39
-6.91 5.33 2.39
-7.02 5.19 2.39
-7.12 5.05 2.39
-7.22 4.90 2.39
-7.32 4.76 2.39
-7.41 4.61 2.39
-7.50 4.46 2.39
-7.59 4.31 2.39
-7.68 4.16 2.39
-7.76 4.01 2.39
-7.84 3.85 2.39
-7.91 3.69 2.39
-7.99 3.53 2.39
-8.06 3.37 2.39
-8.12 3.21 2.39
-8.18 3.05 2.39
-8.24 2.88 2.39
-8.30 2.72 2.39
-8.35 2.55 2.39
-8.40 2.38 2.39
-8.44 2.21 2.39
-8.49 2.04 2.39
-8.52 1.87 2.39
-8.56 1.70 2.39
-8.59 1.53 2.39
-8.62 1.36 2.39
-8.64 1.18 2.39
-8.66 1.01 2.39
-8.68 0.84 2.39
-8.69 0.66 2.39
-8.70 0.49 2.39
-8.71 0.31 2.39
-8.71 0.14 2.39
-8.71 -0.04 2.39
-8.70 -0.21 2.39
-8.69 -0.38 2.39
-8.68 -0.56 2.39
-8.67 -0.73 2.39
-8.65 -0.90 2.39
-8.62 -1.08 2.39
-8.60 -1.25 2.39
-8.57 -1.42 2.39
-8.53 -1.59 2.39
-8.50 -1.76 2.39
-8.46 -1.93 2.39
-8.41 -2.10 2.39
-8.37 -2.27 2.39
-8.32 -2.43 2.39
-8.26 -2.60 2.39
-8.20 -2.76 2.39
-8.14 -2.92 2.39
-8.08 -3.08 2.39
-8.01 -3.24 2.39
-7.94 -3.40 2.39
-7.87 -3.56 2.39
-7.79 -3.71 2.39
-7.71 -3.87 2.39
-7.63 -4.02 2.39
-7.54 -4.17 2.39
-7.45 -4.32 2.39
-7.36 -4.46 2.39
-7.27 -4.61 2.39
-7.17 -4.75 2.39
-7.07 -4.89 2.39
-6.96 -5.03 2.39
-6.86 -5.16 2.39
-6.75 -5.30 2.39
-6.64 -5.43 2.39
-6.52 -5.56 2.39
-6.41 -5.68 2.39
-6.32 -5.84 2.40
-6.43 -6.18 2.49
-6.30 -6.31 2.49
-6.17 -6.43 2.49
-6.04 -6.55 2.49
-5.90 -6.66 2.49
-5.76 -6.77 2.49
-5.62 -6.88 2.49
-5.48 -6.99 2.49
-5.33 -7.09 2.49
-5.19 -7.19 2.49
-5.04 -7.29 2.49
-4.89 -7.39 2.49
-4.74 -7.48 2.49
-4.58 -7.57 2.49
-4.43 -7.65 2.49
-4.27 -7.73 2.49
-4.11 -7.81 2.49
-3.95 -7.89 2.49
-3.79 -7.96 2.49
-3.63 -8.03 2.49
-3.46 -8.10 2.49
-3.30 -8.16 2.49
-3.13 -8.22 2.49
-2.96 -8.27 2.49
-2.79 -8.33 2.49
-2.62 -8.37 2.49
-2.45 -8.42 2.49
-2.28 -8.46 2.49
-2.11 -8.50 2.49
-1.94 -8.54 2.49
-1.76 -8.57 2.49
-1.59 -8.60 2.49
-1.42 -8.62 2.49
-1.24 -8.64 2.49
-1.07 -8.66 2.49
-0.89 -8.67 2.49
-0.72 -8.68 2.49
-0.54 -8.69 2.49
-0.37 -8.70 2.49
-0.19 -8.70 2.49
-0.02 -8.01 2.49
0.14 -8.00 2.49
0.30 -7.99 2.49
0.46 -7.98 2.49
0.62 -7.97 2.49
0.78 -7.95 2.49
0.94 -7.93 2.49
1.10 -7.90 2.49
1.26 -7.87 2.49
1.41 -7.84 2.49
1.57 -7.81 2.49
1.73 -7.77 2.49
1.88 -7.73 2.49
2.04 -7.69 2.49
2.19 -7.64 2.49
2.34 -7.59 2.49
2.49 -7.54 2.49
2.64 -7.49 2.49
2.79 -7.43 2.49
2.94 -7.37 2.49
3.08 -7.30 2.49
3.23 -7.24 2.49
3.37 -7.17 2.49
3.52 -7.10 2.49
3.66 -7.02 2.49
3.79 -6.94 2.49
3.93 -6.86 2.49
4.07 -6.78 2.49
4.20 -6.69 2.49
4.33 -6.61 2.49
4.28 -6.25 2.39
4.36 -6.10 2.37
3.15 -4.22 1.66
4.64 -5.97 2.39
4.76 -5.87 2.39
3.00 -3.55 1.47
4.99 -5.67 2.39
5.10 -5.57 2.39
5.21 -5.47 2.39
5.32 -5.36 2.39
5.43 -5.25 2.39
5.53 -5.14 2.39
5.63 -5.03 2.39
5.73 -4.91 2.39
5.83 -4.79 2.39
5.92 -4.67 2.39
6.01 -4.55 2.39
6.10 -4.43 2.39
6.19 -4.31 2.39
6.28 -4.18 2.39
6.36 -4.05 2.39
6.44 -3.92 2.39
6.51 -3.79 2.39
6.59 -3.66 2.39
6.66 -3.53 2.39
6.73 -3.39 2.39
6.80 -3.26 2.39
6.87 -3.12 2.39
6.93 -2.98 2.39
6.99 -2.84 2.39
7.05 -2.70 2.39
7.10 -2.56 2.39
7.15 -2.42 2.39
7.20 -2.27 2.39
7.24 -2.13 2.39
7.28 -1.98 2.39
7.32 -1.83 2.39
7.36 -1.69 2.39
7.39 -1.54 2.39
5.84 -1.09 1.88
7.45 -1.24 2.39
7.48 -1.09 2.39
7.50 -0.94 2.39
7.52 -0.79 2.39
7.53 -0.64 2.39
2.88 -0.19 0.91
2.87 -0.13 0.91
7.56 -0.18 2.39
7.57 -0.03 2.39
7.57 0.12 2.39
7.56 0.27 2.39
7.56 0.43 2.39
7.55 0.58 2.39
7.54 0.73 2.39
7.53 0.88 2.39
7.51 1.03 2.39
7.49 1.19 2.39
7.47 1.34 2.39
7.44 1.49 2.39
7.41 1.64 2.39
7.38 1.79 2.39
7.35 1.94 2.39
7.31 2.08 2.39
7.27 2.23 2.39
7.22 2.38 2.39
7.18 2.52 2.39
7.13 2.67 2.39
7.08 2.81 2.39
7.02 2.96 2.39
6.96 3.10 2.39
6.90 3.24 2.39
6.84 3.38 2.39
6.77 3.52 2.39
6.70 3.65 2.39
6.63 3.79 2.39
6.56 3.92 2.39
6.48 4.06 2.39
6.40 4.19 2.39
6.32 4.32 2.39
6.24 4.45 2.39
6.14 4.57 2.39
6.05 4.69 2.39
5.96 4.82 2.39
5.86 4.94 2.39
5.77 5.06 2.39
5.67 5.18 2.39
5.56 5.29 2.39
5.46 5.40 2.39
5.35 5.52 2.39
5.24 5.63 2.39
5.13 5.73 2.39
5.02 5.84 2.39
4.90 5.94 2.39
4.79 6.04 2.39
4.67 6.14 2.39
4.55 6.24 2.39
4.42 6.33 2.39
4.30 6.42 2.39
4.17 6.51 2.39
4.04 6.60 2.39
3.91 6.68 2.39
3.78 6.76 2.39
3.64 6.84 2.39
3.51 6.92 2.39
3.37 6.99 2.39
3.23 7.06 2.39
3.09 7.13 2.39
2.95 7.20 2.39
2.80 7.26 2.39
2.66 7.32 2.39
2.51 7.37 2.39
2.37 7.43 2.39
2.22 7.49 2.39
2.07 7.53 2.39
1.99 7.85 2.48
1.84 7.94 2.49
1.69 7.98 2.49
1.53 8.02 2.49
1.37 8.05 2.49
1.20 8.08 2.49
1.04 8.11 2.49
0.88 8.13 2.49
0.72 8.16 2.49
0.55 8.17 2.49
0.39 8.19 2.49
0.23 8.20 2.49
0.06 8.21 2.49
-0.10 8.21 2.49
-0.27 8.21 2.49
-0.43 8.21 2.49
-0.60 8.20 2.49
-0.76 8.19 2.49
-0.93 8.18 2.49
-1.09 8.17 2.49
-1.25 8.15 2.49
-1.42 8.12 2.49
-1.58 8.10 2.49
-1.74 8.07 2.49
-1.91 8.04 2.49
-2.07 8.00 2.49
-2.23 7.96 2.49
-2.39 7.92 2.49
-2.55 7.87 2.49
-2.71 7.82 2.49
-2.87 7.77 2.49
-3.02 7.72 2.49
-3.18 7.66 2.49
-3.33 7.60 2.49
-3.48 7.53 2.49
-3.64 7.46 2.49
-3.79 7.39 2.49
-3.94 7.32 2.49
-4.08 7.24 2.49
-4.23 7.16 2.49
-4.37 7.08 2.49
-4.52 6.99 2.49
-4.66 6.90 2.49
-4.79 6.81 2.49
-4.93 6.71 2.49
-5.07 6.61 2.49
-5.20 6.51 2.49
-5.33 6.41 2.49
-5.46 6.30 2.49
-5.59 6.19 2.49
-5.71 6.08 2.49
-5.83 5.97 2.49
-5.95 5.85 2.49
-5.96 5.63 2.45
-5.96 5.40 2.40
-6.04 5.26 2.39
-6.14 5.14 2.39
-6.24 5.02 2.39
-6.34 4.89 2.39
-6.44 4.76 2.39
-6.54 4.63 2.39
-6.63 4.50 2.39
-6.72 4.37 2.39
-6.81 4.24 2.39
-6.89 4.10 2.39
-6.97 3.96 2.39
-7.05 3.82 2.39
-7.13 3.68 2.39
-7.20 3.54 2.39
-7.27 3.39 2.39
-7.33 3.24 2.39
-7.40 3.10 2.39
-7.46 2.95 2.39
-7.51 2.80 2.39
-7.57 2.65 2.39
-7.62 2.49 2.39
-7.67 2.34 2.39
-7.71 2.19 2.39
-7.75 2.03 2.39
-7.79 1.88 2.39
-7.83 1.72 2.39
-7.86 1.56 2.39
-7.89 1.40 2.39
-7.91 1.25 2.39
-7.94 1.09 2.39
-7.95 0.93 2.39
-7.97 0.77 2.39
-7.98 0.61 2.39
-7.99 0.45 2.39
-8.00 0.29 2.39
-8.00 0.13 2.39
-8.00 -0.03 2.39
-7.94 -0.19 2.37
-7.93 -0.35 2.37
-7.92 -0.51 2.37
-7.96 -0.67 2.39
-7.94 -0.83 2.39
-7.92 -0.99 2.39
-7.90 -1.15 2.39
-7.87 -1.30 2.39
-7.84 -1.46 2.39
-7.81 -1.62 2.39
-7.77 -1.77 2.39
-7.73 -1.93 2.39
-7.69 -2.08 2.39
-7.64 -2.23 2.39
-7.59 -2.38 2.39
-7.54 -2.54 2.39
-7.48 -2.68 2.39
-7.42 -2.83 2.39
-7.36 -2.98 2.39
-7.30 -3.13 2.39
-7.23 -3.27 2.39
-7.16 -3.41 2.39
-7.09 -3.55 2.39
-7.01 -3.69 2.39
-6.93 -3.83 2.39
-6.85 -3.97 2.39
-6.77 -4.10 2.39
-6.68 -4.23 2.39
-6.59 -4.36 2.39
-6.50 -4.49 2.39
-6.40 -4.62 2.39
-6.31 -4.74 2.39
-6.21 -4.87 2.39
-6.10 -4.99 2.39
-6.05 -5.15 2.41
-6.13 -5.44 2.49
-6.03 -5.57 2.49
-5.92 -5.68 2.49
-5.80 -5.80 2.49
-5.68 -5.91 2.49
-5.55 -6.02 2.49
-5.43 -6.13 2.49
-5.30 -6.23 2.49
-5.17 -6.33 2.49
-5.04 -6.43 2.49
-4.91 -6.52 2.49
-4.77 -6.62 2.49
-4.64 -6.71 2.49
-4.50 -6.80 2.49
-4.36 -6.88 2.49
-4.22 -6.96 2.49
-4.07 -7.04 2.49
-3.93 -7.12 2.49
-3.78 -7.19 2.49
-3.64 -7.26 2.49
-3.49 -7.33 2.49
-3.34 -7.39 2.49
-3.19 -7.45 2.49
-3.03 -7.51 2.49
-2.88 -7.56 2.49
-2.73 -7.62 2.49
-2.57 -7.66 2.49
-2.42 -7.71 2.49
-2.26 -7.75 2.49
-2.10 -7.79 2.49
-1.94 -7.83 2.49
-1.79 -7.86 2.49
-1.63 -7.89 2.49
-1.47 -7.92 2.49
-1.31 -7.94 2.49
-1.15 -7.96 2.49
-0.99 -7.97 2.49
-0.83 -7.99 2.49
-0.66 -8.00 2.49
-0.50 -8.01 2.49
-0.34 -8.01 2.49
-0.18 -8.01 2.49
-0.02 -7.41 2.49
0.13 -7.41 2.49
0.28 -7.40 2.49
0.43 -7.39 2.49
0.57 -7.38 2.49
0.72 -7.36 2.49
0.87 -7.34 2.49
1.02 -7.32 2.49
1.16 -7.29 2.49
1.31 -7.26 2.49
1.45 -7.23 2.49
1.60 -7.20 2.49
1.74 -7.16 2.49
1.88 -7.12 2.49
2.03 -7.08 2.49
2.17 -7.03 2.49
2.31 -6.99 2.49
2.45 -6.94 2.49
2.58 -6.88 2.49
2.72 -6.83 2.49
2.86 -6.77 2.49
2.99 -6.71 2.49
3.12 -6.64 2.49
3.26 -6.58 2.49
3.39 -6.51 2.49
3.52 -6.43 2.49
3.64 -6.36 2.49
3.77 -6.28 2.49
3.89 -6.20 2.49
4.02 -6.12 2.49
3.97 -5.79 2.39
4.10 -5.73 2.40
3.15 -4.22 1.79
4.30 -5.53 2.39
4.41 -5.44 2.39
4.52 -5.35 2.39
4.63 -5.26 2.39
2.91 -3.17 1.47
4.83 -5.07 2.39
4.93 -4.97 2.39
5.03 -4.87 2.39
5.13 -4.76 2.39
5.22 -4.66 2.39
5.31 -4.55 2.39
5.40 -4.44 2.39
5.49 -4.33 2.39
5.57 -4.22 2.39
5.66 -4.11 2.39
5.74 -3.99 2.39
5.82 -3.88 2.39
5.89 -3.76 2.39
5.97 -3.64 2.39
6.04 -3.52 2.39
6.11 -3.39 2.39
6.17 -3.27 2.39
6.24 -3.14 2.39
6.30 -3.02 2.39
5.01 -2.28 1.88
5.06 -2.18 1.88
5.11 -2.08 1.89
5.16 -1.98 1.89
5.18 -1.87 1.88
5.22 -1.76 1.88
5.25 -1.66 1.88
5.29 -1.55 1.88
5.32 -1.45 1.88
5.34 -1.34 1.88
5.39 -1.24 1.89
5.40 -1.12 1.88
5.42 -1.01 1.88
5.44 -0.90 1.88
6.93 -1.01 2.39
6.95 -0.87 2.39
6.97 -0.73 2.39
6.98 -0.59 2.39
2.88 -0.19 0.98
2.87 -0.13 0.98
7.01 -0.17 2.39
7.01 -0.03 2.39
7.01 0.11 2.39
7.01 0.26 2.39
7.01 0.40 2.39
7.00 0.54 2.39
6.99 0.68 2.39
6.98 0.82 2.39
6.96 0.96 2.39
6.94 1.10 2.39
6.92 1.24 2.39
6.90 1.38 2.39
6.87 1.52 2.39
6.84 1.66 2.39
6.81 1.79 2.39
6.77 1.93 2.39
6.73 2.07 2.39
6.69 2.20 2.39
6.65 2.34 2.39
6.60 2.47 2.39
6.56 2.61 2.39
6.51 2.74 2.39
6.45 2.87 2.39
6.39 3.00 2.39
6.34 3.13 2.39
6.27 3.26 2.39
6.20 3.38 2.39
6.14 3.51 2.39
6.07 3.63 2.39
6.00 3.75 2.39
5.92 3.88 2.39
5.85 4.00 2.39
5.77 4.11 2.39
5.69 4.23 2.39
5.60 4.35 2.39
5.52 4.46 2.39
5.43 4.57 2.39
5.34 4.68 2.39
5.25 4.79 2.39
5.15 4.90 2.39
5.05 5.01 2.39
4.96 5.11 2.39
4.85 5.21 2.39
4.75 5.31 2.39
4.65 5.41 2.39
4.54 5.50 2.39
4.43 5.60 2.39
4.32 5.69 2.39
4.21 5.78 2.39
4.09 5.86 2.39
3.98 5.95 2.39
3.86 6.03 2.39
3.74 6.11 2.39
3.62 6.19 2.39
3.49 6.26 2.39
3.37 6.33 2.39
3.24 6.40 2.39
3.12 6.47 2.39
2.99 6.54 2.39
2.86 6.60 2.39
2.73 6.66 2.39
2.59 6.72 2.39
2.46 6.77 2.39
2.32 6.82 2.39
2.19 6.87 2.39
2.05 6.92 2.39
2.00 7.26 2.49
1.85 7.31 2.49
1.70 7.35 2.49
1.56 7.38 2.49
1.41 7.42 2.49
1.26 7.45 2.49
1.11 7.48 2.49
0.96 7.50 2.49
0.81 7.52 2.49
0.66 7.54 2.49
0.51 7.56 2.49
0.36 7.57 2.49
0.21 7.58 2.49
0.06 7.59 2.49
-0.10 7.59 2.49
-0.25 7.59 2.49
-0.40 7.59 2.49
-0.55 7.58 2.49
-0.71 7.57 2.49
-0.86 7.56 2.49
-1.01 7.55 2.49
-1.16 7.53 2.49
-1.31 7.51 2.49
-1.46 7.48 2.49
-1.61 7.46 2.49
-1.76 7.43 2.49
-1.91 7.39 2.49
-2.06 7.36 2.49
-2.21 7.32 2.49
-2.36 7.28 2.49
-2.50 7.23 2.49
-2.65 7.18 2.49
-2.79 7.13 2.49
-2.94 7.08 2.49
-3.08 7.02 2.49
-3.22 6.96 2.49
-3.36 6.89 2.49
-3.50 6.83 2.49
-3.64 6.76 2.49
-3.77 6.69 2.49
-3.91 6.61 2.49
-4.04 6.54 2.49
-4.17 6.46 2.49
-4.30 6.37 2.49
-4.43 6.29 2.49
-4.56 6.20 2.49
-4.68 6.11 2.49
-4.80 6.02 2.49
-4.92 5.92 2.49
-5.04 5.82 2.49
-5.16 5.72 2.49
-5.28 5.62 2.49
-5.39 5.51 2.49
-5.50 5.40 2.49
-5.61 5.29 2.49
-5.71 5.18 2.49
-5.82 5.07 2.49
-5.92 4.95 2.49
-5.92 4.75 2.45
-5.91 4.56 2.41
-5.95 4.40 2.39
-6.04 4.28 2.39
-6.12 4.16 2.39
-6.21 4.04 2.39
-6.29 3.91 2.39
-6.36 3.79 2.39
-6.44 3.66 2.39
-6.51 3.53 2.39
-6.58 3.40 2.39
-6.65 3.26 2.39
-6.71 3.13 2.39
-6.77 3.00 2.39
-6.83 2.86 2.39
-6.89 2.72 2.39
-6.94 2.58 2.39
-6.99 2.44 2.39
-7.04 2.30 2.39
-7.08 2.16 2.39
-7.12 2.02 2.39
-7.16 1.88 2.39
-7.20 1.73 2.39
-7.23 1.59 2.39
-7.26 1.44 2.39
-7.28 1.30 2.39
-7.31 1.15 2.39
-7.33 1.00 2.39
-7.35 0.86 2.39
-7.36 0.71 2.39
-7.37 0.56 2.39
-7.38 0.42 2.39
-7.39 0.27 2.39
-7.34 0.12 2.37
-7.33 -0.03 2.37
-7.33 -0.18 2.37
-7.32 -0.32 2.37
-7.31 -0.47 2.37
-7.30 -0.61 2.37
-7.28 -0.76 2.37
-7.32 -0.91 2.39
-7.30 -1.06 2.39
-7.27 -1.20 2.39
-7.24 -1.35 2.39
-7.21 -1.49 2.39
-7.18 -1.64 2.39
-7.14 -1.78 2.39
-7.10 -1.92 2.39
-7.06 -2.06 2.39
-7.01 -2.20 2.39
-6.97 -2.34 2.39
-6.91 -2.48 2.39
-6.86 -2.62 2.39
-6.80 -2.75 2.39
-6.74 -2.89 2.39
-6.68 -3.02 2.39
-6.62 -3.15 2.39
-6.55 -3.28 2.39
-6.48 -3.41 2.39
-6.41 -3.54 2.39
-6.33 -3.67 2.39
-6.26 -3.79 2.39
-6.17 -3.91 2.39
-6.09 -4.03 2.39
-6.01 -4.15 2.39
-5.92 -4.27 2.39
-5.83 -4.39 2.39
-5.85 -4.59 2.44
-5.89 -4.81 2.49
-5.79 -4.92 2.49
-5.68 -5.04 2.49
-5.58 -5.15 2.49
-5.47 -5.25 2.49
-5.36 -5.36 2.49
-5.25 -5.46 2.49
-5.14 -5.56 2.49
-5.02 -5.66 2.49
-4.90 -5.76 2.49
-4.78 -5.85 2.49
-4.66 -5.94 2.49
-4.54 -6.03 2.49
-4.42 -6.12 2.49
-4.29 -6.20 2.49
-4.16 -6.29 2.49
-4.03 -6.36 2.49
-3.90 -6.44 2.49
-3.77 -6.51 2.49
-3.64 -6.58 2.49
-3.50 -6.65 2.49
-3.37 -6.72 2.49
-3.23 -6.78 2.49
-3.09 -6.84 2.49
-2.95 -6.89 2.49
-2.81 -6.95 2.49
-2.67 -7.00 2.49
-2.53 -7.05 2.49
-2.38 -7.09 2.49
-2.24 -7.13 2.49
-2.09 -7.17 2.49
-1.95 -7.21 2.49
-1.80 -7.24 2.49
-1.65 -7.27 2.49
-1.51 -7.30 2.49
-1.36 -7.33 2.49
-1.21 -7.35 2.49
-1.06 -7.37 2.49
-0.91 -7.38 2.49
-0.77 -7.40 2.49
-0.62 -7.41 2.49
-0.47 -7.41 2.49
-0.32 -7.42 2.49
-0.17 -7.42 2.49
-0.02 -6.90 2.49
0.12 -6.89 2.49
0.26 -6.89 2.49
0.40 -6.88 2.49
0.53 -6.86 2.49
0.67 -6.85 2.49
0.81 -6.83 2.49
0.94 -6.81 2.49
1.08 -6.78 2.49
1.22 -6.76 2.49
1.35 -6.73 2.49
1.49 -6.70 2.49
1.62 -6.66 2.49
1.75 -6.63 2.49
1.88 -6.59 2.49
2.02 -6.55 2.49
2.15 -6.50 2.49
2.28 -6.45 2.49
2.40 -6.40 2.49
2.53 -6.35 2.49
2.66 -6.30 2.49
2.78 -6.24 2.49
2.91 -6.18 2.49
3.03 -6.12 2.49
3.15 -6.06 2.49
3.27 -5.99 2.49
3.39 -5.92 2.49
3.51 -5.85 2.49
3.62 -5.77 2.49
3.74 -5.70 2.49
3.69 -5.39 2.39
3.82 -5.34 2.40
3.15 -4.22 1.93
4.01 -5.15 2.39
4.11 -5.07 2.39
4.21 -4.98 2.39
4.31 -4.90 2.39
4.40 -4.81 2.39
4.50 -4.72 2.39
4.59 -4.62 2.39
4.68 -4.53 2.39
4.77 -4.43 2.39
4.86 -4.34 2.39
4.94 -4.24 2.39
5.03 -4.14 2.39
5.11 -4.03 2.39
5.19 -3.93 2.39
5.27 -3.82 2.39
5.34 -3.72 2.39
5.42 -3.61 2.39
5.49 -3.50 2.39
5.56 -3.39 2.39
5.62 -3.27 2.39
5.69 -3.16 2.39
5.75 -3.04 2.39
5.81 -2.93 2.39
5.87 -2.81 2.39
4.76 -2.17 1.92
4.81 -2.07 1.93
4.86 -1.98 1.93
6.07 -2.33 2.39
6.12 -2.21 2.39
6.16 -2.08 2.39
6.20 -1.96 2.39
6.24 -1.83 2.39
6.28 -1.71 2.39
6.31 -1.58 2.39
6.34 -1.45 2.39
6.37 -1.33 2.39
6.40 -1.20 2.39
6.42 -1.07 2.39
6.45 -0.94 2.39
6.47 -0.81 2.39
6.49 -0.68 2.39
6.50 -0.55 2.39
2.88 -0.18 1.06
2.87 -0.13 1.05
6.52 -0.16 2.39
6.53 -0.02 2.39
6.53 0.11 2.39
6.53 0.24 2.39
6.52 0.37 2.39
6.51 0.50 2.39
6.50 0.63 2.39
6.49 0.76 2.39
6.48 0.89 2.39
6.46 1.02 2.39
6.44 1.15 2.39
6.42 1.28 2.39
6.39 1.41 2.39
6.36 1.54 2.39
6.33 1.67 2.39
6.30 1.80 2.39
6.26 1.92 2.39
6.22 2.05 2.39
6.18 2.17 2.39
6.14 2.30 2.39
6.09 2.42 2.39
6.04 2.55 2.39
5.99 2.67 2.39
5.94 2.79 2.39
5.89 2.91 2.39
5.83 3.03 2.39
5.77 3.15 2.39
5.71 3.26 2.39
5.64 3.38 2.39
5.58 3.49 2.39
5.51 3.61 2.39
5.44 3.72 2.39
5.36 3.83 2.39
5.29 3.94 2.39
5.21 4.05 2.39
5.13 4.15 2.39
5.05 4.26 2.39
4.96 4.36 2.39
4.88 4.46 2.39
4.79 4.56 2.39
4.70 4.66 2.39
4.61 4.75 2.39
4.51 4.85 2.39
4.42 4.94 2.39
4.32 5.03 2.39
4.22 5.12 2.39
4.12 5.20 2.39
4.02 5.29 2.39
3.91 5.37 2.39
3.80 5.45 2.39
3.70 5.53 2.39
3.59 5.61 2.39
3.47 5.68 2.39
3.36 5.75 2.39
3.25 5.82 2.39
3.13 5.89 2.39
3.01 5.95 2.39
2.90 6.02 2.39
2.78 6.08 2.39
2.65 6.13 2.39
2.53 6.19 2.39
2.41 6.24 2.39
2.28 6.29 2.39
2.16 6.34 2.39
2.06 6.48 2.42
1.99 6.71 2.49
1.85 6.75 2.49
1.72 6.79 2.49
1.58 6.83 2.49
1.45 6.86 2.49
1.31 6.89 2.49
1.17 6.92 2.49
1.03 6.95 2.49
0.89 6.97 2.49
0.75 6.99 2.49
0.61 7.01 2.49
0.47 7.02 2.49
0.33 7.03 2.49
0.19 7.04 2.49
0.05 7.05 2.49
-0.09 7.05 2.49
-0.23 7.05 2.49
-0.37 7.05 2.49
-0.52 7.04 2.49
-0.66 7.04 2.49
-0.80 7.02 2.49
-0.94 7.01 2.49
-1.08 6.99 2.49
-1.22 6.97 2.49
-1.36 6.95 2.49
-1.50 6.93 2.49
-1.64 6.90 2.49
-1.78 6.87 2.49
-1.92 6.83 2.49
-2.05 6.79 2.49
-2.19 6.76 2.49
-2.33 6.71 2.49
-2.46 6.67 2.49
-2.59 6.62 2.49
-2.73 6.57 2.49
-2.86 6.52 2.49
-2.99 6.46 2.49
-3.12 6.40 2.49
-3.25 6.34 2.49
-3.38 6.27 2.49
-3.50 6.21 2.49
-3.63 6.14 2.49
-3.75 6.07 2.49
-3.87 5.99 2.49
-3.99 5.92 2.49
-4.11 5.84 2.49
-4.23 5.75 2.49
-4.35 5.67 2.49
-4.46 5.58 2.49
-4.57 5.49 2.49
-4.68 5.40 2.49
-4.79 5.31 2.49
-4.90 5.21 2.49
-5.00 5.12 2.49
-5.10 5.02 2.49
-5.20 4.91 2.49
-5.30 4.81 2.49
-5.40 4.70 2.49
-5.49 4.59 2.49
-5.58 4.48 2.49
-5.67 4.37 2.49
-5.76 4.26 2.49
-5.85 4.14 2.49
-5.88 3.99 2.47
-5.87 3.82 2.44
-5.87 3.65 2.41
-5.91 3.51 2.39
-5.97 3.39 2.39
-6.04 3.27 2.39
-6.11 3.15 2.39
-6.17 3.03 2.39
-6.23 2.91 2.39
-6.28 2.78 2.39
-6.34 2.65 2.39
-6.39 2.53 2.39
-6.44 2.40 2.39
-6.49 2.27 2.39
-6.53 2.14 2.39
-6.57 2.01 2.39
-6.61 1.88 2.39
-6.65 1.74 2.39
-6.68 1.61 2.39
-6.71 1.47 2.39
-6.74 1.34 2.39
-6.76 1.20 2.39
-6.78 1.07 2.39
-6.80 0.93 2.39
-6.82 0.80 2.39
-6.83 0.66 2.39
-6.84 0.52 2.39
-6.85 0.39 2.39
-6.85 0.25 2.39
-6.86 0.11 2.39
-6.86 -0.03 2.39
-6.85 -0.16 2.39
-6.85 -0.30 2.39
-6.84 -0.44 2.39
-6.83 -0.57 2.39
-6.81 -0.71 2.39
-6.79 -0.85 2.39
-6.77 -0.98 2.39
-6.75 -1.12 2.39
-6.72 -1.25 2.39
-6.70 -1.39 2.39
-6.66 -1.52 2.39
-6.63 -1.65 2.39
-6.59 -1.78 2.39
-6.55 -1.91 2.39
-6.51 -2.04 2.39
-6.47 -2.17 2.39
-6.42 -2.30 2.39
-6.37 -2.43 2.39
-6.32 -2.55 2.39
-6.26 -2.68 2.39
-6.21 -2.80 2.39
-6.15 -2.93 2.39
-6.08 -3.05 2.39
-6.02 -3.17 2.39
-5.95 -3.29 2.39
-5.88 -3.40 2.39
-5.81 -3.52 2.39
-5.74 -3.63 2.39
-5.67 -3.75 2.40
-5.67 -3.92 2.43
-5.69 -4.10 2.47
-5.65 -4.25 2.49
-5.56 -4.36 2.49
-5.47 -4.47 2.49
-5.38 -4.57 2.49
-5.28 -4.68 2.49
-5.18 -4.78 2.49
-5.08 -4.88 2.49
-4.98 -4.98 2.49
-4.88 -5.07 2.49
-4.77 -5.17 2.49
-4.67 -5.26 2.49
-4.56 -5.35 2.49
-4.45 -5.44 2.49
-4.33 -5.52 2.49
-4.22 -5.61 2.49
-4.11 -5.69 2.49
-3.99 -5.76 2.49
-3.87 -5.84 2.49
-3.75 -5.91 2.49
-3.63 -5.98 2.49
-3.51 -6.05 2.49
-3.38 -6.12 2.49
-3.26 -6.18 2.49
-3.13 -6.24 2.49
-3.00 -6.30 2.49
-2.87 -6.36 2.49
-2.74 -6.41 2.49
-2.61 -6.46 2.49
-2.48 -6.51 2.49
-2.35 -6.55 2.49
-2.22 -6.59 2.49
-2.08 -6.63 2.49
-1.95 -6.67 2.49
-1.81 -6.70 2.49
-1.68 -6.73 2.49
-1.54 -6.76 2.49
-1.40 -6.79 2.49
-1.27 -6.81 2.49
-1.13 -6.83 2.49
-0.99 -6.85 2.49
-0.85 -6.87 2.49
-0.71 -6.88 2.49
-0.57 -6.89 2.49
-0.44 -6.89 2.49
-0.30 -6.90 2.49
-0.16 -6.90 2.49
-0.02 -6.44 2.49
0.11 -6.44 2.49
0.24 -6.43 2.49
0.37 -6.42 2.49
0.50 -6.41 2.49
0.63 -6.39 2.49
0.75 -6.38 2.49
0.88 -6.36 2.49
1.01 -6.34 2.49
1.13 -6.31 2.49
1.26 -6.29 2.49
1.39 -6.26 2.49
1.51 -6.22 2.49
1.64 -6.19 2.49
1.76 -6.15 2.49
1.88 -6.11 2.49
2.00 -6.07 2.49
2.12 -6.03 2.49
2.24 -5.98 2.49
2.36 -5.93 2.49
2.48 -5.88 2.49
2.60 -5.83 2.49
2.71 -5.77 2.49
2.83 -5.72 2.49
2.94 -5.66 2.49
3.06 -5.59 2.49
3.17 -5.53 2.49
3.28 -5.46 2.49
3.38 -5.40 2.49
3.49 -5.32 2.49
3.45 -5.03 2.39
3.57 -5.00 2.41
3.15 -4.22 2.06
3.09 -3.98 1.98
3.84 -4.74 2.39
3.93 -4.66 2.39
4.02 -4.58 2.39
4.11 -4.49 2.39
4.20 -4.41 2.39
4.29 -4.32 2.39
4.37 -4.23 2.39
4.46 -4.14 2.39
4.54 -4.05 2.39
4.62 -3.96 2.39
4.70 -3.87 2.39
4.77 -3.77 2.39
4.85 -3.67 2.39
4.92 -3.57 2.39
4.99 -3.47 2.39
5.06 -3.37 2.39
5.13 -3.27 2.39
5.19 -3.16 2.39
5.25 -3.06 2.39
5.31 -2.95 2.39
5.37 -2.84 2.39
5.43 -2.74 2.39
5.48 -2.63 2.39
5.53 -2.52 2.39
5.03 -2.16 2.15
5.63 -2.29 2.39
5.68 -2.18 2.39
5.72 -2.06 2.39
5.76 -1.95 2.39
5.80 -1.83 2.39
5.83 -1.71 2.39
5.87 -1.60 2.39
5.90 -1.48 2.39
5.93 -1.36 2.39
5.95 -1.24 2.39
5.98 -1.12 2.39
6.00 -1.00 2.39
6.02 -0.88 2.39
6.04 -0.76 2.39
6.05 -0.63 2.39
6.06 -0.51 2.39
2.88 -0.18 1.13
2.87 -0.13 1.13
6.09 -0.14 2.39
6.09 -0.02 2.39
6.09 0.10 2.39
6.09 0.22 2.39
6.08 0.35 2.39
6.08 0.47 2.39
6.07 0.59 2.39
6.06 0.71 2.39
6.04 0.83 2.39
6.03 0.96 2.39
6.01 1.08 2.39
5.99 1.20 2.39
5.96 1.32 2.39
5.94 1.44 2.39
5.91 1.56 2.39
5.88 1.68 2.39
5.85 1.80 2.39
5.81 1.92 2.39
5.77 2.03 2.39
5.73 2.15 2.39
5.69 2.26 2.39
5.65 2.38 2.39
5.60 2.49 2.39
5.55 2.61 2.39
5.50 2.72 2.39
5.44 2.83 2.39
5.39 2.94 2.39
5.33 3.05 2.39
5.27 3.16 2.39
5.21 3.26 2.39
5.14 3.37 2.39
5.08 3.47 2.39
5.01 3.58 2.39
4.94 3.68 2.39
4.86 3.78 2.39
4.79 3.88 2.39
4.71 3.97 2.39
4.63 4.07 2.39
4.55 4.16 2.39
4.47 4.26 2.39
4.39 4.35 2.39
4.30 4.44 2.39
4.21 4.53 2.39
4.12 4.61 2.39
4.03 4.70 2.39
3.94 4.78 2.39
3.84 4.86 2.39
3.75 4.94 2.39
3.65 5.01 2.39
3.55 5.09 2.39
3.45 5.16 2.39
3.35 5.23 2.39
3.24 5.30 2.39
3.14 5.37 2.39
3.03 5.43 2.39
2.92 5.50 2.39
2.81 5.56 2.39
2.70 5.61 2.39
2.59 5.67 2.39
2.48 5.72 2.39
2.36 5.78 2.39
2.25 5.83 2.39
2.13 5.87 2.39
2.07 6.10 2.46
1.98 6.22 2.49
1.85 6.26 2.49
1.73 6.30 2.49
1.60 6.33 2.49
1.47 6.37 2.49
1.35 6.40 2.49
1.22 6.43 2.49
1.09 6.46 2.49
0.96 6.48 2.49
0.83 6.50 2.49
0.70 6.52 2.49
0.57 6.54 2.49
0.44 6.55 2.49
0.31 6.56 2.49
0.18 6.57 2.49
0.05 6.57 2.49
-0.09 6.58 2.49
-0.22 6.58 2.49
-0.35 6.57 2.49
-0.48 6.57 2.49
-0.61 6.56 2.49
-0.75 6.55 2.49
-0.88 6.54 2.49
-1.01 6.52 2.49
-1.14 6.50 2.49
-1.27 6.48 2.49
-1.40 6.46 2.49
-1.53 6.43 2.49
-1.66 6.40 2.49
-1.79 6.37 2.49
-1.92 6.33 2.49
-2.04 6.30 2.49
-2.17 6.26 2.49
-2.29 6.22 2.49
-2.42 6.17 2.49
-2.54 6.12 2.49
-2.67 6.07 2.49
-2.79 6.02 2.49
-2.91 5.97 2.49
-3.03 5.91 2.49
-3.15 5.85 2.49
-3.27 5.79 2.49
-3.38 5.72 2.49
-3.50 5.65 2.49
-3.61 5.58 2.49
-3.72 5.51 2.49
-3.83 5.44 2.49
-3.94 5.36 2.49
-4.05 5.28 2.49
-4.16 5.20 2.49
-4.26 5.12 2.49
-4.36 5.04 2.49
-4.46 4.95 2.49
-4.56 4.86 2.49
-4.66 4.77 2.49
-4.76 4.67 2.49
-4.85 4.58 2.49
-4.94 4.48 2.49
-5.03 4.38 2.49
-5.12 4.28 2.49
-5.20 4.18 2.49
-5.29 4.07 2.49
-5.37 3.97 2.49
-5.45 3.86 2.49
-5.52 3.75 2.49
-5.60 3.64 2.49
-5.67 3.53 2.49
-5.74 3.41 2.49
-5.81 3.30 2.49
-5.84 3.16 2.48
-5.83 3.01 2.45
-5.83 2.86 2.42
-5.83 2.72 2.40
-5.86 2.59 2.39
-5.91 2.47 2.39
-5.96 2.35 2.39
-6.00 2.23 2.39
-6.04 2.11 2.39
-6.09 1.99 2.39
-6.12 1.87 2.39
-6.16 1.75 2.39
-6.19 1.62 2.39
-6.22 1.50 2.39
-6.25 1.37 2.39
-6.28 1.25 2.39
-6.30 1.12 2.39
-6.32 1.00 2.39
-6.34 0.87 2.39
-6.35 0.74 2.39
-6.37 0.62 2.39
-6.38 0.49 2.39
-6.38 0.36 2.39
-6.39 0.23 2.39
-6.39 0.10 2.39
-6.39 -0.02 2.39
-6.39 -0.15 2.39
-6.38 -0.28 2.39
-6.37 -0.41 2.39
-6.36 -0.53 2.39
-6.35 -0.66 2.39
-6.33 -0.79 2.39
-6.31 -0.91 2.39
-6.29 -1.04 2.39
-6.27 -1.17 2.39
-6.24 -1.29 2.39
-6.21 -1.41 2.39
-6.18 -1.54 2.39
-6.15 -1.66 2.39
-6.11 -1.78 2.39
-6.07 -1.90 2.39
-6.03 -2.02 2.39
-5.99 -2.14 2.39
-5.94 -2.26 2.39
-5.89 -2.38 2.39
-5.84 -2.50 2.39
-5.80 -2.62 2.39
-5.73 -2.73 2.39
-5.67 -2.84 2.39
-5.61 -2.95 2.39
-5.60 -3.09 2.41
-5.60 -3.24 2.44
-5.61 -3.40 2.48
-5.58 -3.53 2.49
-5.50 -3.64 2.49
-5.43 -3.75 2.49
-5.35 -3.86 2.49
-5.27 -3.96 2.49
-5.19 -4.06 2.49
-5.10 -4.16 2.49
-5.01 -4.26 2.49
-4.93 -4.36 2.49
-4.83 -4.46 2.49
-4.74 -4.55 2.49
-4.65 -4.64 2.49
-4.55 -4.73 2.49
-4.45 -4.82 2.49
-4.35 -4.91 2.49
-4.25 -4.99 2.49
-4.15 -5.07 2.49
-4.04 -5.15 2.49
-3.94 -5.23 2.49
-3.83 -5.30 2.49
-3.72 -5.38 2.49
-3.61 -5.45 2.49
-3.50 -5.52 2.49
-3.39 -5.58 2.49
-3.27 -5.65 2.49
-3.16 -5.71 2.49
-3.04 -5.77 2.49
-2.92 -5.82 2.49
-2.80 -5.88 2.49
-2.68 -5.93 2.49
-2.56 -5.98 2.49
-2.44 -6.03 2.49
-2.32 -6.07 2.49
-2.19 -6.11 2.49
-2.07 -6.15 2.49
-1.94 -6.19 2.49
-1.82 -6.22 2.49
-1.69 -6.26 2.49
-1.57 -6.29 2.49
-1.44 -6.31 2.49
-1.31 -6.34 2.49
-1.18 -6.36 2.49
-1.05 -6.38 2.49
-0.93 -6.40 2.49
-0.80 -6.41 2.49
-0.67 -6.42 2.49
-0.54 -6.43 2.49
-0.41 -6.44 2.49
-0.28 -6.44 2.49
-0.15 -6.44 2.49
-0.02 -6.03 2.49
0.10 -6.03 2.49
0.22 -6.02 2.49
0.34 -6.01 2.49
0.46 -6.00 2.49
0.58 -5.99 2.49
0.70 -5.98 2.49
0.82 -5.96 2.49
0.94 -5.94 2.49
1.06 -5.91 2.49
1.18 -5.89 2.49
1.30 -5.86 2.49
1.42 -5.83 2.49
1.53 -5.80 2.49
1.65 -5.77 2.49
1.76 -5.73 2.49
1.88 -5.69 2.49
1.99 -5.65 2.49
2.10 -5.61 2.49
2.21 -5.56 2.49
2.32 -5.51 2.49
2.43 -5.46 2.49
2.54 -5.41 2.49
2.65 -5.36 2.49
2.76 -5.30 2.49
2.86 -5.24 2.49
2.97 -5.18 2.49
3.07 -5.12 2.49
3.17 -5.06 2.49
3.27 -4.99 2.49
3.23 -4.72 2.39
3.32 -4.65 2.39
3.13 -4.20 2.19
3.51 -4.51 2.39
3.60 -4.44 2.39
3.68 -4.37 2.39
3.77 -4.29 2.39
3.86 -4.21 2.39
3.94 -4.13 2.39
4.02 -4.05 2.39
4.10 -3.97 2.39
4.18 -3.88 2.39
4.26 -3.80 2.39
2.72 -2.34 1.50
2.72 -2.24 1.48
4.48 -3.53 2.39
4.55 -3.44 2.39
4.61 -3.35 2.39
4.68 -3.26 2.39
4.74 -3.16 2.39
4.81 -3.06 2.39
4.87 -2.97 2.39
4.92 -2.87 2.39
4.98 -2.77 2.39
5.04 -2.67 2.39
5.09 -2.56 2.39
5.14 -2.46 2.39
5.19 -2.36 2.39
5.03 -2.16 2.30
5.28 -2.15 2.39
5.32 -2.04 2.39
5.36 -1.93 2.39
5.40 -1.82 2.39
5.43 -1.72 2.39
5.47 -1.61 2.39
5.50 -1.50 2.39
5.53 -1.38 2.39
5.56 -1.27 2.39
5.52 -1.15 2.36
5.60 -1.05 2.39
5.62 -0.93 2.39
5.64 -0.82 2.39
5.66 -0.71 2.39
5.67 -0.59 2.39
5.68 -0.48 2.39
2.88 -0.18 1.21
2.87 -0.13 1.20
5.71 -0.14 2.39
5.71 -0.02 2.39
5.71 0.09 2.39
5.71 0.21 2.39
5.70 0.32 2.39
5.70 0.44 2.39
5.69 0.55 2.39
5.68 0.67 2.39
5.66 0.78 2.39
5.65 0.90 2.39
5.63 1.01 2.39
5.61 1.12 2.39
5.59 1.24 2.39
5.56 1.35 2.39
5.54 1.46 2.39
5.51 1.57 2.39
5.48 1.69 2.39
5.44 1.80 2.39
5.41 1.91 2.39
5.37 2.01 2.39
5.33 2.12 2.39
5.29 2.23 2.39
5.25 2.34 2.39
5.20 2.44 2.39
5.15 2.55 2.39
5.10 2.65 2.39
5.05 2.76 2.39
4.99 2.86 2.39
4.94 2.96 2.39
4.88 3.06 2.39
4.82 3.16 2.39
4.76 3.26 2.39
4.69 3.35 2.39
4.63 3.45 2.39
4.56 3.54 2.39
4.49 3.63 2.39
4.41 3.72 2.39
4.34 3.81 2.39
4.27 3.90 2.39
4.19 3.99 2.39
4.11 4.07 2.39
4.03 4.16 2.39
3.95 4.24 2.39
3.86 4.32 2.39
3.78 4.40 2.39
3.69 4.48 2.39
3.60 4.55 2.39
3.51 4.63 2.39
3.42 4.70 2.39
3.32 4.77 2.39
3.23 4.84 2.39
3.13 4.90 2.39
3.03 4.97 2.39
2.94 5.03 2.39
2.84 5.09 2.39
2.73 5.15 2.39
2.63 5.20 2.39
2.53 5.26 2.39
2.42 5.31 2.39
2.32 5.37 2.39
2.21 5.41 2.39
2.11 5.48 2.40
2.08 5.74 2.49
1.96 5.78 2.49
1.85 5.82 2.49
1.73 5.86 2.49
1.62 5.90 2.49
1.50 5.93 2.49
1.38 5.96 2.49
1.26 5.99 2.49
1.14 6.02 2.49
1.02 6.04 2.49
0.90 6.07 2.49
0.78 6.09 2.49
0.66 6.10 2.49
0.53 6.12 2.49
0.41 6.13 2.49
0.29 6.14 2.49
0.16 6.15 2.49
0.04 6.15 2.49
-0.08 6.15 2.49
-0.21 6.15 2.49
-0.33 6.15 2.49
-0.45 6.15 2.49
-0.58 6.14 2.49
-0.70 6.13 2.49
-0.82 6.12 2.49
-0.94 6.10 2.49
-1.07 6.08 2.49
-1.19 6.06 2.49
-1.31 6.04 2.49
-1.43 6.02 2.49
-1.55 5.99 2.49
-1.67 5.96 2.49
-1.79 5.93 2.49
-1.91 5.89 2.49
-2.03 5.85 2.49
-2.15 5.81 2.49
-2.26 5.77 2.49
-2.38 5.73 2.49
-2.50 5.68 2.49
-2.61 5.63 2.49
-2.72 5.58 2.49
-2.84 5.53 2.49
-2.95 5.47 2.49
-3.06 5.41 2.49
-3.16 5.35 2.49
-3.27 5.29 2.49
-3.38 5.22 2.49
-3.48 5.16 2.49
-3.59 5.09 2.49
-3.69 5.02 2.49
-3.79 4.94 2.49
-3.89 4.87 2.49
-3.99 4.79 2.49
-4.08 4.71 2.49
-4.18 4.63 2.49
-4.27 4.54 2.49
-4.36 4.46 2.49
-4.45 4.37 2.49
-4.54 4.28 2.49
-4.62 4.19 2.49
-4.71 4.10 2.49
-4.79 4.00 2.49
-4.87 3.91 2.49
-4.94 3.81 2.49
-5.02 3.71 2.49
-5.09 3.61 2.49
-5.17 3.51 2.49
-5.24 3.40 2.49
-5.30 3.30 2.49
-5.37 3.19 2.49
-5.43 3.08 2.49
-5.49 2.98 2.49
-5.55 2.87 2.49
-5.61 2.75 2.49
-5.66 2.64 2.49
-5.71 2.53 2.49
-5.76 2.41 2.49
-5.80 2.29 2.49
-5.79 2.16 2.47
-5.79 2.02 2.45
-5.79 1.89 2.43
-5.78 1.77 2.41
-5.78 1.64 2.40
-5.79 1.52 2.39
-5.82 1.40 2.39
-5.85 1.29 2.39
-5.87 1.17 2.39
-5.89 1.05 2.39
-5.93 0.94 2.40
-5.93 0.81 2.39
-5.94 0.69 2.39
-5.95 0.58 2.39
-5.96 0.46 2.39
-5.97 0.34 2.39
-5.97 0.22 2.39
-5.98 0.10 2.39
-5.98 -0.02 2.39
-5.97 -0.14 2.39
-5.97 -0.26 2.39
-5.96 -0.38 2.39
-5.95 -0.50 2.39
-5.94 -0.62 2.39
-5.92 -0.74 2.39
-5.90 -0.85 2.39
-5.88 -0.97 2.39
-5.86 -1.09 2.39
-5.84 -1.21 2.39
-5.83 -1.33 2.40
-5.78 -1.44 2.39
-5.75 -1.55 2.39
-5.72 -1.67 2.39
-5.68 -1.78 2.39
-5.64 -1.89 2.39
-5.63 -2.02 2.40
-5.62 -2.14 2.42
-5.61 -2.27 2.43
-5.60 -2.40 2.45
-5.60 -2.53 2.47
-5.59 -2.66 2.49
-5.54 -2.77 2.49
-5.48 -2.88 2.49
-5.42 -2.99 2.49
-5.35 -3.09 2.49
-5.29 -3.20 2.49
-5.22 -3.30 2.49
-5.15 -3.41 2.49
-5.08 -3.51 2.49
-5.01 -3.61 2.49
-4.93 -3.70 2.49
-4.85 -3.80 2.49
-4.77 -3.90 2.49
-4.69 -3.99 2.49
-4.61 -4.08 2.49
-4.53 -4.17 2.49
-4.44 -4.26 2.49
-4.35 -4.34 2.49
-4.26 -4.43 2.49
-4.17 -4.51 2.49
-4.08 -4.59 2.49
-3.98 -4.67 2.49
-3.88 -4.75 2.49
-3.79 -4.82 2.49
-3.69 -4.89 2.49
-3.59 -4.96 2.49
-3.49 -5.03 2.49
-3.38 -5.10 2.49
-3.28 -5.16 2.49
-3.17 -5.23 2.49
-3.06 -5.29 2.49
-2.96 -5.34 2.49
-2.85 -5.40 2.49
-2.74 -5.45 2.49
-2.63 -5.50 2.49
-2.51 -5.55 2.49
-2.40 -5.60 2.49
-2.29 -5.64 2.49
-2.17 -5.68 2.49
-2.06 -5.72 2.49
-1.94 -5.76 2.49
-1.82 -5.80 2.49
-1.70 -5.83 2.49
-1.59 -5.86 2.49
-1.47 -5.89 2.49
-1.35 -5.91 2.49
-1.23 -5.94 2.49
-1.11 -5.96 2.49
-0.99 -5.97 2.49
-0.87 -5.99 2.49
-0.75 -6.00 2.49
-0.63 -6.01 2.49
-0.51 -6.02 2.49
-0.38 -6.03 2.49
-0.26 -6.03 2.49
-0.14 -6.03 2.49
-0.02 -5.67 2.49
0.09 -5.66 2.49
0.21 -5.66 2.49
0.32 -5.65 2.49
0.43 -5.64 2.49
0.55 -5.63 2.49
0.66 -5.61 2.49
0.77 -5.60 2.49
0.89 -5.58 2.49
1.00 -5.56 2.49
1.11 -5.53 2.49
1.22 -5.51 2.49
1.33 -5.48 2.49
1.44 -5.45 2.49
1.55 -5.42 2.49
1.66 -5.38 2.49
1.76 -5.35 2.49
1.87 -5.31 2.49
1.98 -5.27 2.49
2.08 -5.23 2.49
2.18 -5.18 2.49
2.29 -5.14 2.49
2.39 -5.09 2.49
2.49 -5.04 2.49
2.59 -4.98 2.49
2.69 -4.93 2.49
2.79 -4.87 2.49
