ply
format ascii 1.0
element vertex 2815
property float32 x
property float32 y
property float32 z
end_header
35.80 -33.19 2.39
36.54 -32.53 2.39
37.26 -31.86 2.39
23.10 -18.96 1.46
23.11 -18.20 1.43
23.01 -17.39 1.40
23.10 -16.74 1.38
23.12 -16.05 1.36
23.15 -15.40 1.34
23.15 -14.73 1.32
23.16 -14.10 1.30
23.19 -13.48 1.29
23.19 -12.87 1.27
23.70 -12.54 1.28
21.55 -10.85 1.15
21.51 -10.30 1.13
21.47 -9.75 1.12
21.43 -9.22 1.11
21.40 -8.70 1.09
20.61 -7.90 1.04
24.44 -8.81 1.22
23.98 -8.11 1.19
23.79 -7.51 1.17
23.05 -6.78 1.13
23.06 -6.28 1.12
23.07 -5.79 1.11
23.08 -5.30 1.10
23.08 -4.81 1.10
23.09 -4.33 1.09
23.10 -3.86 1.09
23.11 -3.38 1.08
23.11 -2.91 1.08
23.12 -2.44 1.08
23.13 -1.97 1.07
23.14 -1.51 1.07
23.14 -1.04 1.07
23.15 -0.58 1.07
23.16 -0.11 1.06
23.17 0.35 1.06
23.15 0.82 1.06
23.16 1.28 1.06
23.16 1.75 1.06
23.20 2.22 1.07
23.20 2.69 1.07
23.04 3.14 1.06
22.73 3.57 1.05
22.43 3.98 1.04
22.13 4.39 1.03
21.84 4.79 1.02
21.42 5.15 1.00
18.01 4.72 0.85
16.72 4.74 0.79
15.58 4.75 0.74
14.58 4.77 0.70
13.69 4.78 0.66
12.89 4.80 0.62
12.17 4.81 0.59
12.03 5.04 0.59
12.03 5.32 0.60
12.04 5.62 0.60
12.04 5.92 0.61
12.05 6.22 0.61
12.05 6.53 0.62
12.06 6.85 0.63
12.06 7.18 0.64
12.07 7.52 0.64
12.07 7.86 0.65
12.08 8.21 0.66
12.08 8.58 0.67
12.05 8.92 0.68
11.99 9.26 0.69
10.70 8.61 0.62
12.00 10.06 0.71
12.06 10.53 0.73
12.12 11.02 0.74
12.13 11.48 0.76
12.14 11.96 0.77
12.15 12.45 0.79
12.16 12.97 0.81
12.16 13.52 0.83
12.17 14.09 0.85
11.99 14.44 0.86
11.56 14.51 0.85
11.27 14.74 0.85
10.97 14.97 0.85
10.67 15.19 0.85
10.46 15.54 0.86
10.44 16.21 0.88
11.17 18.13 0.98
10.68 18.14 0.97
10.27 18.28 0.97
10.52 19.62 1.03
10.91 21.38 1.11
10.36 21.35 1.10
10.70 23.22 1.18
11.46 26.25 1.33
-5.41 48.89 2.39
-6.37 48.67 2.39
-7.33 48.43 2.39
-8.29 48.18 2.39
-9.10 47.21 2.36
-9.17 42.91 2.16
-9.23 39.31 1.99
-9.28 36.23 1.84
-9.32 33.58 1.72
-9.36 31.27 1.62
-9.53 29.67 1.55
-12.30 24.13 1.37
-12.32 23.02 1.32
-12.34 21.97 1.28
-12.48 21.23 1.25
-12.63 20.52 1.23
-12.78 19.85 1.21
-12.93 19.23 1.19
-13.07 18.62 1.17
-13.22 18.05 1.15
-13.42 17.57 1.14
-13.61 17.11 1.13
-13.67 16.49 1.11
-13.73 15.89 1.09
-13.79 15.34 1.07
-13.84 14.78 1.05
-13.88 14.24 1.04
-13.91 13.71 1.02
-13.94 13.20 1.00
-14.02 12.75 0.99
-14.09 12.31 0.98
-14.17 11.88 0.97
-14.24 11.46 0.96
-14.26 11.01 0.95
-14.27 10.57 0.94
-14.29 10.15 0.93
-14.31 9.74 0.92
-14.32 9.33 0.91
-14.30 8.91 0.90
-14.28 8.51 0.89
-14.27 8.12 0.88
-14.15 7.68 0.86
-14.02 7.25 0.85
-13.93 6.85 0.84
-13.86 6.47 0.82
-13.79 6.10 0.81
-13.75 5.76 0.81
-13.73 5.43 0.80
-13.70 5.10 0.79
-13.68 4.78 0.79
-13.66 4.47 0.78
-13.65 4.17 0.78
-13.65 3.87 0.77
-13.66 3.58 0.77
-13.68 3.29 0.77
-13.69 3.00 0.77
-13.70 2.72 0.77
-13.72 2.44 0.77
-13.73 2.16 0.76
-13.74 1.88 0.76
-13.75 1.60 0.76
-13.76 1.32 0.76
-13.77 1.04 0.76
-13.77 0.76 0.76
-13.78 0.49 0.76
-13.78 0.21 0.76
-13.78 -0.07 0.76
-13.80 -0.34 0.77
-13.82 -0.62 0.77
-13.85 -0.90 0.77
-13.87 -1.18 0.78
-13.88 -1.47 0.78
-13.88 -1.75 0.78
-13.89 -2.03 0.78
-13.88 -2.32 0.79
-13.87 -2.60 0.79
-13.86 -2.89 0.79
-13.84 -3.18 0.79
-13.83 -3.47 0.80
-13.84 -3.77 0.80
-13.84 -4.07 0.81
-13.85 -4.38 0.81
-13.87 -4.69 0.82
-13.88 -5.01 0.83
-13.90 -5.33 0.84
-13.90 -5.65 0.84
-13.89 -5.98 0.85
-13.89 -6.31 0.86
-13.90 -6.66 0.87
-13.91 -7.01 0.88
-13.92 -7.37 0.88
-13.95 -7.74 0.90
-13.97 -8.13 0.91
-14.05 -8.55 0.92
-14.13 -9.00 0.94
-14.20 -9.45 0.96
-14.25 -9.90 0.97
-14.29 -10.36 0.99
-14.30 -10.81 1.01
-14.31 -11.28 1.02
-14.38 -11.81 1.04
-14.43 -12.34 1.06
-14.40 -12.83 1.08
-14.38 -13.34 1.10
-14.39 -13.89 1.12
-14.39 -14.47 1.14
-14.41 -15.08 1.17
-14.38 -15.66 1.19
-14.34 -16.26 1.21
-14.38 -16.99 1.24
-14.38 -17.70 1.27
-14.36 -18.41 1.30
-14.32 -19.14 1.33
-14.33 -19.98 1.37
-14.31 -20.82 1.40
-14.23 -21.62 1.44
-14.16 -22.48 1.47
-14.01 -23.28 1.51
-13.86 -24.11 1.54
-13.62 -24.84 1.57
-13.31 -25.47 1.59
-12.97 -26.07 1.61
-12.65 -26.76 1.63
-12.42 -27.71 1.67
-12.12 -28.56 1.71
-11.91 -29.71 1.76
-11.68 -30.92 1.81
-11.50 -32.40 1.88
-11.18 -33.63 1.94
-10.86 -34.98 2.00
-10.65 -36.91 2.10
-10.42 -39.04 2.20
-10.19 -41.51 2.33
-9.62 -42.91 2.39
-8.77 -43.16 2.39
-7.92 -43.40 2.39
-7.06 -43.61 2.39
-6.46 -45.71 2.49
-5.55 -45.91 2.49
-4.63 -46.08 2.49
-3.71 -46.25 2.49
-2.79 -46.39 2.49
-1.86 -46.52 2.49
-0.93 -46.63 2.49
0.01 -32.82 2.49
0.67 -32.85 2.49
1.33 -32.87 2.49
1.91 -31.52 2.39
2.55 -31.52 2.39
3.18 -31.50 2.39
3.82 -31.48 2.39
4.46 -31.44 2.39
5.10 -31.38 2.39
5.74 -31.35 2.39
6.38 -31.27 2.39
7.01 -31.18 2.39
7.65 -31.08 2.39
8.28 -30.96 2.39
8.91 -30.84 2.39
9.55 -30.70 2.39
10.17 -30.54 2.39
2.31 -6.50 0.51
11.43 -30.20 2.39
12.05 -30.01 2.39
12.67 -29.80 2.39
13.28 -29.59 2.39
13.89 -29.36 2.39
14.50 -29.11 2.39
15.11 -28.86 2.39
15.70 -28.59 2.39
16.30 -28.32 2.39
16.89 -28.03 2.39
17.48 -27.72 2.39
18.06 -27.41 2.39
18.63 -27.08 2.39
19.20 -26.74 2.39
19.76 -26.39 2.39
20.32 -26.03 2.39
20.87 -25.65 2.39
21.41 -25.27 2.39
21.95 -24.87 2.39
22.47 -24.46 2.39
22.99 -24.04 2.39
23.51 -23.61 2.39
24.01 -23.16 2.39
24.51 -22.71 2.39
24.99 -22.25 2.39
25.47 -21.77 2.39
23.10 -18.95 2.13
23.11 -18.20 2.09
23.01 -17.39 2.05
23.10 -16.73 2.03
23.11 -16.04 1.99
23.15 -15.40 1.97
23.14 -14.73 1.94
23.15 -14.09 1.91
23.19 -13.48 1.89
23.19 -12.87 1.87
21.06 -11.14 1.68
21.02 -10.58 1.65
20.98 -10.04 1.63
20.95 -9.51 1.61
20.91 -8.99 1.59
21.11 -8.58 1.59
20.61 -7.90 1.54
24.44 -8.81 1.81
23.98 -8.10 1.76
23.79 -7.51 1.74
23.05 -6.77 1.67
23.06 -6.28 1.66
23.07 -5.78 1.65
23.08 -5.30 1.64
23.08 -4.81 1.63
23.09 -4.33 1.62
23.10 -3.86 1.62
23.11 -3.38 1.61
23.11 -2.91 1.61
23.12 -2.44 1.60
23.13 -1.97 1.60
23.14 -1.51 1.59
23.14 -1.04 1.59
23.15 -0.58 1.59
23.16 -0.11 1.59
23.17 0.35 1.59
23.15 0.82 1.59
23.16 1.28 1.59
23.16 1.75 1.59
23.20 2.22 1.59
23.20 2.69 1.59
23.04 3.14 1.59
21.51 3.38 1.48
21.86 3.88 1.51
21.46 4.26 1.49
21.83 4.79 1.52
21.42 5.15 1.50
18.01 4.72 1.27
16.72 4.74 1.18
15.58 4.75 1.11
14.58 4.77 1.04
13.69 4.78 0.98
12.89 4.80 0.93
12.17 4.81 0.89
12.03 5.04 0.89
12.03 5.32 0.89
12.04 5.62 0.90
12.04 5.92 0.91
12.05 6.22 0.92
12.05 6.53 0.93
12.06 6.85 0.94
12.06 7.18 0.95
12.07 7.52 0.96
12.07 7.86 0.98
12.08 8.21 0.99
12.08 8.58 1.01
12.05 8.92 1.02
11.99 9.26 1.03
10.70 8.61 0.93
12.00 10.06 1.06
12.06 10.53 1.09
12.12 11.02 1.11
12.13 11.48 1.14
12.14 11.96 1.16
12.15 12.45 1.18
12.16 12.97 1.21
12.16 13.52 1.24
12.17 14.08 1.27
11.99 14.44 1.28
11.56 14.51 1.27
11.17 14.62 1.26
10.88 14.84 1.26
10.67 15.19 1.27
10.46 15.54 1.28
10.44 16.21 1.32
11.17 18.13 1.46
10.68 18.14 1.44
10.20 18.15 1.43
9.78 18.25 1.42
10.04 19.67 1.52
9.60 19.78 1.51
9.84 21.36 1.62
9.42 21.56 1.62
13.23 32.04 2.39
12.10 31.04 2.30
11.91 32.48 2.39
11.25 32.68 2.39
10.58 32.86 2.39
9.91 33.03 2.39
9.23 33.19 2.39
8.55 33.33 2.39
7.87 33.46 2.39
7.19 33.57 2.39
6.50 33.62 2.39
5.82 33.71 2.39
5.13 33.78 2.39
4.45 33.83 2.39
3.77 33.87 2.39
3.08 33.89 2.39
2.50 35.37 2.49
1.79 35.37 2.49
1.08 35.35 2.49
0.37 35.32 2.49
-0.34 35.27 2.49
-1.05 35.21 2.49
-1.75 35.13 2.49
-2.45 35.04 2.49
-3.15 34.93 2.49
-3.85 34.81 2.49
-4.54 34.68 2.49
-5.23 34.53 2.49
-5.66 32.95 2.39
-6.32 32.78 2.39
-6.96 32.60 2.39
-7.60 32.41 2.39
-8.24 32.20 2.39
-8.87 31.98 2.39
-9.36 31.28 2.36
-9.39 29.24 2.22
-9.42 27.43 2.10
-9.45 25.81 1.99
-9.47 24.34 1.90
-9.70 23.52 1.85
-10.01 22.96 1.82
-10.31 22.41 1.80
-10.64 21.95 1.78
-11.13 21.84 1.79
-11.56 21.60 1.79
-11.67 20.79 1.75
-11.82 20.10 1.71
-11.90 19.34 1.67
-12.09 18.79 1.65
-12.27 18.25 1.62
-12.44 17.73 1.60
-12.74 17.40 1.60
-12.94 16.95 1.58
-13.12 16.49 1.56
-13.19 15.91 1.54
-13.26 15.36 1.51
-13.34 14.83 1.49
-13.39 14.31 1.46
-13.43 13.78 1.44
-13.46 13.27 1.42
-13.50 12.78 1.39
-13.57 12.35 1.38
-13.66 11.93 1.36
-13.74 11.53 1.35
-13.82 11.13 1.34
-13.85 10.70 1.32
-13.87 10.28 1.30
-13.90 9.87 1.29
-13.93 9.48 1.28
-13.96 9.09 1.26
-13.94 8.69 1.25
-13.93 8.30 1.23
-13.88 7.90 1.22
-13.76 7.47 1.19
-13.64 7.05 1.17
-13.53 6.65 1.15
-13.46 6.29 1.14
-13.40 5.94 1.12
-13.38 5.61 1.11
-13.36 5.29 1.10
-13.34 4.97 1.09
-13.32 4.66 1.09
-13.30 4.36 1.08
-13.29 4.06 1.07
-13.30 3.77 1.07
-13.31 3.49 1.06
-13.33 3.21 1.06
-13.34 2.93 1.06
-13.36 2.65 1.06
-13.37 2.38 1.05
-13.38 2.10 1.05
-13.40 1.83 1.05
-13.40 1.56 1.05
-13.41 1.29 1.05
-13.42 1.02 1.05
-13.43 0.74 1.05
-13.43 0.48 1.05
-13.44 0.21 1.05
-13.44 -0.06 1.05
-13.46 -0.34 1.05
-13.48 -0.61 1.06
-13.50 -0.88 1.06
-13.52 -1.15 1.06
-13.54 -1.43 1.07
-13.55 -1.71 1.07
-13.56 -1.99 1.07
-13.55 -2.26 1.08
-13.54 -2.54 1.08
-13.53 -2.82 1.09
-13.51 -3.10 1.09
-13.50 -3.39 1.09
-13.48 -3.67 1.10
-13.48 -3.96 1.11
-13.48 -4.26 1.11
-13.49 -4.56 1.12
-13.50 -4.87 1.13
-13.52 -5.18 1.14
-13.53 -5.50 1.15
-13.53 -5.82 1.16
-13.52 -6.15 1.17
-13.53 -6.48 1.18
-13.53 -6.82 1.19
-13.54 -7.17 1.21
-13.55 -7.52 1.22
-13.55 -7.89 1.24
-13.58 -8.27 1.25
-13.66 -8.70 1.28
-13.73 -9.14 1.30
-13.81 -9.60 1.32
-13.86 -10.05 1.35
-13.87 -10.49 1.37
-13.87 -10.93 1.39
-13.86 -11.39 1.41
-13.89 -11.88 1.44
-13.92 -12.40 1.47
-13.88 -12.88 1.49
-13.84 -13.37 1.51
-13.81 -13.89 1.54
-13.81 -14.45 1.57
-13.81 -15.05 1.60
-13.82 -15.67 1.64
-13.77 -16.27 1.67
-13.80 -16.98 1.72
-13.85 -17.76 1.76
-13.81 -18.46 1.81
-13.76 -19.19 1.85
-13.70 -19.94 1.89
-13.66 -20.77 1.94
-13.57 -21.55 1.99
-13.46 -22.37 2.04
-13.28 -23.10 2.08
-13.01 -23.72 2.11
-12.73 -24.37 2.14
-12.48 -25.09 2.18
-12.19 -25.80 2.22
-11.83 -26.39 2.25
-11.57 -27.26 2.30
-11.28 -28.14 2.35
-10.93 -28.95 2.40
-10.32 -29.09 2.39
-9.75 -29.32 2.39
-9.16 -29.54 2.39
-8.58 -29.75 2.39
-7.99 -29.94 2.39
-7.39 -30.13 2.39
-6.79 -30.30 2.39
-6.42 -31.58 2.48
-5.82 -31.94 2.49
-5.19 -32.09 2.49
-4.55 -32.22 2.49
-3.90 -32.34 2.49
-3.26 -32.45 2.49
-2.61 -32.55 2.49
-1.96 -32.63 2.49
-1.30 -32.71 2.49
-0.65 -32.77 2.49
0.01 -25.27 2.49
0.52 -25.29 2.49
1.03 -25.30 2.49
1.54 -25.30 2.49
1.96 -24.24 2.39
2.45 -24.22 2.39
2.94 -24.19 2.39
3.43 -24.16 2.39
3.92 -24.11 2.39
4.41 -24.05 2.39
4.89 -23.98 2.39
5.38 -23.90 2.39
5.87 -23.84 2.39
6.35 -23.75 2.39
6.84 -23.64 2.39
7.32 -23.53 2.39
7.80 -23.40 2.39
2.31 -6.50 0.67
8.75 -23.12 2.39
9.22 -22.97 2.39
9.69 -22.80 2.39
10.16 -22.63 2.39
10.63 -22.45 2.39
11.09 -22.25 2.39
11.54 -22.05 2.39
12.00 -21.84 2.39
12.45 -21.62 2.39
12.90 -21.39 2.39
13.34 -21.15 2.39
13.77 -20.90 2.39
14.21 -20.65 2.39
14.64 -20.38 2.39
13.03 -17.40 2.07
13.59 -17.41 2.10
15.89 -19.53 2.39
16.30 -19.23 2.39
16.70 -18.92 2.39
17.10 -18.60 2.39
17.49 -18.28 2.39
17.87 -17.94 2.39
18.25 -17.60 2.39
18.62 -17.25 2.39
18.98 -16.89 2.39
19.34 -16.52 2.39
19.68 -16.15 2.39
20.03 -15.77 2.39
20.36 -15.38 2.39
20.69 -14.98 2.39
21.01 -14.58 2.39
21.32 -14.17 2.39
21.62 -13.76 2.39
21.91 -13.33 2.39
22.20 -12.90 2.39
22.48 -12.47 2.39
22.75 -12.03 2.39
21.40 -10.77 2.23
21.36 -10.22 2.20
20.95 -9.51 2.13
20.91 -8.99 2.11
21.11 -8.58 2.11
20.61 -7.90 2.04
24.37 -8.78 2.39
23.98 -8.10 2.34
23.79 -7.51 2.30
23.05 -6.77 2.21
23.06 -6.27 2.20
23.07 -5.78 2.19
23.08 -5.29 2.18
23.08 -4.81 2.17
23.09 -4.33 2.16
23.10 -3.85 2.15
23.11 -3.38 2.14
23.11 -2.91 2.13
23.12 -2.44 2.13
23.13 -1.97 2.12
23.14 -1.51 2.12
23.14 -1.04 2.12
23.15 -0.58 2.11
23.16 -0.11 2.11
23.17 0.35 2.11
23.15 0.82 2.11
23.16 1.28 2.11
23.16 1.75 2.11
20.17 1.93 1.84
19.73 2.29 1.81
19.31 2.64 1.77
18.92 2.97 1.74
19.27 3.42 1.78
19.69 3.91 1.82
20.13 4.42 1.87
21.42 5.15 2.00
18.01 4.72 1.69
16.71 4.74 1.57
15.58 4.75 1.48
14.58 4.77 1.39
13.69 4.79 1.31
12.89 4.80 1.25
12.17 4.81 1.18
12.03 5.04 1.18
12.03 5.32 1.19
12.04 5.62 1.20
12.04 5.92 1.21
12.05 6.22 1.23
12.05 6.53 1.24
12.06 6.85 1.26
12.06 7.18 1.27
12.07 7.52 1.29
12.07 7.86 1.30
12.08 8.21 1.32
12.08 8.58 1.34
12.05 8.92 1.36
11.99 9.26 1.37
10.70 8.61 1.24
12.00 10.06 1.42
12.06 10.53 1.45
12.12 11.02 1.49
12.13 11.48 1.51
12.14 11.95 1.55
12.24 12.54 1.59
12.25 13.07 1.63
12.21 13.56 1.66
12.17 14.08 1.69
11.99 14.44 1.71
11.56 14.51 1.69
11.27 14.74 1.69
10.97 14.96 1.69
10.67 15.19 1.69
10.46 15.54 1.71
10.51 16.31 1.77
11.18 18.13 1.94
10.68 18.14 1.92
10.20 18.15 1.90
9.73 18.16 1.88
10.04 19.67 2.02
9.55 19.68 2.00
9.86 21.40 2.16
10.45 23.93 2.39
9.96 24.12 2.39
9.47 24.30 2.39
8.98 24.46 2.39
8.48 24.62 2.39
7.97 24.76 2.39
7.47 24.90 2.39
6.96 25.02 2.39
6.45 25.11 2.39
5.94 25.21 2.39
5.42 25.30 2.39
4.91 25.38 2.39
4.40 25.45 2.39
3.88 25.51 2.39
3.37 25.56 2.39
2.85 25.60 2.39
2.43 26.73 2.49
1.89 26.75 2.49
1.36 26.75 2.49
0.82 26.75 2.49
0.28 26.73 2.49
-0.26 26.70 2.49
-0.79 26.67 2.49
-1.32 26.62 2.49
-1.86 26.56 2.49
-2.39 26.49 2.49
-2.91 26.40 2.49
-3.44 26.31 2.49
-3.96 26.21 2.49
-4.48 26.09 2.49
-5.00 25.97 2.49
-5.49 25.72 2.48
-5.78 24.63 2.39
-6.26 24.48 2.39
-6.74 24.32 2.39
-7.22 24.15 2.39
-7.70 23.98 2.39
-8.17 23.79 2.39
-8.63 23.59 2.39
-9.09 23.39 2.39
-6.08 14.76 1.52
-10.01 22.96 2.39
-10.31 22.41 2.36
-10.64 21.96 2.33
-10.83 21.25 2.28
-10.91 20.38 2.22
-11.02 19.64 2.16
-11.11 18.90 2.11
-11.26 18.31 2.07
-11.41 17.74 2.03
-11.54 17.17 2.00
-11.78 16.80 1.98
-12.08 16.50 1.98
-12.37 16.20 1.97
-12.55 15.78 1.95
-12.74 15.38 1.94
-12.83 14.86 1.91
-12.91 14.36 1.88
-12.96 13.85 1.85
-13.00 13.35 1.82
-13.04 12.86 1.79
-13.08 12.39 1.76
-13.16 11.98 1.74
-13.25 11.58 1.72
-13.34 11.19 1.71
-13.42 10.81 1.69
-13.47 10.41 1.67
-13.49 10.00 1.65
-13.53 9.61 1.63
-13.57 9.24 1.62
-13.60 8.86 1.60
-13.60 8.48 1.58
-13.60 8.10 1.56
-13.50 7.68 1.54
-13.39 7.27 1.51
-13.28 6.87 1.48
-13.17 6.48 1.46
-13.08 6.11 1.43
-13.05 5.78 1.42
-13.03 5.46 1.40
-13.02 5.15 1.39
-13.00 4.84 1.38
-12.98 4.54 1.37
-12.96 4.25 1.36
-12.95 3.96 1.35
-12.96 3.68 1.35
-12.98 3.40 1.34
-13.00 3.13 1.34
-13.01 2.86 1.33
-13.03 2.59 1.33
-13.04 2.32 1.33
-13.05 2.05 1.33
-13.06 1.79 1.32
-13.07 1.52 1.32
-13.08 1.26 1.32
-13.09 0.99 1.32
-13.10 0.73 1.32
-13.10 0.46 1.32
-13.11 0.20 1.32
-13.11 -0.06 1.32
-13.13 -0.33 1.32
-13.15 -0.59 1.33
-13.17 -0.86 1.33
-13.19 -1.12 1.34
-13.21 -1.39 1.34
-13.22 -1.66 1.35
-13.24 -1.94 1.35
-13.24 -2.21 1.36
-13.22 -2.48 1.36
-13.21 -2.75 1.37
-13.19 -3.03 1.37
-13.18 -3.31 1.38
-13.16 -3.58 1.38
-13.14 -3.86 1.39
-13.13 -4.15 1.40
-13.14 -4.44 1.41
-13.14 -4.74 1.42
-13.15 -5.04 1.43
-13.16 -5.35 1.44
-13.17 -5.67 1.45
-13.17 -5.99 1.47
-13.17 -6.31 1.48
-13.18 -6.64 1.50
-13.18 -6.97 1.51
-13.18 -7.32 1.53
-13.18 -7.67 1.55
-13.18 -8.03 1.57
-13.21 -8.41 1.59
-13.28 -8.84 1.62
-13.34 -9.27 1.65
-13.41 -9.73 1.68
-13.47 -10.18 1.71
-13.47 -10.61 1.74
-13.45 -11.05 1.77
-13.44 -11.50 1.79
-13.43 -11.96 1.82
-13.43 -12.46 1.86
-13.38 -12.92 1.89
-13.34 -13.41 1.92
-13.29 -13.91 1.95
-13.24 -14.43 1.98
-13.22 -15.00 2.02
-13.18 -15.58 2.06
-13.14 -16.17 2.11
-13.14 -16.85 2.16
-13.20 -17.65 2.23
-13.24 -18.46 2.29
-13.06 -19.01 2.33
-12.87 -19.56 2.36
-12.68 -20.14 2.40
-12.49 -20.76 2.44
-12.33 -21.45 2.49
-12.10 -22.06 2.53
-11.86 -22.69 2.58
-11.60 -23.34 2.62
-10.16 -21.51 2.39
-9.73 -21.72 2.39
-9.30 -21.93 2.39
-8.87 -22.13 2.39
-8.43 -22.32 2.39
-7.98 -22.50 2.39
-7.53 -22.67 2.39
-7.08 -22.83 2.39
-6.63 -22.99 2.39
-6.29 -23.58 2.44
-5.95 -24.28 2.49
-5.47 -24.41 2.49
-4.98 -24.54 2.49
-4.49 -24.65 2.49
-4.00 -24.76 2.49
-3.51 -24.86 2.49
-3.01 -24.95 2.49
-2.51 -25.02 2.49
-2.01 -25.09 2.49
-1.51 -25.15 2.49
-1.00 -25.20 2.49
-0.50 -25.24 2.49
0.01 -20.53 2.49
0.42 -20.54 2.49
0.84 -20.54 2.49
1.25 -20.54 2.49
1.66 -20.53 2.49
1.99 -19.66 2.39
2.39 -19.63 2.39
2.78 -19.60 2.39
3.18 -19.55 2.39
3.57 -19.50 2.39
3.97 -19.44 2.39
4.36 -19.38 2.39
4.75 -19.30 2.39
5.15 -19.22 2.39
5.54 -19.13 2.39
5.93 -19.05 2.39
6.32 -18.95 2.39
2.31 -6.50 0.83
7.09 -18.71 2.39
7.47 -18.59 2.39
7.85 -18.45 2.39
8.22 -18.30 2.39
8.60 -18.15 2.39
8.97 -17.99 2.39
7.65 -14.61 1.96
9.70 -17.65 2.39
10.06 -17.47 2.39
10.42 -17.28 2.39
10.78 -17.08 2.39
11.13 -16.88 2.39
11.47 -16.67 2.39
11.82 -16.45 2.39
12.16 -16.22 2.39
12.49 -15.99 2.39
12.82 -15.75 2.39
13.15 -15.51 2.39
13.47 -15.25 2.39
13.78 -14.99 2.39
13.00 -13.58 2.21
13.54 -13.59 2.25
14.70 -14.18 2.39
15.00 -13.89 2.39
15.29 -13.60 2.39
15.57 -13.30 2.39
15.85 -13.00 2.39
13.02 -10.25 1.93
13.14 -9.92 1.92
13.71 -9.93 1.97
16.90 -11.73 2.39
17.14 -11.39 2.39
17.38 -11.06 2.39
17.62 -10.72 2.39
17.84 -10.37 2.39
18.06 -10.02 2.39
18.27 -9.66 2.39
18.48 -9.30 2.39
18.68 -8.93 2.39
18.87 -8.56 2.39
19.05 -8.19 2.39
19.22 -7.81 2.39
19.39 -7.43 2.39
19.55 -7.04 2.39
19.70 -6.66 2.39
19.85 -6.26 2.39
19.98 -5.87 2.39
20.11 -5.47 2.39
20.23 -5.07 2.39
20.34 -4.66 2.39
20.44 -4.26 2.39
20.54 -3.85 2.39
20.62 -3.44 2.39
20.70 -3.03 2.39
20.77 -2.61 2.39
20.83 -2.20 2.39
20.88 -1.78 2.39
20.92 -1.36 2.39
20.96 -0.94 2.39
20.98 -0.52 2.39
21.00 -0.10 2.39
21.00 0.32 2.39
21.00 0.74 2.39
20.99 1.17 2.39
20.97 1.59 2.39
20.95 2.01 2.39
20.02 2.33 2.29
19.58 2.67 2.25
19.17 3.01 2.20
19.27 3.42 2.22
19.69 3.91 2.28
20.13 4.42 2.34
20.51 4.93 2.39
18.01 4.72 2.11
16.71 4.74 1.97
15.58 4.75 1.85
14.58 4.77 1.74
13.69 4.79 1.64
12.89 4.80 1.56
12.16 4.81 1.48
12.03 5.04 1.48
12.03 5.32 1.49
12.13 5.66 1.52
12.13 5.96 1.53
12.14 6.27 1.55
12.14 6.58 1.56
12.15 6.90 1.58
12.15 7.23 1.60
12.07 7.52 1.61
12.07 7.86 1.63
12.08 8.21 1.65
12.08 8.58 1.68
12.05 8.92 1.70
11.99 9.26 1.72
10.71 8.61 1.56
12.00 10.06 1.78
12.06 10.53 1.82
12.12 11.02 1.86
12.13 11.48 1.89
12.14 11.95 1.93
12.24 12.54 1.99
12.25 13.07 2.03
12.16 13.51 2.06
12.17 14.08 2.11
11.99 14.44 2.13
11.56 14.51 2.11
11.27 14.74 2.11
10.97 14.96 2.11
10.67 15.18 2.11
10.46 15.54 2.13
10.51 16.31 2.21
11.02 17.88 2.39
10.65 18.09 2.39
10.21 18.15 2.38
9.74 18.16 2.35
9.53 18.66 2.39
9.15 18.84 2.39
8.76 19.01 2.39
8.38 19.17 2.39
7.98 19.32 2.39
7.59 19.47 2.39
7.19 19.60 2.39
6.80 19.73 2.39
6.39 19.83 2.39
5.98 19.94 2.39
5.58 20.04 2.39
5.17 20.14 2.39
4.76 20.22 2.39
4.35 20.30 2.39
3.94 20.37 2.39
3.53 20.43 2.39
3.12 20.48 2.39
2.70 20.52 2.39
2.39 21.44 2.49
1.96 21.47 2.49
1.52 21.49 2.49
1.09 21.50 2.49
0.66 21.50 2.49
0.23 21.49 2.49
-0.20 21.47 2.49
-0.63 21.44 2.49
-1.06 21.41 2.49
-1.49 21.36 2.49
-1.92 21.31 2.49
-2.34 21.25 2.49
-2.77 21.18 2.49
-3.19 21.10 2.49
-3.61 21.01 2.49
-4.02 20.92 2.49
-4.44 20.81 2.49
-4.85 20.70 2.49
-5.26 20.58 2.49
-5.58 20.13 2.45
-5.82 19.48 2.39
-6.21 19.34 2.39
-6.59 19.19 2.39
-6.96 19.04 2.39
-7.34 18.88 2.39
-6.08 14.76 1.89
-8.07 18.53 2.39
-8.44 18.35 2.39
-8.79 18.16 2.39
-9.15 17.96 2.39
-9.50 17.76 2.39
-9.95 17.75 2.42
-10.23 17.40 2.40
-10.52 17.11 2.39
-10.75 16.72 2.37
-10.90 16.23 2.33
-11.11 15.84 2.31
-11.26 15.39 2.28
-11.40 14.95 2.25
-11.58 14.56 2.23
-11.77 14.21 2.21
-11.93 13.83 2.19
-12.08 13.44 2.17
-12.19 13.03 2.14
-12.30 12.63 2.12
-12.40 12.23 2.10
-12.52 11.87 2.08
-12.73 11.58 2.07
-12.87 11.25 2.06
-12.96 10.87 2.04
-13.04 10.51 2.02
-13.10 10.13 2.00
-13.14 9.74 1.98
-13.18 9.37 1.96
-13.22 9.00 1.94
-13.26 8.64 1.92
-13.28 8.28 1.90
-13.24 7.89 1.87
-13.13 7.48 1.84
-13.03 7.08 1.81
-12.93 6.69 1.77
-12.76 6.28 1.73
-12.62 5.90 1.70
-12.62 5.59 1.69
-12.60 5.28 1.67
-12.58 4.98 1.65
-12.56 4.68 1.64
-12.53 4.39 1.63
-12.51 4.10 1.61
-12.50 3.82 1.60
-12.49 3.54 1.59
-12.51 3.28 1.59
-12.53 3.02 1.58
-12.55 2.76 1.58
-12.58 2.50 1.58
-12.60 2.24 1.57
-12.61 1.98 1.57
-12.65 1.73 1.57
-12.67 1.47 1.57
-12.68 1.22 1.57
-12.69 0.96 1.57
-12.70 0.71 1.57
-12.70 0.45 1.57
-12.71 0.20 1.57
-12.71 -0.06 1.57
-12.72 -0.32 1.57
-12.74 -0.57 1.58
-12.76 -0.83 1.58
-12.79 -1.09 1.59
-12.81 -1.35 1.60
-12.83 -1.62 1.60
-12.85 -1.88 1.61
-12.87 -2.15 1.62
-12.85 -2.41 1.62
-12.83 -2.67 1.63
-12.80 -2.94 1.63
-12.77 -3.20 1.63
-12.74 -3.47 1.64
-12.71 -3.74 1.65
-12.68 -4.01 1.65
-12.65 -4.28 1.66
-12.62 -4.55 1.67
-12.62 -4.84 1.68
-12.62 -5.13 1.69
-12.62 -5.43 1.71
-12.62 -5.74 1.72
-12.62 -6.05 1.74
-12.60 -6.35 1.75
-12.55 -6.64 1.77
-12.52 -6.95 1.78
-12.51 -7.28 1.80
-12.49 -7.61 1.82
-12.48 -7.95 1.84
-12.46 -8.29 1.86
-12.40 -8.62 1.88
-12.35 -8.96 1.90
-12.51 -9.46 1.95
-12.77 -10.06 2.02
-12.80 -10.51 2.06
-12.72 -10.88 2.08
-12.63 -11.26 2.10
-12.55 -11.64 2.12
-12.46 -12.03 2.15
-12.35 -12.42 2.17
-12.22 -12.78 2.19
-12.08 -13.16 2.22
-11.93 -13.54 2.24
-11.77 -13.91 2.26
-11.60 -14.28 2.28
-11.63 -14.92 2.34
-11.70 -15.65 2.42
-11.67 -16.28 2.48
-11.58 -16.86 2.53
-11.48 -17.46 2.58
-11.38 -18.08 2.64
-9.97 -16.57 2.39
-9.64 -16.78 2.39
-9.31 -16.98 2.39
-8.97 -17.17 2.39
-8.63 -17.35 2.39
-8.28 -17.53 2.39
-7.93 -17.70 2.39
-7.58 -17.87 2.39
-7.22 -18.03 2.39
-6.86 -18.18 2.39
-6.50 -18.33 2.39
-6.21 -18.70 2.42
-6.01 -19.40 2.49
-5.63 -19.53 2.49
-5.24 -19.65 2.49
-4.84 -19.76 2.49
-4.45 -19.87 2.49
-4.05 -19.97 2.49
-3.65 -20.06 2.49
-3.25 -20.14 2.49
-2.85 -20.22 2.49
-2.44 -20.29 2.49
-2.04 -20.35 2.49
-1.63 -20.40 2.49
-1.22 -20.44 2.49
-0.81 -20.48 2.49
-0.40 -20.51 2.49
0.01 -17.27 2.49
0.36 -17.28 2.49
0.71 -17.28 2.49
1.05 -17.27 2.49
1.40 -17.26 2.49
1.75 -17.24 2.49
2.01 -16.50 2.39
2.34 -16.47 2.39
2.67 -16.43 2.39
3.01 -16.39 2.39
3.34 -16.34 2.39
3.67 -16.28 2.39
4.00 -16.21 2.39
4.32 -16.14 2.39
4.60 -15.90 2.37
4.98 -15.98 2.39
5.30 -15.89 2.39
2.31 -6.50 0.98
5.95 -15.71 2.39
6.27 -15.59 2.39
5.19 -12.19 1.88
5.43 -12.09 1.88
5.79 -12.23 1.92
7.52 -15.09 2.39
7.83 -14.95 2.39
8.13 -14.80 2.39
8.44 -14.64 2.39
8.74 -14.48 2.39
9.03 -14.32 2.39
9.32 -14.14 2.39
9.61 -13.96 2.39
9.90 -13.78 2.39
8.02 -10.70 1.88
8.24 -10.54 1.88
10.74 -13.19 2.39
11.01 -12.98 2.39
11.27 -12.77 2.39
11.54 -12.55 2.39
11.80 -12.32 2.39
12.05 -12.09 2.39
12.30 -11.86 2.39
12.55 -11.62 2.39
12.79 -11.37 2.39
13.02 -11.12 2.39
13.25 -10.87 2.39
13.04 -10.26 2.32
13.17 -9.95 2.30
13.75 -9.96 2.37
14.12 -9.80 2.39
14.32 -9.52 2.39
14.52 -9.24 2.39
14.72 -8.95 2.39
14.90 -8.66 2.39
15.08 -8.36 2.39
13.07 -6.91 2.05
13.08 -6.58 2.03
13.76 -6.58 2.11
15.75 -7.15 2.39
15.90 -6.83 2.39
16.04 -6.52 2.39
16.18 -6.20 2.39
16.31 -5.87 2.39
16.44 -5.55 2.39
16.55 -5.22 2.39
16.66 -4.89 2.39
16.77 -4.56 2.39
13.79 -3.45 1.96
14.14 -3.24 2.00
17.04 -3.55 2.39
17.12 -3.21 2.39
17.19 -2.86 2.39
17.25 -2.52 2.39
17.31 -2.17 2.39
17.35 -1.83 2.39
17.39 -1.48 2.39
17.43 -1.13 2.39
17.46 -0.78 2.39
17.48 -0.43 2.39
17.49 -0.08 2.39
13.95 0.21 1.91
14.20 0.50 1.94
17.48 0.97 2.39
17.46 1.32 2.39
17.44 1.67 2.39
17.41 2.02 2.39
17.37 2.37 2.39
17.32 2.72 2.39
17.27 3.07 2.39
17.21 3.42 2.39
17.14 3.76 2.39
17.07 4.11 2.39
16.98 4.45 2.39
16.71 4.74 2.37
15.58 4.75 2.22
14.58 4.77 2.09
13.69 4.79 1.97
12.89 4.80 1.87
12.16 4.81 1.78
12.03 5.04 1.78
12.03 5.32 1.79
12.13 5.66 1.82
12.13 5.96 1.84
12.14 6.27 1.86
12.14 6.58 1.88
12.15 6.90 1.90
12.15 7.23 1.93
12.07 7.52 1.94
12.07 7.86 1.96
12.08 8.21 1.99
12.08 8.58 2.02
12.05 8.92 2.04
11.99 9.25 2.06
12.00 9.65 2.10
12.00 10.06 2.13
11.91 10.39 2.15
11.70 10.63 2.15
11.48 10.86 2.15
12.14 11.95 2.32
10.57 10.84 2.06
12.00 12.80 2.39
11.74 13.04 2.39
11.47 13.27 2.39
11.20 13.49 2.39
10.92 13.71 2.39
10.64 13.92 2.39
10.36 14.12 2.39
10.07 14.32 2.39
9.77 14.52 2.39
9.48 14.71 2.39
9.18 14.89 2.39
8.87 15.06 2.39
8.57 15.23 2.39
8.25 15.39 2.39
7.94 15.55 2.39
7.62 15.70 2.39
7.30 15.84 2.39
6.98 15.98 2.39
6.66 16.10 2.39
6.32 16.21 2.39
5.99 16.32 2.39
5.66 16.43 2.39
5.33 16.53 2.39
4.99 16.63 2.39
4.65 16.71 2.39
4.31 16.79 2.39
3.97 16.87 2.39
3.63 16.93 2.39
3.29 16.99 2.39
2.95 17.04 2.39
2.61 17.13 2.40
2.36 17.87 2.49
2.00 17.90 2.49
1.63 17.92 2.49
1.27 17.94 2.49
0.91 17.95 2.49
0.55 17.95 2.49
0.19 17.95 2.49
-0.17 17.93 2.49
-0.53 17.92 2.49
-0.89 17.89 2.49
-1.24 17.85 2.49
-1.60 17.81 2.49
-1.96 17.76 2.49
-2.31 17.71 2.49
-2.66 17.64 2.49
-3.01 17.57 2.49
-3.36 17.50 2.49
-3.71 17.41 2.49
-4.06 17.32 2.49
-4.40 17.22 2.49
-4.74 17.12 2.49
-5.08 17.01 2.49
-5.42 16.89 2.49
-5.64 16.44 2.45
-5.83 15.94 2.39
-6.14 15.81 2.39
-6.08 14.76 2.25
-6.76 15.53 2.39
-7.07 15.38 2.39
-7.37 15.22 2.39
-7.67 15.06 2.39
-7.96 14.89 2.39
-8.25 14.71 2.39
-8.54 14.53 2.39
-8.82 14.35 2.39
-9.10 14.16 2.39
-9.38 13.96 2.39
-9.65 13.76 2.39
-10.22 13.97 2.46
-10.47 13.72 2.46
-10.69 13.44 2.45
-10.86 13.11 2.43
-11.01 12.77 2.41
-11.16 12.42 2.39
-11.27 12.05 2.36
-11.42 11.73 2.34
-11.56 11.41 2.33
-11.70 11.09 2.31
-11.88 10.82 2.31
-12.08 10.56 2.30
-12.28 10.31 2.30
-12.47 10.05 2.30
-12.57 9.72 2.29
-12.70 9.42 2.28
-12.84 9.13 2.27
-12.89 8.78 2.25
-12.93 8.43 2.23
-12.96 8.09 2.21
-12.88 7.68 2.17
-12.68 7.22 2.11
-12.47 6.77 2.05
-12.28 6.35 2.00
-12.11 5.96 1.95
-12.12 5.67 1.94
-12.14 5.38 1.93
-12.14 5.09 1.91
-12.12 4.80 1.89
-12.11 4.51 1.88
-12.09 4.23 1.86
-12.07 3.96 1.85
-12.07 3.69 1.84
-12.07 3.43 1.83
-12.06 3.16 1.82
-12.08 2.91 1.81
-12.10 2.66 1.81
-12.12 2.41 1.80
-12.14 2.16 1.80
-12.16 1.91 1.80
-12.19 1.67 1.80
-12.23 1.42 1.80
-12.26 1.18 1.80
-12.27 0.93 1.80
-12.28 0.68 1.80
-12.28 0.44 1.80
-12.29 0.19 1.80
-12.30 -0.06 1.80
-12.30 -0.30 1.80
-12.30 -0.55 1.81
-12.30 -0.80 1.81
-12.32 -1.05 1.81
-12.34 -1.30 1.82
-12.36 -1.56 1.83
-12.38 -1.81 1.84
-12.40 -2.07 1.85
-12.39 -2.32 1.85
-12.37 -2.58 1.86
-12.35 -2.83 1.86
-12.32 -3.09 1.87
-12.29 -3.35 1.87
-12.26 -3.60 1.88
-12.23 -3.86 1.89
-12.19 -4.12 1.89
-12.17 -4.39 1.90
-12.14 -4.65 1.91
-12.11 -4.92 1.92
-12.07 -5.20 1.94
-12.07 -5.48 1.95
-12.07 -5.78 1.97
-12.06 -6.08 1.99
-12.03 -6.37 2.00
-11.98 -6.65 2.02
-11.92 -6.94 2.03
-11.87 -7.23 2.05
-11.81 -7.52 2.06
-11.78 -7.84 2.08
-11.75 -8.17 2.11
-11.70 -8.49 2.13
-11.64 -8.81 2.15
-11.58 -9.13 2.17
-11.52 -9.46 2.19
-11.45 -9.80 2.22
-11.47 -10.22 2.26
-11.41 -10.58 2.29
-11.31 -10.92 2.31
-11.20 -11.26 2.34
-11.07 -11.58 2.36
-10.92 -11.89 2.37
-10.76 -12.21 2.39
-10.62 -12.55 2.41
-10.49 -12.92 2.44
-10.01 -12.84 2.39
-9.75 -13.04 2.39
-9.49 -13.24 2.39
-9.23 -13.43 2.39
-8.96 -13.62 2.39
-8.69 -13.80 2.39
-8.41 -13.98 2.39
-8.13 -14.15 2.39
-7.85 -14.32 2.39
-7.56 -14.48 2.39
-7.27 -14.63 2.39
-6.98 -14.78 2.39
-6.69 -14.93 2.39
-6.39 -15.07 2.39
-6.16 -15.38 2.42
-6.03 -15.99 2.49
-5.71 -16.11 2.49
-5.39 -16.23 2.49
-5.07 -16.35 2.49
-4.74 -16.45 2.49
-4.41 -16.55 2.49
-4.08 -16.65 2.49
-3.75 -16.74 2.49
-3.41 -16.82 2.49
-3.08 -16.89 2.49
-2.74 -16.96 2.49
-2.40 -17.02 2.49
-2.06 -17.08 2.49
-1.71 -17.13 2.49
-1.37 -17.17 2.49
-1.03 -17.20 2.49
-0.68 -17.23 2.49
-0.33 -17.25 2.49
0.01 -14.89 2.49
0.31 -14.90 2.49
0.61 -14.90 2.49
0.91 -14.89 2.49
1.21 -14.88 2.49
1.51 -14.86 2.49
1.81 -14.84 2.49
2.02 -14.19 2.39
2.31 -14.16 2.39
2.59 -14.12 2.39
2.88 -14.07 2.39
3.16 -14.02 2.39
3.44 -13.96 2.39
3.73 -13.90 2.39
4.01 -13.83 2.39
4.29 -13.76 2.39
4.56 -13.68 2.39
2.31 -6.50 1.14
5.12 -13.50 2.39
5.39 -13.41 2.39
5.66 -13.30 2.39
5.51 -12.25 2.22
6.21 -13.10 2.39
6.47 -12.98 2.39
6.74 -12.86 2.39
7.00 -12.73 2.39
7.26 -12.59 2.39
7.51 -12.45 2.39
7.77 -12.31 2.39
8.02 -12.16 2.39
8.27 -12.00 2.39
8.51 -11.84 2.39
8.75 -11.68 2.39
8.99 -11.51 2.39
9.23 -11.33 2.39
9.46 -11.15 2.39
9.69 -10.97 2.39
9.91 -10.78 2.39
10.13 -10.58 2.39
10.35 -10.39 2.39
10.56 -10.18 2.39
10.77 -9.97 2.39
10.98 -9.76 2.39
11.18 -9.55 2.39
11.38 -9.33 2.39
11.57 -9.10 2.39
11.76 -8.87 2.39
11.94 -8.64 2.39
12.12 -8.41 2.39
12.29 -8.17 2.39
12.46 -7.92 2.39
12.62 -7.68 2.39
12.78 -7.42 2.39
12.94 -7.17 2.39
13.09 -6.91 2.39
13.11 -6.59 2.37
13.37 -6.39 2.39
13.50 -6.12 2.39
13.63 -5.86 2.39
13.75 -5.58 2.39
13.87 -5.31 2.39
13.98 -5.03 2.39
14.09 -4.75 2.39
14.19 -4.47 2.39
14.28 -4.19 2.39
14.37 -3.90 2.39
13.13 -3.29 2.17
13.33 -3.05 2.20
14.60 -3.04 2.39
14.66 -2.75 2.39
14.72 -2.45 2.39
14.77 -2.16 2.39
14.82 -1.86 2.39
14.86 -1.56 2.39
14.89 -1.27 2.39
14.92 -0.97 2.39
14.94 -0.67 2.39
14.96 -0.37 2.39
14.97 -0.07 2.39
13.30 0.21 2.13
13.19 0.47 2.11
14.96 0.83 2.39
14.95 1.13 2.39
14.92 1.43 2.39
14.90 1.73 2.39
14.86 2.03 2.39
14.82 2.33 2.39
14.78 2.63 2.39
14.72 2.92 2.39
14.67 3.22 2.39
14.60 3.51 2.39
14.53 3.81 2.39
14.45 4.10 2.39
14.37 4.39 2.39
14.28 4.67 2.39
13.68 4.79 2.31
12.89 4.80 2.19
12.16 4.81 2.08
12.03 5.04 2.08
12.03 5.32 2.09
12.04 5.62 2.11
12.04 5.92 2.14
12.05 6.22 2.16
12.05 6.53 2.18
12.06 6.85 2.21
12.06 7.18 2.23
12.07 7.52 2.26
12.07 7.86 2.29
12.08 8.21 2.32
11.89 8.44 2.32
11.41 8.44 2.26
10.95 8.45 2.20
10.54 8.48 2.15
10.40 8.71 2.16
10.41 9.08 2.20
10.41 9.46 2.24
10.42 9.85 2.28
10.43 10.26 2.33
10.43 10.69 2.38
10.27 10.95 2.39
10.04 11.15 2.39
9.81 11.35 2.39
9.58 11.54 2.39
9.35 11.73 2.39
9.11 11.91 2.39
8.86 12.09 2.39
8.62 12.26 2.39
8.37 12.43 2.39
8.11 12.59 2.39
7.86 12.74 2.39
7.60 12.89 2.39
7.33 13.04 2.39
7.07 13.18 2.39
6.80 13.31 2.39
6.53 13.44 2.39
6.25 13.55 2.39
5.97 13.67 2.39
5.70 13.78 2.39
5.42 13.88 2.39
5.13 13.98 2.39
4.85 14.08 2.39
4.56 14.16 2.39
4.28 14.24 2.39
3.99 14.32 2.39
3.70 14.39 2.39
3.41 14.45 2.39
3.12 14.51 2.39
2.82 14.56 2.39
2.53 14.61 2.39
2.33 15.28 2.49
2.02 15.32 2.49
1.71 15.35 2.49
1.40 15.37 2.49
1.09 15.38 2.49
0.78 15.39 2.49
0.48 15.40 2.49
0.17 15.40 2.49
-0.14 15.39 2.49
-0.45 15.37 2.49
-0.76 15.35 2.49
-1.07 15.32 2.49
-1.37 15.29 2.49
-1.68 15.25 2.49
-1.98 15.20 2.49
-2.28 15.15 2.49
-2.59 15.09 2.49
-2.89 15.02 2.49
-3.19 14.95 2.49
-3.48 14.88 2.49
-3.78 14.79 2.49
-4.07 14.71 2.49
-4.36 14.61 2.49
-4.65 14.51 2.49
-4.94 14.40 2.49
-5.22 14.29 2.49
-5.51 14.18 2.49
-5.68 13.80 2.45
-5.81 13.35 2.39
-6.07 13.22 2.39
-6.33 13.09 2.39
-6.59 12.95 2.39
-6.84 12.80 2.39
-7.10 12.66 2.39
-7.34 12.50 2.39
-7.59 12.34 2.39
-7.83 12.18 2.39
-8.07 12.01 2.39
-8.30 11.84 2.39
-8.53 11.66 2.39
-8.76 11.48 2.39
-8.98 11.30 2.39
-9.20 11.11 2.39
-9.41 10.91 2.39
-9.62 10.71 2.39
-10.44 11.16 2.54
-10.65 10.94 2.54
-10.84 10.70 2.53
-10.98 10.41 2.52
-11.14 10.14 2.51
-11.28 9.87 2.50
-11.38 9.55 2.48
-11.47 9.25 2.46
-11.56 8.94 2.44
-11.67 8.65 2.43
-11.79 8.39 2.42
-11.92 8.12 2.41
-12.03 7.84 2.40
-12.13 7.57 2.39
-12.17 7.26 2.37
-11.99 6.83 2.31
-11.82 6.42 2.26
-11.65 6.03 2.20
-11.64 5.73 2.18
-11.66 5.45 2.16
-11.68 5.18 2.15
-11.70 4.91 2.13
-11.70 4.63 2.12
-11.69 4.36 2.10
-11.67 4.09 2.08
-11.66 3.82 2.07
-11.67 3.57 2.06
-11.67 3.31 2.05
-11.67 3.06 2.04
-11.67 2.81 2.03
-11.67 2.57 2.02
-11.69 2.33 2.02
-11.71 2.09 2.01
-11.74 1.85 2.01
-11.77 1.61 2.01
-11.80 1.37 2.01
-11.84 1.14 2.01
-11.87 0.90 2.02
-11.88 0.66 2.02
-11.89 0.42 2.02
-11.90 0.18 2.02
-11.90 -0.05 2.02
-11.90 -0.29 2.02
-11.91 -0.53 2.02
-11.91 -0.77 2.03
-11.90 -1.01 2.03
-11.90 -1.25 2.03
-11.92 -1.50 2.04
-11.94 -1.75 2.05
-11.95 -1.99 2.06
-11.96 -2.24 2.07
-11.94 -2.49 2.07
-11.92 -2.73 2.08
-11.89 -2.98 2.09
-11.87 -3.23 2.09
-11.84 -3.48 2.10
-11.81 -3.73 2.11
-11.77 -3.98 2.12
-11.74 -4.23 2.12
-11.71 -4.49 2.14
-11.68 -4.75 2.15
-11.64 -5.01 2.16
-11.61 -5.27 2.17
-11.57 -5.54 2.19
-11.54 -5.81 2.20
-11.53 -6.10 2.22
-11.49 -6.38 2.24
-11.44 -6.65 2.25
-11.38 -6.93 2.27
-11.32 -7.21 2.29
-11.26 -7.49 2.30
-11.19 -7.78 2.32
-11.13 -8.07 2.34
-11.01 -8.33 2.35
-10.88 -8.58 2.36
-10.75 -8.83 2.37
-10.61 -9.08 2.38
-10.47 -9.33 2.39
-10.32 -9.57 2.40
-10.17 -9.82 2.41
-9.91 -9.96 2.39
-9.71 -10.16 2.39
-9.50 -10.36 2.39
-9.30 -10.55 2.39
-9.08 -10.73 2.39
-8.87 -10.92 2.39
-8.65 -11.10 2.39
-8.43 -11.27 2.39
-8.20 -11.44 2.39
-7.97 -11.61 2.39
-7.74 -11.77 2.39
-7.50 -11.93 2.39
-7.27 -12.08 2.39
-7.02 -12.23 2.39
-6.78 -12.37 2.39
-6.53 -12.51 2.39
-6.28 -12.64 2.39
-6.12 -12.96 2.43
-6.02 -13.45 2.49
-5.75 -13.57 2.49
-5.48 -13.69 2.49
-5.21 -13.80 2.49
-4.93 -13.91 2.49
-4.65 -14.01 2.49
-4.37 -14.11 2.49
-4.09 -14.20 2.49
-3.81 -14.29 2.49
-3.52 -14.37 2.49
-3.23 -14.44 2.49
-2.94 -14.51 2.49
-2.65 -14.58 2.49
-2.36 -14.64 2.49
-2.07 -14.69 2.49
-1.77 -14.73 2.49
-1.48 -14.77 2.49
-1.18 -14.81 2.49
-0.88 -14.84 2.49
-0.59 -14.86 2.49
-0.29 -14.88 2.49
0.01 -13.08 2.49
0.27 -13.08 2.49
0.54 -13.08 2.49
0.80 -13.07 2.49
1.06 -13.06 2.49
1.33 -13.04 2.49
1.59 -13.02 2.49
1.85 -12.99 2.49
2.03 -12.43 2.39
2.28 -12.39 2.39
2.53 -12.35 2.39
2.77 -12.30 2.39
3.02 -12.25 2.39
3.27 -12.19 2.39
3.52 -12.13 2.39
2.27 -7.29 1.44
2.49 -7.45 1.48
2.31 -6.49 1.30
4.49 -11.84 2.39
4.73 -11.75 2.39
4.97 -11.66 2.39
5.20 -11.57 2.39
5.44 -11.47 2.39
5.67 -11.37 2.39
5.90 -11.26 2.39
6.14 -11.15 2.39
6.36 -11.04 2.39
6.59 -10.91 2.39
6.81 -10.78 2.39
7.03 -10.65 2.39
7.24 -10.51 2.39
7.46 -10.37 2.39
7.61 -10.14 2.37
7.80 -9.98 2.37
8.08 -9.92 2.39
8.29 -9.77 2.39
8.48 -9.60 2.39
8.68 -9.44 2.39
8.87 -9.27 2.39
9.06 -9.09 2.39
9.25 -8.91 2.39
9.43 -8.73 2.39
9.61 -8.54 2.39
9.79 -8.35 2.39
9.96 -8.16 2.39
10.12 -7.96 2.39
8.10 -6.11 1.88
8.23 -5.96 1.89
8.35 -5.79 1.88
10.75 -7.14 2.39
10.90 -6.93 2.39
11.04 -6.71 2.39
11.18 -6.49 2.39
11.32 -6.27 2.39
11.45 -6.05 2.39
11.57 -5.82 2.39
11.69 -5.59 2.39
11.81 -5.35 2.39
11.92 -5.12 2.39
12.02 -4.88 2.39
12.12 -4.64 2.39
12.22 -4.40 2.39
12.31 -4.15 2.39
12.40 -3.91 2.39
12.48 -3.66 2.39
12.56 -3.41 2.39
12.63 -3.16 2.39
12.69 -2.91 2.39
12.75 -2.65 2.39
12.81 -2.40 2.39
12.86 -2.14 2.39
12.91 -1.88 2.39
12.95 -1.63 2.39
12.98 -1.37 2.39
13.01 -1.11 2.39
13.03 -0.84 2.39
13.05 -0.58 2.39
13.07 -0.32 2.39
13.07 -0.06 2.39
13.08 0.20 2.39
13.07 0.47 2.39
13.06 0.73 2.39
13.05 0.99 2.39
13.03 1.25 2.39
13.01 1.51 2.39
12.98 1.77 2.39
12.94 2.03 2.39
12.90 2.29 2.39
12.86 2.55 2.39
12.80 2.81 2.39
12.75 3.07 2.39
12.69 3.32 2.39
12.62 3.58 2.39
12.55 3.83 2.39
12.47 4.08 2.39
12.38 4.33 2.39
12.30 4.58 2.39
12.16 4.81 2.38
12.03 5.04 2.38
12.00 5.31 2.39
11.89 5.55 2.39
11.78 5.79 2.39
11.66 6.02 2.39
11.54 6.26 2.39
11.41 6.49 2.39
11.28 6.71 2.39
11.14 6.94 2.39
11.00 7.16 2.39
10.85 7.38 2.39
10.70 7.59 2.39
10.55 7.81 2.39
10.39 8.02 2.39
10.22 8.22 2.39
10.06 8.42 2.39
9.88 8.62 2.39
9.71 8.82 2.39
9.53 9.01 2.39
9.34 9.20 2.39
9.16 9.38 2.39
8.96 9.56 2.39
8.77 9.74 2.39
8.57 9.91 2.39
8.37 10.08 2.39
8.16 10.24 2.39
7.95 10.40 2.39
7.74 10.56 2.39
7.53 10.71 2.39
7.31 10.85 2.39
7.09 10.99 2.39
6.86 11.13 2.39
6.64 11.26 2.39
6.41 11.39 2.39
6.17 11.50 2.39
5.93 11.62 2.39
5.70 11.73 2.39
5.46 11.84 2.39
5.22 11.94 2.39
4.98 12.04 2.39
4.73 12.13 2.39
4.49 12.22 2.39
4.24 12.30 2.39
3.99 12.38 2.39
3.74 12.45 2.39
3.49 12.52 2.39
3.23 12.58 2.39
2.98 12.63 2.39
2.72 12.69 2.39
2.47 12.73 2.39
2.31 13.32 2.49
2.04 13.36 2.49
1.77 13.39 2.49
1.50 13.42 2.49
1.23 13.44 2.49
0.96 13.45 2.49
0.69 13.46 2.49
0.42 13.47 2.49
0.15 13.47 2.49
-0.12 13.46 2.49
-0.39 13.45 2.49
-0.66 13.43 2.49
-0.93 13.41 2.49
-1.20 13.38 2.49
-1.47 13.34 2.49
-1.73 13.30 2.49
-2.00 13.26 2.49
-2.26 13.21 2.49
-2.53 13.15 2.49
-2.79 13.09 2.49
-3.05 13.03 2.49
-3.31 12.95 2.49
-3.56 12.88 2.49
-3.82 12.80 2.49
-4.07 12.71 2.49
-4.32 12.62 2.49
-4.57 12.52 2.49
-4.82 12.42 2.49
-5.07 12.31 2.49
-5.31 12.20 2.49
-5.55 12.08 2.49
-5.71 11.81 2.46
-5.77 11.35 2.39
-6.00 11.22 2.39
-6.22 11.09 2.39
-6.43 10.96 2.39
-6.65 10.82 2.39
-6.86 10.68 2.39
-7.07 10.53 2.39
-7.28 10.38 2.39
-7.48 10.23 2.39
-7.68 10.07 2.39
-7.87 9.91 2.39
-8.07 9.74 2.39
-8.26 9.57 2.39
-8.44 9.40 2.39
-8.62 9.22 2.39
-8.80 9.04 2.39
-8.98 8.86 2.39
-9.15 8.67 2.39
-9.31 8.48 2.39
-9.48 8.29 2.39
-9.64 8.09 2.39
-9.79 7.89 2.39
-10.64 8.23 2.56
-10.76 7.99 2.55
-10.89 7.74 2.54
-10.99 7.49 2.53
-11.09 7.23 2.52
-11.19 6.98 2.51
-11.28 6.73 2.51
-11.37 6.47 2.50
-11.22 6.10 2.44
-11.18 5.79 2.41
-11.21 5.52 2.39
-11.23 5.25 2.37
-11.25 4.99 2.35
-11.27 4.73 2.34
-11.29 4.47 2.33
-11.29 4.21 2.31
-11.28 3.95 2.29
-11.28 3.70 2.28
-11.29 3.45 2.27
-11.29 3.21 2.25
-11.29 2.96 2.24
-11.29 2.72 2.23
-11.29 2.48 2.22
-11.29 2.25 2.21
-11.31 2.02 2.21
-11.34 1.79 2.21
-11.37 1.56 2.21
-11.40 1.33 2.21
-11.44 1.10 2.21
-11.46 0.87 2.22
-11.49 0.64 2.22
-11.52 0.41 2.22
-11.52 0.18 2.22
-11.53 -0.05 2.22
-11.53 -0.28 2.23
-11.53 -0.52 2.23
-11.53 -0.75 2.23
-11.53 -0.98 2.23
-11.53 -1.21 2.24
-11.52 -1.45 2.24
-11.52 -1.68 2.25
-11.54 -1.92 2.26
-11.55 -2.17 2.27
-11.53 -2.40 2.28
-11.51 -2.64 2.28
-11.48 -2.88 2.29
-11.46 -3.12 2.30
-11.43 -3.36 2.31
-11.41 -3.60 2.31
-11.38 -3.85 2.32
-11.34 -4.09 2.33
-11.31 -4.34 2.34
-11.27 -4.59 2.36
-11.24 -4.84 2.37
-11.20 -5.09 2.38
-11.17 -5.35 2.40
-11.13 -5.61 2.41
-11.09 -5.87 2.43
-11.01 -6.11 2.44
-10.90 -6.34 2.44
-10.80 -6.58 2.45
-10.68 -6.80 2.45
-10.56 -7.03 2.46
-10.44 -7.26 2.46
-10.00 -7.25 2.39
-9.85 -7.45 2.39
-9.70 -7.65 2.39
-9.54 -7.84 2.39
-9.39 -8.03 2.39
-9.22 -8.22 2.39
-9.06 -8.40 2.39
-8.89 -8.59 2.39
-8.72 -8.76 2.39
-8.54 -8.94 2.39
-8.36 -9.11 2.39
-8.18 -9.28 2.39
-7.99 -9.44 2.39
-7.80 -9.60 2.39
-7.61 -9.76 2.39
-7.41 -9.91 2.39
-7.21 -10.06 2.39
-7.01 -10.21 2.39
-6.81 -10.35 2.39
-6.60 -10.49 2.39
-6.39 -10.62 2.39
-6.18 -10.75 2.39
-6.08 -11.10 2.44
-5.99 -11.47 2.49
-5.76 -11.59 2.49
-5.53 -11.71 2.49
-5.29 -11.82 2.49
-5.06 -11.93 2.49
-4.82 -12.04 2.49
-4.58 -12.13 2.49
-4.33 -12.23 2.49
-4.09 -12.32 2.49
-3.84 -12.40 2.49
-3.59 -12.48 2.49
-3.34 -12.56 2.49
-3.09 -12.63 2.49
-2.84 -12.69 2.49
-2.58 -12.75 2.49
-2.33 -12.81 2.49
-2.07 -12.86 2.49
-1.81 -12.90 2.49
-1.56 -12.94 2.49
-1.30 -12.98 2.49
-1.04 -13.01 2.49
-0.77 -13.03 2.49
-0.51 -13.05 2.49
-0.25 -13.07 2.49
0.01 -11.64 2.49
0.25 -11.65 2.49
0.48 -11.65 2.49
0.71 -11.64 2.49
0.95 -11.63 2.49
1.18 -11.61 2.49
1.42 -11.59 2.49
1.65 -11.57 2.49
1.88 -11.54 2.49
2.03 -11.03 2.39
2.25 -10.99 2.39
2.47 -10.95 2.39
2.69 -10.90 2.39
2.91 -10.85 2.39
3.13 -10.80 2.39
2.27 -7.28 1.62
2.38 -7.14 1.60
2.30 -6.46 1.46
2.44 -6.43 1.46
4.21 -10.46 2.39
4.42 -10.38 2.39
4.63 -10.29 2.39
4.84 -10.20 2.39
5.04 -10.11 2.39
5.25 -10.01 2.39
5.45 -9.91 2.39
5.65 -9.80 2.39
5.85 -9.69 2.39
6.05 -9.59 2.39
6.25 -9.47 2.39
6.44 -9.35 2.39
5.22 -7.26 1.88
5.37 -7.16 1.88
5.51 -7.05 1.88
7.18 -8.82 2.39
7.36 -8.68 2.39
7.54 -8.53 2.39
7.71 -8.38 2.39
7.89 -8.23 2.39
8.05 -8.08 2.39
8.22 -7.92 2.39
8.38 -7.75 2.39
8.54 -7.59 2.39
8.69 -7.42 2.39
8.84 -7.25 2.39
8.99 -7.07 2.39
9.14 -6.89 2.39
7.42 -5.37 1.91
7.57 -5.25 1.92
9.55 -6.34 2.39
9.68 -6.15 2.39
9.81 -5.96 2.39
9.93 -5.76 2.39
10.05 -5.57 2.39
10.16 -5.37 2.39
10.27 -5.16 2.39
10.38 -4.96 2.39
10.48 -4.75 2.39
10.58 -4.54 2.39
10.67 -4.33 2.39
10.76 -4.12 2.39
10.84 -3.90 2.39
10.93 -3.69 2.39
11.00 -3.47 2.39
11.07 -3.25 2.39
11.14 -3.03 2.39
11.20 -2.80 2.39
11.26 -2.58 2.39
11.31 -2.35 2.39
11.36 -2.13 2.39
11.41 -1.90 2.39
11.45 -1.67 2.39
11.48 -1.44 2.39
11.51 -1.21 2.39
11.54 -0.98 2.39
11.56 -0.75 2.39
11.58 -0.52 2.39
11.59 -0.28 2.39
11.59 -0.05 2.39
11.60 0.18 2.39
11.59 0.41 2.39
11.58 0.65 2.39
11.57 0.88 2.39
11.55 1.11 2.39
11.53 1.34 2.39
11.51 1.57 2.39
11.47 1.80 2.39
11.44 2.03 2.39
11.40 2.26 2.39
11.35 2.49 2.39
11.30 2.72 2.39
11.25 2.95 2.39
11.19 3.17 2.39
11.12 3.40 2.39
11.05 3.62 2.39
10.98 3.84 2.39
10.90 4.06 2.39
10.82 4.28 2.39
10.73 4.49 2.39
10.64 4.71 2.39
10.54 4.92 2.39
10.44 5.13 2.39
10.34 5.34 2.39
10.23 5.55 2.39
10.11 5.75 2.39
10.00 5.95 2.39
9.88 6.15 2.39
9.75 6.35 2.39
9.62 6.54 2.39
9.49 6.73 2.39
9.35 6.92 2.39
9.21 7.11 2.39
9.06 7.29 2.39
8.91 7.47 2.39
8.76 7.64 2.39
8.61 7.82 2.39
8.45 7.99 2.39
8.28 8.15 2.39
8.12 8.32 2.39
7.95 8.48 2.39
7.77 8.63 2.39
7.60 8.79 2.39
7.42 8.93 2.39
7.24 9.08 2.39
7.05 9.22 2.39
6.86 9.36 2.39
6.67 9.49 2.39
6.48 9.62 2.39
6.28 9.74 2.39
6.08 9.86 2.39
5.88 9.97 2.39
5.68 10.09 2.39
5.47 10.20 2.39
5.26 10.30 2.39
5.05 10.40 2.39
4.84 10.50 2.39
4.63 10.59 2.39
4.42 10.68 2.39
4.20 10.76 2.39
3.98 10.84 2.39
3.76 10.91 2.39
3.54 10.98 2.39
3.32 11.04 2.39
3.09 11.10 2.39
2.87 11.16 2.39
2.64 11.21 2.39
2.42 11.26 2.39
2.29 11.79 2.49
2.05 11.82 2.49
1.81 11.86 2.49
1.57 11.89 2.49
1.33 11.91 2.49
1.09 11.93 2.49
0.85 11.94 2.49
0.61 11.95 2.49
0.37 11.96 2.49
0.13 11.96 2.49
-0.11 11.95 2.49
-0.35 11.94 2.49
-0.59 11.92 2.49
-0.83 11.90 2.49
-1.06 11.88 2.49
-1.30 11.85 2.49
-1.54 11.82 2.49
-1.77 11.78 2.49
-2.01 11.73 2.49
-2.24 11.68 2.49
-2.48 11.63 2.49
-2.71 11.57 2.49
-2.94 11.51 2.49
-3.17 11.44 2.49
-3.39 11.37 2.49
-3.62 11.29 2.49
-3.84 11.21 2.49
-4.06 11.13 2.49
-4.28 11.04 2.49
-4.50 10.94 2.49
-4.72 10.85 2.49
-4.93 10.74 2.49
-5.14 10.64 2.49
-5.35 10.53 2.49
-5.56 10.41 2.49
-5.74 10.24 2.48
-5.76 9.81 2.41
-5.91 9.62 2.39
-6.10 9.50 2.39
-6.29 9.37 2.39
-6.47 9.24 2.39
-6.65 9.10 2.39
-6.83 8.96 2.39
-7.00 8.82 2.39
-7.18 8.67 2.39
-7.34 8.52 2.39
-7.51 8.36 2.39
-7.67 8.21 2.39
-7.83 8.05 2.39
-7.99 7.89 2.39
-8.14 7.72 2.39
-8.29 7.55 2.39
-8.43 7.38 2.39
-8.58 7.20 2.39
-8.72 7.03 2.39
-8.85 6.85 2.39
-8.98 6.67 2.39
-9.11 6.48 2.39
-9.23 6.29 2.39
-9.35 6.10 2.39
-9.47 5.91 2.39
-9.58 5.72 2.39
-9.69 5.52 2.39
-9.79 5.32 2.39
-10.55 5.46 2.55
-10.62 5.23 2.54
-10.69 5.00 2.53
-10.75 4.77 2.53
-10.81 4.54 2.52
-10.86 4.30 2.51
-10.91 4.07 2.50
-10.92 3.83 2.49
-10.93 3.58 2.47
-10.93 3.34 2.46
-10.94 3.11 2.45
-10.94 2.87 2.44
-10.94 2.64 2.43
-10.94 2.41 2.42
-10.94 2.18 2.41
-10.94 1.95 2.40
-10.97 1.73 2.40
-11.00 1.51 2.40
-11.03 1.29 2.40
-11.06 1.07 2.40
-11.09 0.84 2.40
-11.11 0.62 2.41
-11.14 0.40 2.41
-11.16 0.17 2.41
-11.17 -0.05 2.42
-11.18 -0.27 2.42
-11.18 -0.50 2.42
-11.18 -0.72 2.43
-11.18 -0.95 2.43
-11.17 -1.18 2.43
-11.17 -1.40 2.44
-11.16 -1.63 2.44
-11.16 -1.86 2.45
-11.15 -2.09 2.46
-11.14 -2.32 2.47
-11.12 -2.55 2.47
-11.10 -2.78 2.48
-11.07 -3.01 2.49
-11.05 -3.25 2.50
-11.01 -3.48 2.51
-10.95 -3.70 2.51
-10.88 -3.92 2.51
-10.80 -4.14 2.51
-10.71 -4.36 2.51
-10.62 -4.57 2.51
-10.52 -4.78 2.51
-9.93 -4.76 2.39
-9.83 -4.95 2.39
-9.73 -5.15 2.39
-9.63 -5.35 2.39
-9.52 -5.54 2.39
-9.40 -5.73 2.39
-9.29 -5.92 2.39
-9.17 -6.10 2.39
-9.04 -6.29 2.39
-8.92 -6.47 2.39
-8.78 -6.64 2.39
-8.65 -6.82 2.39
-8.51 -6.99 2.39
-8.37 -7.16 2.39
-8.23 -7.33 2.39
-8.08 -7.50 2.39
-7.93 -7.66 2.39
-7.77 -7.82 2.39
-7.61 -7.97 2.39
-7.45 -8.12 2.39
-7.29 -8.27 2.39
-7.12 -8.42 2.39
-6.95 -8.56 2.39
-6.78 -8.70 2.39
-6.61 -8.84 2.39
-6.43 -8.97 2.39
-6.27 -9.12 2.40
-6.07 -9.23 2.39
-6.06 -9.64 2.46
-5.94 -9.88 2.49
-5.74 -10.00 2.49
-5.54 -10.11 2.49
-5.34 -10.23 2.49
-5.13 -10.34 2.49
-4.93 -10.44 2.49
-4.72 -10.54 2.49
-4.51 -10.64 2.49
-4.29 -10.73 2.49
-4.08 -10.82 2.49
-3.86 -10.90 2.49
-3.64 -10.98 2.49
-3.42 -11.05 2.49
-3.20 -11.12 2.49
-2.98 -11.19 2.49
-2.75 -11.25 2.49
-2.53 -11.31 2.49
-2.30 -11.36 2.49
-2.07 -11.41 2.49
-1.85 -11.46 2.49
-1.62 -11.49 2.49
-1.38 -11.53 2.49
-1.15 -11.56 2.49
-0.92 -11.59 2.49
-0.69 -11.61 2.49
-0.46 -11.62 2.49
-0.22 -11.64 2.49
0.01 -10.49 2.49
0.22 -10.49 2.49
0.43 -10.49 2.49
0.64 -10.48 2.49
0.85 -10.47 2.49
1.07 -10.45 2.49
1.28 -10.44 2.49
1.49 -10.41 2.49
1.70 -10.39 2.49
1.90 -10.35 2.49
2.03 -9.89 2.39
2.22 -9.85 2.39
2.42 -9.81 2.39
2.62 -9.77 2.39
2.82 -9.72 2.39
2.27 -7.28 1.80
2.39 -7.16 1.78
2.30 -6.46 1.62
2.44 -6.43 1.62
3.79 -9.41 2.39
3.98 -9.33 2.39
4.16 -9.26 2.39
4.35 -9.18 2.39
4.54 -9.09 2.39
4.72 -9.00 2.39
4.90 -8.91 2.39
5.08 -8.81 2.39
5.26 -8.71 2.39
5.44 -8.61 2.39
5.61 -8.50 2.39
5.79 -8.39 2.39
4.70 -6.53 1.88
4.83 -6.44 1.88
4.96 -6.34 1.88
6.46 -7.93 2.39
6.62 -7.80 2.39
6.78 -7.67 2.39
6.94 -7.54 2.39
7.09 -7.40 2.39
7.24 -7.26 2.39
7.39 -7.11 2.39
7.53 -6.97 2.39
7.67 -6.82 2.39
7.81 -6.67 2.39
7.95 -6.51 2.39
8.08 -6.35 2.39
8.21 -6.19 2.39
8.34 -6.03 2.39
7.72 -5.35 2.18
8.58 -5.70 2.39
8.70 -5.52 2.39
8.81 -5.35 2.39
8.92 -5.18 2.39
9.02 -5.00 2.39
9.13 -4.82 2.39
9.23 -4.64 2.39
9.32 -4.45 2.39
9.41 -4.27 2.39
9.50 -4.08 2.39
9.58 -3.89 2.39
9.66 -3.70 2.39
9.74 -3.50 2.39
9.81 -3.31 2.39
9.88 -3.11 2.39
9.94 -2.91 2.39
10.00 -2.72 2.39
10.06 -2.52 2.39
10.11 -2.31 2.39
8.13 -1.69 1.91
8.03 -1.50 1.88
8.06 -1.34 1.88
8.09 -1.18 1.88
8.12 -1.02 1.88
10.33 -1.09 2.39
10.36 -0.88 2.39
10.37 -0.67 2.39
10.39 -0.46 2.39
10.40 -0.25 2.39
10.40 -0.05 2.39
10.41 0.16 2.39
10.40 0.37 2.39
10.40 0.58 2.39
10.38 0.79 2.39
10.37 1.00 2.39
10.35 1.20 2.39
10.32 1.41 2.39
10.30 1.62 2.39
10.26 1.83 2.39
10.23 2.03 2.39
10.18 2.24 2.39
10.14 2.44 2.39
10.09 2.64 2.39
10.04 2.85 2.39
9.98 3.05 2.39
9.92 3.25 2.39
9.85 3.44 2.39
9.78 3.64 2.39
9.70 3.84 2.39
9.63 4.03 2.39
9.54 4.22 2.39
9.46 4.41 2.39
9.37 4.60 2.39
9.27 4.79 2.39
9.18 4.98 2.39
9.07 5.16 2.39
8.97 5.34 2.39
8.86 5.52 2.39
8.75 5.69 2.39
8.63 5.87 2.39
8.51 6.04 2.39
8.39 6.21 2.39
8.26 6.37 2.39
8.13 6.54 2.39
8.00 6.70 2.39
7.86 6.86 2.39
7.72 7.01 2.39
7.58 7.17 2.39
7.43 7.32 2.39
7.28 7.46 2.39
7.13 7.61 2.39
6.98 7.75 2.39
6.82 7.88 2.39
6.66 8.02 2.39
6.49 8.15 2.39
6.33 8.27 2.39
6.15 8.39 2.39
5.98 8.51 2.39
5.81 8.62 2.39
5.63 8.74 2.39
5.46 8.85 2.39
5.28 8.95 2.39
5.09 9.05 2.39
4.91 9.15 2.39
4.72 9.24 2.39
4.54 9.34 2.39
4.35 9.42 2.39
4.16 9.50 2.39
3.96 9.58 2.39
3.77 9.66 2.39
3.57 9.73 2.39
3.38 9.79 2.39
3.18 9.86 2.39
2.98 9.91 2.39
2.78 9.97 2.39
2.58 10.02 2.39
2.38 10.07 2.39
2.27 10.54 2.49
2.05 10.58 2.49
1.84 10.62 2.49
1.63 10.65 2.49
1.41 10.67 2.49
1.20 10.70 2.49
0.98 10.71 2.49
0.77 10.73 2.49
0.55 10.74 2.49
0.34 10.74 2.49
0.12 10.74 2.49
-0.10 10.74 2.49
-0.31 10.73 2.49
-0.53 10.71 2.49
-0.74 10.70 2.49
-0.95 10.67 2.49
-1.17 10.65 2.49
-1.38 10.62 2.49
-1.59 10.58 2.49
-1.80 10.54 2.49
-2.01 10.50 2.49
-2.22 10.45 2.49
-2.43 10.40 2.49
-2.64 10.35 2.49
-2.84 10.29 2.49
-3.05 10.22 2.49
-3.25 10.15 2.49
-3.45 10.08 2.49
-3.65 10.01 2.49
-3.85 9.93 2.49
-4.05 9.84 2.49
-4.24 9.75 2.49
-4.43 9.66 2.49
-4.63 9.57 2.49
-4.81 9.47 2.49
-5.00 9.36 2.49
-5.18 9.26 2.49
-5.37 9.15 2.49
-5.55 9.03 2.49
-5.72 8.91 2.49
-5.77 8.60 2.44
-5.82 8.31 2.39
-5.99 8.19 2.39
-6.14 8.06 2.39
-6.30 7.93 2.39
-6.46 7.80 2.39
-6.61 7.67 2.39
-6.76 7.53 2.39
-6.90 7.39 2.39
-7.05 7.24 2.39
-7.19 7.10 2.39
-7.33 6.95 2.39
-7.46 6.80 2.39
-7.59 6.64 2.39
-7.72 6.49 2.39
-7.84 6.33 2.39
-7.97 6.17 2.39
-8.09 6.00 2.39
-8.20 5.84 2.39
-8.31 5.67 2.39
-8.42 5.50 2.39
-8.53 5.32 2.39
-8.63 5.15 2.39
-8.73 4.97 2.39
-8.82 4.79 2.39
-8.91 4.61 2.39
-9.00 4.43 2.39
-9.08 4.25 2.39
-9.16 4.06 2.39
-9.24 3.88 2.39
-9.31 3.69 2.39
-9.38 3.50 2.39
-9.44 3.31 2.39
-9.51 3.12 2.39
-9.56 2.93 2.39
-9.62 2.73 2.39
-9.67 2.54 2.39
-9.71 2.34 2.39
-9.75 2.15 2.39
-9.79 1.95 2.39
-9.83 1.75 2.39
-9.86 1.55 2.39
-9.88 1.36 2.39
-9.91 1.16 2.39
-10.30 0.99 2.48
-10.37 0.79 2.49
-10.42 0.58 2.50
-10.48 0.38 2.52
-10.53 0.17 2.53
-10.58 -0.05 2.54
-10.62 -0.26 2.55
-10.64 -0.47 2.56
-9.93 -0.64 2.39
-9.91 -0.84 2.39
-9.89 -1.04 2.39
-9.87 -1.24 2.39
-9.84 -1.44 2.39
-9.81 -1.63 2.39
-9.77 -1.83 2.39
-9.73 -2.03 2.39
-9.69 -2.22 2.39
-9.64 -2.42 2.39
-9.59 -2.61 2.39
-9.53 -2.80 2.39
-9.47 -2.99 2.39
-9.41 -3.18 2.39
-9.34 -3.37 2.39
-9.27 -3.56 2.39
-9.20 -3.74 2.39
-9.12 -3.92 2.39
-9.04 -4.11 2.39
-8.95 -4.29 2.39
-8.87 -4.47 2.39
-8.77 -4.64 2.39
-8.68 -4.82 2.39
-8.58 -4.99 2.39
-8.48 -5.16 2.39
-8.37 -5.33 2.39
-8.26 -5.50 2.39
-8.15 -5.67 2.39
-8.04 -5.83 2.39
-7.92 -5.99 2.39
-7.80 -6.15 2.39
-7.67 -6.30 2.39
-7.55 -6.46 2.39
-7.42 -6.61 2.39
-7.28 -6.76 2.39
-7.15 -6.90 2.39
-7.01 -7.05 2.39
-6.86 -7.19 2.39
-6.72 -7.32 2.39
-6.57 -7.46 2.39
-6.42 -7.59 2.39
-6.27 -7.72 2.39
-6.11 -7.85 2.39
-6.04 -8.08 2.42
-6.04 -8.43 2.49
-5.88 -8.56 2.49
-5.70 -8.68 2.49
-5.53 -8.79 2.49
-5.35 -8.90 2.49
-5.17 -9.01 2.49
-4.99 -9.12 2.49
-4.81 -9.22 2.49
-4.63 -9.31 2.49
-4.44 -9.41 2.49
-4.25 -9.50 2.49
-4.06 -9.58 2.49
-3.87 -9.67 2.49
-3.67 -9.75 2.49
-3.48 -9.82 2.49
-3.28 -9.89 2.49
-3.08 -9.96 2.49
-2.88 -10.02 2.49
-2.68 -10.08 2.49
-2.48 -10.14 2.49
-2.28 -10.19 2.49
-2.07 -10.24 2.49
-1.87 -10.28 2.49
-1.66 -10.32 2.49
-1.45 -10.35 2.49
-1.25 -10.39 2.49
-1.04 -10.41 2.49
-0.83 -10.44 2.49
-0.62 -10.45 2.49
-0.41 -10.47 2.49
-0.20 -10.48 2.49
0.01 -9.53 2.49
0.20 -9.53 2.49
0.39 -9.53 2.49
0.59 -9.52 2.49
0.78 -9.51 2.49
0.97 -9.50 2.49
1.16 -9.48 2.49
1.35 -9.46 2.49
1.54 -9.43 2.49
1.73 -9.40 2.49
1.92 -9.37 2.49
2.02 -8.95 2.39
2.20 -8.91 2.39
2.38 -8.87 2.39
2.56 -8.82 2.39
2.27 -7.29 1.99
2.40 -7.19 1.97
2.30 -6.45 1.78
2.44 -6.43 1.79
3.44 -8.54 2.39
3.61 -8.47 2.39
3.78 -8.40 2.39
3.95 -8.33 2.39
4.12 -8.25 2.39
4.29 -8.17 2.39
4.45 -8.09 2.39
4.62 -8.00 2.39
4.78 -7.91 2.39
4.94 -7.81 2.39
5.10 -7.72 2.39
5.25 -7.62 2.39
5.41 -7.51 2.39
5.56 -7.41 2.39
5.71 -7.30 2.39
5.86 -7.18 2.39
6.00 -7.07 2.39
6.15 -6.96 2.39
6.29 -6.84 2.39
6.43 -6.71 2.39
6.57 -6.58 2.39
6.70 -6.45 2.39
6.83 -6.32 2.39
6.96 -6.18 2.39
7.09 -6.05 2.39
7.21 -5.91 2.39
7.33 -5.76 2.39
7.45 -5.62 2.39
7.55 -5.46 2.39
7.67 -5.32 2.39
7.78 -5.16 2.39
7.89 -5.01 2.39
7.99 -4.85 2.39
8.09 -4.69 2.39
8.18 -4.53 2.39
8.28 -4.37 2.39
8.36 -4.20 2.39
8.45 -4.04 2.39
8.53 -3.87 2.39
8.61 -3.70 2.39
8.69 -3.52 2.39
8.76 -3.35 2.39
8.83 -3.17 2.39
8.89 -3.00 2.39
8.95 -2.82 2.39
9.01 -2.64 2.39
9.07 -2.46 2.39
9.12 -2.28 2.39
9.16 -2.10 2.39
9.21 -1.91 2.39
9.25 -1.73 2.39
9.28 -1.54 2.39
