ply
format ascii 1.0
element vertex 2946
property float32 x
property float32 y
property float32 z
end_header
6.20 12.76 1.71
6.19 13.44 1.78
5.95 13.61 1.79
7.23 17.49 2.28
7.09 18.20 2.35
6.72 18.33 2.35
6.31 18.32 2.34
5.94 18.43 2.34
5.56 18.54 2.34
5.19 18.64 2.34
4.08 15.90 1.98
3.74 15.91 1.98
4.05 18.89 2.34
3.67 18.96 2.34
3.28 19.02 2.34
2.90 19.07 2.34
2.51 19.12 2.34
2.22 20.00 2.44
1.82 20.03 2.44
1.42 20.06 2.44
1.01 20.07 2.44
0.61 20.08 2.44
0.21 20.08 2.44
-0.20 20.07 2.44
-0.60 20.06 2.44
-1.00 20.03 2.44
-1.40 20.00 2.44
-1.80 19.96 2.44
-2.20 19.92 2.44
-2.60 19.86 2.44
-3.00 19.80 2.44
-3.39 19.73 2.44
-3.79 19.65 2.44
-4.18 19.56 2.44
-4.57 19.47 2.44
-4.96 19.37 2.44
-5.35 19.26 2.44
-5.71 19.07 2.43
-5.86 18.22 2.34
-6.07 17.65 2.28
-6.47 17.66 2.30
-6.65 17.09 2.24
-7.29 17.68 2.34
-7.64 17.52 2.34
-7.99 17.36 2.34
-8.34 17.20 2.34
-8.68 17.02 2.34
-9.02 16.84 2.34
-9.36 16.66 2.34
-9.69 16.46 2.34
-9.70 15.75 2.26
-16.17 25.11 3.66
-17.88 26.59 3.92
-9.69 13.80 2.06
-5.99 8.17 1.24
-9.69 7.79 1.52
-9.69 7.48 1.50
-41.08 -8.59 5.06
-36.34 -8.36 4.49
-31.91 -8.02 3.96
-29.10 -7.94 3.63
-26.96 -7.94 3.38
-25.09 -7.94 3.16
-23.44 -7.94 2.97
-21.98 -7.94 2.81
-20.67 -7.94 2.66
-19.49 -7.94 2.52
-18.42 -7.94 2.40
-17.45 -7.94 2.30
-16.56 -7.94 2.20
-15.74 -7.94 2.11
-14.99 -7.94 2.03
-14.29 -7.94 1.95
-13.63 -7.94 1.88
-13.02 -7.94 1.82
-12.46 -7.94 1.76
-11.92 -7.94 1.71
-11.42 -7.94 1.66
-10.94 -7.94 1.61
-10.61 -8.03 1.58
-14.53 -11.46 2.20
-9.69 -7.96 1.49
-14.08 -12.05 2.20
-13.84 -12.34 2.20
-13.60 -12.62 2.20
-13.35 -12.90 2.20
-12.26 -12.34 2.06
-12.84 -13.44 2.20
-12.57 -13.71 2.20
-12.30 -13.96 2.20
-12.03 -14.22 2.20
-11.75 -14.46 2.20
-11.46 -14.71 2.20
-11.17 -14.94 2.20
-10.88 -15.17 2.20
-10.57 -15.40 2.20
-10.27 -15.62 2.20
-9.96 -15.83 2.20
-9.74 -16.20 2.22
-21.56 -37.52 5.09
-9.57 -17.45 2.34
-9.22 -17.65 2.34
-8.87 -17.84 2.34
-8.51 -18.03 2.34
-8.15 -18.20 2.34
-7.79 -18.37 2.34
-7.43 -18.54 2.34
-6.69 -17.72 2.22
-6.57 -18.52 2.30
-6.07 -18.25 2.25
-5.93 -19.11 2.34
-5.71 -19.80 2.41
-5.39 -20.21 2.44
-4.99 -20.32 2.44
-4.58 -20.43 2.44
-4.17 -20.53 2.44
-3.76 -20.62 2.44
-3.35 -20.70 2.44
-2.93 -20.77 2.44
-2.52 -20.84 2.44
-2.10 -20.89 2.44
-1.68 -20.94 2.44
-1.26 -20.98 2.44
-0.84 -21.01 2.44
-0.42 -21.03 2.44
0.01 -17.58 2.44
0.36 -17.58 2.44
0.71 -17.57 2.44
1.06 -17.56 2.44
1.42 -17.54 2.44
1.77 -17.52 2.44
2.12 -17.48 2.44
2.37 -16.70 2.34
2.70 -16.66 2.34
3.04 -16.60 2.34
3.37 -16.54 2.34
3.70 -16.48 2.34
4.03 -16.40 2.34
2.66 -9.93 1.42
4.69 -16.24 2.34
5.02 -16.14 2.34
5.34 -16.04 2.34
5.66 -15.93 2.34
5.98 -15.82 2.34
6.20 -15.44 2.30
6.20 -14.59 2.19
6.20 -13.81 2.09
6.20 -13.10 2.00
6.20 -12.45 1.92
6.20 -11.85 1.85
6.20 -11.29 1.78
6.18 -10.75 1.71
6.19 -10.27 1.66
6.19 -9.83 1.60
6.19 -9.41 1.55
6.21 -9.03 1.51
6.21 -8.66 1.47
6.22 -8.31 1.43
6.22 -7.97 1.40
6.22 -7.66 1.36
6.23 -7.35 1.33
6.23 -7.06 1.30
6.23 -6.79 1.27
6.23 -6.52 1.24
6.23 -6.26 1.22
6.23 -6.02 1.20
6.23 -5.78 1.17
6.27 -5.59 1.16
6.38 -5.46 1.16
6.23 -5.12 1.11
6.23 -4.91 1.10
6.43 -4.87 1.11
8.27 -6.00 1.41
8.38 -5.82 1.41
8.69 -5.78 1.44
6.34 -4.04 1.04
6.34 -3.86 1.03
6.34 -3.69 1.01
6.34 -3.52 1.00
6.34 -3.36 0.99
6.23 -3.14 0.96
6.23 -2.99 0.96
6.30 -2.87 0.96
6.34 -2.73 0.95
8.15 -3.32 1.22
8.37 -3.21 1.24
6.34 -2.29 0.93
14.97 -5.07 2.19
15.07 -4.77 2.19
6.34 -1.87 0.92
15.24 -4.16 2.19
15.31 -3.85 2.19
6.34 -1.46 0.90
15.45 -3.23 2.19
6.34 -1.19 0.90
6.23 -1.04 0.88
6.23 -0.92 0.87
6.34 -0.80 0.89
8.27 -0.88 1.16
6.34 -0.54 0.88
8.25 -0.54 1.15
6.34 -0.29 0.88
8.12 -0.21 1.13
6.34 -0.03 0.88
8.29 0.12 1.15
6.34 0.22 0.88
14.52 0.80 2.03
6.34 0.48 0.89
14.74 1.40 2.07
6.34 0.73 0.89
6.23 0.85 0.88
6.23 0.97 0.88
6.23 1.10 0.88
15.41 3.05 2.20
15.36 3.36 2.20
15.30 3.67 2.20
15.25 3.98 2.21
15.18 4.29 2.21
15.10 4.60 2.21
15.03 4.91 2.22
14.95 5.22 2.22
14.87 5.53 2.23
14.78 5.83 2.23
14.79 6.18 2.25
14.81 6.54 2.28
14.74 6.87 2.29
6.30 3.09 0.99
6.31 3.25 1.00
14.45 7.83 2.32
14.30 8.12 2.32
14.15 8.42 2.32
8.93 5.56 1.48
6.31 4.10 1.06
6.31 4.28 1.08
6.31 4.48 1.09
6.20 4.58 1.09
6.34 4.89 1.13
6.24 5.02 1.13
6.20 5.19 1.14
6.20 5.40 1.17
6.20 5.63 1.19
6.20 5.86 1.21
6.20 6.10 1.23
6.20 6.35 1.26
6.20 6.61 1.29
6.20 6.88 1.32
6.20 7.16 1.35
6.20 7.46 1.38
6.20 7.77 1.42
6.20 8.10 1.45
6.20 8.45 1.49
6.20 8.81 1.54
6.20 9.20 1.58
6.20 9.61 1.63
6.20 10.05 1.69
6.20 10.52 1.74
6.20 11.02 1.81
6.20 11.55 1.88
6.20 12.13 1.95
6.20 12.76 2.03
6.19 13.43 2.12
5.95 13.61 2.13
6.23 15.07 2.34
5.92 15.19 2.34
5.61 15.29 2.34
5.30 15.40 2.34
4.99 15.49 2.34
4.68 15.58 2.34
4.36 15.67 2.34
4.04 15.75 2.34
3.72 15.82 2.34
3.40 15.88 2.34
3.08 15.94 2.34
2.76 15.99 2.34
2.44 16.04 2.34
2.21 16.79 2.44
1.87 16.82 2.44
1.53 16.85 2.44
1.19 16.87 2.44
0.85 16.89 2.44
0.51 16.89 2.44
0.18 16.90 2.44
-0.16 16.89 2.44
-0.50 16.88 2.44
-0.84 16.86 2.44
-1.18 16.83 2.44
-1.52 16.80 2.44
-1.85 16.76 2.44
-2.19 16.72 2.44
-2.52 16.67 2.44
-2.86 16.61 2.44
-3.19 16.54 2.44
-3.52 16.47 2.44
-3.85 16.39 2.44
-4.18 16.31 2.44
-4.50 16.22 2.44
-4.83 16.12 2.44
-5.15 16.02 2.44
-5.47 15.91 2.44
-5.71 15.59 2.41
-5.84 15.01 2.34
-6.07 14.70 2.31
-6.10 13.99 2.22
-6.62 14.38 2.30
-6.66 13.74 2.22
-7.31 14.34 2.34
-7.60 14.18 2.34
-7.88 14.03 2.34
-8.16 13.87 2.34
-8.44 13.70 2.34
-8.71 13.52 2.34
-8.98 13.35 2.34
-9.24 13.16 2.34
-5.97 8.15 1.47
-16.90 22.12 4.05
-18.32 23.01 4.28
-9.70 11.69 2.21
-9.69 7.79 1.81
-9.70 6.31 1.68
-9.69 5.77 1.64
-9.70 5.51 1.62
-9.69 4.05 1.52
-9.69 3.83 1.51
-9.69 3.60 1.50
-9.69 3.38 1.49
-34.14 -8.59 5.05
-30.75 -8.39 4.57
-27.95 -8.24 4.17
-25.08 -7.94 3.77
-23.43 -7.94 3.54
-21.97 -7.94 3.34
-9.70 -3.73 1.48
-9.69 -3.95 1.49
-9.69 -4.18 1.51
-9.69 -4.41 1.52
-16.56 -7.94 2.62
-15.74 -7.94 2.51
-14.98 -7.94 2.42
-14.28 -7.94 2.33
-13.63 -7.94 2.25
-13.02 -7.94 2.17
-9.69 -6.18 1.63
-11.92 -7.94 2.04
-11.41 -7.94 1.98
-10.94 -7.94 1.92
-10.49 -7.94 1.87
-10.06 -7.94 1.82
-9.68 -7.95 1.78
-11.80 -10.10 2.20
-11.60 -10.34 2.20
-11.40 -10.58 2.20
-11.19 -10.81 2.20
-10.97 -11.04 2.20
-10.76 -11.26 2.20
-10.53 -11.48 2.20
-10.31 -11.70 2.20
-10.07 -11.91 2.20
-9.84 -12.12 2.20
-9.74 -12.50 2.23
-9.74 -13.04 2.29
-9.67 -13.50 2.34
-9.40 -13.69 2.34
-9.13 -13.89 2.34
-8.86 -14.08 2.34
-8.58 -14.26 2.34
-8.29 -14.43 2.34
-8.00 -14.60 2.34
-7.71 -14.77 2.34
-7.42 -14.93 2.34
-7.12 -15.08 2.34
-6.82 -15.23 2.34
-6.52 -15.37 2.34
-6.21 -15.51 2.34
-5.90 -15.64 2.34
-5.71 -16.10 2.39
-5.51 -16.57 2.44
-5.17 -16.69 2.44
-4.84 -16.80 2.44
-4.50 -16.90 2.44
-4.17 -16.99 2.44
-3.83 -17.08 2.44
-3.48 -17.16 2.44
-3.14 -17.23 2.44
-2.80 -17.30 2.44
-2.45 -17.36 2.44
-2.10 -17.41 2.44
-1.75 -17.46 2.44
-1.40 -17.49 2.44
-1.05 -17.53 2.44
-0.70 -17.55 2.44
-0.35 -17.57 2.44
0.01 -15.08 2.44
0.31 -15.08 2.44
0.61 -15.07 2.44
0.91 -15.06 2.44
1.22 -15.04 2.44
1.52 -15.02 2.44
1.82 -14.99 2.44
2.12 -14.96 2.44
2.34 -14.44 2.36
2.60 -14.24 2.34
2.89 -14.19 2.34
3.18 -14.13 2.34
3.46 -14.06 2.34
2.66 -9.93 1.66
4.02 -13.92 2.34
4.30 -13.84 2.34
4.58 -13.75 2.34
4.85 -13.66 2.34
5.13 -13.56 2.34
5.40 -13.46 2.34
5.67 -13.35 2.34
5.94 -13.23 2.34
6.20 -13.11 2.34
6.20 -12.45 2.24
6.20 -11.85 2.15
6.20 -11.29 2.07
6.18 -10.75 2.00
6.19 -10.27 1.93
6.19 -9.83 1.87
6.19 -9.41 1.81
6.21 -9.03 1.77
6.21 -8.66 1.72
6.22 -8.31 1.67
6.22 -7.97 1.63
6.22 -7.66 1.59
6.23 -7.35 1.55
6.23 -7.06 1.52
6.23 -6.79 1.48
6.23 -6.52 1.45
6.23 -6.26 1.42
6.23 -6.02 1.39
6.23 -5.78 1.37
6.23 -5.55 1.34
6.23 -5.33 1.32
6.23 -5.12 1.30
6.23 -4.91 1.28
6.23 -4.71 1.26
6.23 -4.52 1.24
6.23 -4.33 1.22
6.23 -4.15 1.21
6.23 -3.97 1.19
6.23 -3.80 1.18
6.23 -3.63 1.16
6.28 -3.49 1.16
6.34 -3.36 1.16
6.23 -3.14 1.13
6.23 -2.99 1.11
6.30 -2.87 1.12
6.34 -2.73 1.11
8.32 -3.39 1.45
8.30 -3.19 1.44
6.34 -2.29 1.09
12.98 -4.39 2.21
13.04 -4.13 2.21
6.34 -1.87 1.07
13.20 -3.60 2.21
13.26 -3.33 2.21
6.34 -1.46 1.05
13.38 -2.80 2.21
6.34 -1.19 1.04
6.23 -1.04 1.02
6.23 -0.92 1.02
6.34 -0.80 1.04
13.66 -1.45 2.23
6.34 -0.54 1.03
8.37 -0.55 1.36
6.34 -0.29 1.03
8.23 -0.21 1.34
6.34 -0.03 1.03
8.41 0.12 1.37
6.34 0.22 1.03
13.69 0.75 2.23
6.34 0.48 1.03
13.83 1.32 2.26
6.34 0.73 1.04
6.23 0.85 1.02
6.23 0.97 1.03
6.23 1.10 1.03
12.11 2.40 2.01
13.79 3.02 2.30
13.73 3.29 2.30
13.67 3.57 2.30
13.60 3.84 2.31
13.52 4.12 2.31
13.44 4.39 2.31
13.41 4.68 2.32
13.43 4.99 2.34
13.44 5.30 2.36
13.44 5.62 2.38
6.33 2.80 1.13
6.27 2.92 1.13
6.21 3.05 1.13
6.20 3.20 1.14
6.20 3.35 1.16
6.20 3.52 1.17
6.20 3.68 1.18
6.20 3.85 1.20
6.20 4.03 1.21
6.20 4.21 1.23
6.20 4.39 1.25
6.20 4.58 1.27
6.21 4.79 1.29
6.20 4.98 1.31
6.20 5.19 1.33
6.20 5.40 1.35
6.20 5.63 1.38
6.20 5.86 1.41
6.20 6.10 1.43
6.20 6.35 1.46
6.20 6.61 1.50
6.20 6.88 1.53
6.20 7.16 1.57
6.20 7.46 1.60
6.20 7.77 1.64
6.20 8.10 1.69
6.20 8.45 1.73
6.20 8.81 1.78
6.20 9.20 1.84
6.20 9.61 1.90
6.20 10.05 1.96
6.20 10.51 2.03
6.20 11.01 2.10
6.20 11.55 2.18
6.20 12.13 2.26
6.15 12.65 2.34
5.89 12.77 2.34
5.63 12.88 2.34
5.37 12.98 2.34
5.10 13.08 2.34
4.84 13.18 2.34
4.57 13.27 2.34
4.30 13.35 2.34
4.03 13.43 2.34
3.76 13.50 2.34
3.49 13.57 2.34
3.21 13.63 2.34
2.94 13.69 2.34
2.66 13.74 2.34
2.38 13.79 2.34
2.20 14.44 2.44
1.91 14.47 2.44
1.61 14.50 2.44
1.32 14.53 2.44
1.03 14.55 2.44
0.74 14.56 2.44
0.44 14.57 2.44
0.15 14.57 2.44
-0.14 14.57 2.44
-0.43 14.56 2.44
-0.72 14.54 2.44
-1.02 14.52 2.44
-1.31 14.49 2.44
-1.60 14.46 2.44
-1.89 14.42 2.44
-2.18 14.38 2.44
-2.46 14.33 2.44
-2.75 14.27 2.44
-3.04 14.21 2.44
-3.32 14.14 2.44
-3.60 14.07 2.44
-3.88 13.99 2.44
-4.16 13.91 2.44
-4.44 13.82 2.44
-4.72 13.73 2.44
-4.99 13.63 2.44
-5.26 13.52 2.44
-5.53 13.41 2.44
-5.71 13.09 2.40
-5.81 12.62 2.34
-6.06 12.50 2.34
-6.07 11.89 2.25
-6.45 12.03 2.30
-6.65 11.85 2.29
-6.67 11.34 2.22
-7.28 11.82 2.34
-7.51 11.67 2.34
-7.75 11.52 2.34
-7.98 11.36 2.34
-5.97 8.15 1.70
-8.43 11.03 2.34
-8.65 10.86 2.34
-8.86 10.68 2.34
-9.07 10.50 2.34
-9.28 10.32 2.34
-9.49 10.13 2.34
-9.69 9.94 2.34
-34.80 34.28 8.23
-9.70 8.81 2.21
-9.69 7.79 2.09
-9.69 5.77 1.90
-9.70 4.76 1.82
-9.69 3.83 1.75
-9.70 3.17 1.71
-9.70 2.33 1.67
-9.70 0.14 1.62
-9.69 -2.23 1.65
-47.20 -11.87 8.10
-9.70 -2.65 1.67
-29.14 -8.59 5.05
-26.59 -8.42 4.64
-24.44 -8.28 4.29
-22.12 -8.00 3.91
-20.66 -7.94 3.67
-19.48 -7.94 3.49
-9.69 -4.18 1.75
-17.44 -7.94 3.18
-16.55 -7.94 3.04
-15.74 -7.94 2.92
-14.98 -7.94 2.81
-14.28 -7.94 2.70
-12.62 -7.35 2.42
-12.48 -7.61 2.42
-9.69 -6.18 1.90
-11.92 -7.94 2.37
-11.41 -7.94 2.30
-10.94 -7.94 2.23
-10.49 -7.94 2.17
-9.70 -7.65 2.04
-9.68 -7.96 2.06
-10.15 -8.69 2.20
-9.98 -8.90 2.20
-9.80 -9.10 2.20
-9.74 -9.42 2.23
-9.74 -9.80 2.27
-9.74 -10.21 2.32
-9.62 -10.49 2.34
-9.41 -10.68 2.34
-9.20 -10.88 2.34
-8.98 -11.06 2.34
-8.76 -11.25 2.34
-8.54 -11.42 2.34
-8.31 -11.60 2.34
-8.08 -11.77 2.34
-7.85 -11.93 2.34
-7.61 -12.09 2.34
-7.37 -12.25 2.34
-7.12 -12.40 2.34
-6.88 -12.55 2.34
-6.62 -12.69 2.34
-6.37 -12.82 2.34
-6.12 -12.95 2.34
-5.86 -13.08 2.34
-5.71 -13.47 2.39
-5.57 -13.90 2.44
-5.29 -14.02 2.44
-5.01 -14.12 2.44
-4.73 -14.23 2.44
-4.44 -14.33 2.44
-4.15 -14.42 2.44
-3.87 -14.50 2.44
-3.58 -14.58 2.44
-3.28 -14.66 2.44
-2.99 -14.73 2.44
-2.69 -14.79 2.44
-2.40 -14.84 2.44
-2.10 -14.90 2.44
-1.80 -14.94 2.44
-1.50 -14.98 2.44
-1.20 -15.01 2.44
-0.90 -15.04 2.44
-0.60 -15.06 2.44
-0.30 -15.07 2.44
0.01 -13.19 2.44
0.27 -13.19 2.44
0.54 -13.18 2.44
0.80 -13.17 2.44
1.06 -13.16 2.44
1.33 -13.14 2.44
1.59 -13.11 2.44
1.85 -13.08 2.44
2.12 -13.04 2.44
2.34 -12.77 2.40
2.55 -12.49 2.35
2.78 -12.35 2.34
3.02 -12.30 2.34
2.66 -9.93 1.90
3.52 -12.17 2.34
3.76 -12.10 2.34
4.00 -12.02 2.34
4.24 -11.94 2.34
4.48 -11.86 2.34
4.72 -11.77 2.34
4.96 -11.67 2.34
5.19 -11.57 2.34
5.42 -11.46 2.34
5.65 -11.35 2.34
5.88 -11.24 2.34
6.10 -11.12 2.34
6.18 -10.75 2.28
6.19 -10.27 2.21
6.19 -9.83 2.14
6.19 -9.41 2.08
6.21 -9.03 2.02
6.21 -8.66 1.96
6.22 -8.31 1.91
6.22 -7.97 1.86
6.22 -7.66 1.82
6.23 -7.35 1.78
6.23 -7.06 1.74
6.23 -6.79 1.70
6.23 -6.52 1.66
6.23 -6.26 1.63
6.23 -6.02 1.60
6.23 -5.78 1.57
6.23 -5.55 1.54
6.23 -5.33 1.51
6.23 -5.12 1.49
6.23 -4.91 1.46
6.23 -4.71 1.44
6.23 -4.52 1.42
6.23 -4.33 1.40
6.23 -4.15 1.38
6.23 -3.97 1.36
6.23 -3.80 1.35
6.23 -3.63 1.33
6.23 -3.46 1.31
6.23 -3.30 1.30
6.23 -3.14 1.29
6.23 -2.99 1.28
6.23 -2.83 1.26
6.23 -2.68 1.25
6.23 -2.54 1.24
6.23 -2.39 1.23
6.23 -2.25 1.22
6.23 -2.11 1.22
6.23 -1.97 1.21
6.23 -1.84 1.20
6.23 -1.70 1.19
6.23 -1.57 1.19
6.23 -1.43 1.18
6.23 -1.30 1.18
6.23 -1.17 1.17
6.23 -1.04 1.17
6.23 -0.92 1.17
6.23 -0.79 1.16
6.23 -0.66 1.16
6.23 -0.54 1.16
6.24 -0.41 1.16
6.25 -0.29 1.16
6.25 -0.16 1.16
6.25 -0.03 1.16
6.24 0.09 1.16
6.24 0.22 1.16
6.23 0.34 1.16
6.23 0.47 1.16
6.23 0.59 1.16
6.23 0.72 1.17
6.23 0.85 1.17
6.23 0.97 1.17
6.23 1.10 1.18
12.14 2.40 2.30
12.42 2.71 2.37
12.36 2.96 2.37
12.29 3.21 2.37
12.25 3.46 2.37
12.23 3.72 2.38
12.20 3.98 2.39
12.16 4.24 2.40
12.13 4.50 2.41
12.12 4.78 2.43
12.11 5.06 2.45
6.31 2.79 1.29
6.20 2.89 1.28
6.20 3.04 1.29
6.20 3.20 1.30
6.20 3.35 1.32
6.20 3.52 1.33
6.20 3.68 1.35
6.20 3.85 1.37
6.20 4.03 1.39
6.20 4.21 1.40
6.20 4.39 1.42
6.20 4.58 1.45
6.21 4.79 1.47
6.20 4.98 1.49
6.20 5.19 1.52
6.20 5.40 1.55
6.20 5.62 1.57
6.20 5.86 1.60
6.20 6.10 1.64
6.20 6.35 1.67
6.20 6.61 1.71
6.20 6.88 1.74
6.20 7.16 1.79
6.20 7.46 1.83
6.20 7.77 1.88
6.20 8.10 1.92
6.20 8.44 1.98
6.20 8.81 2.03
6.20 9.20 2.10
6.20 9.61 2.16
6.20 10.05 2.23
6.20 10.51 2.31
6.06 10.77 2.34
5.84 10.88 2.34
5.62 10.99 2.34
5.39 11.10 2.34
5.17 11.20 2.34
4.94 11.30 2.34
4.71 11.39 2.34
4.48 11.48 2.34
4.25 11.56 2.34
4.01 11.64 2.34
3.78 11.72 2.34
3.54 11.79 2.34
3.30 11.85 2.34
3.06 11.91 2.34
2.82 11.97 2.34
2.58 12.02 2.34
2.35 12.12 2.35
2.18 12.64 2.44
1.93 12.67 2.44
1.67 12.71 2.44
1.42 12.73 2.44
1.16 12.76 2.44
0.91 12.77 2.44
0.65 12.79 2.44
0.39 12.79 2.44
0.13 12.79 2.44
-0.12 12.79 2.44
-0.38 12.78 2.44
-0.64 12.77 2.44
-0.89 12.75 2.44
-1.15 12.73 2.44
-1.40 12.70 2.44
-1.66 12.67 2.44
-1.91 12.63 2.44
-2.16 12.58 2.44
-2.42 12.54 2.44
-2.67 12.48 2.44
-2.92 12.42 2.44
-3.16 12.36 2.44
-3.41 12.29 2.44
-3.66 12.22 2.44
-3.90 12.14 2.44
-4.14 12.06 2.44
-4.38 11.97 2.44
-4.62 11.88 2.44
-4.86 11.78 2.44
-5.10 11.68 2.44
-5.33 11.58 2.44
-5.56 11.46 2.44
-5.71 11.20 2.41
-5.76 10.76 2.34
-5.97 10.64 2.34
-6.07 10.31 2.29
-6.15 9.98 2.25
-6.43 9.98 2.28
-6.71 9.98 2.31
-7.01 9.98 2.34
-5.97 8.15 1.94
-7.40 9.69 2.34
-7.60 9.54 2.34
-7.79 9.39 2.34
-7.97 9.23 2.34
-8.16 9.07 2.34
-8.34 8.90 2.34
-8.52 8.73 2.34
-8.69 8.56 2.34
-8.86 8.38 2.34
-9.03 8.20 2.34
-9.19 8.02 2.34
-9.35 7.83 2.34
-9.51 7.65 2.34
-9.66 7.45 2.34
-27.53 19.53 6.47
-26.43 17.96 6.12
-9.70 6.31 2.22
-9.69 5.77 2.16
-9.70 4.29 2.03
-9.69 3.83 1.99
-9.70 0.92 1.86
-9.69 -2.23 1.89
-47.20 -11.88 9.23
-43.01 -11.75 8.45
-39.36 -11.60 7.78
-38.03 -12.05 7.56
-25.35 -8.59 5.07
-23.37 -8.45 4.70
-21.65 -8.32 4.39
-20.15 -8.21 4.12
-9.69 -4.18 1.99
-17.44 -7.94 3.62
-9.70 -4.65 2.03
-15.73 -7.94 3.33
-11.48 -6.09 2.45
-11.19 -6.22 2.42
-11.07 -6.45 2.42
-10.94 -6.67 2.42
-9.69 -6.18 2.17
-10.74 -7.16 2.43
-9.70 -6.75 2.22
-10.81 -7.85 2.52
-10.49 -7.94 2.48
-10.06 -7.94 2.41
-9.60 -7.90 2.34
-9.45 -8.09 2.34
-9.29 -8.28 2.34
-9.12 -8.47 2.34
-8.95 -8.66 2.34
-8.78 -8.84 2.34
-8.61 -9.02 2.34
-8.43 -9.19 2.34
-8.24 -9.36 2.34
-8.06 -9.53 2.34
-7.87 -9.69 2.34
-7.67 -9.85 2.34
-7.48 -10.01 2.34
-7.28 -10.16 2.34
-7.08 -10.31 2.34
-6.87 -10.45 2.34
-6.66 -10.59 2.34
-6.45 -10.73 2.34
-6.24 -10.86 2.34
-6.02 -10.99 2.34
-5.80 -11.11 2.34
-5.71 -11.49 2.39
-5.59 -11.84 2.44
-5.35 -11.96 2.44
-5.11 -12.06 2.44
-4.87 -12.17 2.44
-4.63 -12.27 2.44
-4.38 -12.36 2.44
-4.14 -12.45 2.44
-3.89 -12.54 2.44
-3.63 -12.62 2.44
-3.38 -12.69 2.44
-3.13 -12.76 2.44
-2.87 -12.83 2.44
-2.61 -12.89 2.44
-2.36 -12.94 2.44
-2.10 -12.99 2.44
-1.84 -13.03 2.44
-1.58 -13.07 2.44
-1.31 -13.10 2.44
-1.05 -13.13 2.44
-0.79 -13.15 2.44
-0.52 -13.17 2.44
-0.26 -13.18 2.44
0.01 -11.71 2.44
0.24 -11.71 2.44
0.48 -11.70 2.44
0.71 -11.69 2.44
0.95 -11.68 2.44
1.18 -11.66 2.44
1.41 -11.64 2.44
1.65 -11.61 2.44
1.88 -11.58 2.44
2.11 -11.54 2.44
2.34 -11.46 2.43
2.47 -10.96 2.34
2.69 -10.91 2.34
2.66 -9.93 2.14
3.12 -10.80 2.34
3.34 -10.74 2.34
3.55 -10.67 2.34
3.77 -10.60 2.34
3.98 -10.52 2.34
4.19 -10.44 2.34
4.40 -10.36 2.34
4.61 -10.27 2.34
4.81 -10.17 2.34
5.02 -10.08 2.34
5.22 -9.97 2.34
5.42 -9.87 2.34
5.61 -9.76 2.34
5.81 -9.64 2.34
6.00 -9.53 2.34
6.19 -9.40 2.34
6.21 -9.03 2.28
6.21 -8.66 2.21
6.22 -8.31 2.15
6.22 -7.97 2.10
6.22 -7.66 2.05
6.23 -7.35 2.00
6.23 -7.06 1.96
6.23 -6.79 1.91
6.23 -6.52 1.87
6.23 -6.26 1.83
6.23 -6.02 1.80
6.23 -5.78 1.76
6.23 -5.55 1.73
6.23 -5.33 1.70
6.23 -5.12 1.67
6.23 -4.91 1.65
6.23 -4.71 1.62
6.23 -4.52 1.60
6.23 -4.33 1.58
6.23 -4.15 1.56
6.23 -3.97 1.54
6.23 -3.80 1.52
6.23 -3.63 1.50
6.23 -3.46 1.48
6.23 -3.30 1.47
6.23 -3.14 1.45
6.23 -2.99 1.44
6.23 -2.83 1.42
6.23 -2.68 1.41
6.23 -2.54 1.40
6.23 -2.39 1.39
6.23 -2.25 1.38
6.23 -2.11 1.37
6.23 -1.97 1.36
6.23 -1.84 1.35
6.23 -1.70 1.35
6.23 -1.57 1.34
6.23 -1.43 1.33
6.23 -1.30 1.33
6.23 -1.17 1.32
6.23 -1.04 1.32
6.23 -0.92 1.31
6.23 -0.79 1.31
6.23 -0.66 1.31
6.23 -0.54 1.31
6.23 -0.41 1.30
6.23 -0.29 1.30
6.23 -0.16 1.30
6.23 -0.03 1.30
6.23 0.09 1.30
6.23 0.22 1.30
6.23 0.34 1.30
6.23 0.47 1.31
6.23 0.59 1.31
6.23 0.72 1.31
6.23 0.85 1.32
6.23 0.97 1.32
6.23 1.10 1.33
10.87 2.15 2.32
11.20 2.45 2.40
11.16 2.67 2.41
11.13 2.91 2.41
11.10 3.14 2.42
11.06 3.36 2.43
11.01 3.59 2.43
10.96 3.82 2.44
10.89 4.05 2.44
10.79 4.25 2.44
10.67 4.46 2.43
6.31 2.79 1.45
6.20 2.89 1.44
6.20 3.04 1.45
6.20 3.19 1.47
6.20 3.35 1.48
6.20 3.52 1.50
6.20 3.68 1.52
6.20 3.85 1.54
6.20 4.03 1.56
6.20 4.21 1.58
6.20 4.39 1.60
6.20 4.58 1.63
6.21 4.79 1.66
6.20 4.98 1.68
6.20 5.19 1.71
6.20 5.40 1.74
6.20 5.62 1.77
6.20 5.85 1.80
6.20 6.09 1.84
6.20 6.34 1.88
6.20 6.60 1.92
6.20 6.88 1.96
6.20 7.16 2.01
6.20 7.46 2.06
6.20 7.77 2.11
6.20 8.10 2.16
6.20 8.44 2.22
6.20 8.81 2.29
6.15 9.13 2.34
5.96 9.25 2.34
5.78 9.36 2.34
5.58 9.47 2.34
5.39 9.58 2.34
5.20 9.68 2.34
5.00 9.78 2.34
4.80 9.88 2.34
4.60 9.97 2.34
4.40 10.05 2.34
4.19 10.14 2.34
3.99 10.22 2.34
3.78 10.29 2.34
3.57 10.36 2.34
3.36 10.43 2.34
3.15 10.49 2.34
2.94 10.55 2.34
2.72 10.60 2.34
2.51 10.65 2.34
2.34 10.90 2.38
2.17 11.21 2.44
1.95 11.25 2.44
1.72 11.28 2.44
1.49 11.31 2.44
1.26 11.34 2.44
1.04 11.36 2.44
0.81 11.37 2.44
0.58 11.39 2.44
0.35 11.39 2.44
0.12 11.39 2.44
-0.11 11.39 2.44
-0.34 11.38 2.44
-0.57 11.37 2.44
-0.79 11.36 2.44
-1.02 11.34 2.44
-1.25 11.31 2.44
-1.48 11.28 2.44
-1.70 11.25 2.44
-1.93 11.21 2.44
-2.15 11.17 2.44
-2.37 11.12 2.44
-2.60 11.07 2.44
-2.82 11.01 2.44
-3.04 10.95 2.44
-3.26 10.89 2.44
-3.47 10.82 2.44
-3.69 10.74 2.44
-3.91 10.67 2.44
-4.12 10.58 2.44
-4.33 10.50 2.44
-4.54 10.41 2.44
-4.75 10.31 2.44
-4.95 10.21 2.44
-5.16 10.11 2.44
-5.36 10.01 2.44
-5.56 9.90 2.44
-5.71 9.70 2.42
-5.72 9.29 2.35
-5.90 9.16 2.34
-6.07 9.02 2.34
-6.24 8.89 2.34
-5.97 8.15 2.17
-6.60 8.63 2.34
-6.77 8.50 2.34
-6.94 8.36 2.34
-7.10 8.22 2.34
-7.27 8.08 2.34
-7.43 7.93 2.34
-7.59 7.78 2.34
-7.74 7.63 2.34
-7.89 7.47 2.34
-8.04 7.31 2.34
-8.19 7.15 2.34
-8.33 6.98 2.34
-8.47 6.81 2.34
-8.61 6.64 2.34
-8.74 6.47 2.34
-8.87 6.29 2.34
-8.99 6.11 2.34
-9.11 5.93 2.34
-9.23 5.75 2.34
-9.35 5.56 2.34
-9.46 5.37 2.34
-9.56 5.18 2.34
-9.67 4.99 2.34
-9.69 3.83 2.24
-9.70 3.60 2.22
-9.70 3.38 2.20
-9.70 1.52 2.10
-9.69 -2.23 2.12
-9.70 -2.44 2.13
-43.01 -11.75 9.50
-39.35 -11.60 8.73
-38.03 -12.05 8.49
-10.79 -3.66 2.42
-10.71 -3.87 2.42
-9.70 -3.73 2.21
-9.70 -3.95 2.23
-9.69 -4.18 2.24
-10.36 -4.72 2.42
-10.26 -4.92 2.42
-10.25 -5.17 2.44
-10.25 -5.43 2.46
-9.63 -5.36 2.34
-9.53 -5.55 2.34
-9.42 -5.74 2.34
-9.30 -5.93 2.34
-9.18 -6.12 2.34
-9.06 -6.31 2.34
-8.94 -6.49 2.34
-8.81 -6.67 2.34
-8.68 -6.85 2.34
-8.54 -7.02 2.34
-8.40 -7.20 2.34
-8.26 -7.37 2.34
-8.11 -7.53 2.34
-7.96 -7.70 2.34
-7.81 -7.86 2.34
-7.65 -8.02 2.34
-7.49 -8.17 2.34
-7.33 -8.32 2.34
-7.16 -8.47 2.34
-6.99 -8.62 2.34
-6.82 -8.76 2.34
-6.65 -8.90 2.34
-6.47 -9.03 2.34
-6.29 -9.16 2.34
-6.10 -9.29 2.34
-5.92 -9.41 2.34
-5.73 -9.53 2.34
-5.71 -9.94 2.41
-5.58 -10.19 2.44
-5.38 -10.31 2.44
-5.17 -10.42 2.44
-4.96 -10.52 2.44
-4.75 -10.62 2.44
-4.54 -10.72 2.44
-4.33 -10.81 2.44
-4.11 -10.90 2.44
-3.89 -10.98 2.44
-3.67 -11.06 2.44
-3.45 -11.14 2.44
-3.23 -11.21 2.44
-3.00 -11.27 2.44
-2.78 -11.33 2.44
-2.55 -11.39 2.44
-2.32 -11.44 2.44
-2.09 -11.49 2.44
-1.86 -11.53 2.44
-1.63 -11.57 2.44
-1.40 -11.61 2.44
-1.17 -11.63 2.44
-0.93 -11.66 2.44
-0.70 -11.68 2.44
-0.46 -11.69 2.44
-0.23 -11.70 2.44
0.01 -10.52 2.44
0.22 -10.52 2.44
0.43 -10.51 2.44
0.64 -10.50 2.44
0.85 -10.49 2.44
1.06 -10.47 2.44
1.27 -10.45 2.44
1.48 -10.43 2.44
1.69 -10.40 2.44
1.90 -10.36 2.44
2.11 -10.32 2.44
2.31 -10.28 2.44
2.41 -9.80 2.34
2.61 -9.75 2.34
2.80 -9.70 2.34
3.00 -9.64 2.34
3.19 -9.58 2.34
3.38 -9.52 2.34
3.57 -9.45 2.34
3.76 -9.38 2.34
3.95 -9.30 2.34
4.14 -9.22 2.34
4.32 -9.13 2.34
4.50 -9.05 2.34
4.68 -8.96 2.34
4.86 -8.86 2.34
5.04 -8.76 2.34
5.22 -8.66 2.34
5.39 -8.55 2.34
5.56 -8.44 2.34
5.73 -8.33 2.34
5.89 -8.21 2.34
6.06 -8.10 2.34
6.22 -7.97 2.34
6.22 -7.66 2.28
6.23 -7.35 2.23
6.23 -7.06 2.18
6.23 -6.79 2.13
6.23 -6.52 2.09
6.23 -6.26 2.04
6.23 -6.02 2.00
6.23 -5.78 1.97
6.23 -5.55 1.93
6.23 -5.33 1.90
6.23 -5.12 1.86
6.23 -4.91 1.84
6.23 -4.71 1.81
6.23 -4.52 1.78
6.23 -4.33 1.76
6.23 -4.15 1.73
6.23 -3.97 1.71
6.23 -3.80 1.69
6.23 -3.63 1.67
6.23 -3.46 1.65
6.23 -3.30 1.63
6.23 -3.14 1.62
6.23 -2.99 1.60
6.23 -2.83 1.59
6.23 -2.69 1.57
6.23 -2.54 1.56
6.23 -2.39 1.55
6.23 -2.25 1.54
6.23 -2.11 1.52
6.23 -1.97 1.51
6.23 -1.84 1.51
6.23 -1.70 1.50
6.23 -1.57 1.49
6.23 -1.43 1.48
6.23 -1.30 1.48
6.23 -1.17 1.47
6.23 -1.04 1.47
6.23 -0.92 1.46
6.23 -0.79 1.46
6.23 -0.66 1.46
6.23 -0.54 1.45
5.60 -0.37 1.31
5.61 -0.26 1.30
5.61 -0.14 1.30
5.61 -0.03 1.30
6.23 0.09 1.45
6.23 0.21 1.45
6.23 0.34 1.45
6.23 0.47 1.45
6.23 0.59 1.46
6.23 0.72 1.46
6.23 0.85 1.46
6.23 0.97 1.47
6.23 1.10 1.47
9.59 1.89 2.28
9.52 2.08 2.27
9.45 2.26 2.27
9.37 2.44 2.26
9.28 2.62 2.25
9.21 2.80 2.25
9.67 3.16 2.38
9.59 3.34 2.37
9.51 3.53 2.37
7.76 3.06 1.95
7.40 3.09 1.87
6.32 2.79 1.62
6.20 2.89 1.60
6.20 3.04 1.62
6.20 3.19 1.63
6.20 3.35 1.65
6.20 3.52 1.67
6.20 3.68 1.69
6.20 3.85 1.71
6.20 4.03 1.73
6.20 4.21 1.76
6.20 4.39 1.78
6.20 4.58 1.81
6.21 4.79 1.84
6.20 4.98 1.87
6.20 5.18 1.90
6.20 5.40 1.93
6.20 5.62 1.97
6.20 5.85 2.00
6.20 6.09 2.04
6.20 6.34 2.09
6.20 6.60 2.13
6.20 6.87 2.18
6.20 7.16 2.23
6.20 7.46 2.28
6.18 7.75 2.34
6.03 7.87 2.34
5.86 7.99 2.34
5.70 8.10 2.34
5.53 8.21 2.34
5.37 8.32 2.34
5.20 8.42 2.34
5.03 8.52 2.34
4.85 8.62 2.34
4.68 8.71 2.34
4.50 8.80 2.34
4.32 8.89 2.34
4.14 8.97 2.34
3.96 9.05 2.34
3.77 9.12 2.34
3.59 9.20 2.34
3.40 9.26 2.34
3.22 9.33 2.34
3.03 9.39 2.34
2.84 9.44 2.34
2.65 9.50 2.34
2.45 9.54 2.34
2.34 9.91 2.42
2.16 10.06 2.44
1.96 10.09 2.44
1.75 10.13 2.44
1.55 10.16 2.44
1.34 10.19 2.44
1.14 10.21 2.44
0.93 10.23 2.44
0.73 10.24 2.44
0.52 10.25 2.44
0.31 10.26 2.44
0.11 10.26 2.44
-0.10 10.26 2.44
-0.30 10.25 2.44
-0.51 10.24 2.44
-0.71 10.23 2.44
-0.92 10.21 2.44
-1.12 10.19 2.44
-1.33 10.16 2.44
-1.53 10.13 2.44
-1.73 10.10 2.44
-1.94 10.06 2.44
-2.14 10.01 2.44
-2.34 9.97 2.44
-2.54 9.92 2.44
-2.74 9.86 2.44
-2.93 9.80 2.44
-3.13 9.74 2.44
-3.32 9.68 2.44
-3.52 9.61 2.44
-3.71 9.53 2.44
-3.90 9.46 2.44
-4.09 9.37 2.44
-4.28 9.29 2.44
-4.46 9.20 2.44
-4.64 9.11 2.44
-4.83 9.01 2.44
-5.01 8.91 2.44
-5.18 8.81 2.44
-5.36 8.70 2.44
-5.53 8.59 2.44
-5.70 8.48 2.44
-5.71 8.14 2.37
-5.79 7.90 2.34
-5.94 7.78 2.34
-6.10 7.66 2.34
-6.25 7.53 2.34
-6.40 7.41 2.34
-6.55 7.28 2.34
-6.69 7.14 2.34
-6.83 7.01 2.34
-6.97 6.87 2.34
-7.11 6.73 2.34
-7.25 6.58 2.34
-7.38 6.44 2.34
-7.50 6.29 2.34
-7.63 6.14 2.34
-7.75 5.98 2.34
-7.87 5.83 2.34
-7.99 5.67 2.34
-8.10 5.51 2.34
-8.21 5.34 2.34
-8.32 5.18 2.34
-8.42 5.01 2.34
-8.52 4.84 2.34
-8.62 4.67 2.34
-8.71 4.49 2.34
-8.80 4.32 2.34
-8.88 4.14 2.34
-8.97 3.96 2.34
-9.05 3.78 2.34
-9.12 3.60 2.34
-9.19 3.42 2.34
-9.26 3.23 2.34
-9.33 3.05 2.34
-9.39 2.86 2.34
-9.44 2.67 2.34
-9.50 2.48 2.34
-9.55 2.29 2.34
-9.59 2.10 2.34
-9.64 1.91 2.34
-9.67 1.71 2.34
-9.71 1.52 2.34
-46.02 5.31 11.02
-48.11 2.63 11.45
-45.65 0.66 10.85
-46.17 -0.26 10.97
-47.16 -2.16 11.21
-46.62 -3.08 11.09
-46.14 -3.98 10.99
-42.11 -4.48 10.04
-45.42 -5.76 10.86
-42.67 -6.29 10.22
-10.80 -1.81 2.60
-9.70 -1.83 2.34
-9.66 -2.02 2.34
-9.62 -2.22 2.34
-9.58 -2.41 2.34
-9.53 -2.60 2.34
-9.48 -2.80 2.34
-9.42 -2.99 2.34
-9.36 -3.18 2.34
-9.30 -3.36 2.34
-9.23 -3.55 2.34
-9.16 -3.74 2.34
-9.09 -3.92 2.34
-9.01 -4.10 2.34
-8.93 -4.29 2.34
-8.85 -4.47 2.34
-8.76 -4.64 2.34
-8.67 -4.82 2.34
-8.57 -5.00 2.34
-8.47 -5.17 2.34
-8.37 -5.34 2.34
-8.26 -5.51 2.34
-8.15 -5.67 2.34
-8.04 -5.84 2.34
-7.92 -6.00 2.34
-7.80 -6.16 2.34
-7.68 -6.32 2.34
-7.55 -6.47 2.34
-7.43 -6.63 2.34
-7.29 -6.78 2.34
-7.16 -6.92 2.34
-7.02 -7.07 2.34
-6.88 -7.21 2.34
-6.73 -7.35 2.34
-6.59 -7.48 2.34
-6.44 -7.62 2.34
-6.29 -7.75 2.34
-6.13 -7.87 2.34
-5.97 -8.00 2.34
-5.81 -8.12 2.34
-5.71 -8.33 2.36
-5.71 -8.69 2.43
-5.56 -8.84 2.44
-5.38 -8.95 2.44
-5.20 -9.06 2.44
-5.02 -9.16 2.44
-4.83 -9.26 2.44
-4.65 -9.36 2.44
-4.46 -9.46 2.44
-4.27 -9.55 2.44
-4.08 -9.63 2.44
-3.89 -9.72 2.44
-3.69 -9.80 2.44
-3.50 -9.87 2.44
-3.30 -9.94 2.44
-3.10 -10.01 2.44
-2.90 -10.07 2.44
-2.70 -10.13 2.44
-2.49 -10.18 2.44
-2.29 -10.24 2.44
-2.09 -10.28 2.44
-1.88 -10.32 2.44
-1.67 -10.36 2.44
-1.46 -10.40 2.44
-1.26 -10.43 2.44
-1.05 -10.45 2.44
-0.84 -10.47 2.44
-0.63 -10.49 2.44
-0.42 -10.50 2.44
-0.21 -10.51 2.44
0.01 -9.54 2.44
0.20 -9.54 2.44
0.39 -9.53 2.44
0.58 -9.52 2.44
0.77 -9.51 2.44
0.96 -9.50 2.44
1.15 -9.48 2.44
1.34 -9.45 2.44
1.53 -9.43 2.44
1.72 -9.39 2.44
1.91 -9.36 2.44
2.10 -9.32 2.44
2.28 -9.28 2.44
2.36 -8.84 2.34
2.55 -8.82 2.34
2.72 -8.74 2.34
2.89 -8.69 2.34
3.07 -8.63 2.34
3.24 -8.57 2.34
3.41 -8.50 2.34
3.58 -8.43 2.34
3.75 -8.36 2.34
3.92 -8.28 2.34
4.08 -8.20 2.34
4.25 -8.12 2.34
4.41 -8.03 2.34
4.57 -7.94 2.34
4.73 -7.85 2.34
4.89 -7.75 2.34
5.04 -7.65 2.34
5.19 -7.55 2.34
5.34 -7.45 2.34
5.49 -7.34 2.34
5.64 -7.23 2.34
5.78 -7.11 2.34
5.92 -6.99 2.34
6.06 -6.87 2.34
6.20 -6.75 2.34
6.23 -6.52 2.30
6.23 -6.26 2.25
6.23 -6.02 2.21
6.23 -5.78 2.17
6.23 -5.55 2.13
6.23 -5.33 2.09
6.23 -5.12 2.06
6.23 -4.91 2.02
6.23 -4.71 1.99
6.23 -4.52 1.96
6.23 -4.33 1.94
6.23 -4.15 1.91
6.23 -3.97 1.89
6.23 -3.80 1.86
6.23 -3.63 1.84
6.23 -3.46 1.82
6.23 -3.30 1.80
6.23 -3.14 1.78
6.23 -2.99 1.76
6.23 -2.83 1.75
6.23 -2.69 1.73
6.23 -2.54 1.72
6.23 -2.39 1.71
6.23 -2.25 1.69
6.23 -2.11 1.68
6.23 -1.97 1.67
6.23 -1.84 1.66
6.23 -1.70 1.65
6.23 -1.57 1.64
6.23 -1.44 1.64
6.23 -1.30 1.63
6.23 -1.17 1.62
6.23 -1.05 1.62
6.23 -0.92 1.61
6.23 -0.79 1.61
6.23 -0.66 1.60
6.23 -0.54 1.60
5.51 -0.36 1.41
5.49 -0.25 1.41
5.50 -0.14 1.41
5.52 -0.03 1.41
6.23 0.09 1.60
6.23 0.21 1.60
6.23 0.34 1.60
6.23 0.47 1.60
6.23 0.59 1.61
6.23 0.72 1.61
6.23 0.84 1.61
6.23 0.97 1.62
6.23 1.10 1.63
8.55 1.69 2.24
8.50 1.86 2.24
8.46 2.03 2.24
8.42 2.20 2.24
8.38 2.37 2.24
8.33 2.53 2.24
8.28 2.70 2.24
8.23 2.87 2.25
8.59 3.19 2.36
7.76 3.06 2.15
7.32 3.06 2.05
6.32 2.79 1.78
6.20 2.88 1.76
6.20 3.04 1.78
6.20 3.19 1.80
6.20 3.35 1.82
6.20 3.51 1.84
6.20 3.68 1.86
6.20 3.85 1.88
6.20 4.03 1.91
6.20 4.21 1.94
6.20 4.39 1.96
6.20 4.58 1.99
6.21 4.79 2.03
6.20 4.98 2.06
6.20 5.18 2.09
6.20 5.40 2.13
6.20 5.62 2.17
6.20 5.85 2.21
6.20 6.09 2.25
6.20 6.34 2.30
6.17 6.57 2.34
6.03 6.69 2.34
5.90 6.81 2.34
5.76 6.93 2.34
5.62 7.04 2.34
5.47 7.15 2.34
5.32 7.25 2.34
5.18 7.36 2.34
5.03 7.46 2.34
4.87 7.55 2.34
4.72 7.65 2.34
4.56 7.74 2.34
4.41 7.83 2.34
4.25 7.91 2.34
4.09 7.99 2.34
3.92 8.07 2.34
3.76 8.15 2.34
3.60 8.22 2.34
3.43 8.29 2.34
3.26 8.35 2.34
3.09 8.41 2.34
2.92 8.47 2.34
2.75 8.53 2.34
2.58 8.58 2.34
2.40 8.63 2.34
2.33 9.05 2.44
2.15 9.10 2.44
1.96 9.14 2.44
1.78 9.17 2.44
1.59 9.20 2.44
1.41 9.23 2.44
1.22 9.25 2.44
1.03 9.28 2.44
0.85 9.29 2.44
0.66 9.31 2.44
0.47 9.31 2.44
0.29 9.32 2.44
0.10 9.32 2.44
-0.09 9.32 2.44
-0.28 9.32 2.44
-0.46 9.31 2.44
-0.65 9.29 2.44
-0.84 9.28 2.44
-1.02 9.26 2.44
-1.21 9.23 2.44
-1.39 9.21 2.44
-1.58 9.17 2.44
-1.76 9.14 2.44
-1.94 9.10 2.44
-2.13 9.06 2.44
-2.31 9.01 2.44
-2.49 8.96 2.44
-2.67 8.91 2.44
-2.84 8.85 2.44
-3.02 8.79 2.44
-3.20 8.73 2.44
-3.37 8.66 2.44
-3.54 8.59 2.44
-3.72 8.52 2.44
-3.89 8.44 2.44
-4.05 8.36 2.44
-4.22 8.28 2.44
-4.39 8.19 2.44
-4.55 8.10 2.44
-4.71 8.01 2.44
-4.87 7.91 2.44
-5.03 7.81 2.44
-5.18 7.71 2.44
-5.34 7.60 2.44
-5.49 7.49 2.44
-5.64 7.38 2.44
-5.71 7.17 2.41
-5.72 6.89 2.35
-5.82 6.73 2.34
-5.95 6.61 2.34
-6.08 6.49 2.34
-6.21 6.37 2.34
-6.34 6.24 2.34
-6.13 5.80 2.22
-6.30 5.73 2.24
-6.57 5.73 2.29
-6.65 5.57 2.28
-6.65 5.35 2.24
-6.68 5.15 2.22
-6.78 5.02 2.22
-7.26 5.15 2.34
-7.36 5.00 2.34
-7.46 4.86 2.34
-7.56 4.70 2.34
-7.65 4.55 2.34
-7.74 4.40 2.34
-7.83 4.24 2.34
-7.91 4.08 2.34
-8.00 3.93 2.34
-8.07 3.76 2.34
-8.15 3.60 2.34
-8.22 3.44 2.34
-8.29 3.27 2.34
-8.36 3.11 2.34
-8.42 2.94 2.34
-8.48 2.77 2.34
-8.53 2.60 2.34
-8.58 2.43 2.34
-8.63 2.25 2.34
-8.68 2.08 2.34
-8.72 1.91 2.34
-8.76 1.73 2.34
-8.79 1.55 2.34
-8.82 1.38 2.34
-8.85 1.20 2.34
-8.87 1.02 2.34
-8.89 0.84 2.34
-8.91 0.67 2.34
-8.92 0.49 2.34
-8.93 0.31 2.34
-8.94 0.13 2.34
-8.94 -0.05 2.34
-8.94 -0.23 2.34
-8.94 -0.41 2.34
-8.93 -0.59 2.34
-8.92 -0.77 2.34
-8.90 -0.95 2.34
-8.89 -1.13 2.34
-8.86 -1.31 2.34
-8.84 -1.48 2.34
-8.81 -1.66 2.34
-8.77 -1.84 2.34
-8.74 -2.02 2.34
-8.70 -2.19 2.34
-8.66 -2.37 2.34
-8.61 -2.54 2.34
-8.56 -2.71 2.34
-8.50 -2.89 2.34
-8.45 -3.06 2.34
-8.39 -3.23 2.34
-8.32 -3.39 2.34
-8.25 -3.56 2.34
-8.18 -3.73 2.34
-8.11 -3.89 2.34
-8.03 -4.06 2.34
-7.95 -4.22 2.34
-7.87 -4.38 2.34
-7.78 -4.54 2.34
-7.69 -4.69 2.34
-7.60 -4.85 2.34
-7.50 -5.00 2.34
-7.40 -5.15 2.34
-7.30 -5.30 2.34
-7.19 -5.45 2.34
-6.71 -5.30 2.22
-6.65 -5.47 2.23
-6.65 -5.70 2.27
-6.58 -5.87 2.28
-6.32 -5.87 2.23
-6.16 -5.96 2.22
-6.37 -6.41 2.34
-6.24 -6.54 2.34
-6.11 -6.67 2.34
-5.98 -6.79 2.34
-5.84 -6.91 2.34
-5.72 -7.05 2.34
-5.71 -7.33 2.40
-5.66 -7.58 2.44
-5.51 -7.69 2.44
-5.35 -7.80 2.44
-5.20 -7.91 2.44
-5.04 -8.02 2.44
-4.88 -8.12 2.44
-4.72 -8.22 2.44
-4.55 -8.31 2.44
-4.39 -8.41 2.44
-4.22 -8.49 2.44
-4.05 -8.58 2.44
-3.88 -8.66 2.44
-3.70 -8.74 2.44
-3.53 -8.81 2.44
-3.35 -8.89 2.44
-3.17 -8.95 2.44
-2.99 -9.02 2.44
-2.81 -9.08 2.44
-2.63 -9.14 2.44
-2.45 -9.19 2.44
-2.26 -9.24 2.44
-2.08 -9.28 2.44
-1.89 -9.33 2.44
-1.70 -9.36 2.44
-1.52 -9.40 2.44
-1.33 -9.43 2.44
-1.14 -9.46 2.44
-0.95 -9.48 2.44
-0.76 -9.50 2.44
-0.57 -9.51 2.44
-0.38 -9.52 2.44
-0.19 -9.53 2.44
0.01 -8.71 2.44
0.18 -8.71 2.44
0.36 -8.71 2.44
0.53 -8.70 2.44
0.70 -8.69 2.44
0.88 -8.68 2.44
1.05 -8.66 2.44
1.23 -8.64 2.44
1.40 -8.61 2.44
1.57 -8.58 2.44
1.74 -8.55 2.44
1.92 -8.52 2.44
2.09 -8.48 2.44
2.26 -8.43 2.44
2.34 -8.11 2.36
2.48 -7.99 2.34
2.64 -7.94 2.34
2.80 -7.88 2.34
2.96 -7.83 2.34
3.12 -7.77 2.34
3.27 -7.70 2.34
3.43 -7.64 2.34
3.58 -7.57 2.34
3.73 -7.49 2.34
3.88 -7.42 2.34
4.03 -7.34 2.34
4.18 -7.26 2.34
4.32 -7.17 2.34
4.46 -7.08 2.34
4.60 -6.99 2.34
4.74 -6.90 2.34
4.88 -6.80 2.34
5.02 -6.70 2.34
5.15 -6.60 2.34
5.28 -6.50 2.34
5.41 -6.39 2.34
5.54 -6.28 2.34
5.66 -6.17 2.34
5.79 -6.05 2.34
5.91 -5.94 2.34
6.02 -5.82 2.34
6.14 -5.69 2.34
6.23 -5.55 2.33
6.23 -5.33 2.29
6.23 -5.12 2.25
6.23 -4.91 2.22
6.23 -4.71 2.18
6.23 -4.52 2.15
6.23 -4.33 2.12
6.23 -4.15 2.09
6.23 -3.97 2.06
6.23 -3.80 2.04
6.23 -3.63 2.01
6.23 -3.46 1.99
6.23 -3.30 1.97
6.23 -3.14 1.95
6.23 -2.99 1.93
6.23 -2.84 1.91
6.23 -2.69 1.90
6.23 -2.54 1.88
6.23 -2.39 1.87
6.23 -2.25 1.85
6.23 -2.11 1.84
6.23 -1.97 1.83
6.23 -1.84 1.82
6.23 -1.70 1.81
6.23 -1.57 1.80
6.23 -1.44 1.79
6.23 -1.30 1.78
6.23 -1.17 1.78
6.23 -1.05 1.77
6.23 -0.92 1.76
6.23 -0.79 1.76
6.23 -0.66 1.76
6.23 -0.54 1.75
5.51 -0.36 1.55
5.50 -0.25 1.54
5.50 -0.14 1.54
5.52 -0.03 1.55
6.23 0.09 1.75
6.23 0.21 1.75
6.23 0.34 1.75
6.23 0.46 1.75
6.23 0.59 1.76
6.23 0.72 1.76
6.23 0.84 1.77
6.23 0.97 1.77
6.23 1.10 1.78
7.86 1.55 2.25
7.83 1.71 2.25
7.80 1.87 2.26
7.77 2.02 2.26
7.73 2.18 2.26
7.69 2.34 2.26
7.65 2.49 2.27
7.60 2.65 2.27
7.55 2.80 2.27
7.50 2.96 2.27
7.38 3.08 2.26
6.32 2.79 1.95
6.20 2.88 1.93
6.20 3.04 1.95
6.20 3.19 1.97
6.20 3.35 1.99
6.20 3.51 2.01
6.20 3.68 2.04
6.20 3.85 2.06
6.20 4.03 2.09
6.20 4.20 2.12
6.20 4.39 2.15
6.20 4.58 2.18
6.20 4.77 2.21
6.20 4.97 2.25
6.20 5.18 2.29
6.23 5.42 2.34
6.11 5.55 2.34
6.00 5.67 2.34
5.88 5.78 2.34
5.76 5.90 2.34
5.64 6.01 2.34
5.52 6.12 2.34
5.39 6.23 2.34
5.27 6.34 2.34
5.14 6.44 2.34
5.01 6.54 2.34
4.87 6.64 2.34
4.74 6.73 2.34
4.60 6.82 2.34
4.46 6.91 2.34
4.32 7.00 2.34
4.18 7.08 2.34
4.03 7.16 2.34
3.89 7.24 2.34
3.74 7.31 2.34
3.59 7.39 2.34
3.44 7.45 2.34
3.29 7.52 2.34
3.14 7.58 2.34
2.98 7.64 2.34
2.83 7.70 2.34
2.67 7.75 2.34
2.52 7.80 2.34
2.36 7.85 2.34
2.30 8.24 2.44
2.13 8.29 2.44
1.96 8.32 2.44
1.80 8.36 2.44
1.63 8.39 2.44
1.46 8.42 2.44
1.29 8.45 2.44
1.12 8.47 2.44
0.95 8.49 2.44
0.78 8.51 2.44
0.61 8.52 2.44
0.43 8.53 2.44
0.26 8.53 2.44
0.09 8.53 2.44
-0.08 8.53 2.44
-0.25 8.53 2.44
-0.42 8.52 2.44
-0.59 8.51 2.44
-0.76 8.49 2.44
-0.93 8.47 2.44
-1.10 8.45 2.44
-1.27 8.43 2.44
-1.44 8.40 2.44
-1.61 8.37 2.44
-1.78 8.33 2.44
-1.95 8.29 2.44
-2.11 8.25 2.44
-2.28 8.21 2.44
-2.44 8.16 2.44
-2.60 8.11 2.44
-2.77 8.05 2.44
-2.93 7.99 2.44
-3.09 7.93 2.44
-3.24 7.87 2.44
-3.40 7.80 2.44
-3.56 7.73 2.44
-3.71 7.66 2.44
-3.86 7.58 2.44
-4.02 7.50 2.44
-4.17 7.42 2.44
-4.31 7.33 2.44
-4.46 7.24 2.44
-4.60 7.15 2.44
-4.75 7.06 2.44
-4.89 6.96 2.44
-5.03 6.86 2.44
-5.16 6.76 2.44
-5.30 6.65 2.44
-5.43 6.55 2.44
-5.56 6.44 2.44
-5.69 6.32 2.44
-5.71 6.09 2.40
-5.72 5.86 2.35
-5.80 5.72 2.34
-5.92 5.60 2.34
-6.03 5.48 2.34
-6.07 5.29 2.31
-6.07 5.08 2.27
-6.07 4.88 2.23
-6.12 4.72 2.22
-6.44 4.77 2.30
-6.53 4.64 2.30
-6.63 4.50 2.30
-6.65 4.33 2.28
-6.65 4.14 2.25
-6.66 3.96 2.22
-6.72 3.82 2.22
-7.17 3.88 2.34
-7.25 3.74 2.34
-7.32 3.59 2.34
-7.39 3.45 2.34
-7.46 3.30 2.34
-7.53 3.15 2.34
-7.59 3.00 2.34
-7.65 2.84 2.34
-7.71 2.69 2.34
-7.76 2.53 2.34
-7.81 2.38 2.34
-7.86 2.22 2.34
-7.90 2.06 2.34
-7.94 1.90 2.34
-7.98 1.74 2.34
-8.02 1.58 2.34
-8.05 1.42 2.34
-8.08 1.26 2.34
-8.10 1.10 2.34
-8.12 0.94 2.34
-8.14 0.77 2.34
-8.16 0.61 2.34
-8.17 0.45 2.34
-8.18 0.28 2.34
-8.18 0.12 2.34
-8.19 -0.05 2.34
-8.18 -0.21 2.34
-8.18 -0.38 2.34
-8.17 -0.54 2.34
-8.16 -0.70 2.34
-8.15 -0.87 2.34
-8.13 -1.03 2.34
-8.11 -1.20 2.34
-8.09 -1.36 2.34
-8.06 -1.52 2.34
-8.03 -1.68 2.34
-8.00 -1.84 2.34
-7.96 -2.01 2.34
-7.92 -2.17 2.34
-7.88 -2.32 2.34
-7.83 -2.48 2.34
-7.78 -2.64 2.34
-7.73 -2.80 2.34
-7.67 -2.95 2.34
-7.61 -3.11 2.34
-7.55 -3.26 2.34
-7.49 -3.41 2.34
-7.42 -3.56 2.34
-7.35 -3.71 2.34
-7.27 -3.86 2.34
-7.20 -4.01 2.34
-6.75 -3.93 2.22
-6.67 -4.07 2.22
-6.65 -4.25 2.24
-6.65 -4.44 2.27
-6.65 -4.63 2.30
-6.56 -4.77 2.30
-6.47 -4.90 2.30
-6.14 -4.85 2.22
-6.07 -4.99 2.22
-6.07 -5.20 2.26
-6.07 -5.41 2.30
-6.05 -5.63 2.34
-5.94 -5.75 2.34
-5.83 -5.87 2.34
-5.72 -6.00 2.34
-5.71 -6.23 2.39
-5.71 -6.49 2.44
-5.58 -6.60 2.44
-5.45 -6.71 2.44
-5.31 -6.82 2.44
-5.17 -6.93 2.44
-5.04 -7.03 2.44
-4.90 -7.14 2.44
-4.75 -7.23 2.44
-4.61 -7.33 2.44
-4.46 -7.42 2.44
-4.31 -7.51 2.44
-4.16 -7.60 2.44
-4.01 -7.68 2.44
-3.85 -7.77 2.44
-3.70 -7.84 2.44
-3.54 -7.92 2.44
-3.38 -7.99 2.44
-3.22 -8.06 2.44
-3.06 -8.12 2.44
-2.90 -8.18 2.44
-2.73 -8.24 2.44
-2.57 -8.30 2.44
-2.40 -8.35 2.44
-2.24 -8.40 2.44
-2.07 -8.44 2.44
-1.90 -8.49 2.44
-1.73 -8.52 2.44
-1.56 -8.56 2.44
-1.38 -8.59 2.44
-1.21 -8.62 2.44
-1.04 -8.64 2.44
-0.87 -8.66 2.44
-0.69 -8.68 2.44
-0.52 -8.69 2.44
-0.34 -8.70 2.44
-0.17 -8.71 2.44
0.01 -8.01 2.44
0.17 -8.01 2.44
0.33 -8.01 2.44
0.49 -8.00 2.44
0.65 -7.99 2.44
0.81 -7.98 2.44
0.97 -7.96 2.44
1.13 -7.94 2.44
1.29 -7.92 2.44
1.45 -7.89 2.44
1.60 -7.86 2.44
1.76 -7.83 2.44
1.92 -7.80 2.44
2.08 -7.76 2.44
2.23 -7.71 2.44
2.34 -7.51 2.39
2.43 -7.30 2.34
2.58 -7.25 2.34
2.72 -7.20 2.34
2.87 -7.14 2.34
3.01 -7.08 2.34
3.15 -7.02 2.34
3.29 -6.96 2.34
3.43 -6.89 2.34
3.57 -6.82 2.34
3.70 -6.75 2.34
3.84 -6.67 2.34
3.97 -6.59 2.34
4.10 -6.51 2.34
4.23 -6.43 2.34
4.36 -6.34 2.34
4.49 -6.26 2.34
4.61 -6.16 2.34
4.74 -6.07 2.34
4.86 -5.97 2.34
4.98 -5.88 2.34
5.09 -5.78 2.34
5.21 -5.67 2.34
5.32 -5.57 2.34
5.43 -5.46 2.34
5.54 -5.35 2.34
5.64 -5.24 2.34
5.75 -5.12 2.34
5.85 -5.01 2.34
5.95 -4.89 2.34
6.04 -4.77 2.34
6.14 -4.64 2.34
6.23 -4.52 2.34
6.23 -4.33 2.31
6.23 -4.15 2.27
6.23 -3.97 2.24
6.23 -3.80 2.22
6.23 -3.63 2.19
6.23 -3.46 2.17
6.23 -3.30 2.14
6.23 -3.14 2.12
6.23 -2.99 2.10
6.23 -2.84 2.08
6.23 -2.69 2.06
6.23 -2.54 2.05
6.23 -2.39 2.03
6.23 -2.25 2.02
6.23 -2.11 2.00
6.23 -1.97 1.99
6.23 -1.84 1.98
6.23 -1.70 1.97
6.23 -1.57 1.96
6.23 -1.44 1.95
6.23 -1.30 1.94
6.23 -1.17 1.93
6.23 -1.05 1.92
6.23 -0.92 1.92
6.23 -0.79 1.91
6.23 -0.66 1.91
6.23 -0.54 1.91
5.52 -0.36 1.69
5.50 -0.25 1.68
5.51 -0.14 1.68
5.52 -0.03 1.68
6.23 0.09 1.90
6.23 0.21 1.90
6.23 0.34 1.90
6.23 0.46 1.91
6.23 0.59 1.91
6.23 0.72 1.92
6.23 0.84 1.92
6.23 0.97 1.93
6.23 1.10 1.93
7.33 1.44 2.28
7.30 1.59 2.28
7.27 1.74 2.28
7.24 1.89 2.29
7.20 2.03 2.29
7.16 2.18 2.29
7.12 2.32 2.29
7.08 2.47 2.30
7.04 2.61 2.30
6.99 2.75 2.30
6.94 2.90 2.30
6.32 2.79 2.12
6.20 2.88 2.09
6.20 3.04 2.12
6.20 3.19 2.14
5.32 2.88 1.86
5.45 3.09 1.92
5.45 3.24 1.95
5.38 3.34 1.94
5.15 3.34 1.89
6.20 4.20 2.30
6.21 4.40 2.34
6.12 4.52 2.34
6.03 4.64 2.34
5.93 4.76 2.34
5.83 4.88 2.34
5.73 4.99 2.34
5.63 5.10 2.34
5.52 5.21 2.34
5.42 5.32 2.34
5.31 5.43 2.34
5.20 5.53 2.34
5.08 5.64 2.34
4.97 5.73 2.34
4.85 5.83 2.34
4.73 5.93 2.34
4.61 6.02 2.34
4.49 6.11 2.34
4.36 6.20 2.34
4.23 6.28 2.34
4.11 6.36 2.34
3.98 6.44 2.34
3.85 6.52 2.34
3.71 6.59 2.34
3.58 6.66 2.34
3.44 6.73 2.34
3.31 6.80 2.34
3.17 6.86 2.34
3.03 6.92 2.34
2.89 6.98 2.34
2.75 7.04 2.34
2.61 7.09 2.34
2.46 7.14 2.34
2.34 7.26 2.36
2.27 7.55 2.44
2.12 7.59 2.44
1.96 7.63 2.44
1.81 7.67 2.44
1.65 7.70 2.44
1.50 7.73 2.44
1.34 7.76 2.44
1.19 7.78 2.44
1.03 7.80 2.44
0.87 7.82 2.44
0.72 7.83 2.44
0.56 7.84 2.44
0.40 7.85 2.44
0.24 7.86 2.44
0.08 7.86 2.44
-0.07 7.86 2.44
-0.23 7.85 2.44
-0.39 7.85 2.44
-0.55 7.84 2.44
-0.70 7.82 2.44
-0.86 7.81 2.44
-1.02 7.79 2.44
-1.17 7.76 2.44
-1.33 7.74 2.44
-1.48 7.71 2.44
-1.64 7.67 2.44
-1.79 7.64 2.44
-1.94 7.60 2.44
-2.10 7.56 2.44
-2.25 7.51 2.44
-2.40 7.47 2.44
-2.55 7.42 2.44
-2.70 7.36 2.44
-2.84 7.31 2.44
-2.99 7.25 2.44
-3.13 7.19 2.44
-3.28 7.12 2.44
-3.42 7.05 2.44
-3.56 6.98 2.44
-3.70 6.91 2.44
-3.84 6.83 2.44
-3.97 6.75 2.44
-4.11 6.67 2.44
-4.24 6.59 2.44
-4.37 6.50 2.44
-4.50 6.41 2.44
-4.63 6.32 2.44
-4.76 6.23 2.44
-4.88 6.13 2.44
-5.00 6.03 2.44
-5.12 5.93 2.44
-5.24 5.82 2.44
-5.36 5.72 2.44
-5.47 5.61 2.44
-5.58 5.50 2.44
-5.69 5.39 2.44
-5.71 5.19 2.40
-5.71 4.99 2.36
-5.75 4.82 2.34
-5.85 4.70 2.34
-5.94 4.59 2.34
-6.03 4.47 2.34
-6.07 4.30 2.32
-6.07 4.12 2.28
-6.07 3.95 2.25
-6.07 3.78 2.22
-6.12 3.64 2.22
-6.19 3.52 2.22
-6.49 3.52 2.30
-6.56 3.39 2.30
-6.63 3.25 2.30
-6.65 3.10 2.28
-6.65 2.94 2.26
-6.65 2.78 2.24
-6.65 2.63 2.23
-6.68 2.48 2.22
-6.73 2.35 2.22
-6.78 2.21 2.22
-7.19 2.19 2.34
-7.24 2.05 2.34
-7.28 1.90 2.34
-7.32 1.75 2.34
-7.35 1.61 2.34
-7.38 1.46 2.34
-7.41 1.31 2.34
-7.44 1.16 2.34
-7.46 1.01 2.34
-7.48 0.86 2.34
-7.49 0.71 2.34
-7.51 0.56 2.34
-7.52 0.41 2.34
-7.53 0.26 2.34
-7.54 0.11 2.34
-7.54 -0.04 2.34
-7.54 -0.20 2.34
-7.53 -0.35 2.34
-7.53 -0.50 2.34
-7.52 -0.65 2.34
-7.50 -0.80 2.34
-7.49 -0.95 2.34
-7.47 -1.10 2.34
-7.45 -1.25 2.34
-7.42 -1.40 2.34
-7.39 -1.55 2.34
-7.36 -1.70 2.34
-7.33 -1.85 2.34
-7.29 -1.99 2.34
-7.25 -2.14 2.34
-7.21 -2.29 2.34
-7.16 -2.43 2.34
-6.74 -2.44 2.22
-6.70 -2.58 2.22
-6.66 -2.72 2.22
-6.65 -2.87 2.24
-6.65 -3.03 2.26
-6.65 -3.20 2.28
-6.64 -3.36 2.30
-6.58 -3.49 2.30
-6.51 -3.63 2.30
-6.44 -3.76 2.30
-6.14 -3.75 2.22
-6.07 -3.88 2.22
-6.07 -4.05 2.25
-6.07 -4.22 2.28
-6.07 -4.41 2.31
-6.05 -4.59 2.34
-5.96 -4.71 2.34
-5.87 -4.83 2.34
-5.77 -4.95 2.34
-5.72 -5.10 2.36
-5.71 -5.31 2.40
-5.71 -5.52 2.44
-5.60 -5.64 2.44
-5.48 -5.75 2.44
-5.37 -5.86 2.44
-5.25 -5.97 2.44
-5.13 -6.08 2.44
-5.01 -6.18 2.44
-4.89 -6.28 2.44
-4.76 -6.38 2.44
-4.63 -6.47 2.44
-4.50 -6.57 2.44
-4.37 -6.66 2.44
-4.24 -6.75 2.44
-4.10 -6.83 2.44
-3.97 -6.91 2.44
-3.83 -6.99 2.44
-3.69 -7.07 2.44
-3.55 -7.15 2.44
-3.40 -7.22 2.44
-3.26 -7.29 2.44
-3.11 -7.35 2.44
-2.96 -7.41 2.44
-2.82 -7.47 2.44
-2.67 -7.53 2.44
-2.52 -7.58 2.44
-2.36 -7.63 2.44
-2.21 -7.68 2.44
-2.06 -7.73 2.44
-1.90 -7.77 2.44
-1.74 -7.81 2.44
-1.59 -7.84 2.44
-1.43 -7.87 2.44
-1.27 -7.90 2.44
-1.11 -7.93 2.44
-0.96 -7.95 2.44
-0.80 -7.97 2.44
-0.64 -7.98 2.44
-0.48 -8.00 2.44
-0.32 -8.01 2.44
-0.15 -8.01 2.44
0.01 -7.41 2.44
0.15 -7.41 2.44
0.30 -7.41 2.44
0.45 -7.40 2.44
0.60 -7.39 2.44
0.75 -7.38 2.44
0.90 -7.36 2.44
1.04 -7.35 2.44
1.19 -7.32 2.44
1.34 -7.30 2.44
1.48 -7.27 2.44
1.63 -7.24 2.44
1.77 -7.21 2.44
1.92 -7.17 2.44
2.06 -7.13 2.44
2.21 -7.09 2.44
2.34 -7.01 2.43
2.38 -6.70 2.34
2.52 -6.65 2.34
2.65 -6.60 2.34
2.78 -6.55 2.34
2.91 -6.49 2.34
3.04 -6.43 2.34
3.17 -6.37 2.34
3.30 -6.31 2.34
3.43 -6.24 2.34
3.55 -6.17 2.34
3.67 -6.10 2.34
3.79 -6.02 2.34
3.91 -5.95 2.34
4.03 -5.87 2.34
4.15 -5.78 2.34
4.27 -5.70 2.34
4.38 -5.61 2.34
4.49 -5.52 2.34
4.60 -5.43 2.34
4.71 -5.34 2.34
4.81 -5.24 2.34
4.92 -5.15 2.34
5.02 -5.05 2.34
5.12 -4.94 2.34
5.22 -4.84 2.34
5.31 -4.74 2.34
5.41 -4.63 2.34
5.50 -4.52 2.34
5.59 -4.41 2.34
5.68 -4.29 2.34
5.76 -4.18 2.34
5.84 -4.06 2.34
5.92 -3.94 2.34
6.00 -3.82 2.34
6.08 -3.70 2.34
6.15 -3.58 2.34
6.22 -3.46 2.34
6.23 -3.30 2.32
6.23 -3.14 2.29
6.23 -2.99 2.27
6.23 -2.84 2.25
6.23 -2.69 2.23
6.23 -2.54 2.21
6.23 -2.39 2.20
6.23 -2.25 2.18
6.23 -2.11 2.16
6.23 -1.97 2.15
6.23 -1.84 2.14
6.23 -1.70 2.13
6.23 -1.57 2.11
6.23 -1.44 2.10
6.23 -1.31 2.10
6.23 -1.18 2.09
6.23 -1.05 2.08
6.23 -0.92 2.07
6.23 -0.79 2.07
6.23 -0.66 2.06
6.23 -0.54 2.06
5.52 -0.37 1.82
5.51 -0.25 1.82
5.51 -0.14 1.82
5.51 -0.03 1.82
6.23 0.09 2.06
6.23 0.21 2.06
6.23 0.34 2.06
6.23 0.46 2.06
6.23 0.59 2.07
6.23 0.72 2.07
6.23 0.84 2.08
6.23 0.97 2.08
6.23 1.10 2.09
6.86 1.35 2.31
6.84 1.49 2.31
6.81 1.63 2.31
6.78 1.77 2.32
6.75 1.90 2.32
6.71 2.04 2.32
6.67 2.17 2.32
6.63 2.31 2.32
6.59 2.44 2.33
6.55 2.58 2.33
6.50 2.71 2.33
6.32 2.79 2.29
6.20 2.88 2.26
6.20 3.04 2.29
6.20 3.19 2.31
5.29 2.86 1.99
5.04 2.86 1.92
4.97 2.95 1.92
4.97 3.09 1.94
4.97 3.23 1.97
5.83 3.95 2.34
5.75 4.07 2.34
5.66 4.18 2.34
5.58 4.29 2.34
5.49 4.40 2.34
5.40 4.51 2.34
5.30 4.62 2.34
5.21 4.72 2.34
5.11 4.82 2.34
5.01 4.93 2.34
4.91 5.02 2.34
4.81 5.12 2.34
4.70 5.21 2.34
4.60 5.31 2.34
4.49 5.40 2.34
4.38 5.48 2.34
4.27 5.57 2.34
4.15 5.65 2.34
4.04 5.73 2.34
3.92 5.81 2.34
3.80 5.89 2.34
3.68 5.96 2.34
3.56 6.03 2.34
3.44 6.10 2.34
3.31 6.17 2.34
3.19 6.23 2.34
3.06 6.29 2.34
2.93 6.35 2.34
2.81 6.41 2.34
2.68 6.46 2.34
2.55 6.53 2.34
2.41 6.56 2.34
2.34 6.77 2.40
2.24 6.94 2.44
2.10 6.99 2.44
1.96 7.03 2.44
1.82 7.06 2.44
1.68 7.10 2.44
1.53 7.13 2.44
1.39 7.16 2.44
1.24 7.18 2.44
1.10 7.20 2.44
0.95 7.22 2.44
0.81 7.24 2.44
0.66 7.25 2.44
0.52 7.26 2.44
0.37 7.27 2.44
0.23 7.28 2.44
0.08 7.28 2.44
-0.07 7.28 2.44
-0.21 7.27 2.44
-0.36 7.27 2.44
-0.51 7.26 2.44
-0.65 7.24 2.44
-0.80 7.23 2.44
-0.94 7.21 2.44
-1.09 7.19 2.44
-1.23 7.16 2.44
-1.37 7.14 2.44
-1.52 7.11 2.44
-1.66 7.07 2.44
-1.80 7.04 2.44
-1.94 7.00 2.44
-2.08 6.96 2.44
-2.22 6.91 2.44
-2.36 6.87 2.44
-2.50 6.82 2.44
-2.63 6.77 2.44
-2.77 6.71 2.44
-2.90 6.65 2.44
-3.03 6.59 2.44
-3.17 6.53 2.44
-3.30 6.47 2.44
-3.43 6.40 2.44
-3.55 6.33 2.44
-3.68 6.26 2.44
-3.80 6.18 2.44
-3.93 6.10 2.44
-4.05 6.02 2.44
-4.17 5.94 2.44
-4.29 5.85 2.44
-4.40 5.77 2.44
-4.52 5.68 2.44
-4.63 5.58 2.44
-4.74 5.49 2.44
-4.85 5.39 2.44
-4.96 5.30 2.44
-5.07 5.19 2.44
-5.17 5.09 2.44
-5.27 4.99 2.44
-5.37 4.88 2.44
-5.47 4.77 2.44
-5.56 4.66 2.44
-5.66 4.55 2.44
-5.71 4.41 2.43
-5.71 4.22 2.39
-5.72 4.05 2.36
-5.75 3.91 2.34
-5.83 3.79 2.34
-5.90 3.67 2.34
-5.98 3.55 2.34
-6.05 3.43 2.34
-6.07 3.29 2.32
-6.07 3.13 2.29
-6.07 2.98 2.27
-6.07 2.83 2.25
-6.07 2.68 2.23
-6.09 2.54 2.22
-6.14 2.42 2.22
-6.18 2.30 2.22
-6.46 2.25 2.30
-6.51 2.12 2.30
-6.55 1.99 2.30
-6.59 1.86 2.30
-6.63 1.73 2.30
-6.65 1.59 2.29
-6.65 1.45 2.29
-6.65 1.31 2.28
-6.50 1.15 2.22
-6.54 1.02 2.22
-6.91 0.94 2.34
-6.93 0.80 2.34
-6.94 0.66 2.34
-6.95 0.52 2.34
-6.96 0.38 2.34
-6.97 0.24 2.34
-6.98 0.10 2.34
-6.98 -0.04 2.34
-6.98 -0.18 2.34
-6.97 -0.32 2.34
-6.97 -0.46 2.34
-6.96 -0.60 2.34
-6.95 -0.74 2.34
-6.93 -0.88 2.34
-6.91 -1.02 2.34
-6.89 -1.16 2.34
-6.51 -1.23 2.22
-6.49 -1.36 2.22
-6.65 -1.54 2.28
-6.65 -1.68 2.29
-6.64 -1.82 2.30
-6.60 -1.95 2.30
-6.56 -2.08 2.30
-6.52 -2.21 2.30
-6.47 -2.34 2.30
-6.20 -2.39 2.22
-6.15 -2.51 2.22
-6.10 -2.63 2.22
-6.07 -2.77 2.22
-6.07 -2.91 2.24
-6.07 -3.07 2.27
-6.07 -3.22 2.29
-6.07 -3.38 2.31
-6.06 -3.54 2.34
-5.99 -3.66 2.34
-5.92 -3.78 2.34
-5.84 -3.90 2.34
-5.76 -4.02 2.34
-5.72 -4.16 2.35
-5.71 -4.33 2.38
-5.71 -4.51 2.42
-5.67 -4.67 2.44
-5.57 -4.78 2.44
-5.48 -4.89 2.44
-5.38 -5.00 2.44
-5.28 -5.11 2.44
-5.18 -5.22 2.44
-5.07 -5.32 2.44
-4.97 -5.42 2.44
-4.86 -5.52 2.44
-4.75 -5.62 2.44
-4.64 -5.72 2.44
-4.52 -5.81 2.44
-4.40 -5.90 2.44
-4.29 -5.99 2.44
-4.17 -6.08 2.44
-4.04 -6.16 2.44
-3.92 -6.24 2.44
-3.80 -6.32 2.44
-3.67 -6.40 2.44
-3.54 -6.47 2.44
-3.41 -6.54 2.44
-3.28 -6.61 2.44
-3.15 -6.68 2.44
-3.01 -6.74 2.44
-2.88 -6.80 2.44
-2.74 -6.86 2.44
-2.60 -6.91 2.44
-2.47 -6.96 2.44
-2.33 -7.01 2.44
-2.18 -7.06 2.44
-2.04 -7.10 2.44
-1.90 -7.15 2.44
-1.76 -7.18 2.44
-1.61 -7.22 2.44
-1.47 -7.25 2.44
-1.32 -7.28 2.44
-1.18 -7.31 2.44
-1.03 -7.33 2.44
-0.88 -7.35 2.44
-0.74 -7.37 2.44
-0.59 -7.38 2.44
-0.44 -7.40 2.44
-0.29 -7.40 2.44
-0.14 -7.41 2.44
0.01 -6.89 2.44
0.14 -6.89 2.44
0.28 -6.88 2.44
0.42 -6.88 2.44
0.56 -6.87 2.44
0.70 -6.86 2.44
0.83 -6.84 2.44
0.97 -6.82 2.44
1.11 -6.80 2.44
1.24 -6.78 2.44
1.38 -6.76 2.44
1.51 -6.73 2.44
1.65 -6.70 2.44
1.78 -6.66 2.44
1.92 -6.63 2.44
2.05 -6.59 2.44
2.18 -6.55 2.44
2.31 -6.50 2.44
2.35 -6.20 2.35
2.46 -6.13 2.34
2.59 -6.08 2.34
2.71 -6.03 2.34
2.83 -5.97 2.34
2.95 -5.92 2.34
3.06 -5.86 2.34
3.18 -5.80 2.34
3.30 -5.73 2.34
3.41 -5.66 2.34
3.52 -5.59 2.34
3.64 -5.52 2.34
3.75 -5.45 2.34
3.86 -5.37 2.34
3.96 -5.29 2.34
4.07 -5.21 2.34
4.17 -5.13 2.34
4.27 -5.05 2.34
4.37 -4.96 2.34
4.47 -4.87 2.34
4.57 -4.78 2.34
4.66 -4.69 2.34
4.76 -4.59 2.34
4.85 -4.50 2.34
4.94 -4.40 2.34
5.02 -4.30 2.34
5.11 -4.20 2.34
5.19 -4.09 2.34
5.27 -3.99 2.34
5.35 -3.88 2.34
5.43 -3.77 2.34
5.50 -3.66 2.34
5.57 -3.55 2.34
5.64 -3.44 2.34
5.71 -3.33 2.34
5.78 -3.21 2.34
5.84 -3.09 2.34
5.90 -2.98 2.34
5.96 -2.86 2.34
6.01 -2.74 2.34
6.07 -2.62 2.34
6.12 -2.49 2.34
6.16 -2.37 2.34
6.21 -2.24 2.34
6.23 -2.11 2.33
6.23 -1.97 2.31
6.23 -1.84 2.30
6.23 -1.70 2.29
6.23 -1.57 2.28
6.23 -1.44 2.27
6.23 -1.31 2.26
6.23 -1.18 2.25
6.23 -1.05 2.24
6.23 -0.92 2.23
6.23 -0.79 2.23
6.23 -0.66 2.22
6.23 -0.54 2.22
5.53 -0.37 1.96
5.52 -0.25 1.96
5.52 -0.14 1.96
5.52 -0.03 1.96
6.23 0.09 2.21
6.23 0.21 2.21
6.23 0.34 2.22
6.23 0.46 2.22
6.23 0.59 2.22
5.22 0.60 1.87
5.45 0.74 1.95
5.45 0.85 1.96
5.45 0.96 1.97
5.45 1.07 1.97
5.10 1.11 1.85
6.40 1.53 2.34
6.37 1.66 2.34
6.32 1.78 2.34
6.28 1.91 2.34
6.24 2.03 2.34
6.20 2.16 2.34
6.15 2.28 2.34
6.11 2.40 2.34
6.05 2.53 2.34
6.00 2.65 2.34
5.95 2.77 2.34
5.89 2.88 2.34
5.83 3.00 2.34
5.29 2.86 2.14
5.04 2.86 2.07
4.97 2.95 2.06
4.97 3.09 2.09
4.97 3.23 2.12
5.42 3.67 2.34
5.34 3.78 2.34
5.26 3.89 2.34
5.18 3.99 2.34
5.10 4.09 2.34
5.02 4.19 2.34
4.93 4.29 2.34
4.84 4.39 2.34
4.75 4.48 2.34
4.66 4.58 2.34
4.57 4.67 2.34
4.47 4.76 2.34
4.37 4.85 2.34
4.27 4.93 2.34
4.17 5.02 2.34
4.07 5.10 2.34
3.97 5.18 2.34
3.86 5.25 2.34
3.75 5.33 2.34
3.64 5.40 2.34
3.53 5.47 2.34
3.42 5.54 2.34
3.31 5.61 2.34
3.20 5.67 2.34
3.08 5.74 2.34
2.96 5.79 2.34
2.85 5.85 2.34
2.73 5.91 2.34
2.61 5.96 2.34
2.49 6.01 2.34
2.37 6.06 2.34
2.34 6.35 2.43
2.21 6.42 2.44
2.08 6.46 2.44
1.95 6.50 2.44
1.82 6.53 2.44
1.69 6.57 2.44
1.56 6.60 2.44
1.43 6.63 2.44
1.29 6.65 2.44
1.16 6.68 2.44
1.02 6.70 2.44
0.89 6.72 2.44
0.75 6.73 2.44
0.62 6.74 2.44
0.48 6.75 2.44
0.35 6.76 2.44
0.21 6.77 2.44
0.07 6.77 2.44
-0.06 6.77 2.44
-0.20 6.76 2.44
-0.33 6.76 2.44
-0.47 6.75 2.44
-0.61 6.74 2.44
-0.74 6.72 2.44
