ply
format ascii 1.0
element vertex 2940
property float32 x
property float32 y
property float32 z
end_header
4.22 13.08 2.39
3.96 13.16 2.39
3.69 13.23 2.39
3.42 13.29 2.39
3.15 13.35 2.39
2.88 13.40 2.39
2.60 13.46 2.39
2.33 13.50 2.39
2.06 13.54 2.39
1.83 13.96 2.46
1.57 14.20 2.50
1.29 14.23 2.50
1.00 14.26 2.50
0.71 14.28 2.50
0.43 14.29 2.50
0.14 14.30 2.50
-0.15 14.31 2.50
-0.44 14.31 2.50
-0.73 14.31 2.50
-1.02 14.30 2.50
-1.31 14.29 2.50
-1.60 14.27 2.50
-1.89 14.25 2.50
-2.18 14.22 2.50
-2.46 14.19 2.50
-2.75 14.15 2.50
-3.04 14.11 2.50
-3.33 14.06 2.50
-3.62 14.01 2.50
-3.90 13.95 2.50
-4.19 13.89 2.50
-4.48 13.83 2.50
-4.76 13.76 2.50
-5.05 13.68 2.50
-5.33 13.60 2.50
-5.62 13.52 2.50
-5.90 13.43 2.50
-6.18 13.33 2.50
-6.20 12.70 2.40
-6.46 12.59 2.39
-6.73 12.48 2.39
-7.00 12.37 2.39
-7.26 12.26 2.39
-7.53 12.14 2.39
-7.79 12.01 2.39
-8.05 11.88 2.39
-8.31 11.75 2.39
-8.57 11.61 2.39
-8.82 11.47 2.39
-9.08 11.32 2.39
-9.33 11.17 2.39
-9.58 11.01 2.39
-7.42 8.18 1.81
-7.53 7.98 1.79
-7.75 7.89 1.80
-10.00 9.77 2.26
-9.99 9.38 2.21
-9.98 9.00 2.16
-9.98 8.64 2.12
-9.97 8.29 2.07
-9.99 7.97 2.04
-10.25 7.84 2.05
-10.40 7.64 2.04
-10.64 7.48 2.05
-11.06 7.45 2.09
-11.65 7.51 2.17
-12.30 7.59 2.25
-12.65 7.46 2.28
-13.08 7.36 2.32
-13.77 7.39 2.41
-13.97 7.14 2.41
-13.22 6.42 2.24
-13.36 6.16 2.24
-13.49 5.90 2.23
-13.62 5.63 2.22
-13.75 5.36 2.22
-13.87 5.09 2.21
-13.99 4.82 2.20
-14.11 4.54 2.20
-14.22 4.27 2.19
-14.34 3.99 2.19
-14.44 3.71 2.18
-14.55 3.43 2.18
-14.65 3.14 2.17
-14.75 2.85 2.17
-14.84 2.56 2.16
-9.47 1.44 1.37
-9.61 1.27 1.38
-16.19 1.80 2.31
-16.27 1.48 2.30
-16.34 1.16 2.30
-16.41 0.83 2.29
-15.42 0.47 2.14
-15.48 0.16 2.14
-13.66 -0.13 1.88
-13.72 -0.40 1.88
-13.78 -0.68 1.88
-13.63 -0.95 1.85
-13.64 -1.23 1.85
-13.65 -1.50 1.85
-13.66 -1.78 1.84
-13.66 -2.06 1.84
-13.67 -2.34 1.84
-13.68 -2.63 1.84
-13.83 -2.95 1.86
-13.86 -3.24 1.86
-16.96 -4.33 2.28
-16.90 -4.68 2.27
-16.82 -5.02 2.26
-16.00 -5.13 2.15
-15.00 -5.14 2.02
-14.96 -5.46 2.02
-14.95 -5.80 2.03
-14.94 -6.15 2.03
-14.94 -6.50 2.04
-10.57 -4.85 1.45
-10.48 -5.06 1.45
-10.44 -5.31 1.45
-10.44 -5.57 1.46
-10.45 -5.85 1.47
-10.47 -6.14 1.48
-10.53 -6.46 1.50
-10.54 -6.76 1.51
-10.44 -7.00 1.51
-10.41 -7.28 1.52
-10.42 -7.61 1.54
-10.42 -7.92 1.56
-10.44 -8.28 1.58
-10.73 -8.87 1.64
-10.39 -8.94 1.61
-10.35 -9.27 1.63
-10.34 -9.64 1.65
-10.37 -10.06 1.68
-10.44 -10.55 1.72
-10.28 -10.81 1.72
-10.17 -11.13 1.74
-10.21 -11.63 1.78
-10.21 -12.11 1.81
-10.33 -12.77 1.87
-10.19 -13.12 1.89
-10.11 -13.56 1.92
-10.12 -14.17 1.97
-9.82 -14.34 1.96
-9.57 -14.59 1.96
-9.58 -15.26 2.02
-9.62 -16.03 2.09
-10.66 -18.61 2.39
-10.31 -18.86 2.39
-9.96 -19.10 2.39
-9.59 -19.34 2.39
-9.22 -19.57 2.39
-8.84 -19.78 2.39
-8.05 -19.02 2.28
-8.07 -20.19 2.39
-8.01 -21.25 2.50
-7.59 -21.44 2.50
-7.17 -21.62 2.50
-6.75 -21.78 2.50
-6.32 -21.93 2.50
-5.88 -22.08 2.50
-5.44 -22.21 2.50
-5.00 -22.33 2.50
-4.56 -22.44 2.50
-4.11 -22.53 2.50
-3.66 -22.62 2.50
-3.21 -22.69 2.50
-2.75 -22.75 2.50
-2.30 -22.80 2.50
-1.84 -22.84 2.50
-1.39 -22.87 2.50
-0.93 -22.88 2.50
-0.47 -22.88 2.50
-0.01 -18.92 2.50
0.37 -18.90 2.50
0.74 -18.88 2.50
1.12 -18.84 2.50
1.49 -18.80 2.50
1.87 -18.75 2.50
2.24 -18.68 2.50
2.50 -17.84 2.39
2.37 -14.75 1.99
2.48 -13.69 1.85
3.55 -17.59 2.39
3.90 -17.49 2.39
4.24 -17.38 2.39
4.58 -17.26 2.39
4.91 -17.13 2.39
5.24 -17.00 2.39
5.57 -16.86 2.39
5.89 -16.71 2.39
6.21 -16.55 2.39
14.17 -35.57 5.20
6.10 -14.46 2.13
6.12 -13.74 2.05
6.11 -13.00 1.96
6.09 -12.33 1.88
6.08 -11.71 1.81
6.07 -11.14 1.75
6.06 -10.61 1.69
6.05 -10.12 1.63
6.05 -9.67 1.58
6.00 -9.18 1.53
6.03 -8.84 1.50
6.02 -8.46 1.46
6.02 -8.10 1.42
6.01 -7.76 1.39
6.01 -7.44 1.35
6.00 -7.14 1.33
6.00 -6.85 1.30
5.99 -6.58 1.27
5.99 -6.31 1.25
5.98 -6.06 1.23
5.98 -5.82 1.21
5.97 -5.59 1.19
5.91 -5.31 1.16
5.97 -5.15 1.15
5.96 -4.94 1.14
5.96 -4.74 1.12
5.95 -4.54 1.11
5.95 -4.36 1.09
5.95 -4.17 1.08
5.94 -4.00 1.07
5.94 -3.82 1.06
5.94 -3.66 1.05
5.94 -3.49 1.04
5.93 -3.33 1.03
5.93 -3.18 1.03
5.93 -3.02 1.02
5.93 -2.87 1.01
5.92 -2.73 1.01
5.92 -2.58 1.00
5.92 -2.44 1.00
5.91 -2.30 0.99
5.91 -2.17 0.99
5.91 -2.03 0.99
5.91 -1.90 0.98
5.91 -1.77 0.98
4.12 -1.15 0.68
4.08 -1.05 0.68
4.08 -0.96 0.67
4.11 -0.88 0.68
4.17 -0.81 0.69
5.89 -1.02 0.97
5.89 -0.90 0.97
5.89 -0.77 0.98
5.89 -0.65 0.98
5.88 -0.54 0.98
5.88 -0.42 0.98
5.88 -0.30 0.98
5.88 -0.18 0.99
5.88 -0.06 0.99
5.87 0.06 0.99
5.87 0.17 1.00
5.87 0.29 1.00
5.87 0.41 1.01
5.86 0.53 1.01
5.86 0.65 1.02
5.86 0.77 1.02
5.86 0.89 1.03
5.86 1.01 1.03
5.85 1.13 1.04
5.85 1.25 1.05
5.85 1.37 1.06
5.85 1.50 1.07
5.85 1.62 1.08
5.84 1.75 1.09
5.84 1.88 1.10
5.84 2.01 1.11
5.84 2.14 1.12
5.83 2.27 1.13
5.83 2.41 1.14
5.83 2.54 1.15
5.78 2.67 1.16
5.77 2.80 1.17
5.82 2.97 1.20
5.82 3.12 1.21
5.82 3.27 1.23
5.81 3.43 1.25
5.81 3.58 1.27
5.81 3.74 1.28
5.80 3.91 1.30
5.80 4.08 1.33
5.80 4.26 1.35
5.80 4.44 1.37
5.79 4.62 1.40
5.79 4.81 1.42
5.78 5.01 1.45
5.78 5.21 1.48
5.78 5.43 1.51
2.69 2.63 0.72
2.66 2.71 0.72
5.77 6.11 1.61
5.76 6.36 1.65
5.76 6.62 1.69
5.75 6.89 1.73
5.75 7.17 1.77
5.74 7.47 1.82
5.74 7.78 1.87
5.73 8.11 1.93
5.72 8.46 1.98
5.72 8.83 2.05
5.71 9.22 2.11
5.65 9.54 2.16
10.82 19.16 4.30
5.80 10.77 2.39
5.57 10.87 2.39
5.35 10.97 2.39
5.12 11.06 2.39
4.89 11.15 2.39
4.66 11.24 2.39
4.43 11.32 2.39
4.19 11.40 2.39
3.96 11.47 2.39
3.73 11.54 2.39
3.49 11.60 2.39
3.25 11.67 2.39
3.02 11.72 2.39
2.78 11.78 2.39
2.54 11.83 2.39
2.30 11.87 2.39
2.06 11.91 2.39
1.86 12.26 2.46
1.64 12.50 2.50
1.39 12.53 2.50
1.14 12.56 2.50
0.88 12.58 2.50
0.63 12.60 2.50
0.37 12.61 2.50
0.12 12.62 2.50
-0.14 12.62 2.50
-0.39 12.62 2.50
-0.65 12.62 2.50
-0.90 12.61 2.50
-1.16 12.60 2.50
-1.41 12.58 2.50
-1.67 12.56 2.50
-1.92 12.54 2.50
-2.18 12.51 2.50
-2.43 12.47 2.50
-2.68 12.43 2.50
-2.94 12.39 2.50
-3.19 12.34 2.50
-3.44 12.29 2.50
-3.70 12.24 2.50
-3.95 12.18 2.50
-4.20 12.11 2.50
-4.45 12.04 2.50
-4.70 11.97 2.50
-4.95 11.89 2.50
-5.19 11.81 2.50
-5.44 11.72 2.50
-5.69 11.63 2.50
-5.93 11.54 2.50
-6.17 11.43 2.49
-6.17 10.90 2.40
-6.38 10.76 2.39
-6.61 10.66 2.39
-6.84 10.54 2.39
-7.07 10.43 2.39
-7.30 10.31 2.39
-7.52 10.18 2.39
-7.74 10.05 2.39
-7.96 9.92 2.39
-8.18 9.78 2.39
-8.40 9.64 2.39
-7.42 8.18 2.06
-7.53 7.97 2.04
-7.76 7.89 2.06
-9.25 9.03 2.39
-9.46 8.87 2.39
-9.66 8.70 2.39
-9.86 8.53 2.39
-9.97 8.28 2.37
-10.00 7.97 2.33
-10.25 7.83 2.35
-10.41 7.63 2.34
-10.66 7.49 2.35
-11.06 7.44 2.40
-11.29 7.27 2.41
-11.47 7.06 2.41
-11.65 6.86 2.41
-11.43 6.42 2.33
-11.56 6.19 2.32
-11.69 5.96 2.32
-11.82 5.73 2.31
-11.95 5.50 2.30
-12.07 5.27 2.30
-12.19 5.03 2.29
-12.30 4.79 2.29
-12.42 4.55 2.28
-12.52 4.30 2.28
-12.63 4.06 2.27
-12.73 3.81 2.27
-12.82 3.56 2.26
-12.92 3.31 2.26
-13.00 3.05 2.25
-13.09 2.80 2.25
-13.17 2.54 2.24
-9.49 1.63 1.61
-9.56 1.45 1.61
-9.77 1.28 1.63
-9.47 1.05 1.57
-14.50 1.31 2.39
-14.57 1.02 2.39
-14.63 0.73 2.38
-13.70 0.41 2.22
-13.75 0.14 2.22
-13.79 -0.14 2.22
-13.83 -0.42 2.21
-13.87 -0.70 2.21
-13.90 -0.98 2.21
-13.92 -1.26 2.21
-13.95 -1.55 2.21
-13.96 -1.83 2.21
-13.98 -2.12 2.21
-13.98 -2.41 2.21
-13.99 -2.70 2.21
-13.99 -2.99 2.21
-13.98 -3.28 2.21
-13.97 -3.58 2.21
-13.96 -3.87 2.21
-14.62 -4.38 2.32
-14.42 -4.63 2.29
-14.25 -4.89 2.27
-14.07 -5.15 2.25
-13.91 -5.41 2.23
-13.87 -5.72 2.23
-9.71 -4.23 1.57
-9.40 -4.32 1.53
-10.51 -5.09 1.72
-10.44 -5.31 1.72
-10.43 -5.57 1.73
-10.46 -5.86 1.74
-10.47 -6.15 1.76
-10.52 -6.47 1.78
-10.69 -6.86 1.83
-10.47 -7.03 1.81
-10.41 -7.29 1.82
-10.41 -7.61 1.84
-10.48 -7.99 1.87
-10.49 -8.32 1.89
-10.78 -8.91 1.97
-10.40 -8.96 1.93
-10.36 -9.29 1.95
-10.34 -9.65 1.98
-10.41 -10.12 2.02
-9.92 -10.03 1.96
-9.75 -10.26 1.96
-9.64 -10.55 1.97
-9.64 -10.99 2.01
-9.63 -11.43 2.05
-9.62 -11.90 2.10
-9.61 -12.39 2.14
-9.60 -12.89 2.19
-9.59 -13.43 2.24
-9.58 -14.01 2.30
-9.58 -14.62 2.36
-9.42 -15.02 2.39
-9.14 -15.24 2.39
-8.85 -15.45 2.39
-8.55 -15.65 2.39
-8.25 -15.85 2.39
-7.95 -16.04 2.39
-7.64 -16.22 2.39
-7.32 -16.39 2.39
-7.00 -16.56 2.39
-6.68 -16.72 2.39
-6.35 -16.87 2.39
-6.02 -17.01 2.39
-5.93 -17.89 2.50
-5.58 -18.02 2.50
-5.22 -18.14 2.50
-4.86 -18.26 2.50
-4.50 -18.36 2.50
-4.14 -18.46 2.50
-3.77 -18.55 2.50
-3.40 -18.63 2.50
-3.03 -18.70 2.50
-2.65 -18.76 2.50
-2.28 -18.81 2.50
-1.90 -18.85 2.50
-1.52 -18.88 2.50
-1.15 -18.90 2.50
-0.77 -18.92 2.50
-0.39 -18.92 2.50
-0.01 -16.11 2.50
0.31 -16.10 2.50
0.63 -16.08 2.50
0.95 -16.05 2.50
1.27 -16.02 2.50
1.59 -15.98 2.50
1.91 -15.93 2.50
2.22 -15.87 2.50
2.43 -15.15 2.39
2.48 -13.70 2.17
3.03 -15.00 2.39
3.32 -14.92 2.39
3.61 -14.83 2.39
3.90 -14.73 2.39
4.19 -14.63 2.39
4.47 -14.52 2.39
4.75 -14.40 2.39
5.03 -14.28 2.39
5.30 -14.15 2.39
5.58 -14.01 2.39
5.84 -13.87 2.39
6.11 -13.72 2.39
15.73 -33.54 5.92
6.03 -12.22 2.18
6.08 -11.72 2.12
6.07 -11.15 2.04
6.06 -10.63 1.97
6.05 -10.13 1.91
6.05 -9.68 1.85
6.00 -9.19 1.78
6.03 -8.85 1.74
6.02 -8.47 1.70
6.02 -8.11 1.65
6.01 -7.77 1.61
6.01 -7.45 1.58
6.00 -7.15 1.54
6.00 -6.86 1.51
5.99 -6.58 1.48
5.99 -6.32 1.45
5.98 -6.07 1.42
5.98 -5.82 1.40
5.97 -5.59 1.38
5.91 -5.31 1.34
5.97 -5.15 1.33
5.96 -4.94 1.32
5.96 -4.74 1.30
5.95 -4.55 1.28
5.95 -4.36 1.27
5.95 -4.18 1.25
5.95 -4.00 1.24
5.94 -3.83 1.23
5.94 -3.66 1.21
5.94 -3.50 1.20
5.93 -3.34 1.19
5.93 -3.18 1.18
5.93 -3.03 1.17
5.93 -2.88 1.17
5.92 -2.73 1.16
5.92 -2.59 1.15
5.92 -2.45 1.15
5.92 -2.31 1.14
5.91 -2.17 1.14
5.91 -2.04 1.13
5.91 -1.91 1.13
4.09 -1.23 0.78
4.02 -1.12 0.76
3.99 -1.03 0.76
4.00 -0.94 0.76
4.03 -0.87 0.76
4.08 -0.79 0.77
4.17 -0.72 0.79
5.89 -0.90 1.11
5.89 -0.78 1.11
5.89 -0.66 1.11
5.88 -0.54 1.12
5.88 -0.42 1.12
5.88 -0.30 1.12
5.88 -0.18 1.12
5.88 -0.07 1.13
5.87 0.05 1.13
5.87 0.17 1.13
5.87 0.29 1.14
5.87 0.41 1.14
5.86 0.52 1.15
5.86 0.64 1.15
5.86 0.76 1.16
5.86 0.88 1.17
5.86 1.00 1.17
5.85 1.12 1.18
5.85 1.25 1.19
5.85 1.37 1.20
5.85 1.49 1.21
5.85 1.62 1.22
5.84 1.75 1.23
5.84 1.87 1.24
5.84 2.00 1.25
5.84 2.13 1.26
5.83 2.27 1.27
5.83 2.40 1.29
5.83 2.54 1.30
5.79 2.66 1.31
5.77 2.79 1.32
5.82 2.97 1.35
5.82 3.12 1.37
5.82 3.27 1.39
5.81 3.42 1.40
5.81 3.58 1.42
5.81 3.74 1.45
5.80 3.91 1.47
5.80 4.08 1.49
5.80 4.25 1.52
5.80 4.43 1.54
5.79 4.62 1.57
5.79 4.81 1.60
5.78 5.00 1.63
5.78 5.21 1.66
5.78 5.42 1.69
2.69 2.63 0.80
2.66 2.70 0.81
5.77 6.11 1.80
5.76 6.35 1.85
5.76 6.61 1.89
5.75 6.88 1.94
5.75 7.16 1.99
5.74 7.46 2.04
5.74 7.77 2.10
5.69 8.04 2.14
5.67 8.37 2.20
11.85 18.29 4.75
5.77 9.32 2.39
5.58 9.42 2.39
5.38 9.52 2.39
5.18 9.61 2.39
4.98 9.71 2.39
4.78 9.79 2.39
4.57 9.88 2.39
4.37 9.96 2.39
4.16 10.04 2.39
3.96 10.11 2.39
3.75 10.18 2.39
3.54 10.25 2.39
3.33 10.31 2.39
3.12 10.37 2.39
2.91 10.43 2.39
2.70 10.48 2.39
2.48 10.53 2.39
2.27 10.57 2.39
2.05 10.61 2.39
1.89 10.93 2.46
1.69 11.14 2.50
1.47 11.17 2.50
1.24 11.20 2.50
1.02 11.22 2.50
0.79 11.24 2.50
0.56 11.26 2.50
0.33 11.27 2.50
0.11 11.28 2.50
-0.12 11.28 2.50
-0.35 11.28 2.50
-0.58 11.28 2.50
-0.81 11.27 2.50
-1.03 11.26 2.50
-1.26 11.24 2.50
-1.49 11.22 2.50
-1.72 11.20 2.50
-1.95 11.17 2.50
-2.17 11.14 2.50
-2.40 11.10 2.50
-2.63 11.06 2.50
-2.85 11.02 2.50
-3.08 10.97 2.50
-3.30 10.92 2.50
-3.53 10.87 2.50
-3.75 10.81 2.50
-3.97 10.75 2.50
-4.20 10.68 2.50
-4.42 10.61 2.50
-4.64 10.53 2.50
-4.86 10.45 2.50
-5.07 10.37 2.50
-5.29 10.28 2.50
-5.51 10.19 2.50
-5.72 10.10 2.50
-5.94 10.00 2.50
-6.14 9.88 2.49
-6.14 9.45 2.41
-6.30 9.28 2.39
-6.50 9.17 2.39
-6.70 9.06 2.39
-6.89 8.94 2.39
-7.09 8.82 2.39
-7.28 8.69 2.39
-7.47 8.56 2.39
-7.66 8.43 2.39
-7.68 8.12 2.34
-7.69 7.81 2.29
-8.16 7.96 2.38
-8.34 7.81 2.38
-8.52 7.66 2.38
-8.69 7.51 2.38
-8.93 7.41 2.39
-9.10 7.24 2.39
-9.27 7.08 2.39
-9.44 6.91 2.39
-9.60 6.74 2.39
-9.77 6.56 2.39
-9.93 6.38 2.39
-10.07 6.20 2.39
-10.20 6.00 2.39
-10.33 5.79 2.38
-10.45 5.59 2.37
-10.57 5.38 2.37
-10.68 5.17 2.36
-10.79 4.96 2.36
-10.90 4.75 2.35
-11.01 4.53 2.35
-11.11 4.31 2.34
-11.21 4.10 2.34
-11.30 3.88 2.33
-11.40 3.65 2.33
-11.49 3.43 2.32
-11.57 3.20 2.32
-11.65 2.97 2.32
-11.73 2.75 2.31
-11.81 2.51 2.31
-11.88 2.28 2.31
-9.49 1.63 1.83
-9.51 1.43 1.82
-9.50 1.24 1.81
-9.48 1.04 1.79
-12.80 1.15 2.41
-12.87 0.89 2.41
-12.27 0.60 2.28
-12.32 0.36 2.28
-12.36 0.11 2.28
-12.39 -0.14 2.28
-12.42 -0.38 2.28
-12.45 -0.64 2.28
-12.47 -0.89 2.27
-12.49 -1.14 2.27
-12.51 -1.40 2.27
-12.52 -1.65 2.27
-12.53 -1.91 2.27
-12.53 -2.17 2.27
-12.53 -2.43 2.27
-12.52 -2.69 2.27
-12.51 -2.95 2.27
-12.50 -3.21 2.27
-12.48 -3.47 2.27
-12.46 -3.74 2.27
-12.95 -4.17 2.37
-12.85 -4.42 2.36
-12.82 -4.70 2.36
-12.79 -4.98 2.37
-12.75 -5.26 2.37
-9.45 -4.12 1.77
-9.27 -4.27 1.74
-9.27 -4.50 1.75
-10.44 -5.32 1.99
-10.43 -5.58 2.00
-10.44 -5.86 2.02
-10.53 -6.19 2.05
-9.96 -6.13 1.96
-9.87 -6.35 1.96
-9.77 -6.56 1.96
-9.70 -6.80 1.97
-9.70 -7.09 1.99
-9.70 -7.40 2.01
-9.70 -7.70 2.04
-9.69 -8.02 2.06
-9.68 -8.35 2.09
-9.68 -8.69 2.12
-9.67 -9.04 2.15
-9.67 -9.40 2.19
-9.66 -9.77 2.22
-9.65 -10.17 2.26
-9.65 -10.57 2.30
-9.64 -11.00 2.35
-9.61 -11.43 2.39
-9.41 -11.64 2.39
-9.19 -11.85 2.39
-8.97 -12.06 2.39
-8.75 -12.26 2.39
-8.52 -12.46 2.39
-8.28 -12.65 2.39
-8.04 -12.84 2.39
-7.80 -13.02 2.39
-7.55 -13.19 2.39
-7.30 -13.36 2.39
-7.04 -13.53 2.39
-6.78 -13.69 2.39
-6.51 -13.84 2.39
-6.24 -13.98 2.39
-5.97 -14.12 2.39
-5.72 -14.32 2.40
-5.65 -15.00 2.50
-5.35 -15.13 2.50
-5.05 -15.24 2.50
-4.75 -15.35 2.50
-4.45 -15.46 2.50
-4.14 -15.55 2.50
-3.83 -15.64 2.50
-3.52 -15.72 2.50
-3.21 -15.80 2.50
-2.89 -15.86 2.50
-2.58 -15.92 2.50
-2.26 -15.97 2.50
-1.94 -16.02 2.50
-1.62 -16.05 2.50
-1.30 -16.08 2.50
-0.98 -16.10 2.50
-0.65 -16.11 2.50
-0.33 -16.11 2.50
-0.01 -14.02 2.50
0.27 -14.01 2.50
0.55 -13.99 2.50
0.83 -13.97 2.50
1.10 -13.94 2.50
1.38 -13.91 2.50
1.66 -13.86 2.50
1.93 -13.82 2.50
2.20 -13.76 2.50
2.37 -13.13 2.39
2.63 -13.07 2.39
2.89 -13.00 2.39
3.14 -12.92 2.39
3.40 -12.84 2.39
3.65 -12.75 2.39
3.90 -12.66 2.39
4.14 -12.56 2.39
4.38 -12.45 2.39
4.62 -12.34 2.39
4.86 -12.23 2.39
5.09 -12.11 2.39
5.33 -11.98 2.39
5.55 -11.85 2.39
5.78 -11.71 2.39
6.00 -11.57 2.39
6.22 -11.43 2.39
6.00 -10.05 2.16
6.05 -9.69 2.11
5.99 -9.19 2.04
6.03 -8.85 1.99
6.02 -8.48 1.94
6.02 -8.12 1.89
6.01 -7.78 1.84
6.01 -7.46 1.80
6.00 -7.16 1.76
6.00 -6.87 1.72
5.99 -6.59 1.69
5.99 -6.33 1.65
5.98 -6.07 1.62
5.98 -5.83 1.59
5.97 -5.60 1.57
5.91 -5.32 1.53
5.97 -5.16 1.52
5.96 -4.95 1.50
5.96 -4.75 1.48
5.95 -4.56 1.46
5.95 -4.37 1.44
5.95 -4.18 1.42
5.95 -4.01 1.41
5.94 -3.83 1.39
5.94 -3.67 1.38
5.94 -3.50 1.36
5.93 -3.34 1.35
5.93 -3.19 1.34
5.93 -3.03 1.33
5.93 -2.88 1.32
5.92 -2.74 1.31
5.92 -2.59 1.30
5.92 -2.45 1.30
5.92 -2.31 1.29
5.91 -2.18 1.28
5.91 -2.04 1.28
5.91 -1.91 1.27
4.02 -1.21 0.86
3.97 -1.11 0.85
3.95 -1.02 0.84
3.96 -0.94 0.84
3.98 -0.86 0.85
4.03 -0.79 0.86
4.11 -0.72 0.87
5.89 -0.90 1.25
5.89 -0.78 1.25
5.89 -0.66 1.25
5.88 -0.54 1.25
5.88 -0.42 1.26
5.88 -0.31 1.26
5.88 -0.19 1.26
5.88 -0.07 1.26
5.87 0.05 1.27
5.87 0.17 1.27
5.87 0.28 1.27
5.87 0.40 1.28
5.86 0.52 1.29
5.86 0.64 1.29
5.86 0.76 1.30
5.86 0.88 1.30
5.86 1.00 1.31
5.85 1.12 1.32
5.85 1.24 1.33
5.85 1.36 1.34
5.85 1.49 1.35
5.85 1.61 1.36
5.84 1.74 1.37
5.84 1.87 1.38
5.84 2.00 1.39
5.84 2.13 1.41
5.83 2.26 1.42
5.83 2.40 1.44
5.83 2.54 1.45
5.79 2.66 1.46
5.77 2.79 1.47
5.82 2.96 1.50
5.82 3.11 1.52
5.82 3.26 1.54
5.81 3.42 1.56
5.81 3.57 1.58
5.81 3.74 1.61
5.80 3.90 1.63
5.80 4.07 1.66
5.80 4.25 1.68
5.80 4.43 1.71
5.79 4.61 1.74
5.79 4.80 1.77
5.79 5.00 1.81
5.78 5.20 1.84
5.78 5.42 1.88
2.69 2.63 0.89
2.65 2.70 0.90
5.77 6.10 2.00
5.76 6.35 2.05
5.76 6.61 2.10
5.72 6.83 2.14
5.69 7.09 2.18
5.90 8.00 2.39
5.73 8.10 2.39
5.56 8.21 2.39
5.39 8.31 2.39
5.21 8.40 2.39
5.04 8.50 2.39
4.86 8.59 2.39
4.68 8.67 2.39
4.50 8.76 2.39
4.31 8.84 2.39
4.13 8.92 2.39
3.95 8.99 2.39
3.76 9.06 2.39
3.57 9.13 2.39
3.39 9.19 2.39
3.20 9.25 2.39
3.01 9.31 2.39
2.82 9.36 2.39
2.63 9.41 2.39
2.44 9.46 2.39
2.24 9.51 2.39
2.05 9.55 2.39
1.91 9.84 2.46
1.73 10.03 2.50
1.53 10.06 2.50
1.33 10.09 2.50
1.12 10.12 2.50
0.92 10.14 2.50
0.71 10.15 2.50
0.51 10.17 2.50
0.30 10.18 2.50
0.09 10.19 2.50
-0.11 10.19 2.50
-0.32 10.19 2.50
-0.52 10.18 2.50
-0.73 10.18 2.50
-0.94 10.16 2.50
-1.14 10.15 2.50
-1.35 10.13 2.50
-1.55 10.11 2.50
-1.76 10.08 2.50
-1.96 10.05 2.50
-2.17 10.02 2.50
-2.37 9.98 2.50
-2.58 9.94 2.50
-2.78 9.90 2.50
-2.98 9.85 2.50
-3.18 9.80 2.50
-3.39 9.75 2.50
-3.59 9.69 2.50
-3.79 9.63 2.50
-3.99 9.56 2.50
-4.18 9.49 2.50
-4.38 9.42 2.50
-4.58 9.34 2.50
-4.77 9.26 2.50
-4.97 9.18 2.50
-5.16 9.09 2.50
-5.35 9.00 2.50
-5.54 8.91 2.50
-5.73 8.81 2.50
-5.92 8.71 2.50
-6.10 8.61 2.50
-6.12 8.26 2.43
-6.21 8.04 2.39
-6.38 7.93 2.39
-6.55 7.81 2.39
-6.72 7.70 2.39
-6.89 7.58 2.39
-7.06 7.45 2.39
-7.22 7.33 2.39
-7.39 7.19 2.39
-7.55 7.06 2.39
-7.71 6.92 2.39
-7.86 6.78 2.39
-8.02 6.64 2.39
-8.17 6.49 2.39
-8.32 6.34 2.39
-8.47 6.19 2.39
-8.61 6.04 2.39
-8.76 5.88 2.39
-8.90 5.71 2.39
-9.04 5.55 2.39
-9.17 5.38 2.39
-9.30 5.21 2.39
-9.43 5.04 2.39
-9.56 4.86 2.39
-9.68 4.68 2.39
-9.80 4.50 2.39
-9.92 4.31 2.39
-10.03 4.12 2.39
-10.12 3.92 2.39
-10.21 3.72 2.38
-10.30 3.52 2.38
-10.38 3.32 2.38
-10.46 3.11 2.37
-10.54 2.91 2.37
-10.61 2.70 2.36
-10.68 2.49 2.36
-10.75 2.28 2.36
-10.81 2.07 2.36
-9.49 1.62 2.05
-9.51 1.43 2.04
-9.50 1.23 2.03
-9.48 1.03 2.02
-11.40 1.01 2.41
-11.45 0.79 2.41
-11.15 0.54 2.34
-11.19 0.32 2.33
-11.22 0.09 2.33
-11.25 -0.13 2.33
-11.28 -0.36 2.33
-11.30 -0.59 2.33
-11.32 -0.81 2.33
-11.33 -1.04 2.33
-11.34 -1.27 2.33
-11.35 -1.51 2.33
-11.35 -1.74 2.33
-11.35 -1.97 2.33
-11.35 -2.21 2.33
-11.34 -2.44 2.33
-11.32 -2.68 2.33
-11.31 -2.91 2.33
-11.29 -3.15 2.33
-11.26 -3.39 2.33
-11.23 -3.62 2.33
-11.20 -3.86 2.33
-11.52 -4.23 2.41
-11.47 -4.48 2.41
-11.41 -4.72 2.41
-9.45 -4.13 2.01
-9.29 -4.28 1.98
-9.39 -4.56 2.02
-9.89 -5.05 2.14
-9.74 -5.22 2.13
-9.74 -5.47 2.14
-9.73 -5.73 2.16
-9.73 -5.99 2.18
-9.72 -6.26 2.20
-9.72 -6.53 2.22
-9.71 -6.82 2.24
-9.71 -7.11 2.27
-9.70 -7.41 2.30
-9.70 -7.71 2.33
-9.69 -8.03 2.36
-9.68 -8.36 2.39
-9.56 -8.58 2.39
-9.41 -8.79 2.39
-9.25 -9.00 2.39
-9.09 -9.20 2.39
-8.92 -9.41 2.39
-8.75 -9.60 2.39
-8.58 -9.80 2.39
-8.40 -9.99 2.39
-8.21 -10.17 2.39
-8.02 -10.35 2.39
-7.83 -10.53 2.39
-7.63 -10.70 2.39
-7.43 -10.87 2.39
-7.22 -11.04 2.39
-7.01 -11.20 2.39
-6.80 -11.35 2.39
-6.58 -11.50 2.39
-6.36 -11.65 2.39
-6.13 -11.79 2.39
-5.90 -11.92 2.39
-5.74 -12.20 2.42
-5.67 -12.71 2.50
-5.42 -12.83 2.50
-5.17 -12.95 2.50
-4.91 -13.06 2.50
-4.66 -13.17 2.50
-4.40 -13.27 2.50
-4.13 -13.36 2.50
-3.87 -13.45 2.50
-3.60 -13.53 2.50
-3.33 -13.61 2.50
-3.06 -13.68 2.50
-2.79 -13.74 2.50
-2.52 -13.80 2.50
-2.24 -13.85 2.50
-1.96 -13.89 2.50
-1.69 -13.93 2.50
-1.41 -13.96 2.50
-1.13 -13.99 2.50
-0.85 -14.00 2.50
-0.57 -14.01 2.50
-0.29 -14.02 2.50
-0.01 -12.39 2.50
0.24 -12.39 2.50
0.48 -12.37 2.50
0.73 -12.35 2.50
0.97 -12.33 2.50
1.22 -12.30 2.50
1.46 -12.26 2.50
1.71 -12.22 2.50
1.95 -12.18 2.50
2.19 -12.12 2.50
2.33 -11.57 2.39
2.55 -11.51 2.39
2.78 -11.44 2.39
3.00 -11.37 2.39
3.23 -11.29 2.39
3.45 -11.21 2.39
3.66 -11.13 2.39
3.88 -11.03 2.39
4.09 -10.94 2.39
4.30 -10.84 2.39
4.51 -10.73 2.39
4.72 -10.62 2.39
4.92 -10.51 2.39
5.12 -10.39 2.39
5.32 -10.27 2.39
5.51 -10.14 2.39
5.70 -10.01 2.39
5.89 -9.88 2.39
6.07 -9.74 2.39
5.99 -9.19 2.29
5.97 -8.40 2.16
6.00 -8.11 2.12
6.01 -7.79 2.07
6.01 -7.47 2.03
6.00 -7.16 1.98
6.00 -6.87 1.94
5.99 -6.60 1.90
5.99 -6.33 1.86
5.98 -6.08 1.82
5.98 -5.84 1.79
5.97 -5.61 1.76
5.97 -5.38 1.73
5.97 -5.17 1.70
5.96 -4.96 1.68
5.96 -4.76 1.66
5.96 -4.56 1.63
5.95 -4.37 1.61
5.95 -4.19 1.59
5.95 -4.01 1.57
5.94 -3.84 1.56
5.94 -3.67 1.54
5.94 -3.51 1.53
5.93 -3.35 1.51
5.93 -3.19 1.50
5.93 -3.04 1.49
5.93 -2.89 1.48
5.92 -2.74 1.47
5.92 -2.60 1.46
5.92 -2.46 1.45
5.92 -2.32 1.44
5.91 -2.18 1.43
5.91 -2.05 1.42
5.91 -1.92 1.42
4.00 -1.21 0.96
3.95 -1.11 0.94
3.93 -1.02 0.94
3.94 -0.94 0.94
3.96 -0.86 0.94
4.01 -0.78 0.95
4.09 -0.72 0.97
4.29 -0.66 1.01
5.89 -0.79 1.39
5.89 -0.67 1.39
5.88 -0.55 1.39
5.88 -0.43 1.40
5.88 -0.31 1.40
5.88 -0.19 1.40
5.88 -0.07 1.40
5.87 0.04 1.41
5.87 0.16 1.41
5.87 0.28 1.41
5.87 0.40 1.42
5.86 0.52 1.42
5.86 0.63 1.43
5.86 0.75 1.44
5.86 0.87 1.45
5.86 0.99 1.45
5.85 1.12 1.46
5.85 1.24 1.47
5.85 1.36 1.48
5.85 1.48 1.49
5.85 1.61 1.50
5.84 1.74 1.51
5.84 1.86 1.53
5.84 1.99 1.54
5.84 2.13 1.56
5.83 2.26 1.57
5.83 2.39 1.59
5.83 2.53 1.60
5.80 2.66 1.61
5.76 2.78 1.62
5.82 2.96 1.66
5.82 3.11 1.68
5.82 3.26 1.70
5.81 3.41 1.72
5.81 3.57 1.75
5.81 3.73 1.77
5.80 3.90 1.80
5.80 4.07 1.83
5.80 4.24 1.86
5.80 4.42 1.89
5.79 4.61 1.92
5.79 4.80 1.95
5.79 4.99 1.99
5.78 5.20 2.03
5.78 5.41 2.07
2.69 2.63 0.98
2.65 2.69 0.99
5.71 6.04 2.18
5.98 6.85 2.39
5.83 6.96 2.39
5.68 7.07 2.39
5.53 7.17 2.39
5.37 7.27 2.39
5.22 7.37 2.39
5.06 7.46 2.39
4.90 7.55 2.39
4.74 7.64 2.39
4.58 7.73 2.39
4.42 7.81 2.39
4.26 7.89 2.39
4.10 7.97 2.39
3.93 8.04 2.39
3.76 8.11 2.39
3.60 8.18 2.39
3.43 8.25 2.39
3.26 8.31 2.39
3.09 8.37 2.39
2.91 8.42 2.39
2.74 8.48 2.39
2.57 8.53 2.39
2.39 8.57 2.39
2.22 8.62 2.39
2.04 8.66 2.39
1.92 8.95 2.46
1.76 9.10 2.50
1.58 9.14 2.50
1.39 9.17 2.50
1.21 9.19 2.50
1.02 9.21 2.50
0.84 9.23 2.50
0.65 9.25 2.50
0.46 9.26 2.50
0.27 9.27 2.50
0.09 9.28 2.50
-0.10 9.28 2.50
-0.29 9.28 2.50
-0.48 9.27 2.50
-0.67 9.27 2.50
-0.85 9.26 2.50
-1.04 9.24 2.50
-1.23 9.22 2.50
-1.42 9.20 2.50
-1.60 9.18 2.50
-1.79 9.15 2.50
-1.98 9.12 2.50
-2.16 9.09 2.50
-2.35 9.05 2.50
-2.53 9.01 2.50
-2.72 8.97 2.50
-2.90 8.92 2.50
-3.08 8.87 2.50
-3.27 8.81 2.50
-3.45 8.76 2.50
-3.63 8.70 2.50
-3.81 8.63 2.50
-3.99 8.57 2.50
-4.17 8.49 2.50
-4.34 8.42 2.50
-4.52 8.34 2.50
-4.69 8.26 2.50
-4.87 8.18 2.50
-5.04 8.09 2.50
-5.21 8.00 2.50
-5.38 7.91 2.50
-5.55 7.81 2.50
-5.72 7.71 2.50
-5.88 7.61 2.50
-6.04 7.50 2.50
-6.09 7.26 2.45
-6.10 6.98 2.39
-6.26 6.87 2.39
-6.41 6.76 2.39
-6.56 6.64 2.39
-6.70 6.52 2.39
-6.85 6.40 2.39
-6.99 6.27 2.39
-7.13 6.14 2.39
-7.27 6.01 2.39
-7.41 5.88 2.39
-7.54 5.74 2.39
-7.67 5.60 2.39
-7.80 5.46 2.39
-7.93 5.31 2.39
-8.05 5.16 2.39
-8.18 5.01 2.39
-8.30 4.86 2.39
-8.42 4.70 2.39
-8.53 4.55 2.39
-8.64 4.38 2.39
-8.75 4.22 2.39
-8.86 4.06 2.39
-8.96 3.89 2.39
-9.06 3.72 2.39
-9.16 3.54 2.39
-9.25 3.37 2.39
-9.35 3.19 2.39
-9.43 3.01 2.39
-9.52 2.83 2.39
-9.60 2.64 2.39
-9.68 2.46 2.39
-9.75 2.27 2.39
-9.83 2.08 2.39
-9.89 1.88 2.39
-9.49 1.61 2.28
-9.51 1.42 2.27
-9.50 1.22 2.26
-9.48 1.03 2.24
-10.25 0.90 2.41
-10.29 0.70 2.41
-10.21 0.49 2.38
-10.24 0.28 2.38
-10.27 0.08 2.38
-10.29 -0.13 2.38
-10.31 -0.33 2.38
-10.33 -0.54 2.37
-10.35 -0.75 2.37
-10.36 -0.96 2.37
-10.36 -1.17 2.37
-10.37 -1.38 2.37
-10.37 -1.60 2.37
-10.36 -1.81 2.37
-10.36 -2.02 2.37
-10.35 -2.23 2.37
-10.33 -2.45 2.37
-10.31 -2.66 2.37
-10.29 -2.88 2.38
-10.27 -3.09 2.38
-10.24 -3.31 2.38
-10.20 -3.53 2.38
-10.16 -3.74 2.38
-10.12 -3.96 2.38
-10.18 -4.22 2.41
-9.46 -4.14 2.25
-9.30 -4.30 2.23
-9.99 -4.86 2.41
-9.85 -5.04 2.39
-9.74 -5.23 2.39
-9.69 -5.46 2.39
-9.60 -5.66 2.39
-9.51 -5.87 2.39
-9.42 -6.07 2.39
-9.32 -6.27 2.39
-9.21 -6.47 2.39
-9.10 -6.67 2.39
-8.99 -6.87 2.39
-8.87 -7.06 2.39
-8.75 -7.25 2.39
-8.62 -7.44 2.39
-8.49 -7.63 2.39
-8.35 -7.82 2.39
-8.21 -8.00 2.39
-8.06 -8.18 2.39
-7.92 -8.35 2.39
-7.76 -8.52 2.39
-7.60 -8.69 2.39
-7.44 -8.86 2.39
-7.28 -9.02 2.39
-7.11 -9.18 2.39
-6.94 -9.34 2.39
-6.76 -9.49 2.39
-6.58 -9.64 2.39
-6.39 -9.78 2.39
-6.21 -9.92 2.39
-6.02 -10.06 2.39
-5.82 -10.19 2.39
-5.76 -10.57 2.45
-5.66 -10.89 2.50
-5.45 -11.01 2.50
-5.23 -11.13 2.50
-5.01 -11.24 2.50
-4.79 -11.35 2.50
-4.57 -11.46 2.50
-4.34 -11.55 2.50
-4.12 -11.65 2.50
-3.89 -11.74 2.50
-3.65 -11.82 2.50
-3.42 -11.90 2.50
-3.18 -11.97 2.50
-2.95 -12.03 2.50
-2.71 -12.10 2.50
-2.47 -12.15 2.50
-2.22 -12.20 2.50
-1.98 -12.25 2.50
-1.74 -12.28 2.50
-1.49 -12.32 2.50
-1.25 -12.34 2.50
-1.00 -12.37 2.50
-0.75 -12.38 2.50
-0.50 -12.39 2.50
-0.26 -12.39 2.50
-0.01 -11.10 2.50
0.21 -11.09 2.50
0.43 -11.08 2.50
0.65 -11.06 2.50
0.87 -11.04 2.50
1.09 -11.02 2.50
1.31 -10.98 2.50
1.53 -10.95 2.50
1.74 -10.91 2.50
1.96 -10.86 2.50
2.17 -10.81 2.50
2.29 -10.31 2.39
2.49 -10.25 2.39
2.69 -10.19 2.39
2.89 -10.12 2.39
3.09 -10.05 2.39
3.28 -9.98 2.39
3.48 -9.90 2.39
3.67 -9.81 2.39
3.86 -9.72 2.39
4.04 -9.63 2.39
4.23 -9.53 2.39
4.41 -9.43 2.39
4.59 -9.33 2.39
4.77 -9.22 2.39
4.94 -9.11 2.39
5.12 -8.99 2.39
5.28 -8.87 2.39
5.45 -8.75 2.39
5.61 -8.62 2.39
5.77 -8.49 2.39
5.93 -8.36 2.39
6.08 -8.22 2.39
5.94 -7.10 2.18
5.95 -6.83 2.14
5.99 -6.61 2.11
5.99 -6.34 2.07
5.98 -6.09 2.03
5.98 -5.85 1.99
5.97 -5.61 1.96
5.97 -5.39 1.92
5.97 -5.17 1.89
5.96 -4.96 1.86
5.96 -4.76 1.84
5.96 -4.57 1.81
5.95 -4.38 1.79
5.95 -4.20 1.77
5.95 -4.02 1.75
5.94 -3.85 1.73
5.94 -3.68 1.71
5.94 -3.51 1.69
5.93 -3.35 1.67
5.93 -3.20 1.66
5.93 -3.04 1.65
5.93 -2.89 1.63
5.92 -2.75 1.62
5.92 -2.60 1.61
5.92 -2.46 1.60
5.92 -2.32 1.59
5.91 -2.19 1.58
5.91 -2.05 1.57
5.91 -1.92 1.57
4.01 -1.21 1.06
3.95 -1.11 1.04
3.93 -1.02 1.03
3.94 -0.94 1.03
3.96 -0.86 1.04
4.01 -0.79 1.05
4.08 -0.72 1.07
4.26 -0.66 1.11
5.89 -0.79 1.54
5.89 -0.67 1.53
5.88 -0.55 1.54
5.88 -0.43 1.54
5.88 -0.32 1.54
5.88 -0.20 1.54
5.88 -0.08 1.54
5.87 0.04 1.55
5.87 0.16 1.55
5.87 0.27 1.55
5.87 0.39 1.56
5.86 0.51 1.57
5.86 0.63 1.57
5.86 0.75 1.58
5.86 0.87 1.59
5.86 0.99 1.60
5.85 1.11 1.60
5.85 1.23 1.61
5.85 1.36 1.63
5.85 1.48 1.64
5.85 1.61 1.65
5.84 1.73 1.66
5.84 1.86 1.67
5.84 1.99 1.69
5.84 2.12 1.70
5.83 2.25 1.72
5.83 2.39 1.74
5.83 2.53 1.76
5.80 2.66 1.77
5.76 2.78 1.78
5.82 2.95 1.82
5.82 3.10 1.84
5.82 3.25 1.86
5.81 3.41 1.89
5.81 3.56 1.91
5.81 3.73 1.94
5.80 3.89 1.97
5.80 4.06 2.00
5.80 4.24 2.03
5.80 4.42 2.06
5.79 4.60 2.10
5.77 4.78 2.13
5.73 4.94 2.15
5.73 5.14 2.19
2.70 2.63 1.08
2.65 2.69 1.08
5.74 6.06 2.39
5.61 6.17 2.39
5.47 6.27 2.39
5.34 6.37 2.39
5.20 6.47 2.39
5.06 6.57 2.39
4.92 6.66 2.39
4.78 6.75 2.39
4.64 6.84 2.39
4.50 6.92 2.39
4.35 7.00 2.39
4.20 7.08 2.39
4.06 7.16 2.39
3.91 7.23 2.39
3.76 7.30 2.39
3.60 7.37 2.39
3.45 7.44 2.39
3.30 7.50 2.39
3.14 7.56 2.39
2.99 7.62 2.39
2.83 7.67 2.39
2.67 7.72 2.39
2.52 7.77 2.39
2.36 7.82 2.39
2.20 7.86 2.39
2.04 7.90 2.39
1.94 8.20 2.47
1.79 8.32 2.50
1.62 8.35 2.50
1.45 8.38 2.50
1.28 8.41 2.50
1.11 8.43 2.50
0.94 8.45 2.50
0.77 8.47 2.50
0.59 8.48 2.50
0.42 8.49 2.50
0.25 8.50 2.50
0.08 8.51 2.50
-0.09 8.51 2.50
-0.27 8.51 2.50
-0.44 8.51 2.50
-0.61 8.50 2.50
-0.78 8.49 2.50
-0.96 8.48 2.50
-1.13 8.46 2.50
-1.30 8.44 2.50
-1.47 8.42 2.50
-1.64 8.39 2.50
-1.81 8.36 2.50
-1.98 8.33 2.50
-2.15 8.30 2.50
-2.32 8.26 2.50
-2.49 8.22 2.50
-2.66 8.17 2.50
-2.83 8.13 2.50
-3.00 8.08 2.50
-3.16 8.02 2.50
-3.33 7.97 2.50
-3.49 7.91 2.50
-3.66 7.84 2.50
-3.82 7.78 2.50
-3.98 7.71 2.50
-4.14 7.64 2.50
-4.30 7.56 2.50
-4.46 7.49 2.50
-4.62 7.41 2.50
-4.77 7.32 2.50
-4.93 7.24 2.50
-5.08 7.15 2.50
-5.23 7.05 2.50
-5.38 6.96 2.50
-5.53 6.86 2.50
-5.68 6.76 2.50
-5.83 6.66 2.50
-5.97 6.55 2.50
-6.08 6.40 2.48
-6.08 6.15 2.43
-6.13 5.95 2.39
-6.26 5.84 2.39
-6.39 5.73 2.39
-6.52 5.61 2.39
-6.64 5.49 2.39
-6.77 5.36 2.39
-6.89 5.24 2.39
-7.01 5.11 2.39
-7.12 4.98 2.39
-7.24 4.84 2.39
-7.35 4.71 2.39
-7.46 4.57 2.39
-7.57 4.43 2.39
-7.68 4.28 2.39
-7.78 4.14 2.39
-7.88 3.99 2.39
-7.98 3.84 2.39
-8.07 3.69 2.39
-8.16 3.53 2.39
-8.25 3.38 2.39
-8.34 3.22 2.39
-8.43 3.06 2.39
-8.51 2.90 2.39
-8.59 2.73 2.39
-8.66 2.56 2.39
-8.73 2.40 2.39
-8.80 2.23 2.39
-8.87 2.05 2.39
-8.93 1.88 2.39
-8.99 1.71 2.39
-9.05 1.53 2.39
-9.10 1.35 2.39
-9.15 1.17 2.39
-9.20 0.99 2.39
-9.24 0.81 2.39
-9.28 0.62 2.39
-9.31 0.44 2.39
-9.34 0.25 2.39
-9.37 0.06 2.39
-9.40 -0.12 2.39
-9.42 -0.31 2.39
-9.44 -0.50 2.39
-9.45 -0.69 2.39
-9.46 -0.89 2.39
-9.46 -1.08 2.39
-9.47 -1.27 2.39
-9.46 -1.46 2.39
-9.46 -1.66 2.39
-9.45 -1.85 2.39
-9.43 -2.04 2.39
-9.41 -2.24 2.39
-9.39 -2.43 2.39
-9.37 -2.63 2.39
-9.34 -2.82 2.39
-9.30 -3.02 2.39
-9.26 -3.21 2.39
-9.22 -3.40 2.39
-9.17 -3.59 2.39
-9.12 -3.79 2.39
-9.07 -3.98 2.39
-9.01 -4.17 2.39
-8.94 -4.36 2.39
-8.88 -4.55 2.39
-8.80 -4.73 2.39
-8.73 -4.92 2.39
-8.65 -5.11 2.39
-8.56 -5.29 2.39
-8.48 -5.47 2.39
-8.38 -5.65 2.39
-8.29 -5.83 2.39
-8.19 -6.01 2.39
-8.08 -6.18 2.39
-7.97 -6.36 2.39
-7.86 -6.53 2.39
-7.74 -6.70 2.39
-7.62 -6.86 2.39
-7.50 -7.03 2.39
-7.37 -7.19 2.39
-7.24 -7.35 2.39
-7.10 -7.50 2.39
-6.97 -7.66 2.39
-6.82 -7.81 2.39
-6.68 -7.96 2.39
-6.53 -8.10 2.39
-6.38 -8.24 2.39
-6.22 -8.38 2.39
-6.06 -8.51 2.39
-5.90 -8.65 2.39
-5.79 -8.87 2.42
-5.79 -9.26 2.49
-5.62 -9.41 2.50
-5.44 -9.53 2.50
-5.26 -9.65 2.50
-5.07 -9.76 2.50
-4.88 -9.87 2.50
-4.69 -9.97 2.50
-4.49 -10.07 2.50
-4.29 -10.17 2.50
-4.09 -10.26 2.50
-3.89 -10.35 2.50
-3.69 -10.43 2.50
-3.48 -10.51 2.50
-3.27 -10.58 2.50
-3.06 -10.65 2.50
-2.85 -10.72 2.50
-2.64 -10.78 2.50
-2.42 -10.83 2.50
-2.21 -10.88 2.50
-1.99 -10.92 2.50
-1.77 -10.96 2.50
-1.55 -11.00 2.50
-1.33 -11.03 2.50
-1.11 -11.05 2.50
-0.89 -11.07 2.50
-0.67 -11.08 2.50
-0.45 -11.09 2.50
-0.23 -11.10 2.50
-0.01 -10.04 2.50
0.19 -10.03 2.50
0.39 -10.02 2.50
0.59 -10.01 2.50
0.79 -9.99 2.50
0.98 -9.96 2.50
1.18 -9.94 2.50
1.38 -9.90 2.50
1.57 -9.87 2.50
1.77 -9.83 2.50
1.96 -9.78 2.50
2.16 -9.73 2.50
2.25 -9.28 2.39
2.44 -9.25 2.40
2.61 -9.16 2.39
2.79 -9.10 2.39
2.97 -9.03 2.39
3.14 -8.96 2.39
3.32 -8.89 2.39
3.49 -8.81 2.39
3.66 -8.72 2.39
3.83 -8.64 2.39
3.99 -8.55 2.39
4.16 -8.46 2.39
4.32 -8.36 2.39
4.48 -8.26 2.39
4.63 -8.15 2.39
4.79 -8.05 2.39
4.94 -7.94 2.39
5.09 -7.82 2.39
5.23 -7.71 2.39
5.38 -7.59 2.39
5.52 -7.47 2.39
5.65 -7.34 2.39
5.79 -7.21 2.39
5.92 -7.08 2.39
6.05 -6.95 2.39
6.17 -6.81 2.39
5.97 -6.08 2.23
5.92 -5.80 2.17
5.93 -5.58 2.14
5.97 -5.40 2.12
5.95 -5.17 2.08
5.96 -4.97 2.05
5.96 -4.77 2.02
5.96 -4.57 1.99
5.95 -4.39 1.97
5.95 -4.20 1.94
5.95 -4.02 1.92
5.94 -3.85 1.90
5.94 -3.68 1.88
5.94 -3.52 1.86
5.93 -3.36 1.84
5.93 -3.20 1.82
5.93 -3.05 1.81
5.93 -2.90 1.79
5.92 -2.75 1.78
5.92 -2.61 1.77
5.92 -2.47 1.75
5.92 -2.33 1.74
5.91 -2.19 1.73
5.91 -2.06 1.73
5.91 -1.93 1.72
4.01 -1.22 1.16
3.95 -1.11 1.14
3.93 -1.03 1.13
3.94 -0.94 1.13
3.96 -0.86 1.13
4.01 -0.79 1.15
4.08 -0.72 1.17
4.25 -0.66 1.21
5.89 -0.80 1.68
5.89 -0.68 1.68
5.88 -0.56 1.68
5.88 -0.44 1.68
5.88 -0.32 1.68
5.88 -0.20 1.68
5.88 -0.08 1.68
5.87 0.03 1.69
5.87 0.15 1.69
5.87 0.27 1.70
5.87 0.39 1.70
5.86 0.51 1.71
5.86 0.63 1.72
5.86 0.75 1.72
5.86 0.86 1.73
5.86 0.99 1.74
5.85 1.11 1.75
5.85 1.23 1.76
5.85 1.35 1.77
5.85 1.48 1.78
5.85 1.60 1.80
5.84 1.73 1.81
5.84 1.86 1.82
5.84 1.99 1.84
5.84 2.12 1.86
5.83 2.25 1.87
5.83 2.38 1.89
5.83 2.52 1.91
5.81 2.65 1.92
5.76 2.77 1.93
5.82 2.95 1.97
5.82 3.10 2.00
5.82 3.25 2.02
5.81 3.40 2.05
5.81 3.56 2.08
5.81 3.72 2.11
5.78 3.87 2.13
5.75 4.02 2.15
5.74 4.19 2.18
5.98 4.94 2.39
5.87 5.06 2.39
5.76 5.17 2.39
5.64 5.27 2.39
2.70 2.62 1.17
2.65 2.68 1.17
5.29 5.58 2.39
5.17 5.68 2.39
5.05 5.78 2.39
4.92 5.87 2.39
4.80 5.96 2.39
4.67 6.05 2.39
4.54 6.14 2.39
4.41 6.22 2.39
4.28 6.30 2.39
4.15 6.38 2.39
4.01 6.46 2.39
3.88 6.53 2.39
3.74 6.60 2.39
3.60 6.67 2.39
3.47 6.74 2.39
3.33 6.80 2.39
3.18 6.86 2.39
3.04 6.92 2.39
2.90 6.97 2.39
2.76 7.03 2.39
2.61 7.08 2.39
2.47 7.13 2.39
2.32 7.17 2.39
2.17 7.21 2.39
2.03 7.25 2.39
1.95 7.55 2.48
1.81 7.64 2.50
1.65 7.67 2.50
1.49 7.70 2.50
1.34 7.73 2.50
1.18 7.76 2.50
1.02 7.78 2.50
0.86 7.80 2.50
0.71 7.81 2.50
0.55 7.83 2.50
0.39 7.84 2.50
0.23 7.84 2.50
0.07 7.85 2.50
-0.09 7.85 2.50
-0.25 7.85 2.50
-0.41 7.85 2.50
-0.57 7.84 2.50
-0.72 7.83 2.50
-0.88 7.82 2.50
-1.04 7.80 2.50
-1.20 7.78 2.50
-1.36 7.76 2.50
-1.52 7.74 2.50
-1.67 7.71 2.50
-1.83 7.68 2.50
-1.99 7.65 2.50
-2.14 7.61 2.50
-2.30 7.58 2.50
-2.46 7.53 2.50
-2.61 7.49 2.50
-2.76 7.44 2.50
-2.92 7.39 2.50
-3.07 7.34 2.50
-3.22 7.29 2.50
-3.37 7.23 2.50
-3.52 7.17 2.50
-3.67 7.10 2.50
-3.82 7.04 2.50
-3.97 6.97 2.50
-4.11 6.89 2.50
-4.26 6.82 2.50
-4.40 6.74 2.50
-4.54 6.66 2.50
-4.68 6.58 2.50
-4.82 6.49 2.50
-4.96 6.40 2.50
-5.10 6.31 2.50
-5.23 6.22 2.50
-5.36 6.12 2.50
-5.50 6.02 2.50
-5.63 5.92 2.50
-5.76 5.82 2.50
-5.88 5.71 2.50
-6.01 5.60 2.50
-6.06 5.43 2.47
-6.06 5.21 2.42
-6.11 5.04 2.39
-6.22 4.92 2.39
-6.33 4.81 2.39
-6.44 4.69 2.39
-6.55 4.57 2.39
-6.65 4.44 2.39
-6.75 4.32 2.39
-6.85 4.19 2.39
-6.95 4.06 2.39
-7.05 3.93 2.39
-7.14 3.79 2.39
-7.23 3.66 2.39
-7.32 3.52 2.39
-7.41 3.38 2.39
-7.49 3.24 2.39
-7.57 3.09 2.39
-7.65 2.95 2.39
-7.73 2.80 2.39
-7.80 2.65 2.39
-7.87 2.50 2.39
-7.94 2.34 2.39
-8.00 2.19 2.39
-8.06 2.03 2.39
-8.12 1.87 2.39
-8.18 1.72 2.39
-8.23 1.55 2.39
-8.28 1.39 2.39
-8.33 1.23 2.39
-8.37 1.06 2.39
-8.41 0.90 2.39
-8.45 0.73 2.39
-8.48 0.56 2.39
-8.51 0.39 2.39
-8.54 0.22 2.39
-8.56 0.05 2.39
-8.58 -0.12 2.39
-8.60 -0.29 2.39
-8.62 -0.47 2.39
-8.63 -0.64 2.39
-8.63 -0.81 2.39
-8.64 -0.99 2.39
-8.64 -1.17 2.39
-8.63 -1.34 2.39
-8.62 -1.52 2.39
-8.61 -1.69 2.39
-8.60 -1.87 2.39
-8.58 -2.05 2.39
-8.56 -2.22 2.39
-8.53 -2.40 2.39
-8.50 -2.58 2.39
-8.47 -2.75 2.39
-8.43 -2.93 2.39
-8.39 -3.10 2.39
-8.35 -3.28 2.39
-8.30 -3.45 2.39
-8.25 -3.62 2.39
-8.19 -3.80 2.39
-8.13 -3.97 2.39
-8.07 -4.14 2.39
-8.00 -4.31 2.39
-7.93 -4.48 2.39
-7.86 -4.64 2.39
-7.78 -4.81 2.39
-7.70 -4.98 2.39
-7.61 -5.14 2.39
-7.52 -5.30 2.39
-7.43 -5.46 2.39
-7.33 -5.62 2.39
-7.23 -5.77 2.39
-7.13 -5.93 2.39
-7.02 -6.08 2.39
-6.91 -6.23 2.39
-6.80 -6.38 2.39
-6.68 -6.52 2.39
-6.56 -6.67 2.39
-6.44 -6.81 2.39
-6.31 -6.94 2.39
-6.18 -7.08 2.39
-6.05 -7.21 2.39
-5.91 -7.34 2.39
-5.82 -7.53 2.41
-5.81 -7.84 2.47
-5.72 -8.05 2.50
-5.57 -8.17 2.50
-5.41 -8.29 2.50
-5.25 -8.41 2.50
-5.09 -8.52 2.50
-4.92 -8.63 2.50
-4.76 -8.73 2.50
-4.59 -8.83 2.50
-4.41 -8.93 2.50
-4.24 -9.03 2.50
-4.06 -9.12 2.50
-3.88 -9.20 2.50
-3.70 -9.29 2.50
-3.52 -9.36 2.50
-3.33 -9.44 2.50
-3.15 -9.51 2.50
-2.96 -9.57 2.50
-2.77 -9.64 2.50
-2.58 -9.69 2.50
-2.38 -9.75 2.50
-2.19 -9.79 2.50
-2.00 -9.84 2.50
-1.80 -9.88 2.50
-1.60 -9.91 2.50
-1.41 -9.95 2.50
-1.21 -9.97 2.50
-1.01 -9.99 2.50
-0.81 -10.01 2.50
-0.61 -10.02 2.50
-0.41 -10.03 2.50
-0.21 -10.04 2.50
-0.01 -9.15 2.50
0.17 -9.15 2.50
0.35 -9.14 2.50
0.53 -9.13 2.50
0.72 -9.11 2.50
0.90 -9.09 2.50
1.08 -9.06 2.50
1.26 -9.03 2.50
1.43 -9.00 2.50
1.61 -8.97 2.50
1.79 -8.92 2.50
1.96 -8.88 2.50
2.14 -8.83 2.50
2.22 -8.44 2.40
2.38 -8.36 2.39
2.54 -8.31 2.39
2.71 -8.25 2.39
2.87 -8.18 2.39
3.03 -8.11 2.39
3.18 -8.04 2.39
3.34 -7.97 2.39
3.49 -7.89 2.39
3.64 -7.81 2.39
3.79 -7.72 2.39
3.94 -7.64 2.39
4.09 -7.55 2.39
4.23 -7.45 2.39
4.37 -7.36 2.39
4.51 -7.26 2.39
4.65 -7.15 2.39
4.78 -7.05 2.39
4.91 -6.94 2.39
5.04 -6.83 2.39
5.17 -6.72 2.39
5.29 -6.60 2.39
5.41 -6.48 2.39
5.53 -6.36 2.39
5.64 -6.24 2.39
5.76 -6.11 2.39
5.87 -5.99 2.39
5.97 -5.86 2.39
6.08 -5.72 2.39
6.18 -5.59 2.39
5.95 -5.17 2.27
5.90 -4.73 2.19
5.90 -4.54 2.16
5.92 -4.37 2.13
5.95 -4.21 2.12
5.95 -4.03 2.09
5.94 -3.86 2.07
5.94 -3.69 2.05
5.94 -3.53 2.03
5.93 -3.37 2.01
5.93 -3.21 1.99
5.93 -3.06 1.97
5.93 -2.91 1.95
5.92 -2.76 1.94
5.92 -2.61 1.92
5.92 -2.47 1.91
5.92 -2.33 1.90
5.91 -2.20 1.89
5.91 -2.06 1.88
5.91 -1.93 1.87
4.01 -1.22 1.26
3.95 -1.12 1.24
3.93 -1.03 1.23
3.94 -0.95 1.23
3.96 -0.87 1.23
4.00 -0.79 1.24
4.08 -0.72 1.27
4.23 -0.66 1.31
5.89 -0.80 1.82
5.89 -0.68 1.82
5.88 -0.56 1.82
5.88 -0.44 1.82
5.88 -0.32 1.82
5.88 -0.21 1.83
5.88 -0.09 1.83
5.87 0.03 1.83
5.87 0.15 1.84
5.87 0.27 1.84
5.87 0.38 1.85
5.87 0.50 1.85
5.86 0.62 1.86
5.86 0.74 1.87
5.86 0.86 1.88
5.86 0.98 1.89
5.85 1.10 1.90
5.85 1.22 1.91
5.85 1.35 1.92
5.85 1.47 1.93
5.85 1.60 1.94
5.84 1.72 1.96
5.84 1.85 1.97
5.84 1.98 1.99
5.84 2.11 2.01
5.83 2.24 2.03
5.83 2.38 2.05
5.83 2.52 2.07
5.81 2.65 2.08
5.76 2.77 2.09
5.80 2.93 2.13
5.77 3.07 2.14
5.76 3.21 2.17
5.76 3.36 2.19
6.02 4.02 2.39
5.92 4.14 2.39
5.83 4.25 2.39
5.73 4.36 2.39
5.64 4.47 2.39
5.54 4.57 2.39
5.44 4.68 2.39
5.33 4.78 2.39
5.23 4.88 2.39
2.70 2.62 1.26
2.65 2.68 1.27
4.90 5.17 2.39
4.79 5.26 2.39
4.68 5.35 2.39
4.56 5.43 2.39
4.45 5.52 2.39
4.33 5.60 2.39
4.21 5.68 2.39
4.09 5.76 2.39
3.97 5.84 2.39
3.84 5.91 2.39
3.72 5.98 2.39
3.60 6.05 2.39
3.47 6.12 2.39
3.34 6.18 2.39
3.21 6.24 2.39
3.08 6.30 2.39
2.95 6.36 2.39
2.82 6.41 2.39
2.69 6.46 2.39
2.56 6.51 2.39
2.42 6.56 2.39
2.29 6.61 2.39
2.17 6.70 2.41
2.02 6.69 2.39
1.96 7.00 2.49
1.82 7.05 2.50
1.67 7.08 2.50
1.53 7.11 2.50
1.39 7.14 2.50
1.24 7.17 2.50
1.09 7.19 2.50
0.95 7.21 2.50
0.80 7.23 2.50
0.65 7.24 2.50
0.51 7.26 2.50
0.36 7.27 2.50
0.21 7.27 2.50
0.07 7.28 2.50
-0.08 7.28 2.50
-0.23 7.28 2.50
-0.38 7.27 2.50
-0.53 7.27 2.50
-0.67 7.26 2.50
-0.82 7.25 2.50
-0.97 7.23 2.50
-1.11 7.22 2.50
-1.26 7.20 2.50
-1.41 7.17 2.50
-1.55 7.15 2.50
-1.70 7.12 2.50
-1.85 7.09 2.50
-1.99 7.06 2.50
-2.13 7.02 2.50
-2.28 6.98 2.50
-2.42 6.94 2.50
-2.56 6.90 2.50
-2.71 6.85 2.50
-2.85 6.80 2.50
-2.99 6.75 2.50
-3.13 6.69 2.50
-3.26 6.64 2.50
-3.40 6.58 2.50
-3.54 6.51 2.50
-3.68 6.45 2.50
-3.81 6.38 2.50
-3.94 6.31 2.50
-4.08 6.24 2.50
-4.21 6.16 2.50
-4.34 6.09 2.50
-4.47 6.01 2.50
-4.59 5.92 2.50
-4.72 5.84 2.50
-4.84 5.75 2.50
-4.97 5.66 2.50
-5.09 5.57 2.50
-5.21 5.47 2.50
-5.33 5.38 2.50
-5.44 5.28 2.50
-5.56 5.17 2.50
-5.67 5.07 2.50
-5.78 4.96 2.50
-5.89 4.85 2.50
-6.00 4.74 2.50
-6.05 4.58 2.47
-6.05 4.40 2.43
-6.05 4.22 2.39
-6.15 4.10 2.39
-6.24 3.98 2.39
-6.33 3.86 2.39
-6.42 3.74 2.39
-6.51 3.62 2.39
-6.60 3.50 2.39
-6.68 3.37 2.39
-6.76 3.24 2.39
-6.84 3.11 2.39
-6.91 2.98 2.39
-6.99 2.85 2.39
-7.06 2.71 2.39
-7.13 2.57 2.39
-7.19 2.44 2.39
-7.26 2.30 2.39
-7.32 2.15 2.39
-7.38 2.01 2.39
-7.43 1.87 2.39
-7.48 1.72 2.39
-7.53 1.57 2.39
-7.58 1.43 2.39
-7.63 1.28 2.39
-7.67 1.13 2.39
-7.71 0.97 2.39
-7.74 0.82 2.39
-7.78 0.67 2.39
-7.81 0.51 2.39
-7.83 0.36 2.39
-7.86 0.20 2.39
-7.88 0.04 2.39
-7.89 -0.12 2.39
-7.91 -0.28 2.39
-7.92 -0.43 2.39
-7.93 -0.59 2.39
-7.93 -0.75 2.39
-7.93 -0.92 2.39
-7.93 -1.08 2.39
-7.93 -1.24 2.39
-7.92 -1.40 2.39
-7.91 -1.56 2.39
-7.89 -1.72 2.39
-7.87 -1.88 2.39
-7.85 -2.05 2.39
-7.83 -2.21 2.39
-7.80 -2.37 2.39
-7.77 -2.53 2.39
-7.73 -2.69 2.39
-7.69 -2.85 2.39
-7.65 -3.01 2.39
-7.60 -3.17 2.39
-7.55 -3.33 2.39
-7.50 -3.48 2.39
-7.45 -3.64 2.39
-7.39 -3.80 2.39
-7.33 -3.95 2.39
-7.26 -4.10 2.39
-7.19 -4.26 2.39
-7.12 -4.41 2.39
-7.04 -4.56 2.39
-6.96 -4.71 2.39
-6.88 -4.85 2.39
-6.79 -5.00 2.39
-6.70 -5.14 2.39
-6.61 -5.28 2.39
-6.52 -5.42 2.39
-6.42 -5.56 2.39
-6.32 -5.70 2.39
-6.21 -5.83 2.39
-6.10 -5.96 2.39
-5.99 -6.09 2.39
-5.88 -6.22 2.39
-5.84 -6.43 2.42
-5.83 -6.69 2.47
-5.76 -6.87 2.50
-5.63 -7.00 2.50
-5.50 -7.12 2.50
-5.36 -7.23 2.50
-5.22 -7.35 2.50
-5.08 -7.46 2.50
-4.94 -7.57 2.50
-4.79 -7.67 2.50
-4.64 -7.78 2.50
-4.49 -7.87 2.50
-4.34 -7.97 2.50
-4.18 -8.06 2.50
-4.02 -8.15 2.50
-3.86 -8.24 2.50
-3.70 -8.32 2.50
-3.54 -8.40 2.50
-3.37 -8.47 2.50
-3.21 -8.54 2.50
-3.04 -8.61 2.50
-2.87 -8.67 2.50
-2.70 -8.73 2.50
-2.52 -8.79 2.50
-2.35 -8.84 2.50
-2.17 -8.89 2.50
-2.00 -8.93 2.50
-1.82 -8.97 2.50
-1.64 -9.01 2.50
-1.46 -9.04 2.50
-1.28 -9.07 2.50
-1.10 -9.09 2.50
-0.92 -9.11 2.50
-0.74 -9.13 2.50
-0.56 -9.14 2.50
-0.37 -9.15 2.50
-0.19 -9.15 2.50
-0.01 -8.40 2.50
0.16 -8.40 2.50
0.32 -8.39 2.50
0.49 -8.38 2.50
0.66 -8.36 2.50
0.82 -8.34 2.50
0.99 -8.32 2.50
1.15 -8.30 2.50
1.32 -8.27 2.50
1.48 -8.23 2.50
1.64 -8.20 2.50
1.80 -8.16 2.50
1.96 -8.11 2.50
2.12 -8.07 2.50
2.20 -7.74 2.41
2.34 -7.63 2.39
2.48 -7.58 2.39
2.63 -7.52 2.39
2.78 -7.46 2.39
2.92 -7.39 2.39
3.07 -7.32 2.39
3.21 -7.25 2.39
3.35 -7.18 2.39
3.48 -7.10 2.39
3.62 -7.02 2.39
3.75 -6.94 2.39
3.89 -6.85 2.39
4.02 -6.77 2.39
4.14 -6.68 2.39
4.27 -6.58 2.39
4.39 -6.49 2.39
4.52 -6.39 2.39
4.63 -6.29 2.39
4.75 -6.18 2.39
4.87 -6.08 2.39
4.98 -5.97 2.39
5.09 -5.86 2.39
5.19 -5.75 2.39
5.30 -5.63 2.39
5.40 -5.52 2.39
5.50 -5.40 2.39
5.60 -5.28 2.39
5.69 -5.15 2.39
5.78 -5.03 2.39
5.87 -4.91 2.39
5.95 -4.78 2.39
6.04 -4.65 2.39
6.11 -4.52 2.39
5.88 -3.66 2.20
5.88 -3.50 2.17
5.88 -3.34 2.15
5.89 -3.19 2.14
5.91 -3.05 2.13
5.93 -2.91 2.12
5.92 -2.76 2.10
5.92 -2.62 2.08
5.92 -2.48 2.07
5.92 -2.34 2.06
5.91 -2.20 2.04
4.10 -1.43 1.41
5.91 -1.94 2.02
4.00 -1.22 1.36
3.95 -1.12 1.34
3.93 -1.03 1.33
3.94 -0.95 1.33
3.96 -0.87 1.33
4.00 -0.80 1.35
4.07 -0.73 1.37
4.22 -0.67 1.42
5.89 -0.81 1.97
5.89 -0.69 1.97
5.88 -0.57 1.97
5.88 -0.45 1.97
5.88 -0.33 1.97
5.88 -0.21 1.97
5.88 -0.09 1.98
5.87 0.03 1.98
5.87 0.14 1.98
5.87 0.26 1.99
5.87 0.38 1.99
5.87 0.50 2.00
5.86 0.62 2.01
5.86 0.74 2.01
5.86 0.86 2.02
5.86 0.98 2.03
5.85 1.10 2.04
5.85 1.22 2.06
5.85 1.34 2.07
5.85 1.47 2.08
5.85 1.59 2.10
5.84 1.72 2.11
5.83 1.84 2.12
5.81 1.97 2.13
5.79 2.09 2.14
5.78 2.22 2.16
5.77 2.35 2.18
5.78 2.49 2.21
5.82 2.65 2.24
5.76 2.76 2.25
5.99 3.18 2.39
5.92 3.29 2.39
5.84 3.41 2.39
5.76 3.52 2.39
5.68 3.63 2.39
5.59 3.74 2.39
5.51 3.84 2.39
5.42 3.95 2.39
5.33 4.05 2.39
5.24 4.15 2.39
5.15 4.25 2.39
5.06 4.35 2.39
4.96 4.44 2.39
4.86 4.53 2.39
2.68 2.60 1.35
2.63 2.66 1.35
4.56 4.80 2.39
4.46 4.89 2.39
4.35 4.97 2.39
4.25 5.05 2.39
4.14 5.13 2.39
4.03 5.21 2.39
3.92 5.29 2.39
3.81 5.36 2.39
3.69 5.43 2.39
3.58 5.50 2.39
3.46 5.56 2.39
3.35 5.63 2.39
3.23 5.69 2.39
3.11 5.75 2.39
2.99 5.81 2.39
2.87 5.86 2.39
2.75 5.92 2.39
2.63 5.97 2.39
2.51 6.02 2.39
2.38 6.06 2.39
2.26 6.11 2.39
2.13 6.15 2.39
2.01 6.19 2.39
1.96 6.49 2.50
1.83 6.53 2.50
1.69 6.56 2.50
1.56 6.60 2.50
1.43 6.62 2.50
1.29 6.65 2.50
1.15 6.68 2.50
1.02 6.70 2.50
0.88 6.72 2.50
0.75 6.73 2.50
0.61 6.75 2.50
0.47 6.76 2.50
0.34 6.77 2.50
0.20 6.77 2.50
0.06 6.78 2.50
-0.08 6.78 2.50
-0.21 6.78 2.50
-0.35 6.77 2.50
-0.49 6.77 2.50
-0.63 6.76 2.50
-0.76 6.75 2.50
-0.90 6.73 2.50
-1.04 6.72 2.50
-1.18 6.70 2.50
-1.31 6.68 2.50
-1.45 6.65 2.50
-1.58 6.63 2.50
-1.72 6.60 2.50
-1.85 6.57 2.50
-1.99 6.53 2.50
-2.12 6.50 2.50
-2.26 6.46 2.50
-2.39 6.42 2.50
-2.52 6.37 2.50
-2.65 6.33 2.50
-2.78 6.28 2.50
-2.91 6.23 2.50
-3.04 6.17 2.50
-3.17 6.12 2.50
-3.30 6.06 2.50
-3.42 6.00 2.50
-3.55 5.93 2.50
-3.67 5.87 2.50
-3.79 5.80 2.50
-3.91 5.73 2.50
-4.04 5.66 2.50
-4.15 5.58 2.50
-4.27 5.50 2.50
-4.39 5.42 2.50
-4.51 5.34 2.50
-4.62 5.26 2.50
-4.73 5.17 2.50
-4.84 5.08 2.50
-4.95 4.99 2.50
-5.06 4.90 2.50
-5.17 4.80 2.50
-5.27 4.71 2.50
-5.37 4.61 2.50
-5.48 4.50 2.50
-5.58 4.40 2.50
-5.67 4.30 2.50
-5.77 4.19 2.50
-5.86 4.08 2.50
-5.96 3.97 2.50
-6.03 3.84 2.49
-6.03 3.67 2.46
-6.03 3.51 2.42
-6.04 3.36 2.39
-6.12 3.24 2.39
-6.21 3.13 2.40
-6.27 3.00 2.39
-6.34 2.88 2.39
-6.41 2.76 2.39
-6.48 2.63 2.39
-6.54 2.51 2.39
-6.61 2.38 2.39
-6.67 2.25 2.39
-6.73 2.12 2.39
-6.78 1.99 2.39
-6.83 1.86 2.39
-6.88 1.72 2.39
-6.93 1.59 2.39
-6.98 1.45 2.39
-7.02 1.31 2.39
-7.06 1.18 2.39
-7.10 1.04 2.39
-7.13 0.90 2.39
-7.16 0.75 2.39
-7.19 0.61 2.39
-7.22 0.47 2.39
-7.24 0.32 2.39
-7.26 0.18 2.39
-7.28 0.03 2.39
-7.30 -0.11 2.39
-7.31 -0.26 2.39
-7.32 -0.41 2.39
-7.33 -0.55 2.39
-7.33 -0.70 2.39
-7.33 -0.85 2.39
-7.33 -1.00 2.39
-7.32 -1.15 2.39
-7.31 -1.30 2.39
-7.30 -1.45 2.39
-7.28 -1.60 2.39
-7.27 -1.74 2.39
-7.24 -1.89 2.39
-7.22 -2.04 2.39
-7.19 -2.19 2.39
-7.16 -2.34 2.39
-7.13 -2.49 2.39
-7.09 -2.63 2.39
-7.05 -2.78 2.39
-7.01 -2.93 2.39
-6.96 -3.07 2.39
-6.91 -3.22 2.39
-6.86 -3.36 2.39
-6.81 -3.50 2.39
-6.75 -3.64 2.39
-6.69 -3.79 2.39
-6.62 -3.93 2.39
-6.55 -4.06 2.39
-6.48 -4.20 2.39
-6.41 -4.34 2.39
-6.33 -4.47 2.39
-6.25 -4.60 2.39
-6.17 -4.74 2.39
-6.08 -4.87 2.39
-5.99 -4.99 2.39
-5.90 -5.12 2.39
-5.86 -5.29 2.41
-5.85 -5.50 2.45
-5.85 -5.72 2.49
-5.75 -5.85 2.50
-5.64 -5.97 2.50
-5.53 -6.09 2.50
-5.41 -6.21 2.50
-5.29 -6.32 2.50
-5.17 -6.43 2.50
-5.05 -6.54 2.50
-4.92 -6.65 2.50
-4.80 -6.76 2.50
-4.67 -6.86 2.50
-4.53 -6.96 2.50
-4.40 -7.05 2.50
-4.26 -7.15 2.50
-4.12 -7.24 2.50
-3.98 -7.32 2.50
-3.84 -7.41 2.50
-3.69 -7.49 2.50
-3.55 -7.57 2.50
-3.40 -7.64 2.50
-3.25 -7.71 2.50
-3.10 -7.78 2.50
-2.94 -7.84 2.50
-2.79 -7.91 2.50
-2.63 -7.96 2.50
-2.47 -8.02 2.50
-2.32 -8.07 2.50
-2.16 -8.12 2.50
-1.99 -8.16 2.50
-1.83 -8.20 2.50
-1.67 -8.24 2.50
-1.51 -8.27 2.50
-1.34 -8.30 2.50
-1.18 -8.32 2.50
-1.01 -8.35 2.50
-0.84 -8.36 2.50
-0.68 -8.38 2.50
-0.51 -8.39 2.50
-0.34 -8.40 2.50
-0.18 -8.40 2.50
-0.01 -7.76 2.50
0.14 -7.75 2.50
0.30 -7.75 2.50
0.45 -7.74 2.50
0.60 -7.72 2.50
0.76 -7.71 2.50
0.91 -7.69 2.50
1.06 -7.66 2.50
1.21 -7.63 2.50
1.36 -7.60 2.50
1.51 -7.57 2.50
1.66 -7.53 2.50
1.81 -7.49 2.50
1.96 -7.45 2.50
2.10 -7.40 2.50
2.19 -7.17 2.43
2.29 -7.00 2.39
2.43 -6.95 2.39
2.56 -6.89 2.39
2.70 -6.83 2.39
2.83 -6.77 2.39
2.96 -6.70 2.39
3.09 -6.64 2.39
3.22 -6.57 2.39
3.34 -6.49 2.39
3.47 -6.42 2.39
3.59 -6.34 2.39
3.71 -6.26 2.39
3.83 -6.18 2.39
3.95 -6.09 2.39
4.06 -6.00 2.39
4.17 -5.91 2.39
4.28 -5.82 2.39
4.39 -5.72 2.39
4.50 -5.63 2.39
4.60 -5.53 2.39
4.70 -5.43 2.39
4.80 -5.32 2.39
4.90 -5.22 2.39
5.00 -5.11 2.39
5.09 -5.00 2.39
5.18 -4.89 2.39
5.26 -4.78 2.39
5.35 -4.66 2.39
5.43 -4.55 2.39
5.51 -4.43 2.39
5.59 -4.31 2.39
5.66 -4.19 2.39
5.74 -4.07 2.39
5.80 -3.95 2.39
5.87 -3.82 2.39
5.93 -3.70 2.39
6.00 -3.57 2.39
6.05 -3.45 2.39
6.11 -3.32 2.39
5.90 -2.48 2.22
5.86 -2.32 2.20
5.86 -2.19 2.18
5.85 -2.05 2.17
5.85 -1.92 2.16
3.98 -1.22 1.46
3.95 -1.13 1.45
3.93 -1.04 1.43
3.94 -0.95 1.43
3.96 -0.87 1.43
4.00 -0.80 1.45
4.07 -0.73 1.47
4.21 -0.67 1.52
5.89 -0.81 2.12
5.89 -0.69 2.12
5.88 -0.57 2.12
5.88 -0.45 2.12
5.88 -0.33 2.12
5.88 -0.22 2.12
5.87 -0.10 2.12
5.86 0.02 2.12
5.85 0.14 2.12
5.85 0.26 2.13
5.84 0.37 2.13
5.83 0.49 2.14
5.82 0.61 2.14
5.81 0.72 2.15
5.80 0.84 2.15
5.80 0.96 2.16
5.80 1.08 2.17
5.80 1.20 2.19
5.79 1.32 2.20
6.02 2.17 2.39
5.97 2.29 2.39
5.91 2.40 2.39
5.85 2.52 2.39
5.79 2.63 2.39
5.72 2.74 2.39
5.66 2.85 2.39
5.59 2.96 2.39
5.52 3.07 2.39
5.45 3.17 2.39
5.37 3.28 2.39
5.30 3.38 2.39
5.22 3.48 2.39
5.14 3.58 2.39
5.06 3.68 2.39
4.98 3.78 2.39
4.89 3.87 2.39
4.81 3.96 2.39
4.72 4.05 2.39
4.63 4.14 2.39
4.54 4.23 2.39
2.68 2.60 1.44
2.63 2.66 1.45
4.26 4.48 2.39
4.16 4.56 2.39
4.07 4.64 2.39
3.97 4.72 2.39
3.87 4.79 2.39
3.77 4.86 2.39
3.66 4.94 2.39
3.56 5.00 2.39
3.45 5.07 2.39
3.35 5.13 2.39
3.24 5.20 2.39
3.13 5.26 2.39
3.02 5.32 2.39
2.91 5.37 2.39
2.80 5.43 2.39
2.69 5.48 2.39
2.57 5.53 2.39
2.46 5.58 2.39
2.34 5.62 2.39
2.23 5.67 2.39
2.11 5.71 2.39
1.99 5.75 2.39
1.96 6.03 2.50
1.83 6.07 2.50
1.71 6.10 2.50
1.58 6.13 2.50
1.46 6.16 2.50
1.33 6.19 2.50
1.21 6.22 2.50
1.08 6.24 2.50
0.95 6.26 2.50
0.83 6.28 2.50
0.70 6.29 2.50
0.57 6.30 2.50
0.44 6.32 2.50
0.31 6.32 2.50
0.18 6.33 2.50
0.06 6.33 2.50
-0.07 6.33 2.50
-0.20 6.33 2.50
-0.33 6.33 2.50
-0.46 6.32 2.50
-0.59 6.32 2.50
-0.72 6.31 2.50
-0.84 6.29 2.50
-0.97 6.28 2.50
-1.10 6.26 2.50
-1.23 6.24 2.50
-1.35 6.22 2.50
-1.48 6.19 2.50
-1.61 6.16 2.50
-1.73 6.13 2.50
-1.86 6.10 2.50
-1.98 6.07 2.50
-2.11 6.03 2.50
-2.23 5.99 2.50
-2.36 5.95 2.50
-2.48 5.91 2.50
-2.60 5.86 2.50
-2.72 5.81 2.50
-2.84 5.76 2.50
-2.96 5.71 2.50
-3.08 5.66 2.50
-3.20 5.60 2.50
-3.31 5.54 2.50
-3.43 5.48 2.50
-3.54 5.41 2.50
-3.66 5.35 2.50
-3.77 5.28 2.50
-3.88 5.21 2.50
-3.99 5.13 2.50
-4.10 5.06 2.50
-4.21 4.98 2.50
-4.31 4.90 2.50
-4.42 4.82 2.50
-4.52 4.74 2.50
-4.62 4.65 2.50
-4.72 4.57 2.50
-4.82 4.48 2.50
-4.92 4.39 2.50
-5.02 4.29 2.50
-5.11 4.20 2.50
-5.20 4.10 2.50
-5.29 4.00 2.50
-5.38 3.90 2.50
-5.47 3.80 2.50
-5.55 3.69 2.50
-5.64 3.59 2.50
-5.72 3.48 2.50
-5.80 3.37 2.50
-5.87 3.26 2.50
-5.95 3.14 2.50
-6.02 3.03 2.50
-6.02 2.87 2.46
-6.02 2.73 2.44
-6.02 2.58 2.41
-6.03 2.45 2.39
-6.09 2.33 2.39
-6.15 2.21 2.39
-6.21 2.09 2.39
-6.26 1.97 2.39
-6.31 1.85 2.39
-6.36 1.72 2.39
-6.41 1.60 2.39
-6.45 1.47 2.39
-6.49 1.35 2.39
-6.53 1.22 2.39
-6.57 1.09 2.39
-6.60 0.96 2.39
-6.63 0.83 2.39
-6.66 0.69 2.39
-6.69 0.56 2.39
-6.71 0.43 2.39
-6.73 0.29 2.39
-6.75 0.16 2.39
-6.77 0.03 2.39
-6.78 -0.11 2.39
-6.79 -0.25 2.39
-6.80 -0.38 2.39
-6.80 -0.52 2.39
-6.80 -0.66 2.39
-6.80 -0.80 2.39
-6.80 -0.93 2.39
-6.79 -1.07 2.39
-6.78 -1.21 2.39
-6.77 -1.35 2.39
-6.76 -1.49 2.39
-6.74 -1.62 2.39
-6.72 -1.76 2.39
-6.69 -1.90 2.39
-6.67 -2.04 2.39
-6.64 -2.17 2.39
-6.61 -2.31 2.39
-6.57 -2.45 2.39
-6.53 -2.58 2.39
-6.49 -2.72 2.39
-6.45 -2.85 2.39
-6.40 -2.98 2.39
-6.35 -3.12 2.39
-6.30 -3.25 2.39
-6.25 -3.38 2.39
-6.19 -3.51 2.39
-6.13 -3.64 2.39
-6.06 -3.77 2.39
-6.00 -3.89 2.39
-5.93 -4.02 2.39
-5.90 -4.17 2.41
-5.89 -4.34 2.44
-5.88 -4.52 2.47
-5.87 -4.70 2.50
-5.78 -4.82 2.50
-5.69 -4.94 2.50
-5.60 -5.06 2.50
-5.51 -5.18 2.50
-5.41 -5.30 2.50
-5.31 -5.41 2.50
-5.21 -5.52 2.50
-5.11 -5.63 2.50
-5.00 -5.74 2.50
-4.89 -5.85 2.50
-4.78 -5.95 2.50
-4.66 -6.05 2.50
-4.55 -6.15 2.50
-4.43 -6.24 2.50
-4.31 -6.34 2.50
-4.19 -6.43 2.50
-4.06 -6.52 2.50
-3.94 -6.60 2.50
-3.81 -6.69 2.50
-3.68 -6.77 2.50
-3.54 -6.84 2.50
