ply
format ascii 1.0
element vertex 2785
property float32 x
property float32 y
property float32 z
end_header
-15.75 38.16 0.45
-16.11 36.91 0.43
-16.33 35.45 0.41
-16.37 33.73 0.38
-16.30 31.95 0.36
-16.47 30.74 0.34
-16.31 29.02 0.32
-16.31 27.71 0.30
-16.38 26.59 0.28
-16.38 25.43 0.26
-16.34 24.28 0.25
-16.10 22.92 0.23
-16.08 21.94 0.22
-14.56 19.05 0.19
-14.51 18.22 0.17
-14.48 17.45 0.16
-14.47 16.75 0.15
-14.46 16.07 0.15
-14.72 15.71 0.14
-15.18 15.57 0.13
-15.66 15.42 0.13
-16.06 15.19 0.13
-16.04 14.58 0.12
-16.02 13.98 0.11
-15.96 13.38 0.10
-15.92 12.81 0.10
-15.91 12.28 0.09
-15.89 11.77 0.08
-15.03 10.67 0.07
-14.20 9.65 0.06
-14.12 9.19 0.06
-14.05 8.75 0.05
-13.98 8.32 0.05
-13.91 7.91 0.04
-13.87 7.52 0.04
-13.92 7.19 0.03
-14.01 6.89 0.03
-14.10 6.58 0.03
-14.68 6.50 0.02
-14.96 6.26 0.02
-14.95 5.91 0.01
-14.96 5.57 0.01
-15.05 5.26 0.01
-15.13 4.95 0.00
-15.19 4.63 -0.00
-15.19 4.30 -0.00
-15.18 3.97 -0.01
-15.18 3.65 -0.01
-15.25 3.34 -0.01
-15.36 3.05 -0.02
-15.39 2.73 -0.02
-15.38 2.41 -0.02
-15.38 2.10 -0.03
-15.37 1.78 -0.03
-15.38 1.47 -0.03
-15.49 1.17 -0.04
-15.51 0.86 -0.04
-15.50 0.55 -0.04
-15.49 0.23 -0.05
-15.48 -0.08 -0.05
-15.47 -0.39 -0.05
-15.47 -0.70 -0.05
-15.46 -1.01 -0.06
-15.45 -1.32 -0.06
-15.44 -1.63 -0.06
-15.43 -1.95 -0.07
-15.42 -2.26 -0.07
-15.41 -2.58 -0.07
-15.41 -2.89 -0.07
-15.40 -3.21 -0.08
-15.39 -3.54 -0.08
-15.38 -3.86 -0.08
-15.37 -4.19 -0.08
-15.36 -4.52 -0.09
-15.42 -4.87 -0.09
-15.41 -5.21 -0.09
-15.41 -5.56 -0.09
-15.40 -5.91 -0.10
-15.39 -6.26 -0.10
-15.39 -6.62 -0.10
-17.23 -7.83 -0.12
-17.22 -8.25 -0.12
-17.21 -8.67 -0.12
-17.00 -9.00 -0.12
-16.77 -9.31 -0.13
-16.53 -9.62 -0.13
-16.35 -9.95 -0.13
-16.34 -10.41 -0.13
-16.25 -10.81 -0.13
-15.96 -11.09 -0.13
-15.68 -11.36 -0.13
-15.41 -11.65 -0.13
-15.32 -12.07 -0.14
-15.22 -12.50 -0.14
-15.04 -12.87 -0.14
-14.79 -13.18 -0.14
-14.54 -13.48 -0.14
-14.52 -14.01 -0.14
-14.53 -14.60 -0.15
-14.33 -15.00 -0.15
-14.08 -15.34 -0.15
-13.83 -15.68 -0.15
-13.57 -16.03 -0.15
-13.32 -16.38 -0.15
-13.16 -16.87 -0.15
-13.13 -17.55 -0.16
-13.10 -18.26 -0.16
-13.09 -19.05 -0.16
-14.42 -21.90 -0.18
-14.39 -22.85 -0.19
-14.62 -24.28 -0.19
-5.88 -10.23 -0.08
-15.33 -27.93 -0.22
-15.32 -29.30 -0.22
-15.02 -30.18 -0.22
-16.37 -34.62 -0.25
-16.46 -36.69 -0.26
-16.30 -38.38 -0.27
3.74 -30.98 0.62
10.78 -24.06 0.61
11.22 -23.76 0.62
12.49 -25.13 0.66
12.31 -23.57 0.64
12.24 -22.32 0.62
12.19 -21.21 0.60
12.19 -20.26 0.58
12.21 -19.40 0.57
12.28 -18.68 0.56
12.36 -18.00 0.55
12.39 -17.28 0.55
12.47 -16.68 0.54
12.66 -16.25 0.54
12.85 -15.82 0.54
13.00 -15.36 0.54
13.30 -15.09 0.54
13.50 -14.72 0.54
13.71 -14.35 0.54
13.81 -13.89 0.54
13.10 -12.66 0.51
13.13 -12.19 0.51
13.30 -11.86 0.51
13.68 -11.72 0.52
13.83 -11.37 0.52
14.13 -11.15 0.53
14.91 -11.28 0.55
15.19 -11.02 0.56
15.36 -10.68 0.56
15.52 -10.34 0.56
15.69 -10.00 0.57
15.07 -9.18 0.54
15.21 -8.86 0.55
15.73 -8.74 0.56
15.93 -8.44 0.57
16.26 -8.20 0.58
16.63 -7.97 0.59
17.00 -7.73 0.60
17.24 -7.43 0.61
17.33 -7.06 0.61
17.38 -6.68 0.61
17.43 -6.30 0.62
17.48 -5.92 0.62
18.10 -5.73 0.64
18.75 -5.52 0.66
19.18 -5.23 0.68
19.20 -4.83 0.68
19.23 -4.43 0.68
19.25 -4.02 0.68
19.34 -3.64 0.69
20.53 -3.44 0.73
21.27 -3.13 0.76
21.32 -2.70 0.77
21.38 -2.27 0.77
21.43 -1.84 0.78
22.79 -1.50 0.83
23.06 -1.05 0.84
23.07 -0.59 0.85
23.07 -0.12 0.85
23.07 0.34 0.85
23.30 0.81 0.87
23.61 1.30 0.88
23.65 1.78 0.89
23.72 2.26 0.90
23.83 2.76 0.91
24.13 3.28 0.93
24.54 3.84 0.95
24.82 4.40 0.97
24.98 4.95 0.98
25.16 5.51 1.00
25.45 6.11 1.02
26.51 6.93 1.07
26.79 7.58 1.09
26.95 8.21 1.11
27.14 8.87 1.12
27.27 9.52 1.14
27.20 10.12 1.15
27.11 10.71 1.16
26.94 11.27 1.16
26.74 11.82 1.17
26.54 12.38 1.17
26.34 12.94 1.18
26.03 13.44 1.18
25.77 13.97 1.18
25.55 14.52 1.19
25.32 15.07 1.19
25.15 15.66 1.20
25.05 16.31 1.21
24.91 16.93 1.22
24.76 17.57 1.24
24.62 18.23 1.25
24.49 18.90 1.26
24.34 19.58 1.28
24.16 20.25 1.29
23.98 20.93 1.30
23.60 21.45 1.30
23.23 21.98 1.31
22.89 22.55 1.32
22.56 23.13 1.32
22.19 23.69 1.33
21.81 24.23 1.34
21.63 25.03 1.35
21.43 25.83 1.37
21.16 26.57 1.39
20.88 27.33 1.41
20.59 28.11 1.42
20.36 28.99 1.45
20.17 29.98 1.47
19.96 30.99 1.50
19.76 32.08 1.53
19.48 33.09 1.56
19.03 33.87 1.58
18.54 34.62 1.59
18.05 35.39 1.61
17.94 36.99 1.66
17.65 38.32 1.70
17.36 39.78 1.75
16.80 40.71 1.77
16.07 41.28 1.77
15.50 42.30 1.80
14.94 43.47 1.83
14.43 44.88 1.87
14.23 47.51 1.96
2.09 10.81 0.43
4.01 26.46 1.04
3.51 26.76 1.04
3.64 32.90 1.27
2.88 31.83 1.22
2.63 37.45 1.43
2.46 49.26 1.87
-0.51 49.29 1.84
-1.50 49.24 1.83
-15.20 44.15 1.59
-14.26 38.88 1.40
-14.48 37.16 1.34
-14.77 35.76 1.29
-15.25 34.91 1.27
-15.43 33.48 1.22
-15.43 31.78 1.16
-15.72 30.79 1.12
-15.60 29.10 1.07
-15.55 27.66 1.02
-15.77 26.77 0.99
-15.78 25.60 0.95
-15.81 24.53 0.91
-15.57 23.12 0.86
-15.38 21.88 0.82
-14.06 19.18 0.73
-14.03 18.35 0.70
-14.01 17.58 0.67
-14.01 16.87 0.65
-14.01 16.20 0.63
-14.01 15.56 0.61
-14.35 15.30 0.61
-14.80 15.17 0.61
-15.27 15.03 0.61
-15.63 14.78 0.61
-15.62 14.19 0.59
-15.60 13.61 0.57
-15.51 12.99 0.56
-15.48 12.44 0.54
-15.47 11.93 0.53
-14.95 11.06 0.50
-14.06 9.97 0.46
-13.85 9.42 0.44
-13.80 8.98 0.43
-13.73 8.55 0.42
-13.67 8.13 0.40
-13.61 7.73 0.39
-13.59 7.36 0.39
-13.62 7.03 0.38
-13.70 6.73 0.37
-13.79 6.43 0.37
-13.88 6.14 0.36
-13.96 5.84 0.36
-14.03 5.54 0.35
-14.07 5.23 0.35
-14.15 4.94 0.34
-14.23 4.65 0.34
-14.31 4.36 0.34
-14.39 4.07 0.33
-14.41 3.77 0.33
-14.45 3.47 0.32
-14.55 3.19 0.32
-14.65 2.90 0.32
-14.75 2.61 0.32
-14.82 2.32 0.31
-14.81 2.02 0.31
-14.81 1.71 0.31
-14.85 1.42 0.30
-14.96 1.12 0.30
-15.06 0.83 0.30
-15.10 0.53 0.30
-15.09 0.22 0.30
-15.08 -0.08 0.29
-15.07 -0.38 0.29
-15.06 -0.68 0.29
-15.05 -0.99 0.28
-15.04 -1.29 0.28
-15.03 -1.59 0.28
-15.02 -1.90 0.28
-15.01 -2.20 0.28
-15.00 -2.51 0.27
-15.00 -2.82 0.27
-15.00 -3.13 0.27
-15.00 -3.45 0.27
-14.99 -3.76 0.27
-14.97 -4.08 0.27
-14.96 -4.40 0.27
-14.99 -4.74 0.27
-15.06 -5.10 0.27
-15.07 -5.44 0.27
-15.06 -5.78 0.27
-15.05 -6.13 0.27
-15.05 -6.48 0.27
-15.07 -6.85 0.27
-15.42 -7.39 0.28
-16.63 -8.38 0.30
-16.56 -8.77 0.30
-16.33 -9.07 0.30
-16.11 -9.37 0.30
-15.88 -9.67 0.29
-15.66 -9.97 0.29
-15.45 -10.28 0.29
-15.27 -10.61 0.29
-15.17 -11.00 0.29
-15.07 -11.40 0.29
-14.98 -11.80 0.30
-14.88 -12.22 0.30
-14.78 -12.64 0.30
-14.55 -12.96 0.30
-14.30 -13.26 0.30
-14.05 -13.57 0.30
-13.80 -13.87 0.30
-13.55 -14.18 0.30
-13.30 -14.48 0.30
-13.12 -14.88 0.31
-13.03 -15.39 0.31
-12.93 -15.91 0.32
-12.83 -16.45 0.32
-12.76 -17.05 0.33
-12.72 -17.73 0.34
-12.68 -18.44 0.35
-12.61 -19.16 0.36
-12.66 -20.10 0.37
-12.70 -21.09 0.39
-5.88 -10.23 0.19
-13.42 -24.46 0.44
-13.89 -26.56 0.47
-14.00 -28.12 0.50
-13.94 -29.48 0.52
-13.82 -30.81 0.54
-13.85 -32.60 0.57
-14.06 -35.04 0.61
-14.19 -37.53 0.66
0.94 -48.07 2.00
1.91 -48.11 2.01
3.73 -30.99 1.33
7.88 -43.25 1.89
7.46 -36.76 1.62
13.31 -29.74 1.49
11.00 -23.31 1.19
11.52 -23.19 1.20
11.90 -22.80 1.20
11.84 -21.62 1.15
11.88 -20.68 1.12
11.88 -19.76 1.09
11.97 -19.02 1.07
12.05 -18.33 1.05
12.12 -17.65 1.03
12.12 -16.92 1.00
12.24 -16.38 0.99
12.43 -15.96 0.99
12.56 -15.47 0.98
12.69 -15.01 0.97
13.07 -14.84 0.98
13.32 -14.53 0.98
13.52 -14.17 0.98
13.62 -13.71 0.97
13.31 -12.86 0.94
13.42 -12.46 0.93
13.33 -11.89 0.91
13.69 -11.72 0.92
13.94 -11.46 0.93
14.40 -11.37 0.95
14.50 -10.98 0.95
15.05 -10.93 0.97
14.76 -10.27 0.95
15.39 -10.25 0.98
15.04 -9.60 0.95
14.98 -9.14 0.94
15.10 -8.80 0.94
15.64 -8.70 0.96
15.75 -8.35 0.96
16.00 -8.08 0.97
16.37 -7.85 0.99
16.74 -7.62 1.01
17.05 -7.35 1.02
17.11 -6.97 1.02
17.16 -6.60 1.02
17.21 -6.22 1.02
17.26 -5.85 1.02
17.67 -5.60 1.04
18.30 -5.40 1.08
18.73 -5.11 1.10
18.80 -4.73 1.10
18.87 -4.35 1.11
18.89 -3.96 1.11
18.91 -3.56 1.11
19.38 -3.25 1.14
19.70 -2.90 1.16
19.82 -2.51 1.16
20.02 -2.13 1.18
20.34 -1.75 1.20
20.66 -1.36 1.22
20.90 -0.96 1.24
21.01 -0.54 1.25
21.13 -0.12 1.26
21.23 0.31 1.27
21.41 0.74 1.28
22.36 1.22 1.34
22.48 1.68 1.36
22.52 2.14 1.36
22.57 2.60 1.37
22.67 3.08 1.39
23.22 3.63 1.43
23.72 4.20 1.47
24.04 4.75 1.50
24.36 5.33 1.53
24.78 5.95 1.57
25.06 6.55 1.59
25.94 7.34 1.66
26.53 8.08 1.71
26.69 8.72 1.74
26.84 9.37 1.77
26.78 9.96 1.78
26.71 10.55 1.79
26.63 11.14 1.80
26.44 11.69 1.81
26.16 12.20 1.81
25.82 12.68 1.80
25.49 13.16 1.80
25.21 13.66 1.80
24.93 14.17 1.81
24.66 14.67 1.81
24.40 15.19 1.81
24.28 15.80 1.83
24.17 16.43 1.85
24.00 17.03 1.86
23.72 17.55 1.87
23.36 18.02 1.87
23.04 18.53 1.87
22.72 19.04 1.88
22.37 19.53 1.88
22.00 20.00 1.89
21.79 20.62 1.91
21.59 21.26 1.93
21.40 21.95 1.95
21.20 22.63 1.97
21.00 23.34 1.99
20.85 24.13 2.03
20.67 24.91 2.06
20.49 25.73 2.09
20.31 26.59 2.12
20.04 27.36 2.15
19.74 28.12 2.18
19.32 28.72 2.19
18.80 29.20 2.20
18.28 29.69 2.21
17.77 30.20 2.22
17.24 30.69 2.22
16.69 31.16 2.23
16.16 31.70 2.24
15.64 32.26 2.26
15.11 32.83 2.27
14.58 33.43 2.29
14.05 34.07 2.31
13.51 34.72 2.33
12.95 35.35 2.35
12.39 36.05 2.38
11.85 36.88 2.41
5.26 17.57 1.14
4.91 17.71 1.14
5.25 20.51 1.31
4.82 20.55 1.30
4.41 20.64 1.30
2.08 10.82 0.68
3.99 23.19 1.45
3.54 23.38 1.45
3.55 27.10 1.67
3.40 30.79 1.89
2.84 31.50 1.92
2.56 36.54 2.22
1.86 37.34 2.26
1.18 39.63 2.39
0.40 41.47 2.50
-0.44 41.60 2.50
-1.28 41.70 2.50
-2.12 41.80 2.50
-2.97 41.88 2.50
-3.82 41.95 2.50
-4.68 42.00 2.50
-5.54 42.04 2.50
-6.40 42.06 2.50
-7.27 42.07 2.50
-7.81 40.33 2.39
-8.65 40.31 2.39
-9.49 40.27 2.39
-10.33 40.22 2.39
-11.18 40.16 2.39
-12.14 40.43 2.41
-12.64 39.23 2.35
-13.00 37.74 2.26
-13.36 36.38 2.19
-13.52 34.67 2.09
-13.86 33.52 2.03
-13.90 31.79 1.94
-14.21 30.81 1.88
-14.76 30.39 1.87
-14.71 28.80 1.78
-14.68 27.37 1.70
-15.04 26.73 1.67
-15.19 25.77 1.63
-15.25 24.73 1.57
-15.17 23.53 1.51
-14.47 21.48 1.39
-13.56 19.28 1.26
-13.55 18.47 1.22
-13.54 17.70 1.18
-13.55 17.00 1.14
-13.56 16.33 1.11
-13.58 15.69 1.08
-13.59 15.08 1.05
-13.97 14.90 1.05
-14.44 14.79 1.06
-14.89 14.65 1.07
-15.23 14.39 1.06
-15.23 13.83 1.04
-15.16 13.22 1.01
-15.08 12.63 0.98
-15.05 12.10 0.96
-14.86 11.45 0.93
-13.99 10.35 0.86
-13.53 9.59 0.81
-13.53 9.19 0.80
-13.48 8.77 0.78
-13.43 8.35 0.76
-13.37 7.95 0.75
-13.33 7.57 0.73
-13.32 7.21 0.72
-13.32 6.87 0.71
-13.41 6.58 0.70
-13.49 6.29 0.70
-13.58 6.00 0.69
-13.67 5.71 0.68
-13.68 5.40 0.68
-13.70 5.09 0.67
-13.73 4.79 0.66
-13.76 4.49 0.66
-13.78 4.20 0.65
-13.81 3.90 0.64
-13.84 3.61 0.64
-13.87 3.33 0.63
-13.93 3.05 0.63
-14.00 2.77 0.63
-14.10 2.49 0.63
-14.19 2.22 0.62
-14.28 1.94 0.62
-14.29 1.65 0.62
-14.35 1.37 0.62
-14.45 1.08 0.62
-14.55 0.80 0.62
-14.66 0.51 0.62
-14.70 0.22 0.62
-14.70 -0.08 0.62
-14.69 -0.37 0.61
-14.68 -0.67 0.61
-14.67 -0.96 0.61
-14.66 -1.26 0.61
-14.65 -1.55 0.60
-14.64 -1.85 0.60
-14.63 -2.15 0.60
-14.62 -2.45 0.60
-14.61 -2.75 0.60
-14.61 -3.05 0.60
-14.61 -3.36 0.60
-14.61 -3.67 0.60
-14.60 -3.98 0.60
-14.58 -4.29 0.60
-14.58 -4.61 0.60
-14.65 -4.96 0.61
-14.71 -5.31 0.61
-14.74 -5.66 0.62
-14.73 -6.00 0.62
-14.72 -6.34 0.62
-14.72 -6.69 0.63
-14.77 -7.08 0.63
-14.98 -7.55 0.65
-16.06 -8.50 0.70
-15.92 -8.84 0.70
-15.70 -9.14 0.70
-15.49 -9.44 0.70
-15.32 -9.76 0.70
-15.15 -10.09 0.70
-14.98 -10.41 0.70
-14.83 -10.75 0.70
-14.74 -11.15 0.70
-14.65 -11.55 0.71
-14.55 -11.95 0.72
-14.45 -12.36 0.72
-14.31 -12.75 0.73
-14.07 -13.05 0.73
-13.82 -13.35 0.73
-13.58 -13.65 0.73
-13.33 -13.95 0.73
-13.08 -14.25 0.73
-12.83 -14.55 0.74
-12.72 -15.02 0.75
-12.64 -15.54 0.76
-12.53 -16.06 0.77
-12.42 -16.60 0.79
-12.36 -17.23 0.81
-12.31 -17.90 0.83
-12.26 -18.62 0.85
-12.18 -19.32 0.87
-12.16 -20.19 0.90
-5.89 -10.23 0.45
-12.19 -22.21 0.97
-12.20 -23.31 1.01
-12.44 -24.98 1.07
-13.08 -27.64 1.18
-13.11 -29.22 1.24
-13.00 -30.61 1.29
-12.93 -32.21 1.35
-13.00 -34.38 1.43
-13.13 -36.93 1.53
-13.11 -39.37 1.62
-12.63 -40.63 1.67
-11.73 -40.59 1.66
-10.84 -40.53 1.65
-9.97 -40.54 1.65
-9.15 -40.69 1.65
-8.32 -40.80 1.66
-8.17 -44.62 1.81
-7.99 -49.19 2.00
-4.43 -43.77 1.78
-0.02 -39.02 2.50
0.76 -38.90 2.50
1.53 -38.77 2.50
2.30 -38.62 2.50
3.07 -38.45 2.50
3.69 -36.90 2.41
3.72 -30.96 2.03
5.11 -36.29 2.39
5.82 -36.07 2.39
6.52 -35.83 2.39
7.21 -35.58 2.39
7.16 -32.00 2.17
7.04 -28.75 1.96
6.95 -26.11 1.80
6.86 -23.84 1.66
7.30 -23.58 1.65
7.77 -23.43 1.66
7.84 -22.13 1.58
7.73 -20.52 1.48
8.13 -20.33 1.49
8.50 -20.06 1.48
10.62 -23.74 1.78
10.97 -23.27 1.76
11.46 -23.07 1.77
11.52 -22.08 1.72
11.54 -21.08 1.67
11.59 -20.19 1.62
11.64 -19.37 1.58
11.73 -18.66 1.54
11.82 -17.99 1.51
11.86 -17.28 1.48
11.87 -16.58 1.44
12.01 -16.09 1.43
12.19 -15.66 1.42
12.22 -15.06 1.39
12.40 -14.68 1.38
12.77 -14.51 1.39
13.13 -14.33 1.41
13.35 -13.99 1.40
13.44 -13.54 1.39
13.51 -13.07 1.37
13.44 -12.49 1.35
13.64 -12.17 1.35
13.87 -11.89 1.35
14.12 -11.62 1.36
14.18 -11.20 1.34
14.18 -10.74 1.33
14.22 -10.33 1.32
14.26 -9.93 1.31
14.62 -9.75 1.33
15.41 -9.84 1.38
15.48 -9.45 1.38
15.43 -9.00 1.36
15.59 -8.67 1.36
15.58 -8.26 1.35
15.75 -7.96 1.36
16.11 -7.73 1.38
16.48 -7.51 1.40
16.69 -7.20 1.41
16.82 -6.86 1.42
16.94 -6.52 1.42
16.99 -6.15 1.42
17.04 -5.78 1.42
17.27 -5.48 1.43
17.77 -5.24 1.47
17.90 -4.90 1.47
18.04 -4.54 1.48
18.11 -4.18 1.48
18.18 -3.81 1.49
18.25 -3.44 1.49
18.38 -3.09 1.50
18.48 -2.72 1.51
18.49 -2.35 1.51
18.51 -1.97 1.51
18.52 -1.60 1.51
18.53 -1.23 1.51
18.78 -0.86 1.54
19.87 -0.51 1.63
20.05 -0.12 1.65
20.06 0.29 1.65
20.07 0.69 1.66
20.16 1.10 1.67
20.37 1.52 1.69
20.62 1.96 1.72
21.32 2.46 1.78
21.36 2.90 1.80
21.82 3.41 1.84
22.36 3.95 1.90
22.90 4.52 1.96
23.24 5.08 2.00
23.54 5.64 2.04
24.11 6.29 2.10
24.68 6.97 2.16
25.05 7.63 2.21
25.23 8.24 2.25
26.15 9.13 2.35
26.23 9.75 2.37
26.09 10.30 2.38
25.94 10.84 2.39
25.78 11.39 2.40
25.61 11.94 2.41
25.31 12.42 2.41
24.99 12.90 2.40
24.68 13.37 2.40
24.41 13.87 2.40
24.11 14.34 2.40
23.74 14.78 2.40
23.38 15.21 2.39
23.10 15.70 2.40
22.82 16.19 2.40
22.55 16.69 2.41
22.31 17.22 2.42
21.99 17.68 2.43
21.70 18.18 2.44
21.41 18.68 2.45
21.12 19.19 2.46
21.01 19.87 2.49
20.85 20.54 2.52
20.65 21.17 2.55
20.46 21.84 2.58
20.27 22.52 2.61
20.06 23.22 2.64
19.89 23.98 2.68
19.68 24.72 2.72
19.33 25.31 2.74
19.06 26.01 2.78
18.72 26.66 2.80
18.36 27.30 2.83
17.86 27.74 2.84
17.35 28.18 2.84
16.84 28.62 2.85
16.32 29.07 2.86
15.80 29.51 2.87
15.26 29.93 2.88
14.71 30.34 2.89
14.15 30.74 2.89
9.29 21.31 1.99
8.45 20.50 1.89
8.05 20.69 1.89
7.47 20.41 1.85
5.53 16.09 1.45
5.14 16.02 1.43
4.77 15.95 1.41
4.47 16.12 1.42
4.21 16.45 1.44
4.44 18.93 1.64
4.20 19.68 1.70
2.08 10.82 0.93
3.55 20.69 1.77
3.47 22.98 1.95
3.56 27.26 2.30
3.14 28.43 2.39
2.57 28.54 2.39
2.00 28.64 2.39
1.43 28.74 2.39
0.87 29.49 2.45
0.28 30.14 2.50
-0.32 30.20 2.50
-0.93 30.25 2.50
-1.54 30.30 2.50
-2.16 30.33 2.50
-2.77 30.35 2.50
-3.39 30.36 2.50
-4.01 30.36 2.50
-4.63 30.35 2.50
-5.25 30.33 2.50
-5.87 30.29 2.50
-6.50 30.25 2.50
-7.12 30.19 2.50
-7.43 28.88 2.39
-8.03 28.80 2.39
-8.63 28.71 2.39
-9.23 28.62 2.39
-9.83 28.51 2.39
-10.43 28.38 2.39
-11.03 28.25 2.39
-11.72 28.34 2.41
-12.14 27.76 2.38
-12.59 27.27 2.35
-12.94 26.61 2.31
-13.27 25.95 2.26
-13.53 25.20 2.21
-13.86 24.62 2.18
-14.28 24.21 2.16
-13.45 21.79 1.96
-13.52 20.95 1.91
-13.06 19.37 1.78
-13.08 18.59 1.73
-13.08 17.82 1.67
-13.10 17.12 1.63
-13.12 16.45 1.58
-13.15 15.82 1.54
-13.17 15.21 1.50
-13.19 14.63 1.47
-13.62 14.51 1.48
-14.08 14.41 1.49
-14.53 14.29 1.50
-14.85 14.03 1.50
-14.82 13.44 1.46
-14.75 12.85 1.43
-14.68 12.28 1.39
-14.65 11.77 1.36
-13.92 10.72 1.27
-13.26 9.80 1.18
-13.21 9.36 1.16
-13.21 8.97 1.14
-13.19 8.57 1.12
-13.13 8.17 1.10
-13.08 7.77 1.07
-13.07 7.42 1.06
-13.06 7.07 1.04
-13.06 6.73 1.03
-13.12 6.43 1.02
-13.21 6.15 1.01
-13.29 5.87 1.00
-13.36 5.58 1.00
-13.35 5.27 0.98
-13.36 4.96 0.97
-13.39 4.67 0.97
-13.42 4.38 0.96
-13.44 4.09 0.95
-13.47 3.81 0.94
-13.49 3.52 0.94
-13.49 3.23 0.93
-13.54 2.96 0.92
-13.59 2.68 0.92
-13.65 2.41 0.92
-13.70 2.14 0.92
-13.76 1.87 0.91
-13.81 1.59 0.91
-13.89 1.32 0.91
-13.98 1.05 0.92
-14.08 0.77 0.92
-14.17 0.49 0.92
-14.27 0.21 0.92
-14.33 -0.08 0.92
-14.32 -0.37 0.92
-14.31 -0.66 0.92
-14.30 -0.94 0.92
-14.29 -1.23 0.91
-14.28 -1.52 0.91
-14.27 -1.81 0.91
-14.26 -2.10 0.91
-14.25 -2.39 0.91
-14.24 -2.68 0.91
-14.24 -2.98 0.91
-14.24 -3.28 0.92
-14.23 -3.58 0.92
-14.23 -3.88 0.92
-14.22 -4.19 0.92
-14.20 -4.50 0.93
-14.25 -4.83 0.93
-14.31 -5.17 0.94
-14.38 -5.52 0.95
-14.42 -5.87 0.96
-14.40 -6.21 0.97
-14.39 -6.54 0.97
-14.42 -6.91 0.98
-14.47 -7.29 0.99
-14.55 -7.71 1.01
-15.40 -8.56 1.08
-15.37 -8.95 1.09
-15.20 -9.26 1.09
-15.04 -9.58 1.09
-14.87 -9.90 1.09
-14.70 -10.22 1.09
-14.54 -10.54 1.09
-14.42 -10.90 1.10
-14.33 -11.30 1.11
-14.24 -11.69 1.12
-14.14 -12.09 1.13
-14.03 -12.50 1.14
-13.85 -12.84 1.14
-13.60 -13.13 1.14
-13.36 -13.43 1.15
-13.12 -13.72 1.15
-12.87 -14.02 1.15
-12.63 -14.32 1.15
-12.38 -14.62 1.16
-12.31 -15.15 1.18
-12.25 -15.70 1.21
-12.14 -16.21 1.23
-12.03 -16.76 1.25
-11.97 -17.40 1.28
-11.90 -18.08 1.31
-11.84 -18.79 1.35
-11.74 -19.49 1.38
-5.89 -10.23 0.72
-11.66 -21.23 1.47
-11.63 -22.23 1.53
-11.61 -23.32 1.59
-11.69 -24.71 1.67
-11.58 -25.81 1.73
-11.73 -27.60 1.84
-11.77 -29.32 1.94
-11.55 -30.53 2.01
-11.31 -31.80 2.08
-11.08 -33.26 2.16
-10.75 -34.57 2.24
-10.45 -36.14 2.33
-9.86 -36.87 2.37
-9.23 -37.50 2.40
-8.43 -37.49 2.39
-7.66 -37.57 2.39
-6.89 -37.63 2.39
-6.12 -37.68 2.39
-5.35 -37.71 2.39
-4.59 -37.71 2.39
-3.98 -39.33 2.50
-3.19 -39.31 2.50
-2.39 -39.26 2.50
-1.60 -39.20 2.50
-0.81 -39.12 2.50
-0.02 -28.81 2.50
0.55 -28.75 2.50
1.13 -28.67 2.50
1.70 -28.58 2.50
2.27 -28.48 2.50
2.83 -28.37 2.50
3.25 -27.07 2.39
3.78 -26.94 2.39
4.31 -26.80 2.39
4.84 -26.64 2.39
5.36 -26.48 2.39
5.88 -26.30 2.39
6.39 -26.12 2.39
6.89 -25.92 2.39
6.70 -23.29 2.17
7.12 -23.00 2.16
6.14 -18.52 1.75
5.55 -15.69 1.50
5.89 -15.63 1.51
6.27 -15.68 1.53
7.37 -17.41 1.72
8.41 -18.80 1.87
8.81 -18.69 1.89
9.28 -18.70 1.91
7.70 -14.77 1.53
7.90 -14.43 1.51
11.26 -19.64 2.09
11.41 -19.00 2.05
11.51 -18.32 2.01
9.19 -14.00 1.56
9.30 -13.56 1.53
9.50 -13.27 1.53
9.85 -13.19 1.54
11.86 -15.25 1.82
11.89 -14.67 1.78
12.12 -14.35 1.78
12.48 -14.19 1.79
12.83 -14.01 1.81
13.17 -13.81 1.82
13.27 -13.37 1.80
13.34 -12.91 1.78
13.41 -12.46 1.76
13.47 -12.03 1.74
13.70 -11.75 1.74
13.86 -11.41 1.74
13.87 -10.96 1.72
13.87 -10.52 1.69
14.17 -10.30 1.71
14.25 -9.93 1.70
14.46 -9.65 1.71
15.28 -9.76 1.78
15.42 -9.42 1.78
15.42 -9.00 1.77
15.41 -8.58 1.75
15.41 -8.18 1.73
15.51 -7.84 1.73
15.86 -7.62 1.76
16.20 -7.39 1.78
16.25 -7.02 1.78
16.32 -6.66 1.77
16.47 -6.34 1.78
16.61 -6.01 1.79
16.75 -5.69 1.79
16.88 -5.36 1.80
17.02 -5.03 1.81
17.15 -4.69 1.81
17.27 -4.36 1.82
17.40 -4.02 1.83
17.48 -3.67 1.83
17.55 -3.32 1.84
17.71 -2.98 1.85
17.89 -2.64 1.87
17.99 -2.29 1.88
18.00 -1.92 1.88
18.02 -1.56 1.88
18.03 -1.20 1.88
18.06 -0.83 1.89
18.21 -0.48 1.90
18.63 -0.11 1.95
19.35 0.27 2.03
19.36 0.66 2.04
19.45 1.06 2.05
19.61 1.46 2.07
19.78 1.87 2.10
20.01 2.30 2.13
20.25 2.74 2.17
20.32 3.17 2.18
21.02 3.71 2.27
21.53 4.25 2.34
22.03 4.81 2.41
22.20 5.32 2.44
22.76 5.94 2.52
23.05 6.51 2.56
23.69 7.21 2.65
23.62 7.71 2.67
23.94 8.35 2.72
24.53 9.11 2.81
24.64 9.72 2.85
24.67 10.31 2.88
24.69 10.91 2.91
24.53 11.43 2.92
24.36 11.95 2.93
24.05 12.41 2.93
23.69 12.83 2.92
23.35 13.26 2.91
23.19 13.79 2.92
23.01 14.32 2.94
22.70 14.77 2.94
22.35 15.19 2.93
22.04 15.64 2.94
21.66 16.03 2.93
21.27 16.41 2.92
20.88 16.79 2.92
20.50 17.17 2.91
20.36 17.76 2.94
20.21 18.36 2.97
20.06 18.97 3.01
19.79 19.49 3.03
19.39 19.88 3.03
18.99 20.27 3.03
18.58 20.65 3.03
18.16 21.02 3.03
17.74 21.38 3.03
17.31 21.74 3.03
16.87 22.08 3.03
16.43 22.42 3.03
4.61 6.56 0.87
4.48 6.66 0.87
4.34 6.75 0.87
14.59 23.71 3.03
14.12 24.01 3.03
13.64 24.30 3.03
13.16 24.58 3.03
12.67 24.86 3.03
12.18 25.13 3.03
11.68 25.38 3.03
11.18 25.63 3.03
8.41 20.39 2.38
6.11 15.71 1.82
5.40 14.76 1.70
4.76 13.86 1.58
4.86 15.14 1.71
4.68 15.65 1.76
4.36 15.72 1.75
4.16 16.26 1.80
3.90 16.62 1.83
4.18 19.61 2.15
2.08 10.82 1.18
3.53 20.60 2.23
3.20 21.22 2.29
2.91 22.27 2.39
2.46 22.36 2.39
2.02 22.44 2.39
1.57 22.51 2.39
1.13 22.91 2.43
0.69 23.60 2.50
0.22 23.65 2.50
-0.26 23.69 2.50
-0.73 23.72 2.50
-1.21 23.74 2.50
-1.69 23.75 2.50
-2.17 23.76 2.50
-2.66 23.75 2.50
-3.14 23.74 2.50
-3.62 23.72 2.50
-4.11 23.69 2.50
-4.59 23.65 2.50
-5.07 23.60 2.50
-5.56 23.54 2.50
-6.04 23.47 2.50
-6.53 23.40 2.50
-6.93 23.04 2.47
-7.18 22.26 2.39
-7.65 22.16 2.39
-8.11 22.05 2.39
-8.57 21.94 2.39
-9.03 21.81 2.39
-9.49 21.67 2.39
-9.95 21.53 2.39
-10.40 21.38 2.39
-10.85 21.22 2.39
-11.52 21.44 2.44
-11.80 20.94 2.40
-12.04 20.40 2.36
-12.27 19.88 2.32
-12.52 19.40 2.29
-12.60 18.68 2.23
-12.63 17.94 2.16
-12.66 17.24 2.10
-12.69 16.57 2.05
-12.72 15.94 2.00
-12.75 15.33 1.95
-12.78 14.76 1.90
-12.85 14.25 1.86
-13.28 14.14 1.88
-13.72 14.04 1.90
-14.17 13.93 1.91
-14.47 13.66 1.91
-14.41 13.07 1.86
-14.35 12.50 1.82
-14.22 11.89 1.77
-13.84 11.11 1.69
-13.18 10.15 1.58
-12.90 9.53 1.52
-12.91 9.14 1.49
-12.91 8.76 1.47
-12.90 8.38 1.44
-12.85 7.99 1.41
-12.82 7.61 1.39
-12.82 7.27 1.37
-12.82 6.93 1.35
-12.81 6.60 1.33
-12.85 6.30 1.32
-12.94 6.02 1.31
-13.02 5.74 1.31
-13.04 5.44 1.29
-13.04 5.14 1.28
-13.04 4.84 1.27
-13.06 4.55 1.26
-13.09 4.27 1.25
-13.12 3.99 1.24
-13.15 3.71 1.23
-13.16 3.43 1.22
-13.16 3.15 1.21
-13.17 2.87 1.20
-13.22 2.61 1.20
-13.27 2.34 1.20
-13.32 2.08 1.20
-13.38 1.81 1.20
-13.42 1.54 1.19
-13.42 1.27 1.19
-13.47 1.00 1.19
-13.58 0.74 1.19
-13.69 0.47 1.20
-13.80 0.20 1.21
-13.90 -0.08 1.21
-13.98 -0.36 1.22
-13.97 -0.64 1.21
-13.96 -0.92 1.21
-13.95 -1.20 1.21
-13.94 -1.48 1.21
-13.92 -1.77 1.21
-13.91 -2.05 1.21
-13.90 -2.33 1.21
-13.89 -2.62 1.21
-13.89 -2.91 1.21
-13.88 -3.20 1.22
-13.88 -3.49 1.22
-13.87 -3.79 1.22
-13.87 -4.09 1.23
-13.86 -4.39 1.23
-13.88 -4.70 1.24
-13.93 -5.04 1.25
-13.99 -5.37 1.26
-14.05 -5.72 1.28
-14.10 -6.08 1.29
-14.09 -6.41 1.30
-14.10 -6.76 1.31
-14.13 -7.13 1.33
-14.17 -7.51 1.34
-14.21 -7.89 1.36
-14.87 -8.66 1.44
-14.83 -9.04 1.45
-14.76 -9.41 1.46
-14.60 -9.72 1.46
-14.44 -10.03 1.47
-14.27 -10.35 1.47
-14.11 -10.67 1.47
-14.02 -11.05 1.49
-13.92 -11.44 1.50
-13.83 -11.83 1.51
-13.73 -12.23 1.53
-13.62 -12.63 1.54
-13.39 -12.93 1.55
-13.15 -13.22 1.55
-12.91 -13.51 1.55
-12.67 -13.80 1.56
-12.43 -14.09 1.56
-12.18 -14.39 1.57
-11.98 -14.73 1.58
-11.91 -15.27 1.61
-11.85 -15.83 1.64
-11.74 -16.36 1.68
-11.65 -16.94 1.71
-11.58 -17.58 1.75
-11.50 -18.25 1.80
-11.42 -18.95 1.84
-5.89 -10.23 0.98
-11.20 -20.39 1.94
-11.15 -21.30 2.01
-11.10 -22.28 2.08
-11.04 -23.33 2.16
-10.97 -24.43 2.24
-10.86 -25.55 2.33
-10.56 -26.29 2.38
-10.12 -26.75 2.41
-9.67 -27.19 2.43
-8.97 -26.92 2.39
-8.42 -27.06 2.39
-7.86 -27.19 2.39
-7.31 -27.30 2.39
-6.75 -27.40 2.39
-6.19 -27.49 2.39
-5.63 -27.56 2.39
-5.07 -27.63 2.39
-4.70 -28.87 2.50
-4.11 -28.91 2.50
-3.52 -28.93 2.50
-2.94 -28.95 2.50
-2.35 -28.94 2.50
-1.77 -28.93 2.50
-1.18 -28.90 2.50
-0.60 -28.87 2.50
-0.02 -22.82 2.50
0.43 -22.78 2.50
0.89 -22.73 2.50
1.34 -22.67 2.50
1.79 -22.60 2.50
2.24 -22.52 2.50
2.69 -22.43 2.50
3.00 -21.40 2.39
3.42 -21.30 2.39
3.84 -21.19 2.39
4.26 -21.07 2.39
4.67 -20.94 2.39
5.08 -20.80 2.39
5.49 -20.65 2.39
5.41 -18.83 2.20
4.78 -15.45 1.82
4.93 -14.89 1.77
5.21 -14.74 1.76
5.50 -14.60 1.76
5.81 -14.53 1.77
6.40 -15.12 1.86
7.77 -17.38 2.17
6.41 -13.62 1.72
5.68 -11.46 1.46
5.99 -11.51 1.49
6.17 -11.29 1.48
6.55 -11.42 1.51
7.82 -13.03 1.75
8.07 -12.86 1.75
8.47 -12.92 1.79
8.75 -12.78 1.80
9.20 -12.87 1.84
6.44 -8.63 1.25
6.52 -8.39 1.24
11.59 -14.30 2.15
11.86 -14.05 2.16
12.20 -13.88 2.17
12.55 -13.71 2.19
12.76 -13.39 2.18
13.07 -13.18 2.20
13.17 -12.76 2.17
13.24 -12.32 2.15
13.31 -11.89 2.13
13.53 -11.61 2.13
13.56 -11.17 2.10
10.47 -8.28 1.60
13.58 -10.30 2.05
13.88 -10.10 2.07
14.39 -10.03 2.12
14.92 -9.96 2.17
15.15 -9.68 2.18
15.25 -9.32 2.17
15.25 -8.90 2.15
15.24 -8.49 2.13
15.24 -8.10 2.11
15.28 -7.73 2.10
15.62 -7.51 2.13
15.78 -7.20 2.13
15.83 -6.84 2.12
15.88 -6.49 2.12
15.99 -6.16 2.12
16.13 -5.85 2.13
16.26 -5.53 2.13
16.33 -5.19 2.13
16.34 -4.83 2.12
16.46 -4.51 2.13
16.57 -4.18 2.14
16.69 -3.86 2.15
16.80 -3.53 2.16
16.93 -3.20 2.17
17.09 -2.88 2.18
17.26 -2.55 2.20
17.42 -2.22 2.22
17.52 -1.88 2.23
17.54 -1.52 2.23
17.55 -1.17 2.23
17.58 -0.82 2.24
17.60 -0.46 2.24
17.68 -0.11 2.26
18.09 0.25 2.31
18.50 0.63 2.37
18.77 1.02 2.41
18.92 1.41 2.44
19.08 1.80 2.46
19.23 2.21 2.49
19.44 2.63 2.53
19.56 3.05 2.55
19.53 3.45 2.56
19.49 3.85 2.57
20.74 4.53 2.75
21.13 5.06 2.82
21.08 5.50 2.83
21.03 5.94 2.84
20.98 6.38 2.85
22.09 7.21 3.03
21.92 7.64 3.03
21.75 8.08 3.03
21.56 8.50 3.03
21.37 8.93 3.03
21.17 9.35 3.03
20.96 9.76 3.03
20.74 10.18 3.03
20.52 10.58 3.03
20.29 10.99 3.03
20.05 11.39 3.03
19.81 11.78 3.03
19.56 12.17 3.03
19.30 12.55 3.03
19.03 12.93 3.03
18.76 13.31 3.03
18.48 13.68 3.03
18.20 14.04 3.03
17.91 14.40 3.03
17.61 14.75 3.03
17.31 15.10 3.03
17.00 15.44 3.03
16.68 15.78 3.03
16.36 16.11 3.03
16.03 16.43 3.03
15.70 16.75 3.03
13.09 14.55 2.58
12.78 14.79 2.58
14.66 17.67 3.03
14.30 17.97 3.03
13.94 18.25 3.03
4.67 6.38 1.04
4.50 6.41 1.03
4.34 6.45 1.02
4.22 6.56 1.03
4.12 6.69 1.03
4.78 8.13 1.24
4.54 8.08 1.22
4.38 8.18 1.22
4.26 8.36 1.23
4.21 8.68 1.27
4.14 9.00 1.30
5.44 12.49 1.78
5.03 12.22 1.73
4.86 12.51 1.76
4.82 13.17 1.83
4.56 13.28 1.83
4.35 13.55 1.86
4.58 15.31 2.08
4.31 15.56 2.10
4.06 15.88 2.13
3.76 16.07 2.15
3.49 16.36 2.17
2.07 10.79 1.43
3.12 18.19 2.39
2.75 18.27 2.39
2.39 18.34 2.39
2.02 18.41 2.39
1.66 18.47 2.39
1.30 18.72 2.42
0.95 19.37 2.50
0.57 19.41 2.50
0.18 19.44 2.50
-0.22 19.47 2.50
-0.61 19.49 2.50
-1.00 19.50 2.50
-1.39 19.50 2.50
-1.79 19.50 2.50
-2.18 19.49 2.50
-2.58 19.47 2.50
-2.97 19.45 2.50
-3.37 19.42 2.50
-3.77 19.38 2.50
-4.16 19.33 2.50
-4.56 19.28 2.50
-4.95 19.21 2.50
-5.35 19.14 2.50
-5.74 19.07 2.50
-6.13 18.98 2.50
-6.52 18.89 2.50
-6.75 18.33 2.43
-7.00 17.91 2.39
-7.38 17.80 2.39
-7.75 17.68 2.39
-8.12 17.56 2.39
-8.48 17.43 2.39
-8.85 17.29 2.39
-9.21 17.14 2.39
-9.57 16.98 2.39
-9.93 16.82 2.39
-10.29 16.65 2.39
-10.65 16.48 2.39
-11.16 16.54 2.43
-11.41 16.19 2.40
-11.64 15.83 2.38
-11.84 15.45 2.35
-12.08 15.12 2.34
-12.33 14.81 2.32
-12.42 14.33 2.28
-12.54 13.90 2.24
-12.89 13.71 2.25
-13.03 13.32 2.22
-13.17 12.94 2.20
-13.20 12.45 2.16
-13.07 11.84 2.09
-13.13 11.43 2.06
-13.22 11.04 2.03
-13.09 10.50 1.98
-12.60 9.70 1.87
-12.61 9.31 1.84
-12.62 8.93 1.81
-12.62 8.56 1.78
-12.63 8.19 1.75
-12.58 7.81 1.72
-12.58 7.46 1.70
-12.58 7.13 1.67
-12.57 6.80 1.65
-12.57 6.47 1.63
-12.59 6.16 1.61
-12.67 5.89 1.60
-12.73 5.61 1.59
-12.74 5.31 1.58
-12.74 5.02 1.56
-12.75 4.73 1.55
-12.75 4.44 1.53
-12.78 4.16 1.52
-12.81 3.89 1.51
-12.84 3.62 1.50
-12.84 3.34 1.49
-12.85 3.07 1.48
-12.85 2.80 1.48
-12.86 2.53 1.47
-12.92 2.28 1.46
-12.97 2.02 1.46
-13.02 1.76 1.46
-13.05 1.50 1.46
-13.05 1.23 1.45
-13.04 0.97 1.45
-13.07 0.71 1.45
-13.17 0.45 1.45
-13.28 0.19 1.46
-13.38 -0.08 1.47
-13.49 -0.35 1.48
-13.52 -0.62 1.48
-13.51 -0.90 1.48
-13.50 -1.17 1.48
-13.49 -1.44 1.48
-13.47 -1.71 1.48
-13.46 -1.98 1.48
-13.45 -2.26 1.48
-13.43 -2.53 1.48
-13.43 -2.81 1.48
-13.43 -3.10 1.49
-13.43 -3.38 1.49
-13.42 -3.67 1.50
-13.42 -3.96 1.51
-13.41 -4.25 1.51
-13.40 -4.54 1.52
-13.41 -4.85 1.53
-13.58 -5.22 1.56
-13.67 -5.57 1.58
-13.72 -5.92 1.60
-13.77 -6.27 1.62
-13.78 -6.61 1.63
-13.81 -6.97 1.65
-13.84 -7.33 1.67
-13.88 -7.71 1.69
-13.91 -8.10 1.71
-14.27 -8.70 1.78
-14.23 -9.07 1.79
-14.18 -9.44 1.81
-14.13 -9.82 1.83
-14.01 -10.16 1.84
-13.85 -10.47 1.84
-13.72 -10.81 1.85
-13.62 -11.19 1.87
-13.53 -11.57 1.89
-13.43 -11.96 1.90
-13.28 -12.32 1.92
-13.08 -12.63 1.92
-12.95 -13.01 1.94
-12.71 -13.30 1.95
-12.47 -13.58 1.95
-12.23 -13.87 1.96
-11.99 -14.16 1.96
-11.75 -14.45 1.97
-11.59 -14.85 1.99
-11.52 -15.38 2.04
-11.44 -15.94 2.08
-11.35 -16.51 2.12
-11.27 -17.10 2.17
-11.18 -17.75 2.23
-11.10 -18.42 2.28
-5.89 -10.23 1.25
-10.60 -19.29 2.34
-10.31 -19.70 2.36
-10.02 -20.11 2.39
-9.72 -20.53 2.42
-9.20 -20.48 2.39
-8.78 -20.64 2.39
-8.35 -20.80 2.39
-7.93 -20.94 2.39
-7.50 -21.08 2.39
-7.07 -21.20 2.39
-6.64 -21.32 2.39
-6.20 -21.42 2.39
-5.76 -21.52 2.39
-5.32 -21.61 2.39
-5.10 -22.62 2.50
-4.64 -22.69 2.50
-4.17 -22.75 2.50
-3.71 -22.79 2.50
-3.25 -22.83 2.50
-2.79 -22.86 2.50
-2.33 -22.88 2.50
-1.86 -22.89 2.50
-1.40 -22.89 2.50
-0.94 -22.87 2.50
-0.48 -22.85 2.50
-0.02 -18.88 2.50
0.35 -18.85 2.50
0.73 -18.81 2.50
1.11 -18.77 2.50
1.48 -18.71 2.50
1.85 -18.65 2.50
2.22 -18.58 2.50
2.59 -18.51 2.50
2.83 -17.66 2.39
3.18 -17.57 2.39
3.53 -17.48 2.39
3.87 -17.38 2.39
4.21 -17.27 2.39
4.55 -17.15 2.39
4.89 -17.03 2.39
5.22 -16.90 2.39
4.95 -14.95 2.13
5.30 -14.99 2.16
5.50 -14.63 2.13
5.76 -14.44 2.12
6.14 -14.53 2.15
6.02 -13.48 2.02
5.52 -11.72 1.77
5.60 -11.31 1.73
5.68 -10.90 1.69
5.82 -10.65 1.67
6.17 -10.77 1.71
6.52 -10.87 1.75
6.91 -11.02 1.80
7.22 -11.01 1.82
5.97 -8.71 1.47
5.94 -8.31 1.42
6.11 -8.19 1.42
6.21 -7.99 1.41
6.41 -7.91 1.42
6.59 -7.81 1.43
6.79 -7.73 1.44
7.07 -7.72 1.47
12.10 -12.71 2.47
12.42 -12.53 2.49
12.76 -12.36 2.51
13.08 -12.17 2.53
12.46 -11.14 2.37
12.63 -10.85 2.37
13.27 -10.94 2.45
10.14 -8.02 1.85
10.26 -7.79 1.84
10.57 -7.69 1.87
14.01 -9.78 2.45
14.52 -9.70 2.51
15.02 -9.60 2.57
15.08 -9.22 2.55
15.08 -8.81 2.52
15.08 -8.41 2.50
15.07 -8.01 2.48
15.07 -7.63 2.46
15.32 -7.37 2.48
15.37 -7.02 2.47
15.42 -6.67 2.46
15.47 -6.33 2.45
15.54 -5.99 2.44
15.67 -5.69 2.45
15.80 -5.37 2.45
15.80 -5.02 2.44
15.81 -4.68 2.43
15.82 -4.34 2.42
15.93 -4.03 2.43
16.04 -3.71 2.44
16.15 -3.40 2.45
16.17 -3.06 2.45
16.18 -2.73 2.44
16.55 -2.45 2.50
16.82 -2.15 2.53
16.98 -1.82 2.55
17.08 -1.49 2.57
17.10 -1.14 2.57
17.12 -0.80 2.57
17.14 -0.45 2.58
17.16 -0.11 2.58
17.19 0.23 2.59
17.56 0.59 2.65
17.75 0.96 2.69
17.73 1.31 2.69
17.70 1.67 2.69
18.37 2.11 2.80
18.71 2.53 2.87
18.84 2.93 2.90
18.81 3.32 2.91
18.78 3.70 2.92
18.74 4.09 2.92
18.71 4.47 2.94
19.17 4.99 3.03
19.04 5.37 3.03
18.92 5.75 3.03
18.78 6.12 3.03
18.64 6.50 3.03
18.49 6.86 3.03
18.33 7.23 3.03
18.17 7.59 3.03
18.00 7.95 3.03
17.83 8.30 3.03
17.65 8.65 3.03
17.46 9.00 3.03
17.26 9.35 3.03
17.06 9.69 3.03
16.86 10.02 3.03
16.65 10.36 3.03
16.43 10.68 3.03
16.20 11.01 3.03
15.97 11.33 3.03
15.74 11.64 3.03
15.49 11.95 3.03
15.25 12.26 3.03
9.91 8.30 2.00
9.77 8.53 2.01
9.79 8.89 2.05
14.20 13.44 3.03
13.93 13.72 3.03
13.65 13.99 3.03
13.36 14.27 3.03
10.49 11.65 2.43
10.46 12.10 2.48
12.48 15.05 3.03
12.18 15.30 3.03
4.76 6.24 1.21
4.59 6.27 1.20
4.41 6.28 1.19
4.25 6.31 1.18
4.15 6.46 1.19
4.08 6.62 1.20
4.30 7.32 1.31
4.14 7.37 1.30
4.02 7.52 1.32
3.92 7.70 1.33
3.84 7.92 1.36
4.06 8.83 1.50
4.06 9.31 1.56
4.98 12.10 2.01
4.60 11.84 1.95
4.34 11.87 1.94
4.20 12.24 1.99
4.35 13.57 2.19
4.46 14.94 2.39
4.17 15.04 2.39
3.87 15.13 2.39
3.56 15.22 2.39
3.26 15.30 2.39
2.07 10.79 1.68
2.65 15.45 2.39
2.34 15.51 2.39
2.03 15.57 2.39
1.72 15.63 2.39
1.41 15.82 2.41
1.13 16.40 2.50
0.81 16.43 2.50
0.48 16.46 2.50
0.15 16.49 2.50
-0.19 16.51 2.50
-0.52 16.52 2.50
-0.85 16.53 2.50
-1.19 16.53 2.50
-1.52 16.52 2.50
-1.85 16.51 2.50
-2.19 16.49 2.50
-2.52 16.47 2.50
-2.86 16.44 2.50
-3.19 16.40 2.50
-3.52 16.36 2.50
-3.86 16.31 2.50
-4.19 16.25 2.50
-4.52 16.19 2.50
-4.86 16.12 2.50
-5.19 16.04 2.50
-5.52 15.96 2.50
-5.84 15.87 2.50
-6.17 15.77 2.50
-6.50 15.67 2.50
-6.62 15.10 2.42
-6.85 14.81 2.39
-7.16 14.69 2.39
-7.46 14.57 2.39
-7.77 14.44 2.39
-8.07 14.31 2.39
-8.37 14.17 2.39
-8.67 14.02 2.39
-8.96 13.87 2.39
-9.26 13.71 2.39
-9.55 13.55 2.39
-9.84 13.37 2.39
-10.12 13.20 2.39
-10.40 13.02 2.39
-10.87 13.06 2.43
-11.07 12.76 2.42
-11.26 12.47 2.40
-11.45 12.17 2.38
-11.63 11.88 2.36
-11.80 11.59 2.35
-11.99 11.30 2.34
-12.18 11.03 2.32
-12.30 10.70 2.30
-12.39 10.35 2.28
-12.42 9.96 2.24
-12.31 9.47 2.18
-12.32 9.09 2.15
-12.34 8.72 2.11
-12.35 8.36 2.08
-12.35 8.01 2.05
-12.33 7.65 2.02
-12.34 7.32 1.99
-12.34 6.99 1.97
-12.34 6.66 1.94
-12.34 6.35 1.92
-12.34 6.04 1.89
-12.42 5.77 1.88
-12.44 5.48 1.87
-12.45 5.19 1.85
-12.46 4.90 1.83
-12.46 4.62 1.82
-12.47 4.34 1.80
-12.48 4.06 1.79
-12.51 3.80 1.78
-12.53 3.53 1.77
-12.54 3.26 1.76
-12.55 3.00 1.74
-12.55 2.73 1.73
-12.56 2.47 1.73
-12.58 2.21 1.72
-12.63 1.96 1.72
-12.68 1.71 1.72
-12.69 1.45 1.71
-12.69 1.20 1.70
-12.69 0.94 1.70
-12.69 0.68 1.69
-12.69 0.43 1.69
-12.79 0.18 1.70
-12.89 -0.08 1.71
-12.99 -0.34 1.72
-13.01 -0.60 1.72
-13.00 -0.86 1.72
-12.99 -1.13 1.72
-12.98 -1.39 1.72
-12.97 -1.65 1.72
-12.95 -1.91 1.72
-12.94 -2.18 1.72
-12.92 -2.44 1.72
-12.92 -2.71 1.73
-12.91 -2.98 1.73
-12.91 -3.25 1.74
-12.90 -3.53 1.75
-12.89 -3.80 1.75
-12.88 -4.08 1.76
-12.87 -4.37 1.77
-12.85 -4.65 1.78
-12.83 -4.93 1.79
-12.80 -5.22 1.79
-12.87 -5.55 1.82
-13.02 -5.93 1.86
-13.18 -6.32 1.89
-13.23 -6.68 1.92
-13.25 -7.02 1.94
-13.56 -7.54 2.01
-13.59 -7.91 2.03
-13.61 -8.30 2.06
-13.70 -8.74 2.10
-13.65 -9.09 2.12
-13.60 -9.45 2.14
-13.54 -9.82 2.16
-13.48 -10.20 2.18
-13.41 -10.57 2.20
-13.24 -10.88 2.21
-13.05 -11.17 2.21
-12.86 -11.46 2.22
-12.67 -11.75 2.22
-12.47 -12.04 2.23
-12.27 -12.34 2.24
-12.08 -12.64 2.25
-11.94 -13.00 2.27
-11.79 -13.37 2.29
-11.64 -13.75 2.32
-11.49 -14.13 2.34
-11.32 -14.51 2.37
-11.15 -14.90 2.40
-10.94 -15.25 2.42
-10.73 -15.60 2.44
-10.51 -15.95 2.46
-10.28 -16.31 2.49
-10.05 -16.67 2.51
-5.87 -10.20 1.52
-8.92 -16.24 2.39
-8.59 -16.41 2.39
-8.26 -16.57 2.39
-7.92 -16.72 2.39
-7.58 -16.87 2.39
-7.23 -17.00 2.39
-6.88 -17.13 2.39
-6.53 -17.25 2.39
-6.18 -17.37 2.39
-5.83 -17.47 2.39
-5.47 -17.57 2.39
-5.30 -18.31 2.48
-4.96 -18.51 2.50
-4.58 -18.59 2.50
-4.21 -18.66 2.50
-3.83 -18.72 2.50
-3.45 -18.77 2.50
-3.07 -18.82 2.50
-2.69 -18.85 2.50
-2.31 -18.88 2.50
-1.92 -18.90 2.50
-1.54 -18.91 2.50
-1.16 -18.92 2.50
-0.78 -18.91 2.50
-0.40 -18.90 2.50
-0.02 -16.08 2.50
0.30 -16.06 2.50
0.62 -16.03 2.50
0.94 -16.00 2.50
1.26 -15.95 2.50
1.58 -15.91 2.50
1.89 -15.85 2.50
2.21 -15.79 2.50
2.52 -15.72 2.50
2.71 -15.00 2.39
3.01 -14.92 2.39
3.30 -14.84 2.39
3.60 -14.75 2.39
3.88 -14.65 2.39
4.17 -14.55 2.39
4.46 -14.44 2.39
4.74 -14.33 2.39
5.02 -14.21 2.39
5.29 -14.09 2.39
5.57 -13.96 2.39
5.44 -12.88 2.23
5.55 -12.44 2.17
5.43 -11.55 2.04
5.52 -11.16 1.99
5.65 -10.87 1.96
5.53 -10.12 1.85
5.73 -10.02 1.86
5.97 -9.96 1.87
6.22 -9.92 1.89
5.90 -9.00 1.74
5.84 -8.53 1.67
5.88 -8.23 1.64
5.94 -7.97 1.62
6.15 -7.91 1.63
6.35 -7.84 1.64
6.55 -7.77 1.66
6.76 -7.69 1.67
7.03 -7.69 1.71
7.54 -7.93 1.79
7.82 -7.89 1.82
7.50 -7.27 1.72
7.57 -7.05 1.70
7.81 -6.99 1.73
12.59 -10.82 2.74
9.90 -8.16 2.12
9.96 -7.89 2.11
10.11 -7.68 2.11
10.47 -7.63 2.16
13.61 -9.50 2.77
13.89 -9.29 2.79
14.17 -9.07 2.81
14.40 -8.81 2.83
14.51 -8.48 2.82
14.61 -8.15 2.81
14.71 -7.83 2.80
14.81 -7.50 2.80
14.93 -7.19 2.80
14.99 -6.85 2.78
15.04 -6.51 2.77
15.09 -6.18 2.76
15.14 -5.84 2.75
9.14 -3.32 1.65
9.12 -3.10 1.64
9.22 -2.93 1.65
9.44 -2.80 1.68
10.07 -2.76 1.78
15.33 -3.88 2.71
15.44 -3.58 2.71
15.51 -3.27 2.72
9.63 -1.83 1.68
9.64 -1.63 1.68
15.51 -2.30 2.70
15.67 -2.01 2.72
16.01 -1.72 2.78
16.35 -1.43 2.84
16.50 -1.11 2.86
16.66 -0.78 2.89
16.71 -0.45 2.90
16.73 -0.11 2.91
16.74 0.23 2.91
16.76 0.56 2.92
16.89 0.91 2.95
16.86 1.25 2.95
16.84 1.59 2.95
10.91 1.25 1.92
10.71 1.45 1.89
10.68 1.66 1.89
10.77 1.90 1.92
11.41 2.25 2.04
11.34 2.47 2.04
10.59 2.53 1.91
10.66 2.78 1.94
10.98 3.10 2.01
16.43 4.99 3.03
16.32 5.32 3.03
16.19 5.64 3.03
16.07 5.96 3.03
15.93 6.28 3.03
15.79 6.59 3.03
15.65 6.91 3.03
15.50 7.22 3.03
15.34 7.52 3.03
15.18 7.83 3.03
15.01 8.12 3.03
14.84 8.42 3.03
14.66 8.71 3.03
14.48 9.00 3.03
14.29 9.29 3.03
14.09 9.57 3.03
13.89 9.85 3.03
13.69 10.13 3.03
11.13 8.59 2.50
10.95 8.80 2.50
9.98 8.36 2.31
9.70 8.46 2.29
9.65 8.77 2.32
9.71 9.19 2.38
9.91 9.76 2.47
9.61 9.86 2.45
9.56 10.20 2.49
10.25 11.39 2.73
10.04 11.62 2.73
10.86 13.09 3.03
4.89 6.15 1.40
4.71 6.17 1.38
4.49 6.14 1.35
4.33 6.16 1.34
4.21 6.26 1.34
4.12 6.40 1.35
4.05 6.59 1.37
4.24 7.21 1.49
4.09 7.28 1.48
3.92 7.33 1.48
3.81 7.48 1.49
3.70 7.63 1.50
4.03 8.77 1.71
4.12 9.45 1.83
4.08 9.91 1.90
4.59 11.83 2.24
4.34 11.87 2.23
4.14 12.08 2.26
4.13 12.89 2.39
3.88 12.98 2.39
3.62 13.07 2.39
3.36 13.15 2.39
3.09 13.22 2.39
2.83 13.29 2.39
2.07 10.79 1.93
2.30 13.42 2.39
2.03 13.47 2.39
1.76 13.52 2.39
1.50 13.68 2.41
1.27 14.19 2.50
0.98 14.23 2.50
0.70 14.26 2.50
0.41 14.28 2.50
0.12 14.30 2.50
-0.16 14.32 2.50
-0.45 14.33 2.50
-0.74 14.33 2.50
-1.03 14.33 2.50
-1.32 14.32 2.50
-1.61 14.31 2.50
-1.90 14.29 2.50
-2.19 14.27 2.50
-2.48 14.24 2.50
-2.77 14.20 2.50
-3.06 14.16 2.50
-3.34 14.11 2.50
-3.63 14.06 2.50
-3.92 14.01 2.50
-4.20 13.94 2.50
-4.49 13.87 2.50
-4.77 13.80 2.50
-5.06 13.72 2.50
-5.34 13.63 2.50
-5.62 13.54 2.50
-5.90 13.45 2.50
-6.18 13.34 2.50
-6.45 13.24 2.50
-6.53 12.73 2.42
-6.71 12.47 2.39
-6.97 12.35 2.39
-7.23 12.22 2.39
-7.48 12.10 2.39
-7.74 11.96 2.39
-7.99 11.82 2.39
-8.24 11.68 2.39
-8.48 11.53 2.39
-8.72 11.37 2.39
-8.97 11.21 2.39
-9.20 11.05 2.39
-9.44 10.88 2.39
-9.67 10.70 2.39
-9.90 10.52 2.39
-10.12 10.34 2.39
-10.35 10.15 2.39
-10.71 10.09 2.43
-10.88 9.85 2.42
-11.06 9.61 2.41
-11.23 9.37 2.40
-11.40 9.13 2.39
-11.53 8.86 2.38
-11.65 8.59 2.36
-11.76 8.31 2.35
-11.87 8.04 2.33
-11.98 7.77 2.32
-12.08 7.49 2.30
-12.11 7.18 2.28
-12.11 6.85 2.25
-12.12 6.54 2.22
-12.12 6.23 2.20
-12.12 5.93 2.17
-12.15 5.64 2.15
-12.16 5.35 2.13
-12.17 5.07 2.11
-12.18 4.79 2.09
-12.19 4.51 2.08
-12.20 4.24 2.06
-12.20 3.97 2.04
-12.23 3.71 2.03
-12.24 3.44 2.02
-12.25 3.18 2.01
-12.26 2.92 1.99
-12.26 2.67 1.98
-12.27 2.41 1.97
-12.28 2.16 1.96
-12.30 1.91 1.96
-12.35 1.66 1.96
-12.35 1.41 1.95
-12.36 1.16 1.94
-12.36 0.91 1.94
-12.35 0.66 1.93
-12.35 0.42 1.93
-12.35 0.17 1.93
-12.43 -0.08 1.93
-12.52 -0.33 1.95
-12.54 -0.58 1.95
-12.53 -0.84 1.95
-12.52 -1.09 1.95
-12.51 -1.34 1.95
-12.49 -1.59 1.95
-12.48 -1.84 1.95
-12.46 -2.10 1.95
-12.45 -2.35 1.95
-12.44 -2.61 1.96
-12.43 -2.87 1.96
-12.42 -3.13 1.97
-12.42 -3.40 1.98
-12.41 -3.66 1.98
-12.39 -3.93 1.99
-12.38 -4.20 2.00
-12.37 -4.47 2.01
-12.34 -4.75 2.02
-12.31 -5.02 2.03
-12.27 -5.30 2.04
-12.24 -5.57 2.05
-12.20 -5.86 2.06
-12.32 -6.22 2.10
-12.40 -6.57 2.14
-12.33 -6.86 2.15
-12.26 -7.14 2.16
-12.19 -7.43 2.17
-12.11 -7.72 2.18
-12.08 -8.05 2.21
-12.33 -8.57 2.28
-12.23 -8.87 2.29
-12.13 -9.17 2.31
-12.01 -9.47 2.32
-11.90 -9.77 2.34
-11.78 -10.08 2.35
-11.64 -10.37 2.36
-11.51 -10.68 2.38
-11.43 -11.03 2.41
-11.33 -11.39 2.44
-11.22 -11.74 2.46
-11.10 -12.09 2.49
-10.98 -12.45 2.52
-10.81 -12.77 2.54
-10.63 -13.07 2.56
-10.44 -13.37 2.57
-9.45 -12.62 2.39
-9.19 -12.81 2.39
-8.93 -12.98 2.39
-8.67 -13.16 2.39
-8.40 -13.32 2.39
-8.13 -13.48 2.39
-5.87 -10.20 1.79
-7.58 -13.79 2.39
-7.29 -13.93 2.39
-7.01 -14.07 2.39
-6.72 -14.20 2.39
-6.43 -14.32 2.39
-6.14 -14.44 2.39
-5.85 -14.55 2.39
-5.55 -14.66 2.39
-5.42 -15.23 2.47
-5.17 -15.49 2.50
-4.85 -15.58 2.50
-4.54 -15.66 2.50
-4.22 -15.73 2.50
-3.90 -15.80 2.50
-3.58 -15.86 2.50
-3.26 -15.92 2.50
-2.93 -15.96 2.50
-2.61 -16.01 2.50
-2.29 -16.04 2.50
-1.96 -16.07 2.50
-1.64 -16.09 2.50
-1.32 -16.10 2.50
-0.99 -16.10 2.50
-0.67 -16.10 2.50
-0.35 -16.10 2.50
-0.02 -13.99 2.50
0.26 -13.98 2.50
0.54 -13.95 2.50
0.82 -13.93 2.50
1.09 -13.89 2.50
1.37 -13.85 2.50
1.65 -13.81 2.50
1.92 -13.75 2.50
2.19 -13.70 2.50
2.46 -13.63 2.50
2.62 -13.00 2.39
2.88 -12.93 2.39
3.13 -12.86 2.39
3.38 -12.78 2.39
3.64 -12.69 2.39
3.88 -12.60 2.39
4.13 -12.50 2.39
4.37 -12.40 2.39
4.62 -12.30 2.39
4.86 -12.18 2.39
5.09 -12.07 2.39
5.33 -11.95 2.39
5.43 -11.55 2.34
5.26 -10.63 2.17
5.37 -10.32 2.14
5.38 -9.86 2.07
5.47 -9.57 2.03
5.59 -9.34 2.01
5.70 -9.10 1.98
5.70 -8.70 1.92
5.77 -8.44 1.89
5.85 -8.19 1.87
5.90 -7.92 1.83
6.07 -7.82 1.84
6.23 -7.70 1.84
6.47 -7.68 1.87
6.72 -7.66 1.90
7.03 -7.69 1.95
7.51 -7.90 2.04
6.82 -6.88 1.82
6.96 -6.75 1.82
7.14 -6.66 1.84
7.35 -6.57 1.86
7.56 -6.50 1.88
7.81 -6.44 1.91
7.93 -6.28 1.91
10.10 -7.68 2.40
7.77 -5.66 1.82
12.44 -8.69 2.88
12.70 -8.50 2.91
12.95 -8.29 2.93
13.20 -8.08 2.95
13.39 -7.83 2.96
13.49 -7.53 2.95
13.57 -7.22 2.94
13.64 -6.92 2.93
13.72 -6.61 2.92
13.83 -6.33 2.92
14.06 -6.09 2.95
14.30 -5.86 2.98
9.07 -3.50 1.88
8.93 -3.24 1.84
8.65 -2.95 1.77
8.56 -2.73 1.74
8.69 -2.58 1.76
9.14 -2.51 1.84
8.83 -2.24 1.77
8.72 -2.02 1.74
8.67 -1.83 1.73
8.85 -1.68 1.76
9.03 -1.53 1.79
9.24 -1.37 1.83
9.72 -1.25 1.92
14.91 -1.61 2.94
15.15 -1.33 2.98
15.15 -1.02 2.98
15.15 -0.71 2.98
15.14 -0.41 2.98
15.13 -0.10 2.98
15.13 0.20 2.98
15.24 0.51 3.01
15.29 0.82 3.03
15.26 1.12 3.03
15.22 1.43 3.03
10.70 1.22 2.13
10.53 1.42 2.11
10.31 1.60 2.07
10.17 1.79 2.05
10.17 2.00 2.06
10.16 2.21 2.07
10.03 2.40 2.05
10.08 2.62 2.07
10.36 2.92 2.15
11.27 3.42 2.35
14.41 4.69 3.03
14.30 4.98 3.03
14.19 5.26 3.03
14.08 5.55 3.03
13.95 5.82 3.03
13.83 6.10 3.03
13.69 6.37 3.03
13.56 6.65 3.03
13.41 6.91 3.03
13.27 7.18 3.03
13.11 7.44 3.03
12.96 7.70 3.03
12.79 7.96 3.03
12.63 8.21 3.03
12.46 8.46 3.03
12.28 8.71 3.03
12.10 8.95 3.03
10.85 8.37 2.76
10.62 8.54 2.74
10.11 8.47 2.65
9.75 8.50 2.60
9.61 8.73 2.61
5.72 5.42 1.59
5.42 5.34 1.53
5.29 5.42 1.52
5.16 5.51 1.52
5.11 5.68 1.54
5.05 5.84 1.55
5.00 6.02 1.57
4.79 6.02 1.55
4.59 6.01 1.52
4.41 6.02 1.50
4.28 6.10 1.50
4.18 6.22 1.51
4.10 6.37 1.52
4.03 6.55 1.55
4.20 7.15 1.67
4.06 7.24 1.67
3.89 7.28 1.66
3.73 7.33 1.65
3.60 7.44 1.66
3.49 7.60 1.68
3.65 8.39 1.83
3.55 8.62 1.87
4.32 11.13 2.39
4.10 11.22 2.39
3.88 11.31 2.39
3.65 11.39 2.39
3.42 11.47 2.39
3.19 11.54 2.39
2.96 11.61 2.39
2.73 11.68 2.39
2.50 11.74 2.39
2.07 10.79 2.19
2.02 11.85 2.39
1.79 11.89 2.39
1.56 12.04 2.41
1.37 12.49 2.50
1.12 12.53 2.50
0.86 12.56 2.50
0.61 12.58 2.50
0.36 12.60 2.50
0.11 12.62 2.50
-0.15 12.63 2.50
-0.40 12.64 2.50
-0.66 12.64 2.50
-0.91 12.63 2.50
-1.17 12.63 2.50
-1.42 12.61 2.50
-1.68 12.60 2.50
-1.93 12.57 2.50
-2.19 12.54 2.50
-2.44 12.51 2.50
-2.69 12.47 2.50
-2.95 12.43 2.50
-3.20 12.38 2.50
-3.45 12.33 2.50
-3.70 12.27 2.50
-3.96 12.21 2.50
-4.21 12.14 2.50
-4.45 12.07 2.50
-4.70 11.99 2.50
-4.95 11.91 2.50
-5.19 11.83 2.50
-5.44 11.73 2.50
-5.68 11.64 2.50
-5.92 11.54 2.50
-6.16 11.43 2.50
-6.39 11.32 2.50
-6.45 10.91 2.43
-6.58 10.62 2.39
-6.80 10.50 2.39
-7.02 10.38 2.39
-7.23 10.25 2.39
-7.45 10.12 2.39
-7.66 9.98 2.39
-7.87 9.84 2.39
-8.08 9.69 2.39
-8.28 9.54 2.39
-8.48 9.38 2.39
-8.68 9.23 2.39
-8.88 9.06 2.39
-9.07 8.89 2.39
-9.26 8.72 2.39
-9.45 8.55 2.39
-9.63 8.37 2.39
-9.81 8.18 2.39
-9.99 8.00 2.39
-10.16 7.81 2.39
-10.33 7.61 2.39
-10.70 7.55 2.44
-10.81 7.32 2.43
-10.93 7.08 2.42
-11.03 6.84 2.41
-11.12 6.59 2.39
-11.20 6.33 2.38
-11.27 6.08 2.36
-11.34 5.82 2.35
-11.41 5.58 2.34
-11.49 5.33 2.33
-11.56 5.09 2.32
-11.63 4.84 2.31
-11.70 4.59 2.30
-11.76 4.35 2.29
-11.82 4.10 2.28
-11.88 3.86 2.28
-11.93 3.61 2.27
-11.96 3.36 2.26
-11.97 3.11 2.25
-11.98 2.85 2.23
-11.99 2.60 2.22
-11.99 2.35 2.21
-12.00 2.11 2.20
-12.00 1.86 2.19
-12.03 1.62 2.19
-12.03 1.37 2.18
-12.03 1.13 2.17
-12.03 0.89 2.17
-12.03 0.64 2.16
-12.03 0.40 2.16
-12.03 0.16 2.15
-12.02 -0.08 2.15
-12.08 -0.32 2.16
-12.09 -0.57 2.16
-12.08 -0.81 2.16
-12.07 -1.05 2.16
-12.06 -1.29 2.16
-12.05 -1.54 2.16
-12.04 -1.78 2.16
-12.02 -2.03 2.16
-12.00 -2.27 2.17
-11.99 -2.52 2.17
-11.98 -2.77 2.18
-11.97 -3.02 2.18
-11.96 -3.27 2.19
-11.95 -3.53 2.20
-11.94 -3.79 2.21
-11.92 -4.05 2.22
-11.91 -4.31 2.23
-11.88 -4.57 2.24
-11.85 -4.83 2.25
-11.82 -5.10 2.26
-11.78 -5.37 2.28
-11.74 -5.64 2.29
-11.70 -5.91 2.30
-11.66 -6.18 2.32
-11.65 -6.48 2.34
-11.58 -6.75 2.35
-11.49 -7.01 2.36
-11.38 -7.26 2.36
-11.27 -7.51 2.37
-11.16 -7.76 2.38
-11.04 -8.01 2.39
-10.92 -8.26 2.39
-10.79 -8.51 2.40
-10.69 -8.79 2.42
-10.59 -9.06 2.44
-10.48 -9.34 2.45
-10.37 -9.62 2.47
-10.25 -9.90 2.49
-9.65 -9.70 2.39
-9.46 -9.89 2.39
-9.26 -10.08 2.39
-9.05 -10.27 2.39
-8.85 -10.44 2.39
-8.63 -10.62 2.39
-8.42 -10.79 2.39
-8.20 -10.95 2.39
-7.98 -11.11 2.39
-7.75 -11.27 2.39
-7.52 -11.42 2.39
-7.29 -11.56 2.39
-7.06 -11.70 2.39
-5.87 -10.19 2.06
-6.58 -11.97 2.39
-6.33 -12.09 2.39
-6.09 -12.21 2.39
-5.84 -12.33 2.39
-5.59 -12.43 2.39
-5.51 -12.96 2.47
-5.30 -13.18 2.50
-5.03 -13.28 2.50
-4.76 -13.37 2.50
-4.49 -13.45 2.50
-4.22 -13.53 2.50
-3.94 -13.60 2.50
-3.67 -13.67 2.50
-3.39 -13.73 2.50
-3.11 -13.78 2.50
-2.83 -13.83 2.50
-2.55 -13.88 2.50
-2.27 -13.91 2.50
-1.99 -13.94 2.50
-1.71 -13.97 2.50
-1.43 -13.99 2.50
-1.15 -14.00 2.50
-0.87 -14.01 2.50
-0.58 -14.01 2.50
-0.30 -14.00 2.50
-0.02 -12.37 2.50
0.22 -12.36 2.50
0.47 -12.34 2.50
0.72 -12.32 2.50
0.96 -12.29 2.50
1.21 -12.26 2.50
1.45 -12.22 2.50
1.70 -12.17 2.50
1.94 -12.12 2.50
2.18 -12.07 2.50
2.42 -12.01 2.50
2.54 -11.45 2.39
2.77 -11.39 2.39
2.99 -11.32 2.39
3.22 -11.24 2.39
3.44 -11.16 2.39
3.66 -11.08 2.39
3.87 -10.99 2.39
4.09 -10.90 2.39
4.30 -10.80 2.39
4.51 -10.70 2.39
4.72 -10.60 2.39
4.93 -10.49 2.39
5.13 -10.37 2.39
5.26 -10.13 2.36
5.22 -9.58 2.26
5.32 -9.31 2.22
5.54 -9.25 2.24
5.65 -9.02 2.21
5.71 -8.72 2.17
5.80 -8.48 2.14
5.85 -8.20 2.10
5.88 -7.90 2.06
6.02 -7.76 2.06
6.20 -7.68 2.07
6.44 -7.65 2.10
6.68 -7.61 2.13
7.03 -7.70 2.19
6.66 -7.01 2.04
6.60 -6.67 1.98
6.45 -6.26 1.90
6.48 -6.05 1.87
6.05 -5.42 1.72
6.09 -5.24 1.70
6.34 -5.23 1.74
7.01 -5.55 1.90
5.84 -4.44 1.56
5.94 -4.33 1.57
6.01 -4.20 1.56
6.12 -4.10 1.57
6.23 -3.99 1.58
6.42 -3.93 1.61
12.18 -7.13 3.03
12.30 -6.88 3.03
12.43 -6.62 3.03
12.54 -6.36 3.03
12.65 -6.10 3.03
12.76 -5.84 3.03
12.84 -5.57 3.02
12.95 -5.31 3.03
9.00 -3.48 2.09
8.73 -3.18 2.01
8.53 -2.91 1.96
8.43 -2.69 1.92
8.43 -2.50 1.91
8.49 -2.34 1.92
8.42 -2.13 1.89
8.43 -1.96 1.89
8.50 -1.79 1.90
8.62 -1.64 1.92
8.82 -1.49 1.96
9.00 -1.34 1.99
9.22 -1.18 2.04
9.99 -1.08 2.20
13.72 -1.20 3.03
13.73 -0.93 3.03
13.73 -0.65 3.03
13.73 -0.37 3.03
13.72 -0.10 3.03
13.71 0.18 3.03
13.69 0.45 3.03
13.67 0.73 3.03
13.64 1.00 3.03
13.60 1.28 3.03
10.72 1.22 2.39
10.55 1.42 2.36
10.32 1.60 2.32
10.13 1.78 2.28
9.98 1.96 2.26
9.88 2.15 2.25
9.90 2.36 2.27
10.02 2.61 2.31
10.33 2.91 2.39
10.42 3.16 2.43
12.89 4.20 3.03
12.80 4.45 3.03
12.70 4.71 3.03
12.59 4.96 3.03
12.49 5.21 3.03
12.37 5.46 3.03
12.25 5.70 3.03
12.13 5.95 3.03
12.01 6.19 3.03
11.87 6.42 3.03
11.74 6.66 3.03
11.60 6.89 3.03
11.45 7.12 3.03
11.30 7.35 3.03
11.15 7.57 3.03
10.99 7.79 3.03
10.83 8.01 3.03
10.67 8.23 3.03
10.50 8.44 3.03
10.00 8.38 2.93
9.71 8.47 2.90
9.57 8.69 2.91
5.38 5.09 1.67
5.19 5.11 1.64
5.03 5.15 1.62
4.90 5.23 1.61
4.83 5.37 1.62
4.82 5.58 1.66
4.90 5.91 1.73
4.75 5.97 1.72
4.48 5.86 1.66
4.37 5.96 1.66
4.28 6.10 1.67
4.19 6.24 1.69
4.08 6.35 1.70
3.99 6.49 1.71
4.14 7.04 1.83
4.04 7.20 1.85
3.85 7.21 1.83
3.67 7.21 1.81
3.53 7.30 1.82
3.42 7.44 1.83
3.33 7.64 1.87
3.39 8.24 2.00
3.32 8.54 2.05
3.67 10.04 2.39
3.47 10.12 2.39
3.26 10.19 2.39
3.06 10.26 2.39
2.86 10.33 2.39
2.65 10.39 2.39
2.44 10.45 2.39
2.23 10.50 2.39
2.02 10.55 2.39
1.82 10.66 2.41
1.61 10.74 2.42
1.44 11.13 2.50
1.22 11.17 2.50
1.00 11.20 2.50
0.77 11.23 2.50
0.55 11.25 2.50
0.32 11.26 2.50
0.09 11.28 2.50
-0.13 11.29 2.50
-0.36 11.29 2.50
-0.59 11.29 2.50
-0.82 11.29 2.50
-1.04 11.28 2.50
-1.27 11.27 2.50
-1.50 11.25 2.50
-1.73 11.23 2.50
-1.95 11.20 2.50
-2.18 11.17 2.50
-2.41 11.14 2.50
-2.63 11.10 2.50
-2.86 11.05 2.50
-3.08 11.00 2.50
-3.31 10.95 2.50
-3.53 10.89 2.50
-3.75 10.83 2.50
-3.98 10.77 2.50
-4.20 10.70 2.50
-4.42 10.62 2.50
-4.63 10.54 2.50
-4.85 10.46 2.50
-5.06 10.37 2.50
-5.28 10.28 2.50
-5.49 10.19 2.50
-5.70 10.08 2.50
-5.91 9.98 2.50
-6.12 9.87 2.50
-6.32 9.76 2.50
-6.39 9.45 2.45
-6.45 9.13 2.39
-6.64 9.01 2.39
-6.82 8.88 2.39
-7.01 8.75 2.39
-7.19 8.62 2.39
-7.37 8.49 2.39
-7.55 8.35 2.39
-7.73 8.20 2.39
-7.90 8.06 2.39
-8.07 7.91 2.39
-8.24 7.75 2.39
-8.40 7.60 2.39
-8.56 7.44 2.39
-8.72 7.27 2.39
-8.88 7.10 2.39
-9.03 6.93 2.39
-9.18 6.76 2.39
-9.33 6.58 2.39
-9.47 6.40 2.39
-9.61 6.22 2.39
-9.74 6.03 2.39
-9.87 5.84 2.39
-10.00 5.65 2.39
-10.12 5.46 2.39
-10.24 5.26 2.39
-10.55 5.15 2.44
-10.62 4.93 2.43
-10.69 4.70 2.42
-10.76 4.47 2.41
-10.82 4.25 2.40
-10.88 4.02 2.39
-10.94 3.79 2.38
-11.00 3.57 2.38
-11.05 3.34 2.37
-11.10 3.12 2.37
-11.15 2.89 2.36
-11.20 2.67 2.36
-11.25 2.44 2.35
-11.30 2.21 2.35
-11.34 1.99 2.35
-11.39 1.76 2.35
-11.41 1.53 2.34
-11.43 1.30 2.34
-11.45 1.07 2.34
-11.47 0.84 2.33
-11.49 0.61 2.33
-11.50 0.38 2.33
-11.52 0.15 2.33
-11.52 -0.08 2.33
-11.53 -0.31 2.33
-11.54 -0.54 2.33
-11.53 -0.77 2.33
-11.52 -1.01 2.33
-11.51 -1.24 2.33
-11.49 -1.47 2.33
-11.47 -1.70 2.33
