ply
format ascii 1.0
element vertex 2831
property float32 x
property float32 y
property float32 z
end_header
-12.20 8.29 0.69
-12.23 7.96 0.68
-12.24 7.62 0.67
-12.26 7.29 0.66
-12.27 6.97 0.66
-12.31 6.67 0.65
-12.34 6.37 0.64
-12.38 6.08 0.64
-12.40 5.78 0.63
-12.41 5.49 0.63
-12.42 5.20 0.62
-12.43 4.91 0.61
-12.43 4.62 0.61
-12.43 4.34 0.60
-12.43 4.07 0.60
-12.45 3.80 0.59
-12.51 3.54 0.59
-12.56 3.29 0.59
-12.61 3.03 0.59
-12.65 2.77 0.59
-12.69 2.52 0.59
-12.74 2.26 0.59
-12.78 2.00 0.58
-12.82 1.75 0.58
-12.84 1.49 0.58
-12.87 1.23 0.58
-12.89 0.97 0.58
-12.92 0.71 0.58
-12.94 0.45 0.58
-12.96 0.19 0.58
-12.98 -0.07 0.58
-13.00 -0.33 0.58
-13.00 -0.59 0.58
-13.01 -0.85 0.58
-13.01 -1.11 0.58
-13.02 -1.38 0.59
-13.02 -1.64 0.59
-13.03 -1.91 0.59
-13.03 -2.18 0.59
-13.03 -2.45 0.59
-13.03 -2.72 0.59
-13.03 -2.99 0.60
-13.03 -3.27 0.60
-13.03 -3.55 0.60
-13.03 -3.83 0.61
-13.02 -4.12 0.61
-13.03 -4.41 0.61
-13.05 -4.71 0.62
-13.06 -5.01 0.62
-13.07 -5.32 0.63
-13.08 -5.63 0.64
-13.10 -5.95 0.64
-13.11 -6.28 0.65
-13.22 -6.66 0.66
-13.39 -7.09 0.68
-13.57 -7.53 0.69
-13.67 -7.95 0.71
-13.67 -8.32 0.72
-13.74 -8.75 0.73
-13.82 -9.20 0.75
-13.89 -9.65 0.76
-13.89 -10.07 0.77
-13.88 -10.50 0.78
-13.89 -10.94 0.80
-13.89 -11.41 0.81
-13.89 -11.87 0.82
-13.87 -12.35 0.84
-13.82 -12.81 0.85
-13.77 -13.29 0.87
-13.72 -13.78 0.88
-13.72 -14.34 0.90
-13.66 -14.87 0.92
-13.59 -15.40 0.94
-13.52 -15.96 0.95
-13.43 -16.51 0.97
-13.26 -17.00 0.99
-13.10 -17.50 1.00
-12.92 -18.00 1.02
-12.75 -18.54 1.03
-12.73 -19.34 1.07
-12.70 -20.15 1.10
-22.91 -41.72 2.21
-21.82 -41.71 2.19
-20.76 -41.71 2.17
-19.73 -41.71 2.15
-18.72 -41.72 2.14
-17.73 -41.74 2.12
-16.76 -41.76 2.11
-14.49 -38.31 1.93
-14.84 -41.75 2.09
-13.90 -41.75 2.08
-12.98 -41.75 2.07
-7.73 -26.74 1.32
-11.16 -41.75 2.05
-9.27 -37.68 1.85
-8.47 -37.67 1.84
-7.68 -37.67 1.84
-6.89 -37.67 1.84
-6.11 -37.67 1.83
-5.34 -37.67 1.83
-4.57 -37.67 1.83
-3.80 -37.66 1.83
-3.04 -37.66 1.83
-2.28 -37.66 1.84
-1.52 -37.66 1.84
-0.77 -37.66 1.84
-0.01 -34.84 2.49
0.68 -34.78 2.49
1.38 -34.70 2.49
2.07 -34.61 2.49
2.76 -34.50 2.49
3.45 -34.38 2.49
2.58 -21.36 1.56
4.81 -34.10 2.49
5.48 -33.94 2.49
6.15 -33.77 2.49
6.82 -33.58 2.49
7.48 -33.38 2.49
6.09 -24.83 1.87
6.54 -24.52 1.86
9.43 -32.70 2.49
10.06 -32.45 2.49
10.69 -32.19 2.49
11.32 -31.92 2.49
11.94 -31.63 2.49
11.75 -29.34 2.34
13.15 -31.02 2.49
13.19 -29.45 2.39
13.75 -29.11 2.39
14.31 -28.79 2.39
14.86 -28.45 2.39
15.40 -28.10 2.39
15.94 -27.74 2.39
16.46 -27.37 2.39
16.98 -26.99 2.39
17.49 -26.60 2.39
18.00 -26.20 2.39
18.49 -25.80 2.39
19.00 -25.42 2.39
19.48 -24.99 2.39
19.95 -24.56 2.39
19.41 -22.94 2.28
20.85 -23.67 2.39
17.08 -18.62 1.92
15.52 -16.25 1.71
15.26 -15.35 1.65
15.01 -14.51 1.59
14.94 -13.86 1.56
14.96 -13.33 1.53
14.98 -12.82 1.51
15.00 -12.32 1.49
14.93 -11.77 1.46
14.93 -11.30 1.44
14.93 -10.84 1.42
14.94 -10.39 1.40
2.25 -1.50 0.21
2.28 -1.46 0.21
14.89 -9.07 1.35
14.89 -8.67 1.34
14.83 -8.24 1.32
14.84 -7.86 1.30
14.85 -7.49 1.29
14.86 -7.12 1.28
14.88 -6.77 1.27
14.83 -6.39 1.26
14.85 -6.05 1.25
14.86 -5.71 1.24
14.88 -5.37 1.24
14.83 -5.02 1.23
14.83 -4.69 1.22
14.83 -4.37 1.21
14.83 -4.05 1.21
14.83 -3.73 1.20
14.78 -3.40 1.19
14.78 -3.09 1.19
14.77 -2.78 1.18
14.77 -2.47 1.18
14.77 -2.17 1.18
14.72 -1.86 1.17
14.72 -1.56 1.17
14.72 -1.26 1.17
14.72 -0.96 1.17
14.72 -0.67 1.17
14.66 -0.37 1.16
14.65 -0.08 1.16
14.65 0.22 1.16
14.64 0.51 1.16
14.63 0.81 1.16
14.56 1.10 1.16
14.60 1.39 1.16
14.64 1.70 1.17
14.68 2.00 1.18
14.73 2.31 1.18
14.92 2.65 1.20
15.13 3.00 1.22
15.33 3.36 1.25
15.55 3.74 1.27
15.78 4.13 1.30
16.01 4.53 1.32
16.25 4.96 1.35
16.22 5.31 1.36
15.83 5.53 1.33
15.45 5.75 1.31
15.09 5.97 1.29
15.36 6.43 1.32
15.64 6.92 1.36
15.94 7.44 1.40
16.26 7.99 1.44
16.59 8.57 1.48
16.95 9.19 1.53
17.33 9.85 1.58
17.74 10.56 1.64
18.17 11.32 1.70
18.65 12.14 1.76
19.16 13.03 1.83
19.71 14.00 1.91
24.33 18.02 2.39
23.97 18.51 2.39
23.61 19.00 2.39
23.24 19.48 2.39
22.86 19.96 2.39
22.47 20.43 2.39
22.07 20.89 2.39
21.66 21.34 2.39
21.24 21.79 2.39
20.82 22.23 2.39
20.38 22.66 2.39
19.94 23.09 2.39
19.49 23.50 2.39
19.03 23.91 2.39
18.56 24.31 2.39
18.09 24.70 2.39
17.60 25.08 2.39
17.11 25.46 2.39
16.62 25.82 2.39
16.11 26.18 2.39
15.60 26.52 2.39
15.08 26.86 2.39
14.55 27.19 2.39
14.02 27.51 2.39
13.48 27.81 2.39
12.94 28.11 2.39
12.38 28.40 2.39
11.83 28.68 2.39
11.26 28.95 2.39
10.69 29.20 2.39
10.12 29.45 2.39
9.54 29.69 2.39
8.95 29.91 2.39
8.36 30.13 2.39
7.76 30.33 2.39
7.16 30.52 2.39
6.56 30.70 2.39
5.94 30.84 2.39
5.33 31.00 2.39
4.69 30.98 2.38
4.09 31.28 2.39
3.47 31.40 2.39
2.84 31.51 2.39
2.21 31.61 2.39
1.65 33.06 2.49
0.98 33.14 2.49
0.32 33.20 2.49
-0.35 33.25 2.49
-1.02 33.29 2.49
-1.69 33.32 2.49
-2.36 33.33 2.49
-3.03 33.33 2.49
-3.71 33.32 2.49
-4.38 33.29 2.49
-5.06 33.25 2.49
-5.74 33.20 2.49
-6.15 31.76 2.39
-6.79 31.68 2.39
-7.44 31.59 2.39
-8.09 31.49 2.39
-8.73 31.37 2.39
-9.37 31.24 2.39
-10.02 31.10 2.39
-10.92 31.70 2.45
-11.47 31.26 2.43
-11.93 30.61 2.39
-12.30 29.76 2.34
-12.71 29.09 2.30
-13.14 28.50 2.27
-13.28 27.35 2.20
-13.35 26.13 2.12
-13.36 24.91 2.04
-13.34 23.72 1.96
-13.26 22.51 1.88
-12.36 20.04 1.69
-12.26 19.01 1.62
-12.02 17.86 1.54
-11.97 17.03 1.49
-11.84 16.15 1.43
-11.82 15.45 1.38
-11.80 14.81 1.35
-11.83 14.24 1.31
-11.81 13.66 1.28
-11.77 13.07 1.24
-11.72 12.51 1.21
-11.70 11.99 1.18
-11.72 11.53 1.16
-11.73 11.09 1.13
-11.74 10.66 1.11
-11.73 10.23 1.09
-11.73 9.82 1.07
-11.75 9.45 1.05
-11.77 9.08 1.04
-11.79 8.73 1.02
-11.82 8.38 1.01
-11.85 8.05 0.99
-11.87 7.72 0.98
-11.89 7.40 0.97
-11.91 7.08 0.96
-11.93 6.77 0.95
-11.96 6.48 0.94
-11.99 6.19 0.93
-12.03 5.90 0.92
-12.04 5.62 0.91
-12.06 5.33 0.91
-12.07 5.05 0.90
-12.08 4.77 0.89
-12.09 4.50 0.88
-12.09 4.22 0.88
-12.10 3.95 0.87
-12.13 3.70 0.87
-12.19 3.45 0.86
-12.24 3.20 0.86
-12.30 2.95 0.86
-12.34 2.70 0.86
-12.38 2.45 0.86
-12.42 2.20 0.86
-12.46 1.95 0.86
-12.50 1.70 0.85
-12.52 1.45 0.85
-12.55 1.20 0.85
-12.57 0.95 0.85
-12.59 0.69 0.85
-12.62 0.44 0.85
-12.64 0.19 0.85
-12.66 -0.06 0.85
-12.67 -0.32 0.85
-12.68 -0.57 0.86
-12.68 -0.83 0.86
-12.68 -1.09 0.86
-12.69 -1.34 0.86
-12.69 -1.60 0.86
-12.69 -1.86 0.86
-12.70 -2.12 0.87
-12.69 -2.38 0.87
-12.68 -2.65 0.87
-12.68 -2.91 0.87
-12.68 -3.18 0.88
-12.68 -3.45 0.88
-12.68 -3.73 0.89
-12.67 -4.01 0.89
-12.67 -4.29 0.90
-12.68 -4.58 0.91
-12.69 -4.87 0.91
-12.70 -5.17 0.92
-12.71 -5.47 0.93
-12.72 -5.78 0.94
-12.73 -6.10 0.95
-12.75 -6.42 0.96
-12.80 -6.77 0.98
-12.89 -7.16 0.99
-12.99 -7.56 1.01
-13.09 -7.97 1.03
-13.18 -8.39 1.05
-13.25 -8.81 1.07
-13.32 -9.25 1.09
-13.39 -9.70 1.12
-13.44 -10.16 1.14
-13.43 -10.58 1.16
-13.43 -11.02 1.18
-13.42 -11.48 1.20
-13.42 -11.95 1.22
-13.40 -12.42 1.24
-13.34 -12.88 1.26
-13.29 -13.35 1.28
-13.23 -13.83 1.30
-13.16 -14.33 1.32
-13.08 -14.83 1.35
-12.98 -15.32 1.37
-12.88 -15.84 1.39
-12.77 -16.37 1.42
-12.67 -16.93 1.45
-12.50 -17.41 1.47
-12.32 -17.91 1.49
-12.13 -18.42 1.51
-12.10 -19.19 1.56
-12.06 -20.01 1.61
-12.03 -20.91 1.66
-17.40 -31.69 2.49
-16.74 -32.00 2.49
-16.08 -32.28 2.49
-15.41 -32.56 2.49
-14.73 -32.82 2.49
-14.05 -33.06 2.49
-13.36 -33.29 2.49
-12.68 -33.50 2.49
-11.98 -33.70 2.49
-11.29 -33.89 2.49
-10.59 -34.06 2.49
-7.72 -26.71 1.95
-9.19 -34.36 2.49
-8.48 -34.48 2.49
-7.78 -34.59 2.49
-7.07 -34.69 2.49
-6.37 -34.77 2.49
-5.66 -34.84 2.49
-4.95 -34.89 2.49
-4.24 -34.92 2.49
-3.53 -34.95 2.49
-2.83 -34.96 2.49
-2.12 -34.95 2.49
-1.42 -34.93 2.49
-0.72 -34.89 2.49
-0.01 -26.46 2.49
0.52 -26.42 2.49
1.04 -26.37 2.49
1.57 -26.31 2.49
2.10 -26.24 2.49
2.51 -25.08 2.39
2.57 -21.36 2.04
3.51 -24.89 2.39
4.00 -24.79 2.39
4.49 -24.67 2.39
4.98 -24.54 2.39
5.46 -24.41 2.39
5.94 -24.26 2.39
6.43 -24.14 2.39
6.91 -23.98 2.39
7.38 -23.80 2.39
7.84 -23.62 2.39
8.30 -23.43 2.39
8.76 -23.22 2.39
9.18 -22.94 2.39
9.66 -22.80 2.39
10.11 -22.57 2.39
10.54 -22.33 2.39
10.98 -22.09 2.39
11.40 -21.84 2.39
11.82 -21.58 2.39
12.24 -21.31 2.39
12.65 -21.03 2.39
13.05 -20.75 2.39
13.45 -20.46 2.39
13.84 -20.16 2.39
14.23 -19.86 2.39
14.61 -19.54 2.39
14.98 -19.22 2.39
15.34 -18.90 2.39
15.70 -18.56 2.39
16.05 -18.22 2.39
16.40 -17.88 2.39
15.52 -16.26 2.22
15.26 -15.35 2.14
15.02 -14.51 2.07
14.94 -13.87 2.02
14.96 -13.34 1.99
14.98 -12.82 1.96
14.99 -12.33 1.93
14.93 -11.78 1.89
14.93 -11.30 1.87
14.93 -10.84 1.84
14.94 -10.39 1.82
2.25 -1.50 0.27
2.28 -1.46 0.27
14.89 -9.07 1.75
14.89 -8.67 1.73
14.83 -8.24 1.70
14.84 -7.86 1.69
14.85 -7.49 1.67
14.86 -7.13 1.66
14.88 -6.77 1.64
14.83 -6.39 1.63
14.85 -6.05 1.62
14.86 -5.71 1.61
14.88 -5.37 1.60
14.83 -5.02 1.58
14.83 -4.69 1.57
14.83 -4.37 1.56
14.83 -4.05 1.56
14.83 -3.73 1.55
14.78 -3.40 1.54
14.78 -3.09 1.53
14.77 -2.78 1.53
14.77 -2.47 1.52
14.77 -2.17 1.52
14.72 -1.86 1.51
14.72 -1.56 1.51
14.72 -1.26 1.50
14.72 -0.96 1.50
14.72 -0.67 1.50
14.66 -0.37 1.49
14.65 -0.08 1.49
14.65 0.22 1.49
14.64 0.51 1.49
14.63 0.81 1.49
14.56 1.10 1.49
14.60 1.39 1.50
14.64 1.70 1.50
14.68 2.00 1.51
14.73 2.31 1.52
14.92 2.65 1.55
15.13 3.00 1.57
15.33 3.36 1.60
15.55 3.74 1.63
15.78 4.13 1.67
16.01 4.53 1.70
16.25 4.96 1.74
16.22 5.31 1.74
15.83 5.53 1.71
15.45 5.75 1.68
15.09 5.97 1.66
15.36 6.43 1.70
15.64 6.92 1.75
15.94 7.44 1.80
16.26 7.99 1.85
16.59 8.57 1.91
16.95 9.19 1.97
17.33 9.85 2.03
17.74 10.56 2.10
18.18 11.32 2.18
18.65 12.15 2.27
19.16 13.03 2.36
19.17 13.61 2.39
18.90 14.00 2.39
18.62 14.38 2.39
18.34 14.76 2.39
18.05 15.13 2.39
17.75 15.50 2.39
17.44 15.86 2.39
17.13 16.22 2.39
16.81 16.57 2.39
16.48 16.91 2.39
16.15 17.25 2.39
15.81 17.58 2.39
15.46 17.91 2.39
15.11 18.23 2.39
14.75 18.54 2.39
14.39 18.84 2.39
14.02 19.14 2.39
13.64 19.44 2.39
13.26 19.72 2.39
12.87 20.00 2.39
12.47 20.27 2.39
12.07 20.53 2.39
11.67 20.79 2.39
11.26 21.04 2.39
10.84 21.28 2.39
10.42 21.51 2.39
10.00 21.74 2.39
9.57 21.95 2.39
9.14 22.16 2.39
8.70 22.36 2.39
8.25 22.55 2.39
7.81 22.74 2.39
7.36 22.91 2.39
6.90 23.08 2.39
6.44 23.24 2.39
5.98 23.39 2.39
5.51 23.50 2.39
5.04 23.63 2.39
4.57 23.76 2.39
4.10 23.87 2.39
3.62 23.98 2.39
3.15 24.07 2.39
2.66 24.16 2.39
2.18 24.23 2.39
1.77 25.35 2.49
1.26 25.41 2.49
0.75 25.46 2.49
0.24 25.50 2.49
-0.27 25.53 2.49
-0.78 25.55 2.49
-1.30 25.56 2.49
-1.81 25.56 2.49
-2.33 25.55 2.49
-2.85 25.53 2.49
-3.36 25.50 2.49
-3.88 25.46 2.49
-4.39 25.41 2.49
-4.91 25.35 2.49
-5.42 25.28 2.49
-5.94 25.20 2.49
-6.18 24.06 2.39
-6.67 23.97 2.39
-7.16 23.86 2.39
-7.65 23.74 2.39
-8.14 23.61 2.39
-8.62 23.47 2.39
-9.10 23.33 2.39
-9.58 23.17 2.39
-10.05 23.00 2.39
-11.61 25.16 2.64
-11.79 24.27 2.56
-11.88 23.25 2.48
-11.86 22.10 2.38
-11.88 21.11 2.29
-11.58 19.65 2.16
-11.55 18.74 2.08
-11.45 17.77 1.99
-11.42 16.96 1.93
-11.38 16.18 1.86
-11.36 15.49 1.80
-11.36 14.85 1.75
-11.36 14.25 1.71
-11.36 13.68 1.66
-11.33 13.09 1.62
-11.29 12.54 1.58
-11.27 12.02 1.54
-11.29 11.56 1.51
-11.31 11.13 1.48
-11.33 10.71 1.45
-11.35 10.30 1.42
-11.35 9.90 1.40
-11.38 9.53 1.37
-11.41 9.17 1.35
-11.43 8.82 1.33
-11.46 8.48 1.32
-11.48 8.14 1.30
-11.51 7.82 1.28
-11.54 7.50 1.27
-11.56 7.19 1.25
-11.58 6.89 1.24
-11.60 6.59 1.22
-11.62 6.30 1.21
-11.66 6.02 1.20
-11.69 5.74 1.19
-11.70 5.46 1.18
-11.72 5.18 1.17
-11.73 4.91 1.16
-11.75 4.64 1.15
-11.76 4.37 1.14
-11.77 4.11 1.13
-11.78 3.85 1.13
-11.83 3.61 1.12
-11.89 3.36 1.12
-11.94 3.12 1.12
-11.99 2.88 1.12
-12.04 2.64 1.12
-12.08 2.39 1.12
-12.12 2.15 1.11
-12.16 1.90 1.11
-12.19 1.66 1.11
-12.22 1.41 1.11
-12.24 1.17 1.11
-12.27 0.92 1.11
-12.29 0.68 1.11
-12.31 0.43 1.11
-12.33 0.18 1.11
-12.35 -0.06 1.11
-12.36 -0.31 1.11
-12.37 -0.56 1.11
-12.37 -0.81 1.12
-12.37 -1.06 1.12
-12.38 -1.31 1.12
-12.38 -1.56 1.12
-12.38 -1.82 1.13
-12.38 -2.07 1.13
-12.38 -2.33 1.13
-12.37 -2.58 1.14
-12.36 -2.84 1.14
-12.35 -3.10 1.14
-12.35 -3.36 1.15
-12.34 -3.63 1.16
-12.34 -3.90 1.16
-12.33 -4.17 1.17
-12.34 -4.45 1.18
-12.34 -4.74 1.19
-12.35 -5.03 1.20
-12.36 -5.32 1.21
-12.36 -5.62 1.22
-12.37 -5.92 1.23
-12.37 -6.23 1.25
-12.40 -6.56 1.26
-12.44 -6.90 1.28
-12.50 -7.27 1.30
-12.59 -7.66 1.33
-12.68 -8.07 1.35
-12.72 -8.46 1.38
-12.70 -8.82 1.39
-12.77 -9.25 1.42
-12.84 -9.70 1.45
-12.91 -10.17 1.48
-12.91 -10.59 1.51
-12.89 -11.02 1.53
-12.87 -11.46 1.56
-12.85 -11.91 1.59
-12.83 -12.38 1.61
-12.73 -12.78 1.63
-12.63 -13.20 1.66
-12.53 -13.63 1.68
-12.42 -14.08 1.70
-12.33 -14.55 1.73
-12.28 -15.09 1.77
-12.19 -15.61 1.80
-12.07 -16.12 1.83
-11.96 -16.65 1.87
-11.84 -17.22 1.91
-11.73 -17.80 1.95
-11.54 -18.31 1.98
-11.46 -19.01 2.03
-11.42 -19.84 2.10
-11.38 -20.72 2.17
-11.39 -21.76 2.25
-11.56 -23.20 2.38
-11.43 -24.14 2.46
-11.41 -25.41 2.56
-10.97 -25.81 2.58
-9.66 -24.06 2.39
-9.17 -24.23 2.39
-8.67 -24.38 2.39
-8.17 -24.52 2.39
-7.67 -24.66 2.39
-7.17 -24.78 2.39
-6.66 -24.89 2.39
-6.42 -26.07 2.49
-5.89 -26.16 2.49
-5.35 -26.24 2.49
-4.82 -26.31 2.49
-4.29 -26.37 2.49
-3.75 -26.42 2.49
-3.22 -26.46 2.49
-2.68 -26.49 2.49
-2.15 -26.50 2.49
-1.61 -26.51 2.49
-1.08 -26.50 2.49
-0.55 -26.49 2.49
-0.01 -21.31 2.49
0.41 -21.29 2.49
0.84 -21.25 2.49
1.26 -21.21 2.49
1.69 -21.16 2.49
2.03 -20.25 2.39
2.43 -20.16 2.39
2.83 -20.08 2.39
3.23 -20.00 2.39
3.62 -19.91 2.39
4.02 -19.82 2.39
4.41 -19.71 2.39
4.80 -19.60 2.39
5.19 -19.48 2.39
5.57 -19.35 2.39
5.95 -19.21 2.39
6.34 -19.10 2.39
6.71 -18.95 2.39
7.09 -18.79 2.39
7.45 -18.62 2.39
7.82 -18.45 2.39
8.18 -18.27 2.39
8.53 -18.08 2.39
8.89 -17.89 2.39
9.23 -17.69 2.39
9.58 -17.49 2.39
9.92 -17.27 2.39
10.25 -17.05 2.39
10.58 -16.83 2.39
10.91 -16.59 2.39
11.23 -16.36 2.39
11.54 -16.11 2.39
11.85 -15.86 2.39
12.16 -15.60 2.39
12.45 -15.34 2.39
12.75 -15.08 2.39
13.04 -14.80 2.39
13.32 -14.52 2.39
13.59 -14.24 2.39
13.87 -13.95 2.39
14.13 -13.66 2.39
14.39 -13.36 2.39
14.64 -13.06 2.39
14.89 -12.75 2.39
14.99 -12.33 2.37
14.93 -11.78 2.33
14.93 -11.30 2.29
14.93 -10.84 2.26
14.94 -10.39 2.23
2.25 -1.50 0.33
2.28 -1.46 0.33
14.89 -9.08 2.14
14.89 -8.67 2.12
14.83 -8.24 2.09
14.84 -7.86 2.07
14.85 -7.49 2.05
14.86 -7.13 2.03
14.88 -6.77 2.02
14.83 -6.39 2.00
14.85 -6.05 1.98
14.86 -5.71 1.97
14.88 -5.38 1.96
14.83 -5.03 1.94
14.83 -4.70 1.93
14.83 -4.37 1.92
14.83 -4.05 1.91
14.83 -3.73 1.90
14.78 -3.40 1.88
14.78 -3.09 1.88
14.77 -2.78 1.87
14.77 -2.47 1.86
14.77 -2.17 1.86
14.72 -1.86 1.85
14.72 -1.56 1.84
14.72 -1.26 1.84
14.72 -0.97 1.84
14.72 -0.67 1.84
14.66 -0.37 1.83
14.65 -0.08 1.83
14.65 0.22 1.83
14.64 0.51 1.83
14.63 0.81 1.83
14.56 1.10 1.82
14.60 1.39 1.83
14.64 1.70 1.84
14.68 2.00 1.85
14.73 2.31 1.86
14.92 2.65 1.89
15.13 3.00 1.93
15.33 3.36 1.96
15.55 3.74 2.00
15.78 4.13 2.04
16.01 4.53 2.08
16.25 4.96 2.12
16.22 5.31 2.13
15.83 5.53 2.10
15.45 5.75 2.06
15.09 5.97 2.03
15.36 6.43 2.08
15.64 6.92 2.14
15.94 7.44 2.20
16.26 7.99 2.26
16.59 8.57 2.33
16.86 9.15 2.39
16.68 9.48 2.39
16.49 9.82 2.39
16.29 10.15 2.39
16.08 10.48 2.39
15.88 10.80 2.39
15.66 11.12 2.39
15.44 11.44 2.39
15.21 11.75 2.39
14.98 12.06 2.39
14.74 12.36 2.39
14.49 12.66 2.39
14.24 12.95 2.39
13.98 13.24 2.39
13.72 13.53 2.39
13.45 13.81 2.39
13.18 14.08 2.39
12.90 14.35 2.39
12.62 14.61 2.39
12.33 14.87 2.39
12.03 15.13 2.39
11.73 15.37 2.39
11.43 15.62 2.39
11.12 15.85 2.39
10.81 16.08 2.39
10.49 16.31 2.39
10.17 16.52 2.39
9.84 16.74 2.39
9.51 16.94 2.39
9.17 17.14 2.39
8.83 17.34 2.39
8.49 17.52 2.39
8.14 17.70 2.39
7.79 17.88 2.39
7.44 18.04 2.39
7.08 18.20 2.39
6.72 18.36 2.39
6.35 18.50 2.39
5.98 18.64 2.39
5.61 18.75 2.39
5.23 18.88 2.39
4.86 19.00 2.39
4.48 19.11 2.39
4.10 19.21 2.39
3.71 19.31 2.39
3.33 19.39 2.39
2.94 19.47 2.39
2.55 19.55 2.39
2.16 19.61 2.39
1.84 20.52 2.49
1.43 20.57 2.49
1.02 20.62 2.49
0.61 20.65 2.49
0.19 20.68 2.49
-0.22 20.70 2.49
-0.64 20.71 2.49
-1.06 20.72 2.49
-1.47 20.71 2.49
-1.89 20.70 2.49
-2.31 20.68 2.49
-2.72 20.65 2.49
-3.14 20.61 2.49
-3.56 20.57 2.49
-3.97 20.51 2.49
-4.39 20.45 2.49
-4.80 20.38 2.49
-5.22 20.30 2.49
-5.63 20.21 2.49
-6.04 20.11 2.49
-6.18 19.18 2.39
-6.57 19.07 2.39
-6.96 18.96 2.39
-7.35 18.83 2.39
-7.73 18.70 2.39
-8.12 18.56 2.39
-8.50 18.41 2.39
-8.87 18.26 2.39
-9.25 18.10 2.39
-9.62 17.92 2.39
-9.99 17.75 2.39
-10.55 17.89 2.44
-10.61 17.21 2.37
-10.59 16.42 2.29
-10.64 15.79 2.23
-10.70 15.21 2.17
-10.72 14.61 2.11
-10.74 14.04 2.06
-10.80 13.54 2.02
-10.77 12.96 1.96
-10.74 12.41 1.91
-10.73 11.91 1.86
-10.78 11.50 1.83
-10.82 11.08 1.80
-10.86 10.68 1.76
-10.89 10.29 1.73
-10.92 9.91 1.70
-10.95 9.55 1.68
-11.00 9.21 1.66
-11.05 8.88 1.63
-11.09 8.55 1.61
-11.13 8.23 1.59
-11.17 7.92 1.57
-11.19 7.60 1.55
-11.22 7.29 1.54
-11.24 6.99 1.52
-11.27 6.70 1.50
-11.29 6.41 1.49
-11.31 6.12 1.47
-11.34 5.85 1.46
-11.36 5.58 1.45
-11.38 5.30 1.43
-11.40 5.04 1.42
-11.42 4.77 1.41
-11.43 4.51 1.40
-11.45 4.26 1.39
-11.46 4.00 1.38
-11.49 3.75 1.37
-11.54 3.52 1.37
-11.60 3.28 1.37
-11.65 3.04 1.37
-11.70 2.81 1.36
-11.75 2.57 1.36
-11.79 2.33 1.36
-11.83 2.10 1.36
-11.87 1.86 1.36
-11.90 1.62 1.36
-11.93 1.38 1.36
-11.95 1.14 1.36
-11.97 0.90 1.36
-11.99 0.66 1.36
-12.02 0.42 1.36
-12.04 0.18 1.36
-12.06 -0.06 1.36
-12.07 -0.31 1.36
-12.07 -0.55 1.36
-12.07 -0.79 1.36
-12.07 -1.03 1.37
-12.08 -1.28 1.37
-12.08 -1.52 1.37
-12.08 -1.77 1.38
-12.08 -2.02 1.38
-12.08 -2.27 1.38
-12.07 -2.52 1.39
-12.06 -2.77 1.39
-12.04 -3.02 1.40
-12.03 -3.28 1.40
-12.02 -3.54 1.41
-12.02 -3.80 1.42
-12.01 -4.06 1.43
-12.01 -4.33 1.44
-12.01 -4.61 1.45
-12.02 -4.89 1.46
-12.02 -5.17 1.47
-12.03 -5.46 1.49
-12.03 -5.76 1.50
-12.03 -6.06 1.52
-12.04 -6.37 1.54
-12.06 -6.70 1.56
-12.09 -7.03 1.58
-12.13 -7.38 1.60
-12.20 -7.77 1.63
-12.28 -8.17 1.66
-12.29 -8.54 1.69
-12.26 -8.88 1.71
-12.22 -9.24 1.73
-12.27 -9.67 1.77
-12.33 -10.12 1.80
-12.33 -10.54 1.84
-12.27 -10.92 1.86
-12.20 -11.31 1.88
-12.17 -11.75 1.92
-12.14 -12.19 1.95
-12.06 -12.61 1.98
-11.95 -13.01 2.00
-11.83 -13.41 2.03
-11.71 -13.82 2.06
-11.60 -14.26 2.09
-11.51 -14.75 2.13
-11.44 -15.28 2.17
-11.37 -15.84 2.22
-11.28 -16.39 2.27
-11.15 -16.93 2.31
-10.94 -17.35 2.34
-10.67 -17.71 2.36
-10.40 -18.07 2.38
-10.12 -18.43 2.41
-9.69 -18.50 2.39
-9.31 -18.68 2.39
-8.92 -18.84 2.39
-8.53 -19.00 2.39
-8.15 -19.16 2.39
-7.75 -19.30 2.39
-7.36 -19.44 2.39
-6.96 -19.56 2.39
-6.56 -19.68 2.39
-6.16 -19.79 2.39
-6.00 -20.75 2.49
-5.58 -20.85 2.49
-5.16 -20.94 2.49
-4.73 -21.02 2.49
-4.30 -21.09 2.49
-3.88 -21.15 2.49
-3.45 -21.20 2.49
-3.02 -21.25 2.49
-2.59 -21.28 2.49
-2.16 -21.31 2.49
-1.73 -21.33 2.49
-1.30 -21.34 2.49
-0.87 -21.34 2.49
-0.44 -21.33 2.49
-0.01 -17.82 2.49
0.34 -17.81 2.49
0.70 -17.78 2.49
1.06 -17.75 2.49
1.41 -17.71 2.49
1.76 -17.66 2.49
2.03 -16.88 2.39
2.36 -16.82 2.39
2.70 -16.75 2.39
3.03 -16.68 2.39
3.36 -16.60 2.39
3.69 -16.52 2.39
4.02 -16.42 2.39
4.34 -16.33 2.39
4.67 -16.22 2.39
4.99 -16.11 2.39
5.31 -15.99 2.39
5.62 -15.87 2.39
5.93 -15.74 2.39
6.25 -15.63 2.39
6.56 -15.48 2.39
6.86 -15.34 2.39
7.16 -15.18 2.39
7.46 -15.02 2.39
7.75 -14.86 2.39
8.04 -14.68 2.39
8.33 -14.51 2.39
8.61 -14.33 2.39
8.89 -14.14 2.39
9.16 -13.95 2.39
9.43 -13.75 2.39
9.70 -13.54 2.39
9.96 -13.34 2.39
10.22 -13.12 2.39
10.47 -12.90 2.39
10.72 -12.68 2.39
10.96 -12.45 2.39
11.20 -12.22 2.39
11.44 -11.98 2.39
11.67 -11.74 2.39
11.89 -11.50 2.39
12.11 -11.25 2.39
12.33 -11.00 2.39
12.53 -10.74 2.39
12.74 -10.48 2.39
12.94 -10.21 2.39
13.13 -9.94 2.39
13.32 -9.67 2.39
13.50 -9.39 2.39
2.25 -1.50 0.39
2.28 -1.46 0.39
14.01 -8.55 2.39
14.17 -8.26 2.39
14.33 -7.97 2.39
14.48 -7.67 2.39
14.62 -7.38 2.39
14.76 -7.08 2.39
14.89 -6.78 2.39
14.83 -6.40 2.37
14.85 -6.05 2.35
14.86 -5.71 2.33
14.88 -5.38 2.32
14.83 -5.03 2.30
14.83 -4.70 2.28
14.83 -4.37 2.27
14.83 -4.05 2.26
14.83 -3.73 2.25
14.78 -3.40 2.23
14.78 -3.09 2.22
14.77 -2.78 2.21
14.77 -2.48 2.21
14.77 -2.17 2.20
14.72 -1.86 2.19
14.72 -1.56 2.18
14.72 -1.26 2.18
14.72 -0.97 2.18
14.72 -0.67 2.17
14.66 -0.37 2.16
14.65 -0.08 2.16
14.65 0.22 2.16
14.64 0.51 2.16
14.63 0.81 2.17
14.56 1.10 2.16
14.60 1.39 2.17
14.64 1.69 2.18
14.68 2.00 2.19
14.73 2.31 2.20
14.92 2.65 2.24
15.13 3.00 2.28
15.33 3.36 2.32
15.55 3.74 2.37
15.66 4.10 2.39
15.58 4.41 2.39
15.48 4.72 2.39
15.39 5.03 2.39
15.28 5.34 2.39
15.17 5.65 2.39
15.06 5.95 2.39
14.94 6.25 2.39
14.81 6.55 2.39
14.68 6.85 2.39
14.54 7.15 2.39
14.39 7.44 2.39
14.24 7.73 2.39
14.09 8.01 2.39
13.93 8.29 2.39
13.76 8.57 2.39
13.59 8.85 2.39
13.41 9.13 2.39
13.23 9.40 2.39
13.04 9.66 2.39
12.85 9.92 2.39
12.65 10.18 2.39
12.44 10.44 2.39
12.24 10.69 2.39
12.02 10.94 2.39
11.81 11.18 2.39
11.58 11.42 2.39
11.36 11.65 2.39
11.12 11.89 2.39
10.89 12.11 2.39
10.65 12.33 2.39
10.40 12.55 2.39
10.15 12.76 2.39
9.90 12.97 2.39
9.64 13.17 2.39
9.38 13.37 2.39
9.11 13.56 2.39
8.85 13.75 2.39
8.57 13.94 2.39
8.30 14.11 2.39
8.01 14.29 2.39
7.73 14.45 2.39
7.44 14.61 2.39
7.15 14.77 2.39
6.86 14.92 2.39
6.56 15.06 2.39
6.26 15.20 2.39
5.95 15.32 2.39
5.65 15.45 2.39
5.34 15.57 2.39
5.03 15.68 2.39
4.72 15.79 2.39
4.40 15.89 2.39
4.09 15.99 2.39
3.77 16.08 2.39
3.45 16.17 2.39
3.12 16.24 2.39
2.80 16.32 2.39
2.47 16.38 2.39
2.14 16.44 2.39
1.89 17.21 2.49
1.55 17.25 2.49
1.20 17.30 2.49
0.86 17.33 2.49
0.51 17.36 2.49
0.16 17.38 2.49
-0.19 17.39 2.49
-0.54 17.40 2.49
-0.89 17.40 2.49
-1.24 17.39 2.49
-1.59 17.38 2.49
-1.94 17.36 2.49
-2.29 17.33 2.49
-2.64 17.30 2.49
-2.99 17.26 2.49
-3.34 17.21 2.49
-3.69 17.15 2.49
-4.03 17.09 2.49
-4.38 17.02 2.49
-4.72 16.94 2.49
-5.07 16.86 2.49
-5.41 16.77 2.49
-5.75 16.67 2.49
-6.09 16.57 2.49
-6.16 15.78 2.39
-6.48 15.66 2.39
-6.80 15.54 2.39
-7.12 15.42 2.39
-7.43 15.29 2.39
-7.74 15.15 2.39
-8.05 15.00 2.39
-8.36 14.85 2.39
-8.66 14.69 2.39
-8.96 14.53 2.39
-9.26 14.36 2.39
-9.56 14.18 2.39
-9.85 14.00 2.39
-10.04 13.68 2.37
-10.13 13.24 2.32
-10.16 12.74 2.27
-10.15 12.22 2.21
-10.19 11.77 2.17
-10.25 11.38 2.13
-10.31 10.99 2.09
-10.35 10.60 2.06
-10.39 10.22 2.02
-10.43 9.85 1.99
-10.45 9.49 1.95
-10.49 9.14 1.93
-10.54 8.82 1.90
-10.59 8.51 1.88
-10.64 8.20 1.85
-10.68 7.90 1.83
-10.71 7.59 1.81
-10.75 7.30 1.79
-10.79 7.02 1.77
-10.83 6.74 1.76
-10.87 6.46 1.74
-10.91 6.19 1.72
-10.94 5.93 1.71
-10.98 5.66 1.69
-11.01 5.40 1.68
-11.04 5.14 1.67
-11.07 4.89 1.66
-11.10 4.64 1.65
-11.13 4.39 1.64
-11.15 4.14 1.63
-11.16 3.90 1.62
-11.21 3.66 1.61
-11.27 3.43 1.61
-11.32 3.20 1.60
-11.37 2.97 1.60
-11.42 2.74 1.60
-11.47 2.51 1.60
-11.52 2.28 1.60
-11.56 2.05 1.60
-11.60 1.81 1.60
-11.62 1.58 1.60
-11.65 1.35 1.59
-11.67 1.11 1.59
-11.69 0.88 1.59
-11.71 0.64 1.59
-11.73 0.41 1.59
-11.75 0.17 1.60
-11.77 -0.06 1.60
-11.78 -0.30 1.60
-11.79 -0.54 1.60
-11.79 -0.77 1.60
-11.79 -1.01 1.60
-11.79 -1.25 1.61
-11.79 -1.49 1.61
-11.79 -1.73 1.62
-11.79 -1.97 1.62
-11.79 -2.22 1.63
-11.78 -2.46 1.63
-11.77 -2.70 1.64
-11.75 -2.95 1.64
-11.74 -3.20 1.65
-11.73 -3.45 1.66
-11.71 -3.70 1.66
-11.70 -3.96 1.67
-11.69 -4.22 1.68
-11.70 -4.49 1.70
-11.70 -4.76 1.71
-11.70 -5.04 1.73
-11.70 -5.32 1.74
-11.70 -5.60 1.76
-11.70 -5.89 1.78
-11.70 -6.19 1.79
-11.71 -6.50 1.82
-11.73 -6.82 1.84
-11.76 -7.16 1.87
-11.78 -7.50 1.90
-11.82 -7.86 1.93
-11.89 -8.26 1.97
-11.87 -8.60 1.99
-11.84 -8.94 2.02
-11.80 -9.29 2.04
-11.76 -9.65 2.07
-11.78 -10.07 2.11
-11.78 -10.49 2.15
-11.71 -10.86 2.17
-11.64 -11.23 2.20
-11.57 -11.62 2.23
-11.49 -12.02 2.27
-11.44 -12.45 2.30
-11.32 -12.82 2.33
-11.20 -13.21 2.36
-11.04 -13.57 2.39
-10.80 -13.84 2.40
-10.56 -14.10 2.41
-10.32 -14.37 2.42
-9.90 -14.39 2.39
-9.61 -14.58 2.39
-9.31 -14.76 2.39
-9.00 -14.93 2.39
-8.70 -15.10 2.39
-8.39 -15.26 2.39
-8.07 -15.42 2.39
-7.76 -15.57 2.39
-7.44 -15.71 2.39
-7.12 -15.85 2.39
-6.79 -15.97 2.39
-6.47 -16.10 2.39
-6.14 -16.21 2.39
-6.04 -16.96 2.49
-5.71 -17.13 2.49
-5.36 -17.23 2.49
-5.01 -17.32 2.49
-4.66 -17.40 2.49
-4.31 -17.48 2.49
-3.95 -17.55 2.49
-3.60 -17.61 2.49
-3.24 -17.66 2.49
-2.88 -17.71 2.49
-2.53 -17.75 2.49
-2.17 -17.78 2.49
-1.81 -17.81 2.49
-1.45 -17.83 2.49
-1.09 -17.84 2.49
-0.73 -17.84 2.49
-0.37 -17.84 2.49
-0.01 -15.31 2.49
0.29 -15.29 2.49
0.60 -15.27 2.49
0.90 -15.24 2.49
1.21 -15.21 2.49
1.51 -15.17 2.49
1.82 -15.13 2.49
2.03 -14.45 2.39
2.32 -14.40 2.39
2.60 -14.34 2.39
2.89 -14.27 2.39
3.17 -14.20 2.39
3.45 -14.12 2.39
3.73 -14.04 2.39
4.01 -13.95 2.39
4.29 -13.86 2.39
4.56 -13.76 2.39
4.83 -13.65 2.39
5.10 -13.54 2.39
5.37 -13.43 2.39
5.63 -13.31 2.39
5.90 -13.18 2.39
6.16 -13.07 2.39
6.42 -12.93 2.39
6.67 -12.79 2.39
6.92 -12.65 2.39
7.17 -12.50 2.39
7.41 -12.34 2.39
7.66 -12.18 2.39
7.89 -12.02 2.39
8.13 -11.85 2.39
8.36 -11.67 2.39
8.58 -11.49 2.39
8.81 -11.31 2.39
9.03 -11.12 2.39
9.24 -10.93 2.39
9.45 -10.74 2.39
9.66 -10.54 2.39
9.86 -10.34 2.39
10.06 -10.13 2.39
10.26 -9.92 2.39
10.45 -9.70 2.39
10.63 -9.49 2.39
10.81 -9.27 2.39
10.99 -9.04 2.39
11.16 -8.81 2.39
11.33 -8.58 2.39
11.49 -8.35 2.39
11.65 -8.11 2.39
2.25 -1.50 0.46
2.28 -1.46 0.46
12.10 -7.38 2.39
12.24 -7.13 2.39
12.37 -6.88 2.39
12.50 -6.63 2.39
12.63 -6.37 2.39
12.74 -6.11 2.39
12.86 -5.85 2.39
12.97 -5.59 2.39
13.07 -5.33 2.39
13.17 -5.06 2.39
13.26 -4.79 2.39
13.35 -4.53 2.39
13.43 -4.25 2.39
13.51 -3.98 2.39
13.58 -3.71 2.39
13.65 -3.43 2.39
13.71 -3.16 2.39
13.77 -2.88 2.39
13.82 -2.60 2.39
13.86 -2.32 2.39
13.90 -2.04 2.39
13.93 -1.76 2.39
13.96 -1.48 2.39
13.99 -1.20 2.39
14.00 -0.92 2.39
14.02 -0.64 2.39
14.02 -0.36 2.39
14.02 -0.07 2.39
14.02 0.21 2.39
14.01 0.49 2.39
13.99 0.77 2.39
13.97 1.05 2.39
13.95 1.33 2.39
13.92 1.61 2.39
13.88 1.89 2.39
13.84 2.17 2.39
13.79 2.45 2.39
13.74 2.72 2.39
13.68 3.00 2.39
13.62 3.27 2.39
13.55 3.54 2.39
13.47 3.82 2.39
13.39 4.09 2.39
13.31 4.35 2.39
13.22 4.62 2.39
13.12 4.89 2.39
13.02 5.15 2.39
12.92 5.41 2.39
12.81 5.67 2.39
12.69 5.93 2.39
12.57 6.18 2.39
12.45 6.43 2.39
12.32 6.68 2.39
12.18 6.93 2.39
12.04 7.17 2.39
11.90 7.42 2.39
11.75 7.65 2.39
11.60 7.89 2.39
11.44 8.12 2.39
11.28 8.35 2.39
11.11 8.58 2.39
10.94 8.81 2.39
10.76 9.03 2.39
10.58 9.24 2.39
10.40 9.46 2.39
10.21 9.67 2.39
10.01 9.87 2.39
9.82 10.08 2.39
9.62 10.28 2.39
9.41 10.47 2.39
9.20 10.66 2.39
8.99 10.85 2.39
8.77 11.03 2.39
8.55 11.21 2.39
8.33 11.38 2.39
8.10 11.55 2.39
7.87 11.72 2.39
7.64 11.88 2.39
7.40 12.04 2.39
7.16 12.19 2.39
6.92 12.34 2.39
6.67 12.48 2.39
6.43 12.62 2.39
6.17 12.75 2.39
5.91 12.87 2.39
5.66 12.99 2.39
5.40 13.11 2.39
5.14 13.22 2.39
4.87 13.33 2.39
4.61 13.43 2.39
4.34 13.53 2.39
4.07 13.62 2.39
3.80 13.71 2.39
3.52 13.79 2.39
3.25 13.87 2.39
2.97 13.94 2.39
2.69 14.01 2.39
2.41 14.07 2.39
2.14 14.19 2.40
1.93 14.79 2.49
1.63 14.83 2.49
1.33 14.87 2.49
1.03 14.91 2.49
0.74 14.93 2.49
0.44 14.96 2.49
0.14 14.97 2.49
-0.16 14.98 2.49
-0.47 14.99 2.49
-0.77 14.99 2.49
-1.07 14.98 2.49
-1.37 14.97 2.49
-1.67 14.95 2.49
-1.97 14.92 2.49
-2.27 14.89 2.49
-2.57 14.85 2.49
-2.87 14.81 2.49
-3.17 14.76 2.49
-3.47 14.70 2.49
-3.77 14.64 2.49
-4.06 14.57 2.49
-4.36 14.50 2.49
-4.65 14.42 2.49
-4.95 14.34 2.49
-5.24 14.24 2.49
-5.53 14.15 2.49
-5.81 14.04 2.49
-6.10 13.93 2.49
-6.12 13.25 2.39
-6.39 13.13 2.39
-6.65 13.01 2.39
-6.92 12.89 2.39
-7.18 12.75 2.39
-7.44 12.62 2.39
-7.70 12.47 2.39
-7.95 12.33 2.39
-8.21 12.17 2.39
-8.45 12.01 2.39
-8.70 11.85 2.39
-8.94 11.68 2.39
-9.18 11.51 2.39
-9.42 11.33 2.39
-9.65 11.15 2.39
-9.81 10.88 2.37
-9.87 10.52 2.34
-9.92 10.15 2.30
-9.96 9.79 2.26
-9.99 9.44 2.22
-10.02 9.10 2.19
-10.06 8.77 2.15
-10.12 8.46 2.13
-10.17 8.17 2.10
-10.21 7.87 2.08
-10.25 7.58 2.05
-10.28 7.29 2.03
-10.32 7.01 2.01
-10.36 6.74 1.99
-10.41 6.47 1.97
-10.45 6.21 1.95
-10.49 5.95 1.93
-10.52 5.70 1.92
-10.55 5.44 1.90
-10.59 5.19 1.89
-10.62 4.95 1.88
-10.65 4.70 1.86
-10.68 4.46 1.85
-10.71 4.22 1.84
-10.74 3.99 1.83
-10.75 3.75 1.82
-10.77 3.52 1.81
-10.86 3.31 1.81
-10.96 3.10 1.82
-11.06 2.89 1.82
-11.15 2.67 1.83
-11.20 2.45 1.83
-11.25 2.22 1.83
-11.29 2.00 1.83
-11.33 1.77 1.82
-11.35 1.54 1.82
-11.38 1.31 1.82
-11.40 1.09 1.82
-11.42 0.86 1.82
-11.44 0.63 1.82
-11.46 0.40 1.82
-11.48 0.17 1.82
-11.50 -0.06 1.83
-11.51 -0.29 1.83
-11.51 -0.52 1.83
-11.52 -0.75 1.83
-11.52 -0.99 1.83
-11.52 -1.22 1.84
-11.52 -1.45 1.84
-11.51 -1.69 1.85
-11.51 -1.93 1.85
-11.51 -2.16 1.86
-11.50 -2.40 1.86
-11.49 -2.64 1.87
-11.48 -2.88 1.88
-11.46 -3.12 1.88
-11.45 -3.37 1.89
-11.43 -3.61 1.90
-11.41 -3.86 1.91
-11.40 -4.11 1.92
-11.39 -4.37 1.93
-11.39 -4.63 1.95
-11.39 -4.90 1.97
-11.39 -5.18 1.98
-11.39 -5.45 2.00
-11.39 -5.73 2.02
-11.38 -6.02 2.04
-11.38 -6.31 2.06
-11.40 -6.63 2.09
-11.41 -6.95 2.12
-11.43 -7.27 2.15
-11.44 -7.61 2.18
-11.46 -7.96 2.22
-11.51 -8.34 2.26
-11.47 -8.67 2.28
-11.43 -9.00 2.31
-11.38 -9.34 2.34
-11.34 -9.69 2.37
-11.29 -10.05 2.40
-11.26 -10.43 2.44
-11.19 -10.79 2.47
-11.10 -11.15 2.51
-10.93 -11.42 2.52
-10.76 -11.70 2.53
-9.92 -11.24 2.39
-9.69 -11.43 2.39
-9.46 -11.62 2.39
-9.22 -11.80 2.39
-8.97 -11.98 2.39
-8.73 -12.15 2.39
-8.48 -12.32 2.39
-8.23 -12.48 2.39
-7.97 -12.64 2.39
-7.71 -12.79 2.39
-7.45 -12.93 2.39
-7.18 -13.07 2.39
-6.92 -13.21 2.39
-6.65 -13.33 2.39
-6.37 -13.46 2.39
-6.10 -13.57 2.39
-6.04 -14.20 2.48
-5.78 -14.39 2.49
-5.49 -14.49 2.49
-5.19 -14.59 2.49
-4.90 -14.68 2.49
-4.60 -14.77 2.49
-4.30 -14.85 2.49
-4.00 -14.92 2.49
-3.70 -14.99 2.49
-3.39 -15.05 2.49
-3.09 -15.10 2.49
-2.78 -15.15 2.49
-2.48 -15.19 2.49
-2.17 -15.23 2.49
-1.86 -15.26 2.49
-1.55 -15.28 2.49
-1.25 -15.30 2.49
-0.94 -15.31 2.49
-0.63 -15.31 2.49
-0.32 -15.31 2.49
-0.01 -13.40 2.49
0.25 -13.39 2.49
0.52 -13.37 2.49
0.79 -13.35 2.49
1.06 -13.32 2.49
1.32 -13.29 2.49
1.59 -13.25 2.49
1.85 -13.21 2.49
2.03 -12.61 2.39
2.28 -12.56 2.39
2.53 -12.51 2.39
2.78 -12.44 2.39
3.03 -12.38 2.39
3.27 -12.31 2.39
3.52 -12.23 2.39
3.76 -12.15 2.39
4.00 -12.06 2.39
4.24 -11.97 2.39
4.47 -11.88 2.39
4.71 -11.78 2.39
4.94 -11.67 2.39
5.17 -11.56 2.39
5.40 -11.45 2.39
5.62 -11.33 2.39
5.84 -11.21 2.39
6.07 -11.10 2.39
6.29 -10.96 2.39
6.50 -10.83 2.39
6.72 -10.69 2.39
6.92 -10.55 2.39
7.13 -10.40 2.39
7.33 -10.25 2.39
7.53 -10.09 2.39
7.73 -9.93 2.39
7.92 -9.77 2.39
8.11 -9.60 2.39
8.30 -9.43 2.39
8.48 -9.26 2.39
8.66 -9.08 2.39
8.83 -8.90 2.39
9.01 -8.71 2.39
9.17 -8.53 2.39
9.34 -8.33 2.39
9.50 -8.14 2.39
9.65 -7.94 2.39
9.81 -7.74 2.39
9.96 -7.54 2.39
10.10 -7.34 2.39
10.24 -7.13 2.39
2.25 -1.50 0.52
2.28 -1.46 0.52
10.63 -6.49 2.39
10.76 -6.27 2.39
10.88 -6.05 2.39
10.99 -5.83 2.39
11.10 -5.60 2.39
11.21 -5.38 2.39
11.31 -5.15 2.39
11.40 -4.92 2.39
11.49 -4.69 2.39
11.58 -4.45 2.39
11.66 -4.22 2.39
11.74 -3.98 2.39
11.82 -3.74 2.39
11.88 -3.50 2.39
11.95 -3.26 2.39
12.01 -3.02 2.39
12.06 -2.78 2.39
12.11 -2.53 2.39
12.16 -2.29 2.39
12.20 -2.04 2.39
12.23 -1.80 2.39
12.26 -1.55 2.39
12.29 -1.31 2.39
12.31 -1.06 2.39
12.32 -0.81 2.39
12.33 -0.56 2.39
12.34 -0.31 2.39
12.34 -0.07 2.39
12.34 0.18 2.39
12.33 0.43 2.39
12.32 0.68 2.39
12.30 0.92 2.39
12.28 1.17 2.39
12.25 1.42 2.39
12.22 1.66 2.39
12.18 1.91 2.39
12.14 2.15 2.39
12.09 2.40 2.39
12.04 2.64 2.39
11.98 2.88 2.39
11.92 3.12 2.39
11.86 3.36 2.39
11.79 3.60 2.39
11.71 3.83 2.39
11.63 4.07 2.39
11.55 4.30 2.39
11.46 4.53 2.39
11.37 4.76 2.39
11.27 4.99 2.39
11.17 5.22 2.39
11.07 5.44 2.39
10.96 5.66 2.39
10.84 5.88 2.39
10.72 6.10 2.39
10.60 6.31 2.39
10.47 6.53 2.39
10.34 6.74 2.39
10.20 6.94 2.39
10.07 7.15 2.39
9.92 7.35 2.39
9.77 7.55 2.39
9.62 7.75 2.39
9.47 7.94 2.39
9.31 8.13 2.39
9.15 8.32 2.39
8.98 8.51 2.39
8.81 8.69 2.39
8.64 8.87 2.39
8.46 9.04 2.39
8.28 9.21 2.39
8.09 9.38 2.39
7.91 9.54 2.39
7.72 9.70 2.39
7.52 9.86 2.39
7.33 10.01 2.39
7.13 10.16 2.39
6.92 10.31 2.39
6.72 10.45 2.39
6.51 10.58 2.39
6.30 10.72 2.39
6.08 10.85 2.39
5.86 10.96 2.39
5.64 11.08 2.39
5.42 11.20 2.39
5.20 11.31 2.39
4.97 11.42 2.39
4.74 11.52 2.39
4.51 11.62 2.39
4.28 11.71 2.39
4.05 11.80 2.39
3.81 11.89 2.39
3.57 11.97 2.39
3.33 12.05 2.39
3.09 12.12 2.39
2.85 12.18 2.39
2.61 12.25 2.39
2.36 12.30 2.39
2.12 12.36 2.39
1.95 12.94 2.49
1.69 12.98 2.49
1.43 13.02 2.49
1.17 13.06 2.49
0.91 13.08 2.49
0.64 13.11 2.49
0.38 13.13 2.49
0.12 13.14 2.49
-0.15 13.15 2.49
-0.41 13.15 2.49
-0.68 13.15 2.49
-0.94 13.14 2.49
-1.20 13.13 2.49
-1.47 13.11 2.49
-1.73 13.09 2.49
-2.00 13.06 2.49
-2.26 13.02 2.49
-2.52 12.98 2.49
-2.78 12.94 2.49
-3.05 12.89 2.49
-3.31 12.83 2.49
-3.56 12.77 2.49
-3.82 12.71 2.49
-4.08 12.64 2.49
-4.34 12.56 2.49
-4.59 12.48 2.49
-4.84 12.39 2.49
-5.09 12.30 2.49
-5.34 12.21 2.49
-5.59 12.10 2.49
-5.84 12.00 2.49
-6.08 11.89 2.49
-6.10 11.36 2.41
-6.30 11.19 2.40
-6.52 11.05 2.39
-6.74 10.92 2.39
-6.96 10.79 2.39
-7.18 10.65 2.39
-7.40 10.51 2.39
-7.62 10.37 2.39
-7.83 10.22 2.39
-8.04 10.07 2.39
-8.24 9.91 2.39
-8.44 9.75 2.39
-8.64 9.59 2.39
-8.84 9.42 2.39
-9.03 9.24 2.39
-9.22 9.06 2.39
-9.41 8.88 2.39
-9.59 8.70 2.39
-9.66 8.42 2.37
-9.72 8.13 2.34
-9.77 7.85 2.31
-9.81 7.56 2.28
-9.85 7.28 2.26
-9.89 7.00 2.23
-9.92 6.73 2.21
-9.96 6.48 2.19
-10.01 6.22 2.17
-10.05 5.97 2.15
-10.09 5.73 2.13
-10.13 5.48 2.11
-10.16 5.24 2.10
-10.19 5.00 2.08
-10.23 4.76 2.07
-10.26 4.53 2.05
-10.29 4.30 2.04
-10.32 4.07 2.03
-10.35 3.84 2.02
-10.36 3.61 2.01
-10.37 3.39 1.99
-10.39 3.16 1.98
-10.46 2.96 1.99
-10.56 2.76 1.99
-10.65 2.55 2.00
-10.74 2.35 2.01
-10.84 2.14 2.01
-10.93 1.93 2.02
-10.97 1.71 2.02
-11.02 1.50 2.03
-11.08 1.28 2.03
-11.14 1.06 2.04
-11.16 0.84 2.04
-11.18 0.61 2.04
-11.20 0.39 2.04
-11.22 0.17 2.04
-11.24 -0.06 2.04
-11.25 -0.29 2.05
-11.25 -0.51 2.05
-11.25 -0.74 2.05
-11.25 -0.96 2.05
-11.25 -1.19 2.06
-11.25 -1.42 2.06
-11.25 -1.65 2.07
-11.25 -1.88 2.07
-11.24 -2.11 2.08
-11.23 -2.35 2.09
-11.22 -2.58 2.09
-11.21 -2.81 2.10
-11.19 -3.05 2.11
-11.18 -3.29 2.12
-11.16 -3.53 2.13
-11.14 -3.77 2.14
-11.12 -4.01 2.15
-11.07 -4.25 2.15
-11.06 -4.50 2.17
-11.05 -4.76 2.19
-11.04 -5.02 2.20
-11.03 -5.28 2.22
-11.02 -5.55 2.24
-11.00 -5.82 2.26
-10.98 -6.09 2.28
-10.96 -6.37 2.30
-10.98 -6.68 2.34
-11.02 -7.01 2.38
-11.06 -7.36 2.42
-11.10 -7.71 2.46
-11.13 -8.06 2.50
-11.12 -8.40 2.54
-11.01 -8.67 2.55
-10.90 -8.94 2.57
-9.98 -8.52 2.39
-9.80 -8.72 2.39
-9.62 -8.91 2.39
-9.44 -9.10 2.39
-9.25 -9.29 2.39
-9.06 -9.47 2.39
-8.86 -9.64 2.39
-8.66 -9.81 2.39
-8.46 -9.98 2.39
-8.26 -10.15 2.39
-8.05 -10.31 2.39
-7.84 -10.46 2.39
-7.62 -10.61 2.39
-7.41 -10.76 2.39
-7.19 -10.90 2.39
-6.96 -11.04 2.39
-6.74 -11.17 2.39
-6.51 -11.30 2.39
-6.28 -11.42 2.39
-6.07 -11.58 2.40
-6.05 -12.14 2.49
-5.81 -12.27 2.49
-5.56 -12.37 2.49
-5.31 -12.48 2.49
-5.06 -12.57 2.49
-4.80 -12.66 2.49
-4.54 -12.75 2.49
-4.28 -12.83 2.49
-4.02 -12.91 2.49
-3.76 -12.98 2.49
-3.50 -13.05 2.49
-3.23 -13.10 2.49
-2.97 -13.16 2.49
-2.70 -13.21 2.49
-2.43 -13.25 2.49
-2.17 -13.29 2.49
-1.90 -13.32 2.49
-1.63 -13.35 2.49
-1.36 -13.37 2.49
-1.09 -13.39 2.49
-0.82 -13.40 2.49
-0.55 -13.40 2.49
-0.28 -13.40 2.49
-0.01 -11.90 2.49
0.22 -11.89 2.49
0.46 -11.88 2.49
0.70 -11.86 2.49
0.94 -11.84 2.49
1.17 -11.81 2.49
1.41 -11.77 2.49
1.64 -11.74 2.49
1.88 -11.69 2.49
2.02 -11.17 2.39
2.25 -11.12 2.39
2.47 -11.06 2.39
2.69 -11.00 2.39
2.91 -10.94 2.39
3.12 -10.87 2.39
3.34 -10.80 2.39
3.55 -10.73 2.39
3.77 -10.65 2.39
3.98 -10.56 2.39
4.19 -10.48 2.39
4.39 -10.38 2.39
4.60 -10.29 2.39
4.80 -10.19 2.39
5.00 -10.08 2.39
5.20 -9.97 2.39
5.39 -9.86 2.39
5.59 -9.74 2.39
5.78 -9.63 2.39
5.97 -9.50 2.39
6.16 -9.39 2.39
6.35 -9.26 2.39
6.53 -9.12 2.39
6.70 -8.98 2.39
6.88 -8.84 2.39
7.05 -8.70 2.39
7.22 -8.55 2.39
7.39 -8.40 2.39
7.55 -8.24 2.39
7.71 -8.09 2.39
7.87 -7.93 2.39
8.02 -7.76 2.39
8.17 -7.60 2.39
8.32 -7.43 2.39
8.46 -7.25 2.39
8.60 -7.08 2.39
8.74 -6.90 2.39
8.87 -6.72 2.39
9.00 -6.54 2.39
9.12 -6.35 2.39
2.25 -1.50 0.58
2.28 -1.46 0.58
9.48 -5.78 2.39
9.59 -5.59 2.39
9.69 -5.39 2.39
9.80 -5.20 2.39
9.89 -5.00 2.39
9.99 -4.79 2.39
10.08 -4.59 2.39
10.17 -4.39 2.39
10.25 -4.18 2.39
10.33 -3.97 2.39
10.40 -3.76 2.39
10.47 -3.55 2.39
10.54 -3.34 2.39
10.60 -3.12 2.39
10.65 -2.91 2.39
10.71 -2.69 2.39
10.76 -2.48 2.39
10.80 -2.26 2.39
10.84 -2.04 2.39
10.88 -1.82 2.39
10.91 -1.61 2.39
10.94 -1.39 2.39
10.96 -1.16 2.39
10.98 -0.94 2.39
10.99 -0.72 2.39
11.00 -0.50 2.39
11.01 -0.28 2.39
11.01 -0.06 2.39
11.01 0.16 2.39
11.00 0.38 2.39
10.99 0.60 2.39
10.97 0.82 2.39
10.95 1.04 2.39
10.93 1.26 2.39
10.90 1.48 2.39
10.87 1.70 2.39
10.83 1.92 2.39
10.79 2.14 2.39
10.74 2.35 2.39
10.69 2.57 2.39
10.64 2.78 2.39
10.58 3.00 2.39
10.52 3.21 2.39
10.45 3.42 2.39
10.38 3.63 2.39
10.31 3.84 2.39
10.23 4.04 2.39
10.14 4.25 2.39
10.06 4.45 2.39
9.97 4.65 2.39
9.87 4.85 2.39
9.77 5.05 2.39
9.67 5.25 2.39
9.57 5.44 2.39
9.46 5.63 2.39
9.34 5.82 2.39
9.22 6.01 2.39
9.10 6.20 2.39
8.98 6.38 2.39
8.85 6.56 2.39
8.72 6.74 2.39
8.58 6.91 2.39
8.44 7.08 2.39
8.30 7.25 2.39
8.16 7.42 2.39
8.01 7.59 2.39
7.86 7.75 2.39
7.70 7.91 2.39
7.54 8.06 2.39
7.38 8.21 2.39
7.22 8.36 2.39
7.05 8.51 2.39
6.88 8.65 2.39
6.71 8.79 2.39
6.53 8.93 2.39
6.35 9.06 2.39
6.17 9.19 2.39
5.99 9.32 2.39
5.79 9.43 2.39
5.61 9.54 2.39
5.42 9.66 2.39
5.22 9.77 2.39
5.03 9.88 2.39
4.83 9.98 2.39
4.63 10.08 2.39
4.43 10.17 2.39
4.23 10.27 2.39
4.02 10.35 2.39
3.81 10.44 2.39
3.60 10.52 2.39
3.39 10.59 2.39
3.18 10.66 2.39
2.97 10.73 2.39
2.75 10.79 2.39
2.54 10.85 2.39
2.32 10.91 2.39
2.10 10.96 2.39
1.95 11.42 2.48
1.73 11.52 2.49
1.50 11.56 2.49
1.27 11.59 2.49
1.04 11.62 2.49
0.81 11.65 2.49
0.57 11.67 2.49
0.34 11.68 2.49
0.10 11.70 2.49
-0.13 11.70 2.49
-0.37 11.70 2.49
-0.60 11.70 2.49
-0.84 11.69 2.49
-1.07 11.68 2.49
-1.31 11.66 2.49
-1.54 11.64 2.49
-1.78 11.62 2.49
-2.01 11.59 2.49
-2.24 11.55 2.49
-2.48 11.51 2.49
-2.71 11.46 2.49
-2.94 11.41 2.49
-3.17 11.36 2.49
-3.40 11.30 2.49
-3.63 11.24 2.49
-3.86 11.17 2.49
-4.08 11.10 2.49
-4.31 11.02 2.49
-4.53 10.94 2.49
-4.75 10.85 2.49
-4.97 10.76 2.49
-5.19 10.66 2.49
-5.41 10.56 2.49
-5.62 10.46 2.49
-5.83 10.35 2.49
-6.04 10.24 2.49
-6.09 9.86 2.43
-6.19 9.58 2.39
-6.38 9.46 2.39
-6.57 9.34 2.39
-6.76 9.21 2.39
-6.95 9.08 2.39
-7.14 8.94 2.39
-7.32 8.80 2.39
-7.50 8.66 2.39
-7.67 8.51 2.39
-7.85 8.36 2.39
-8.02 8.20 2.39
-8.19 8.05 2.39
-8.35 7.88 2.39
-8.51 7.72 2.39
-8.67 7.55 2.39
-8.82 7.38 2.39
-8.97 7.20 2.39
-9.12 7.03 2.39
-9.26 6.85 2.39
-9.40 6.66 2.39
-9.54 6.47 2.39
-9.59 6.23 2.37
-9.64 5.99 2.35
-9.68 5.75 2.33
-9.72 5.51 2.31
-9.76 5.28 2.30
-9.79 5.05 2.28
-9.83 4.82 2.26
-9.86 4.59 2.25
-9.89 4.37 2.23
-9.92 4.15 2.22
-9.95 3.93 2.21
-9.97 3.70 2.20
-9.99 3.48 2.18
-10.01 3.27 2.17
-10.02 3.05 2.16
-10.03 2.83 2.15
-10.09 2.63 2.15
-10.18 2.44 2.16
-10.27 2.24 2.16
-10.35 2.05 2.17
-10.44 1.85 2.18
-10.44 1.63 2.17
-10.44 1.42 2.17
-10.44 1.21 2.16
-10.48 1.00 2.16
-10.54 0.79 2.17
-10.59 0.58 2.18
-10.64 0.37 2.19
-10.69 0.16 2.19
-10.73 -0.06 2.20
-10.76 -0.27 2.21
-10.75 -0.49 2.21
-10.75 -0.71 2.21
-10.75 -0.92 2.21
-10.75 -1.14 2.22
-10.74 -1.36 2.22
-10.74 -1.58 2.23
-10.73 -1.79 2.23
-10.71 -2.01 2.24
-10.70 -2.23 2.24
-10.70 -2.46 2.25
-10.69 -2.68 2.26
-10.65 -2.90 2.26
-10.61 -3.12 2.27
-10.57 -3.34 2.27
-10.53 -3.56 2.28
-10.48 -3.78 2.29
-10.44 -4.00 2.29
-10.39 -4.22 2.30
-10.36 -4.46 2.31
-10.34 -4.70 2.33
-10.31 -4.94 2.35
-10.29 -5.18 2.36
-10.27 -5.43 2.38
-10.24 -5.68 2.40
-10.07 -5.86 2.39
-9.95 -6.06 2.39
-9.83 -6.25 2.39
-9.70 -6.45 2.39
-9.56 -6.64 2.39
-9.43 -6.83 2.39
-9.29 -7.01 2.39
-9.14 -7.20 2.39
-8.99 -7.38 2.39
-8.84 -7.56 2.39
-8.69 -7.73 2.39
-8.53 -7.90 2.39
-8.36 -8.07 2.39
-8.20 -8.23 2.39
-8.03 -8.39 2.39
-7.86 -8.55 2.39
-7.68 -8.70 2.39
-7.50 -8.85 2.39
-7.32 -8.99 2.39
-7.14 -9.14 2.39
-6.95 -9.27 2.39
-6.76 -9.41 2.39
-6.57 -9.54 2.39
-6.37 -9.66 2.39
-6.18 -9.79 2.39
-6.06 -10.05 2.43
-6.02 -10.45 2.49
-5.81 -10.56 2.49
-5.59 -10.67 2.49
-5.38 -10.78 2.49
-5.16 -10.88 2.49
-4.94 -10.98 2.49
-4.71 -11.07 2.49
-4.49 -11.16 2.49
-4.26 -11.24 2.49
-4.03 -11.32 2.49
-3.80 -11.39 2.49
-3.57 -11.46 2.49
-3.34 -11.52 2.49
-3.11 -11.58 2.49
-2.87 -11.63 2.49
-2.64 -11.68 2.49
-2.40 -11.73 2.49
-2.16 -11.76 2.49
-1.93 -11.80 2.49
-1.69 -11.83 2.49
-1.45 -11.85 2.49
-1.21 -11.87 2.49
-0.97 -11.89 2.49
-0.73 -11.90 2.49
-0.49 -11.90 2.49
-0.25 -11.91 2.49
-0.01 -10.70 2.49
0.20 -10.69 2.49
0.41 -10.68 2.49
0.63 -10.66 2.49
0.84 -10.64 2.49
1.05 -10.61 2.49
1.27 -10.59 2.49
1.48 -10.55 2.49
1.69 -10.51 2.49
1.90 -10.47 2.49
2.02 -10.00 2.39
2.22 -9.95 2.39
2.42 -9.90 2.39
2.61 -9.84 2.39
2.81 -9.78 2.39
3.00 -9.72 2.39
3.20 -9.65 2.39
3.39 -9.58 2.39
3.58 -9.50 2.39
3.76 -9.42 2.39
3.95 -9.34 2.39
4.13 -9.26 2.39
4.32 -9.17 2.39
4.50 -9.07 2.39
4.68 -8.98 2.39
4.85 -8.87 2.39
5.03 -8.77 2.39
5.20 -8.66 2.39
5.37 -8.55 2.39
5.54 -8.44 2.39
5.70 -8.32 2.39
5.87 -8.20 2.39
6.04 -8.09 2.39
6.19 -7.96 2.39
6.35 -7.83 2.39
6.50 -7.70 2.39
6.65 -7.56 2.39
6.80 -7.42 2.39
6.94 -7.28 2.39
7.08 -7.14 2.39
7.22 -6.99 2.39
7.36 -6.84 2.39
7.49 -6.69 2.39
7.62 -6.53 2.39
7.75 -6.38 2.39
7.87 -6.22 2.39
7.99 -6.06 2.39
8.11 -5.89 2.39
8.22 -5.72 2.39
2.25 -1.50 0.65
2.28 -1.46 0.65
8.54 -5.21 2.39
8.64 -5.04 2.39
8.73 -4.86 2.39
8.83 -4.68 2.39
8.92 -4.50 2.39
9.00 -4.32 2.39
9.08 -4.14 2.39
9.16 -3.95 2.39
9.24 -3.77 2.39
9.31 -3.58 2.39
9.37 -3.39 2.39
9.44 -3.20 2.39
9.50 -3.01 2.39
9.55 -2.82 2.39
9.60 -2.62 2.39
9.65 -2.43 2.39
9.70 -2.24 2.39
9.74 -2.04 2.39
9.77 -1.84 2.39
9.81 -1.65 2.39
9.83 -1.45 2.39
9.86 -1.25 2.39
9.88 -1.05 2.39
9.90 -0.85 2.39
9.91 -0.65 2.39
9.92 -0.45 2.39
9.93 -0.25 2.39
9.93 -0.05 2.39
9.92 0.15 2.39
9.92 0.34 2.39
9.91 0.54 2.39
9.89 0.74 2.39
9.88 0.94 2.39
9.85 1.14 2.39
9.83 1.34 2.39
9.80 1.53 2.39
9.77 1.73 2.39
9.73 1.93 2.39
9.69 2.12 2.39
9.64 2.32 2.39
9.59 2.51 2.39
9.54 2.70 2.39
9.48 2.89 2.39
9.42 3.08 2.39
9.36 3.27 2.39
9.29 3.46 2.39
9.22 3.65 2.39
9.15 3.83 2.39
9.07 4.01 2.39
8.99 4.20 2.39
8.90 4.38 2.39
8.81 4.56 2.39
8.72 4.73 2.39
8.63 4.91 2.39
8.53 5.08 2.39
8.42 5.25 2.39
8.32 5.42 2.39
8.21 5.59 2.39
8.10 5.75 2.39
7.98 5.91 2.39
7.86 6.07 2.39
7.74 6.23 2.39
7.61 6.39 2.39
7.48 6.54 2.39
7.35 6.69 2.39
7.22 6.84 2.39
7.08 6.99 2.39
6.94 7.13 2.39
6.80 7.27 2.39
6.65 7.41 2.39
6.51 7.54 2.39
6.35 7.67 2.39
6.20 7.80 2.39
6.04 7.93 2.39
5.88 8.04 2.39
5.72 8.16 2.39
5.55 8.27 2.39
5.39 8.39 2.39
5.22 8.49 2.39
5.05 8.60 2.39
4.88 8.70 2.39
4.70 8.80 2.39
4.53 8.90 2.39
4.35 8.99 2.39
4.17 9.08 2.39
3.99 9.17 2.39
3.81 9.25 2.39
3.62 9.33 2.39
3.43 9.40 2.39
3.25 9.47 2.39
3.06 9.54 2.39
2.87 9.61 2.39
2.67 9.67 2.39
2.48 9.72 2.39
2.28 9.77 2.39
2.09 9.82 2.39
1.96 10.20 2.47
1.77 10.34 2.49
1.56 10.37 2.49
1.35 10.41 2.49
1.14 10.44 2.49
0.93 10.47 2.49
0.72 10.49 2.49
0.51 10.50 2.49
0.30 10.52 2.49
0.09 10.53 2.49
-0.12 10.53 2.49
-0.33 10.53 2.49
-0.54 10.53 2.49
-0.76 10.52 2.49
-0.97 10.51 2.49
-1.18 10.50 2.49
-1.39 10.48 2.49
-1.60 10.45 2.49
-1.81 10.42 2.49
-2.02 10.39 2.49
-2.23 10.35 2.49
-2.44 10.31 2.49
-2.65 10.27 2.49
-2.85 10.22 2.49
-3.06 10.16 2.49
-3.27 10.10 2.49
-3.47 10.04 2.49
-3.67 9.98 2.49
-3.87 9.91 2.49
-4.07 9.83 2.49
-4.27 9.75 2.49
-4.47 9.67 2.49
-4.67 9.58 2.49
-4.86 9.49 2.49
-5.05 9.40 2.49
-5.24 9.30 2.49
-5.43 9.20 2.49
-5.62 9.09 2.49
-5.80 8.98 2.49
-5.98 8.87 2.49
-6.09 8.64 2.46
-6.10 8.30 2.40
-6.25 8.16 2.39
-6.41 8.03 2.39
-6.58 7.91 2.39
-6.74 7.78 2.39
-6.90 7.64 2.39
-7.05 7.51 2.39
-7.20 7.37 2.39
-7.35 7.23 2.39
-7.50 7.08 2.39
-7.64 6.93 2.39
-7.79 6.78 2.39
-7.92 6.63 2.39
-8.06 6.47 2.39
-8.19 6.31 2.39
-8.32 6.15 2.39
-8.44 5.98 2.39
-8.57 5.81 2.39
-8.69 5.64 2.39
-8.80 5.47 2.39
-8.91 5.29 2.39
-9.02 5.12 2.39
-9.12 4.94 2.39
-9.22 4.75 2.39
-9.32 4.57 2.39
-9.42 4.38 2.39
-9.50 4.19 2.39
-9.58 4.00 2.39
-9.61 3.79 2.37
-9.63 3.57 2.36
-9.64 3.36 2.35
-9.66 3.15 2.33
-9.67 2.94 2.32
-9.69 2.74 2.31
-9.70 2.53 2.30
-9.75 2.34 2.30
-9.83 2.15 2.31
-9.91 1.96 2.32
-9.96 1.76 2.32
-9.96 1.56 2.31
-9.97 1.35 2.30
-9.97 1.15 2.30
-9.96 0.95 2.29
-9.96 0.75 2.29
-9.98 0.55 2.29
-10.03 0.35 2.30
-10.07 0.15 2.31
-10.11 -0.05 2.31
-10.14 -0.26 2.32
-10.13 -0.46 2.32
-10.12 -0.66 2.32
-10.11 -0.87 2.32
-10.10 -1.07 2.32
-10.08 -1.27 2.32
-10.07 -1.48 2.33
-10.06 -1.68 2.33
-10.05 -1.89 2.34
-10.03 -2.10 2.34
-10.02 -2.30 2.35
-10.01 -2.51 2.36
-10.00 -2.73 2.37
-9.99 -2.94 2.38
-9.97 -3.15 2.39
-9.91 -3.35 2.39
-9.84 -3.55 2.39
-9.76 -3.74 2.39
-9.69 -3.94 2.39
-9.60 -4.13 2.39
-9.52 -4.32 2.39
-9.43 -4.51 2.39
-9.34 -4.70 2.39
-9.24 -4.89 2.39
-9.14 -5.07 2.39
-9.03 -5.25 2.39
-8.93 -5.43 2.39
-8.81 -5.61 2.39
-8.70 -5.78 2.39
-8.58 -5.96 2.39
-8.46 -6.12 2.39
-8.33 -6.29 2.39
-8.20 -6.46 2.39
-8.07 -6.62 2.39
-7.93 -6.78 2.39
-7.79 -6.93 2.39
-7.65 -7.09 2.39
-7.50 -7.24 2.39
-7.36 -7.38 2.39
-7.20 -7.53 2.39
-7.05 -7.67 2.39
-6.89 -7.81 2.39
-6.73 -7.94 2.39
-6.57 -8.07 2.39
-6.41 -8.20 2.39
-6.24 -8.32 2.39
-6.07 -8.45 2.39
-6.06 -8.80 2.46
-5.97 -9.05 2.49
-5.78 -9.16 2.49
-5.60 -9.27 2.49
-5.41 -9.38 2.49
-5.22 -9.48 2.49
-5.02 -9.58 2.49
-4.83 -9.68 2.49
-4.63 -9.77 2.49
-4.43 -9.85 2.49
-4.23 -9.94 2.49
-4.03 -10.02 2.49
-3.83 -10.09 2.49
-3.62 -10.16 2.49
-3.42 -10.23 2.49
-3.21 -10.29 2.49
-3.00 -10.34 2.49
-2.79 -10.40 2.49
-2.58 -10.45 2.49
-2.37 -10.49 2.49
-2.16 -10.53 2.49
-1.94 -10.57 2.49
-1.73 -10.60 2.49
-1.52 -10.63 2.49
-1.30 -10.65 2.49
-1.09 -10.67 2.49
-0.87 -10.68 2.49
-0.66 -10.69 2.49
-0.44 -10.70 2.49
-0.23 -10.70 2.49
-0.01 -9.70 2.49
0.18 -9.70 2.49
0.37 -9.69 2.49
0.57 -9.67 2.49
0.76 -9.65 2.49
0.95 -9.63 2.49
1.15 -9.61 2.49
1.34 -9.58 2.49
1.53 -9.54 2.49
1.72 -9.50 2.49
1.91 -9.46 2.49
2.01 -9.03 2.39
2.19 -8.98 2.39
2.37 -8.93 2.39
2.55 -8.88 2.39
2.72 -8.82 2.39
2.90 -8.76 2.39
3.07 -8.70 2.39
3.25 -8.63 2.39
3.42 -8.56 2.39
3.59 -8.48 2.39
3.75 -8.40 2.39
3.92 -8.32 2.39
4.08 -8.24 2.39
4.25 -8.15 2.39
4.41 -8.06 2.39
4.57 -7.97 2.39
4.72 -7.87 2.39
4.88 -7.77 2.39
5.03 -7.67 2.39
5.18 -7.56 2.39
5.33 -7.45 2.39
5.47 -7.34 2.39
5.62 -7.22 2.39
5.76 -7.11 2.39
5.90 -6.99 2.39
6.04 -6.87 2.39
6.18 -6.75 2.39
6.31 -6.62 2.39
6.44 -6.49 2.39
6.56 -6.35 2.39
6.69 -6.22 2.39
6.81 -6.08 2.39
6.92 -5.94 2.39
7.04 -5.80 2.39
7.15 -5.65 2.39
7.26 -5.50 2.39
7.37 -5.36 2.39
7.47 -5.20 2.39
2.25 -1.50 0.71
2.28 -1.46 0.71
7.76 -4.74 2.39
7.85 -4.58 2.39
7.94 -4.42 2.39
8.02 -4.26 2.39
8.11 -4.10 2.39
8.18 -3.93 2.39
8.26 -3.76 2.39
8.33 -3.60 2.39
8.40 -3.43 2.39
8.46 -3.26 2.39
8.52 -3.08 2.39
8.58 -2.91 2.39
8.64 -2.74 2.39
8.69 -2.56 2.39
8.73 -2.39 2.39
8.78 -2.21 2.39
8.82 -2.03 2.39
8.86 -1.86 2.39
8.89 -1.68 2.39
8.92 -1.50 2.39
8.94 -1.32 2.39
8.97 -1.14 2.39
8.99 -0.96 2.39
9.00 -0.78 2.39
9.01 -0.59 2.39
9.02 -0.41 2.39
9.03 -0.23 2.39
9.03 -0.05 2.39
9.03 0.13 2.39
9.02 0.31 2.39
9.01 0.49 2.39
9.00 0.68 2.39
8.98 0.86 2.39
8.96 1.04 2.39
8.94 1.22 2.39
8.91 1.40 2.39
8.88 1.57 2.39
8.85 1.75 2.39
8.81 1.93 2.39
8.77 2.11 2.39
8.73 2.28 2.39
8.68 2.46 2.39
8.63 2.63 2.39
8.57 2.81 2.39
8.52 2.98 2.39
8.45 3.15 2.39
8.39 3.32 2.39
8.32 3.49 2.39
8.25 3.65 2.39
8.18 3.82 2.39
8.10 3.98 2.39
8.02 4.14 2.39
7.93 4.30 2.39
7.85 4.46 2.39
7.76 4.62 2.39
7.66 4.78 2.39
7.57 4.93 2.39
7.47 5.08 2.39
7.36 5.23 2.39
7.26 5.38 2.39
7.15 5.53 2.39
7.04 5.67 2.39
6.92 5.81 2.39
6.81 5.95 2.39
6.69 6.09 2.39
6.57 6.22 2.39
6.44 6.35 2.39
6.31 6.48 2.39
6.18 6.61 2.39
6.05 6.74 2.39
5.91 6.85 2.39
5.77 6.97 2.39
5.63 7.08 2.39
5.49 7.20 2.39
5.34 7.31 2.39
5.20 7.42 2.39
5.05 7.52 2.39
4.90 7.62 2.39
4.75 7.72 2.39
4.59 7.82 2.39
4.43 7.91 2.39
4.28 8.00 2.39
4.12 8.09 2.39
3.95 8.18 2.39
3.79 8.26 2.39
3.63 8.33 2.39
3.46 8.41 2.39
3.29 8.48 2.39
3.12 8.55 2.39
2.95 8.61 2.39
2.78 8.67 2.39
2.60 8.73 2.39
2.43 8.78 2.39
2.25 8.84 2.39
2.07 8.88 2.39
1.96 9.21 2.47
1.79 9.35 2.49
1.60 9.39 2.49
1.42 9.43 2.49
1.23 9.46 2.49
1.04 9.48 2.49
0.85 9.51 2.49
0.66 9.53 2.49
0.47 9.54 2.49
0.27 9.55 2.49
0.08 9.56 2.49
-0.11 9.57 2.49
-0.30 9.57 2.49
-0.50 9.56 2.49
-0.69 9.56 2.49
-0.88 9.55 2.49
-1.07 9.53 2.49
-1.26 9.51 2.49
-1.45 9.49 2.49
-1.65 9.46 2.49
-1.84 9.43 2.49
-2.03 9.40 2.49
-2.22 9.36 2.49
-2.40 9.32 2.49
-2.59 9.27 2.49
-2.78 9.22 2.49
-2.97 9.17 2.49
-3.15 9.11 2.49
-3.33 9.05 2.49
-3.52 8.99 2.49
-3.70 8.92 2.49
-3.88 8.85 2.49
-4.06 8.78 2.49
-4.24 8.70 2.49
-4.41 8.61 2.49
-4.59 8.53 2.49
-4.76 8.44 2.49
-4.93 8.35 2.49
-5.10 8.25 2.49
-5.26 8.15 2.49
-5.43 8.05 2.49
-5.59 7.94 2.49
-5.75 7.83 2.49
-5.91 7.72 2.49
-6.07 7.60 2.49
-6.09 7.31 2.44
-6.11 7.05 2.39
-6.25 6.93 2.39
-6.39 6.81 2.39
-6.53 6.68 2.39
-6.67 6.55 2.39
-6.80 6.42 2.39
-6.93 6.28 2.39
-7.06 6.15 2.39
-7.18 6.01 2.39
-7.31 5.86 2.39
-7.43 5.72 2.39
-7.54 5.57 2.39
-7.66 5.42 2.39
-7.77 5.27 2.39
-7.87 5.11 2.39
-7.98 4.96 2.39
-8.08 4.80 2.39
-8.17 4.64 2.39
-8.27 4.47 2.39
-8.36 4.31 2.39
-8.45 4.14 2.39
-8.53 3.97 2.39
-8.61 3.80 2.39
-8.69 3.63 2.39
-8.76 3.45 2.39
-8.83 3.28 2.39
-8.90 3.10 2.39
-8.96 2.92 2.39
-9.02 2.74 2.39
