ply
format ascii 1.0
element vertex 2983
property float32 x
property float32 y
property float32 z
end_header
6.12 2.28 1.38
6.12 2.42 1.39
6.12 2.57 1.40
6.12 2.71 1.42
6.12 2.86 1.43
6.12 3.01 1.44
6.12 3.16 1.46
6.12 3.32 1.47
6.12 3.48 1.49
6.11 3.64 1.50
6.11 3.81 1.52
6.11 3.98 1.54
6.11 4.16 1.56
6.11 4.34 1.58
6.11 4.53 1.61
6.11 4.72 1.63
6.09 4.91 1.65
6.09 5.11 1.68
6.09 5.32 1.71
6.09 5.54 1.74
6.09 5.77 1.77
6.10 6.01 1.80
6.10 6.26 1.84
6.10 6.51 1.88
6.11 6.80 1.93
6.11 7.08 1.97
6.11 7.38 2.02
6.12 7.69 2.07
6.12 8.01 2.12
6.12 8.36 2.18
6.12 8.72 2.24
6.12 9.11 2.31
6.12 9.51 2.38
5.96 9.69 2.39
5.77 9.80 2.39
5.57 9.92 2.39
5.37 10.03 2.39
5.17 10.14 2.39
4.96 10.24 2.39
4.76 10.34 2.39
2.56 5.87 1.34
4.34 10.53 2.39
4.13 10.62 2.39
3.92 10.70 2.39
3.70 10.78 2.39
3.49 10.85 2.39
3.27 10.92 2.39
3.05 10.99 2.39
2.83 11.05 2.39
2.61 11.10 2.39
2.38 11.15 2.39
2.22 11.49 2.45
2.02 11.73 2.49
1.78 11.77 2.49
1.55 11.80 2.49
1.31 11.83 2.49
1.07 11.86 2.49
0.83 11.88 2.49
0.59 11.90 2.49
0.36 11.91 2.49
0.12 11.91 2.49
-0.12 11.91 2.49
-0.36 11.91 2.49
-0.60 11.90 2.49
-0.84 11.89 2.49
-1.08 11.87 2.49
-1.32 11.85 2.49
-1.55 11.82 2.49
-1.79 11.79 2.49
-2.03 11.75 2.49
-2.26 11.71 2.49
-2.50 11.66 2.49
-2.73 11.61 2.49
-2.96 11.55 2.49
-3.19 11.49 2.49
-3.42 11.42 2.49
-3.65 11.35 2.49
-3.88 11.28 2.49
-4.11 11.20 2.49
-4.33 11.12 2.49
-4.55 11.03 2.49
-4.77 10.93 2.49
-4.99 10.84 2.49
-5.21 10.73 2.49
-5.42 10.63 2.49
-5.63 10.52 2.49
-5.83 10.37 2.49
-5.83 9.91 2.40
-6.01 9.76 2.40
-6.19 9.62 2.39
-6.38 9.49 2.39
-6.57 9.36 2.39
-6.76 9.22 2.39
-6.94 9.09 2.39
-7.12 8.95 2.39
-7.30 8.80 2.39
-7.47 8.65 2.39
-7.65 8.50 2.39
-7.81 8.34 2.39
-7.98 8.19 2.39
-8.14 8.02 2.39
-8.30 7.86 2.39
-8.46 7.69 2.39
-8.61 7.52 2.39
-8.76 7.34 2.39
-8.90 7.16 2.39
-9.04 6.98 2.39
-9.18 6.80 2.39
-9.31 6.61 2.39
-9.44 6.43 2.39
-9.57 6.23 2.39
-9.69 6.04 2.39
-9.81 5.84 2.39
-9.84 5.59 2.37
-9.83 5.34 2.34
-9.83 5.08 2.32
-9.83 4.83 2.29
-9.83 4.59 2.27
-9.84 4.35 2.25
-9.92 4.16 2.25
-10.00 3.96 2.25
-10.08 3.75 2.25
-10.15 3.55 2.25
-10.21 3.35 2.25
-10.28 3.14 2.25
-10.34 2.93 2.25
-10.39 2.72 2.25
-10.44 2.51 2.25
-10.49 2.30 2.25
-10.53 2.09 2.25
-10.57 1.88 2.25
-10.60 1.67 2.25
-10.63 1.45 2.25
-10.66 1.24 2.25
-10.68 1.03 2.25
-10.70 0.81 2.25
-10.71 0.60 2.25
-10.72 0.38 2.25
-10.72 0.17 2.25
-10.72 -0.05 2.25
-10.71 -0.26 2.25
-10.70 -0.48 2.25
-10.24 -0.66 2.16
-9.74 -0.83 2.06
-46.53 -11.65 10.11
-46.24 -12.57 10.10
-9.79 -2.87 2.15
-9.80 -4.21 2.25
-9.79 -4.44 2.27
-9.66 -5.87 2.39
-9.53 -6.07 2.39
-9.41 -6.25 2.39
-9.28 -6.44 2.39
-9.15 -6.62 2.39
-9.01 -6.81 2.39
-8.87 -6.98 2.39
-8.73 -7.16 2.39
-8.58 -7.33 2.39
-8.43 -7.50 2.39
-8.27 -7.67 2.39
-8.12 -7.83 2.39
-7.96 -7.99 2.39
-7.79 -8.14 2.39
-7.62 -8.30 2.39
-7.46 -8.45 2.39
-7.28 -8.59 2.39
-6.75 -8.29 2.27
-6.67 -8.55 2.30
-6.64 -8.86 2.35
-6.46 -8.99 2.35
-6.08 -8.84 2.28
-6.08 -9.23 2.35
-6.00 -9.52 2.39
-5.81 -9.63 2.39
-5.72 -9.94 2.44
-5.65 -10.28 2.49
-5.44 -10.39 2.49
-5.23 -10.49 2.49
-5.01 -10.59 2.49
-4.80 -10.69 2.49
-4.58 -10.78 2.49
-4.36 -10.87 2.49
-4.14 -10.95 2.49
-3.92 -11.03 2.49
-3.70 -11.11 2.49
-3.48 -11.18 2.49
-3.25 -11.24 2.49
-3.02 -11.31 2.49
-2.80 -11.36 2.49
-2.57 -11.41 2.49
-2.34 -11.46 2.49
-2.11 -11.50 2.49
-1.87 -11.54 2.49
-1.64 -11.58 2.49
-1.41 -11.61 2.49
-1.17 -11.63 2.49
-0.94 -11.65 2.49
-0.71 -11.67 2.49
-0.47 -11.68 2.49
-0.24 -11.68 2.49
-0.00 -10.52 2.49
0.21 -10.51 2.49
0.42 -10.51 2.49
0.63 -10.50 2.49
0.84 -10.48 2.49
1.05 -10.46 2.49
1.26 -10.44 2.49
1.47 -10.41 2.49
1.68 -10.38 2.49
1.89 -10.34 2.49
2.09 -10.30 2.49
2.30 -10.25 2.49
2.40 -9.78 2.39
2.60 -9.73 2.39
2.79 -9.68 2.39
2.99 -9.62 2.39
3.18 -9.56 2.39
3.37 -9.49 2.39
3.56 -9.42 2.39
3.75 -9.35 2.39
3.93 -9.27 2.39
4.12 -9.19 2.39
4.30 -9.10 2.39
4.49 -9.02 2.39
4.67 -8.92 2.39
4.84 -8.83 2.39
5.02 -8.73 2.39
5.19 -8.63 2.39
5.37 -8.52 2.39
5.54 -8.41 2.39
5.70 -8.30 2.39
5.87 -8.18 2.39
6.03 -8.06 2.39
6.19 -7.94 2.39
6.17 -7.59 2.32
6.17 -7.29 2.27
6.17 -6.99 2.21
6.17 -6.72 2.16
6.17 -6.45 2.12
6.17 -6.19 2.07
6.16 -5.95 2.03
6.16 -5.71 1.99
6.16 -5.49 1.96
6.16 -5.27 1.92
6.16 -5.06 1.89
6.16 -4.85 1.86
6.16 -4.65 1.83
6.16 -4.46 1.80
6.16 -4.27 1.78
6.15 -4.09 1.75
6.15 -3.92 1.73
6.15 -3.74 1.71
6.15 -3.58 1.69
6.15 -3.41 1.67
6.15 -3.25 1.65
6.15 -3.10 1.63
6.15 -2.94 1.62
6.15 -2.79 1.60
6.15 -2.64 1.59
6.15 -2.50 1.57
6.15 -2.36 1.56
6.14 -2.21 1.55
6.14 -2.08 1.54
6.14 -1.94 1.53
6.14 -1.80 1.52
6.14 -1.67 1.51
6.14 -1.54 1.50
6.14 -1.41 1.49
6.14 -1.28 1.48
6.14 -1.15 1.48
6.14 -1.02 1.47
6.14 -0.90 1.47
6.14 -0.77 1.46
6.14 -0.65 1.46
6.14 -0.52 1.46
6.14 -0.40 1.45
6.13 -0.27 1.45
6.13 -0.15 1.45
6.13 -0.03 1.45
6.13 0.10 1.45
6.13 0.22 1.45
6.13 0.34 1.45
6.13 0.47 1.45
6.13 0.59 1.45
6.13 0.71 1.46
6.13 0.84 1.46
6.13 0.96 1.46
6.13 1.09 1.47
6.13 1.22 1.47
6.13 1.35 1.48
6.13 1.48 1.48
6.13 1.61 1.49
6.12 1.74 1.50
6.12 1.87 1.51
6.12 2.01 1.52
6.12 2.14 1.53
6.12 2.28 1.54
6.12 2.42 1.55
6.12 2.57 1.56
6.12 2.71 1.57
6.12 2.86 1.59
6.12 3.01 1.60
6.12 3.16 1.62
6.12 3.32 1.64
6.12 3.48 1.65
6.11 3.64 1.67
6.11 3.81 1.69
6.11 3.98 1.71
6.11 4.16 1.74
6.11 4.34 1.76
6.11 4.53 1.78
6.11 4.72 1.81
6.09 4.91 1.83
6.09 5.11 1.87
6.09 5.32 1.90
6.09 5.54 1.93
6.09 5.77 1.97
6.10 6.01 2.01
6.10 6.26 2.05
6.10 6.52 2.09
6.11 6.80 2.14
6.11 7.08 2.19
6.11 7.38 2.24
6.12 7.69 2.30
6.12 8.01 2.36
6.03 8.24 2.39
5.87 8.36 2.39
5.70 8.48 2.39
5.53 8.60 2.39
5.36 8.71 2.39
5.18 8.81 2.39
5.01 8.92 2.39
4.83 9.02 2.39
4.64 9.11 2.39
4.46 9.21 2.39
4.28 9.30 2.39
2.56 5.87 1.50
3.90 9.46 2.39
3.71 9.54 2.39
3.52 9.62 2.39
3.33 9.69 2.39
3.13 9.75 2.39
2.94 9.81 2.39
2.74 9.87 2.39
2.54 9.93 2.39
2.34 9.98 2.39
2.22 10.40 2.48
2.02 10.50 2.49
1.81 10.54 2.49
1.60 10.58 2.49
1.39 10.61 2.49
1.18 10.63 2.49
0.96 10.66 2.49
0.75 10.68 2.49
0.53 10.69 2.49
0.32 10.70 2.49
0.10 10.70 2.49
-0.11 10.71 2.49
-0.32 10.70 2.49
-0.54 10.69 2.49
-0.75 10.68 2.49
-0.97 10.67 2.49
-1.18 10.65 2.49
-1.40 10.62 2.49
-1.61 10.59 2.49
-1.82 10.56 2.49
-2.03 10.52 2.49
-2.24 10.48 2.49
-2.45 10.43 2.49
-2.66 10.38 2.49
-2.87 10.32 2.49
-3.08 10.27 2.49
-3.28 10.20 2.49
-3.49 10.13 2.49
-3.69 10.06 2.49
-3.89 9.99 2.49
-4.09 9.91 2.49
-4.29 9.82 2.49
-4.48 9.74 2.49
-4.68 9.64 2.49
-4.87 9.55 2.49
-5.06 9.45 2.49
-5.25 9.34 2.49
-5.44 9.24 2.49
-5.62 9.13 2.49
-5.80 9.01 2.49
-5.82 8.65 2.43
-5.90 8.41 2.39
-6.07 8.29 2.39
-6.24 8.16 2.39
-6.40 8.04 2.39
-6.56 7.91 2.39
-6.72 7.77 2.39
-6.87 7.64 2.39
-7.02 7.50 2.39
-7.17 7.35 2.39
-7.32 7.21 2.39
-7.46 7.06 2.39
-7.60 6.91 2.39
-7.73 6.75 2.39
-7.87 6.60 2.39
-8.00 6.44 2.39
-8.13 6.28 2.39
-8.25 6.11 2.39
-8.37 5.94 2.39
-8.49 5.77 2.39
-8.60 5.60 2.39
-8.71 5.43 2.39
-8.82 5.25 2.39
-8.92 5.07 2.39
-9.02 4.89 2.39
-9.11 4.71 2.39
-9.20 4.53 2.39
-9.29 4.34 2.39
-9.38 4.15 2.39
-9.46 3.96 2.39
-9.53 3.77 2.39
-9.60 3.58 2.39
-9.67 3.38 2.39
-9.74 3.19 2.39
-9.80 2.99 2.39
-9.82 2.79 2.38
-9.82 2.57 2.37
-9.82 2.36 2.36
-9.82 2.16 2.35
-9.82 1.95 2.34
-9.82 1.75 2.33
-9.81 1.54 2.32
-9.81 1.34 2.31
-9.81 1.14 2.31
-9.81 0.94 2.30
-9.81 0.74 2.30
-9.81 0.55 2.30
-9.81 0.35 2.29
-9.81 0.15 2.29
-9.81 -0.04 2.29
-9.81 -0.24 2.29
-9.80 -0.44 2.30
-9.80 -0.64 2.30
-9.74 -0.83 2.29
-48.38 -5.09 11.39
-48.27 -6.06 11.39
-48.02 -7.01 11.37
-10.94 -1.82 2.60
-10.92 -2.05 2.60
-10.92 -2.27 2.61
-10.92 -2.50 2.63
-10.92 -2.74 2.64
-10.92 -2.97 2.65
-9.79 -2.87 2.39
-9.72 -3.07 2.39
-9.65 -3.26 2.39
-9.58 -3.45 2.39
-9.51 -3.64 2.39
-9.43 -3.83 2.39
-9.35 -4.02 2.39
-9.27 -4.21 2.39
-9.18 -4.39 2.39
-9.09 -4.57 2.39
-8.99 -4.75 2.39
-8.89 -4.93 2.39
-8.79 -5.11 2.39
-8.69 -5.28 2.39
-8.58 -5.46 2.39
-8.46 -5.63 2.39
-8.35 -5.79 2.39
-8.23 -5.96 2.39
-8.10 -6.12 2.39
-7.98 -6.28 2.39
-7.85 -6.44 2.39
-7.72 -6.59 2.39
-7.58 -6.75 2.39
-7.44 -6.90 2.39
-7.30 -7.04 2.39
-6.79 -6.82 2.27
-6.68 -6.98 2.28
-6.68 -7.27 2.33
-6.60 -7.47 2.35
-6.22 -7.34 2.27
-6.09 -7.49 2.28
-6.09 -7.80 2.33
-6.07 -8.11 2.39
-5.92 -8.25 2.40
-5.74 -8.34 2.39
-5.73 -8.69 2.46
-5.63 -8.93 2.49
-5.45 -9.04 2.49
-5.27 -9.15 2.49
-5.08 -9.25 2.49
-4.89 -9.35 2.49
-4.70 -9.44 2.49
-4.51 -9.53 2.49
-4.32 -9.62 2.49
-4.12 -9.70 2.49
-3.93 -9.78 2.49
-3.73 -9.86 2.49
-3.53 -9.93 2.49
-3.33 -10.00 2.49
-3.13 -10.06 2.49
-2.93 -10.12 2.49
-2.72 -10.18 2.49
-2.52 -10.23 2.49
-2.31 -10.27 2.49
-2.10 -10.32 2.49
-1.90 -10.36 2.49
-1.69 -10.39 2.49
-1.48 -10.42 2.49
-1.27 -10.45 2.49
-1.06 -10.47 2.49
-0.85 -10.49 2.49
-0.64 -10.50 2.49
-0.43 -10.51 2.49
-0.21 -10.52 2.49
-0.00 -9.55 2.49
0.19 -9.55 2.49
0.38 -9.54 2.49
0.57 -9.53 2.49
0.76 -9.52 2.49
0.95 -9.50 2.49
1.15 -9.48 2.49
1.34 -9.45 2.49
1.52 -9.43 2.49
1.71 -9.39 2.49
1.90 -9.36 2.49
2.09 -9.31 2.49
2.28 -9.27 2.49
2.36 -8.84 2.39
2.54 -8.79 2.39
2.71 -8.74 2.39
2.89 -8.68 2.39
3.06 -8.62 2.39
3.23 -8.56 2.39
3.40 -8.49 2.39
3.57 -8.42 2.39
3.74 -8.35 2.39
3.91 -8.27 2.39
4.07 -8.19 2.39
4.24 -8.11 2.39
4.40 -8.02 2.39
4.56 -7.93 2.39
4.72 -7.84 2.39
4.88 -7.74 2.39
5.03 -7.64 2.39
5.18 -7.54 2.39
5.33 -7.43 2.39
5.48 -7.32 2.39
5.63 -7.21 2.39
5.77 -7.10 2.39
5.91 -6.98 2.39
6.05 -6.86 2.39
6.19 -6.74 2.39
6.17 -6.45 2.33
6.17 -6.19 2.28
6.16 -5.95 2.24
6.16 -5.71 2.19
6.16 -5.49 2.15
6.16 -5.27 2.12
6.16 -5.06 2.08
6.16 -4.85 2.05
6.16 -4.65 2.02
6.16 -4.46 1.98
6.16 -4.27 1.96
6.15 -4.09 1.93
6.15 -3.92 1.90
6.15 -3.74 1.88
6.15 -3.58 1.86
6.15 -3.41 1.84
6.15 -3.25 1.82
6.15 -3.10 1.80
6.15 -2.94 1.78
6.15 -2.79 1.76
6.15 -2.64 1.75
6.15 -2.50 1.73
6.15 -2.36 1.72
6.14 -2.21 1.70
6.14 -2.08 1.69
6.14 -1.94 1.68
6.14 -1.80 1.67
6.14 -1.67 1.66
6.14 -1.54 1.65
6.14 -1.41 1.64
6.14 -1.28 1.63
6.14 -1.15 1.63
6.14 -1.02 1.62
6.14 -0.90 1.62
6.14 -0.77 1.61
6.14 -0.65 1.61
6.14 -0.52 1.60
6.14 -0.40 1.60
6.13 -0.27 1.60
6.13 -0.15 1.60
6.13 -0.03 1.60
6.13 0.10 1.59
6.13 0.22 1.60
6.13 0.34 1.60
6.13 0.47 1.60
6.13 0.59 1.60
6.13 0.71 1.60
6.13 0.84 1.61
6.13 0.96 1.61
6.13 1.09 1.62
6.13 1.22 1.62
6.13 1.35 1.63
6.13 1.48 1.64
6.13 1.61 1.64
6.12 1.74 1.65
6.12 1.87 1.66
6.12 2.01 1.67
6.12 2.14 1.68
6.12 2.28 1.69
6.12 2.42 1.71
6.12 2.57 1.72
6.12 2.71 1.73
6.12 2.86 1.75
6.12 3.01 1.77
6.12 3.16 1.78
6.12 3.32 1.80
6.12 3.48 1.82
6.11 3.65 1.84
6.11 3.81 1.86
6.11 3.99 1.89
6.11 4.16 1.91
6.11 4.34 1.94
6.11 4.53 1.97
6.11 4.72 2.00
6.09 4.91 2.02
6.09 5.11 2.06
6.09 5.32 2.09
6.09 5.55 2.13
6.09 5.77 2.17
6.10 6.01 2.21
6.10 6.26 2.26
6.10 6.52 2.30
6.11 6.80 2.36
6.05 7.01 2.39
5.91 7.13 2.39
5.77 7.25 2.39
5.62 7.37 2.39
5.47 7.48 2.39
5.32 7.59 2.39
5.17 7.70 2.39
5.02 7.80 2.39
4.86 7.90 2.39
4.70 8.00 2.39
4.54 8.09 2.39
4.38 8.18 2.39
4.21 8.27 2.39
4.05 8.35 2.39
3.88 8.43 2.39
2.56 5.87 1.65
3.54 8.59 2.39
3.37 8.66 2.39
3.19 8.72 2.39
3.02 8.79 2.39
2.84 8.85 2.39
2.66 8.90 2.39
2.48 8.96 2.39
2.30 9.01 2.39
2.22 9.44 2.49
2.03 9.49 2.49
1.84 9.53 2.49
1.64 9.56 2.49
1.45 9.59 2.49
1.26 9.62 2.49
1.07 9.65 2.49
0.87 9.67 2.49
0.68 9.68 2.49
0.48 9.70 2.49
0.29 9.70 2.49
0.09 9.71 2.49
-0.10 9.71 2.49
-0.29 9.71 2.49
-0.49 9.70 2.49
-0.68 9.69 2.49
-0.88 9.67 2.49
-1.07 9.66 2.49
-1.27 9.63 2.49
-1.46 9.61 2.49
-1.65 9.58 2.49
-1.84 9.54 2.49
-2.03 9.50 2.49
-2.23 9.46 2.49
-2.41 9.41 2.49
-2.60 9.36 2.49
-2.79 9.31 2.49
-2.98 9.25 2.49
-3.16 9.19 2.49
-3.35 9.13 2.49
-3.53 9.06 2.49
-3.71 8.99 2.49
-3.89 8.91 2.49
-4.07 8.83 2.49
-4.24 8.75 2.49
-4.42 8.66 2.49
-4.59 8.57 2.49
-4.76 8.48 2.49
-4.93 8.38 2.49
-5.10 8.28 2.49
-5.26 8.17 2.49
-5.43 8.07 2.49
-5.59 7.96 2.49
-5.74 7.84 2.49
-5.81 7.61 2.46
-5.82 7.31 2.40
-5.95 7.17 2.39
-6.09 7.05 2.39
-6.23 6.93 2.39
-6.37 6.80 2.39
-6.50 6.67 2.39
-6.64 6.54 2.39
-6.76 6.40 2.39
-6.89 6.27 2.39
-7.02 6.13 2.39
-7.14 5.98 2.39
-7.25 5.84 2.39
-7.37 5.69 2.39
-7.48 5.54 2.39
-7.59 5.39 2.39
-7.70 5.24 2.39
-7.80 5.08 2.39
-7.90 4.92 2.39
-8.00 4.76 2.39
-8.09 4.60 2.39
-8.18 4.44 2.39
-8.27 4.27 2.39
-8.35 4.11 2.39
-8.43 3.94 2.39
-8.50 3.77 2.39
-8.58 3.59 2.39
-8.65 3.42 2.39
-8.71 3.25 2.39
-8.77 3.07 2.39
-8.83 2.89 2.39
-8.89 2.72 2.39
-8.94 2.54 2.39
-8.99 2.36 2.39
-9.03 2.18 2.39
-9.07 1.99 2.39
-9.11 1.81 2.39
-9.14 1.63 2.39
-9.17 1.44 2.39
-9.20 1.26 2.39
-9.22 1.07 2.39
-9.24 0.89 2.39
-9.25 0.70 2.39
-9.26 0.52 2.39
-9.27 0.33 2.39
-9.27 0.14 2.39
-9.27 -0.04 2.39
-9.27 -0.23 2.39
-9.26 -0.41 2.39
-9.25 -0.60 2.39
-9.23 -0.78 2.39
-9.21 -0.97 2.39
-9.19 -1.15 2.39
-9.17 -1.34 2.39
-9.14 -1.52 2.39
-9.10 -1.70 2.39
-9.06 -1.89 2.39
-9.02 -2.07 2.39
-8.98 -2.25 2.39
-8.93 -2.43 2.39
-8.88 -2.61 2.39
-8.82 -2.78 2.39
-8.76 -2.96 2.39
-8.70 -3.13 2.39
-8.63 -3.31 2.39
-8.56 -3.48 2.39
-8.49 -3.65 2.39
-8.41 -3.82 2.39
-8.33 -3.99 2.39
-8.25 -4.15 2.39
-8.16 -4.31 2.39
-8.07 -4.48 2.39
-7.98 -4.64 2.39
-7.88 -4.80 2.39
-7.79 -4.95 2.39
-7.68 -5.11 2.39
-7.58 -5.26 2.39
-7.47 -5.41 2.39
-7.36 -5.56 2.39
-7.24 -5.70 2.39
-6.76 -5.55 2.27
-6.65 -5.68 2.27
-6.88 -6.12 2.39
-6.76 -6.26 2.39
-6.53 -6.29 2.35
-6.27 -6.29 2.31
-6.10 -6.37 2.29
-6.09 -6.63 2.34
-6.09 -6.90 2.39
-5.95 -7.02 2.39
-5.81 -7.14 2.39
-5.74 -7.35 2.42
-5.73 -7.65 2.49
-5.60 -7.79 2.49
-5.44 -7.90 2.49
-5.28 -8.01 2.49
-5.11 -8.11 2.49
-4.95 -8.21 2.49
-4.78 -8.31 2.49
-4.61 -8.40 2.49
-4.44 -8.49 2.49
-4.27 -8.58 2.49
-4.10 -8.66 2.49
-3.92 -8.74 2.49
-3.75 -8.81 2.49
-3.57 -8.88 2.49
-3.39 -8.95 2.49
-3.21 -9.02 2.49
-3.03 -9.08 2.49
-2.84 -9.14 2.49
-2.66 -9.19 2.49
-2.47 -9.24 2.49
-2.29 -9.29 2.49
-2.10 -9.33 2.49
-1.91 -9.37 2.49
-1.72 -9.41 2.49
-1.53 -9.44 2.49
-1.34 -9.47 2.49
-1.15 -9.49 2.49
-0.96 -9.51 2.49
-0.77 -9.53 2.49
-0.58 -9.54 2.49
-0.39 -9.55 2.49
-0.19 -9.55 2.49
-0.00 -8.74 2.49
0.17 -8.74 2.49
0.35 -8.73 2.49
0.52 -8.73 2.49
0.70 -8.71 2.49
0.87 -8.70 2.49
1.05 -8.68 2.49
1.22 -8.65 2.49
1.40 -8.63 2.49
1.57 -8.60 2.49
1.74 -8.56 2.49
1.91 -8.52 2.49
2.08 -8.48 2.49
2.25 -8.44 2.49
2.33 -8.06 2.40
2.48 -8.00 2.39
2.64 -7.95 2.39
2.80 -7.89 2.39
2.96 -7.83 2.39
3.12 -7.77 2.39
3.27 -7.71 2.39
3.43 -7.64 2.39
3.58 -7.57 2.39
3.73 -7.50 2.39
3.88 -7.42 2.39
4.03 -7.34 2.39
4.17 -7.26 2.39
4.32 -7.17 2.39
4.46 -7.08 2.39
4.60 -6.99 2.39
4.74 -6.90 2.39
4.88 -6.80 2.39
5.02 -6.70 2.39
5.15 -6.60 2.39
5.28 -6.50 2.39
5.41 -6.39 2.39
5.54 -6.28 2.39
5.66 -6.17 2.39
5.79 -6.05 2.39
5.91 -5.94 2.39
6.03 -5.82 2.39
6.14 -5.69 2.39
6.16 -5.49 2.35
6.16 -5.27 2.31
6.16 -5.06 2.27
6.16 -4.85 2.24
6.16 -4.65 2.20
6.16 -4.46 2.17
6.16 -4.27 2.14
6.15 -4.09 2.11
6.15 -3.92 2.08
6.15 -3.74 2.05
6.15 -3.58 2.03
6.15 -3.41 2.01
6.15 -3.25 1.98
6.15 -3.10 1.96
6.15 -2.94 1.94
6.15 -2.79 1.92
6.15 -2.64 1.91
6.15 -2.50 1.89
6.15 -2.35 1.88
6.14 -2.21 1.86
6.14 -2.08 1.85
6.14 -1.94 1.83
6.14 -1.80 1.82
6.14 -1.67 1.81
6.14 -1.54 1.80
6.14 -1.41 1.79
6.14 -1.28 1.79
6.14 -1.15 1.78
6.14 -1.02 1.77
6.14 -0.90 1.77
6.14 -0.77 1.76
6.14 -0.65 1.76
6.14 -0.52 1.75
6.14 -0.40 1.75
6.13 -0.27 1.75
6.13 -0.15 1.74
6.13 -0.03 1.74
6.13 0.10 1.74
6.13 0.22 1.74
6.13 0.34 1.74
6.13 0.47 1.75
6.13 0.59 1.75
6.13 0.71 1.75
6.13 0.84 1.76
6.13 0.96 1.76
6.13 1.09 1.77
6.13 1.22 1.77
6.13 1.35 1.78
6.13 1.48 1.79
6.13 1.61 1.80
6.12 1.74 1.81
6.12 1.87 1.82
6.12 2.01 1.83
6.12 2.14 1.84
6.12 2.28 1.85
6.12 2.42 1.87
6.12 2.57 1.88
6.12 2.71 1.90
6.12 2.86 1.91
6.12 3.01 1.93
6.12 3.16 1.95
6.12 3.32 1.97
6.12 3.48 1.99
6.11 3.65 2.01
6.11 3.81 2.04
6.11 3.99 2.06
6.11 4.16 2.09
6.11 4.34 2.12
6.11 4.53 2.15
6.11 4.72 2.18
6.09 4.91 2.21
6.09 5.11 2.25
6.09 5.33 2.29
6.09 5.55 2.33
6.09 5.77 2.37
6.03 5.94 2.39
5.91 6.06 2.39
5.78 6.18 2.39
5.66 6.30 2.39
5.53 6.41 2.39
5.41 6.52 2.39
5.27 6.63 2.39
5.14 6.74 2.39
5.01 6.84 2.39
4.87 6.94 2.39
4.73 7.04 2.39
4.59 7.13 2.39
4.44 7.22 2.39
4.30 7.31 2.39
4.15 7.40 2.39
4.00 7.48 2.39
3.85 7.56 2.39
3.70 7.64 2.39
3.55 7.71 2.39
2.56 5.87 1.80
3.24 7.85 2.39
3.08 7.91 2.39
2.92 7.98 2.39
2.76 8.03 2.39
2.60 8.09 2.39
2.44 8.17 2.40
2.27 8.19 2.39
2.20 8.59 2.49
2.02 8.63 2.49
1.85 8.67 2.49
1.68 8.71 2.49
1.50 8.74 2.49
1.33 8.77 2.49
1.15 8.80 2.49
0.97 8.82 2.49
0.80 8.84 2.49
0.62 8.85 2.49
0.44 8.86 2.49
0.26 8.87 2.49
0.09 8.87 2.49
-0.09 8.88 2.49
-0.27 8.87 2.49
-0.45 8.87 2.49
-0.63 8.86 2.49
-0.80 8.84 2.49
-0.98 8.83 2.49
-1.16 8.80 2.49
-1.33 8.78 2.49
-1.51 8.75 2.49
-1.69 8.72 2.49
-1.86 8.68 2.49
-2.03 8.65 2.49
-2.21 8.60 2.49
-2.38 8.56 2.49
-2.55 8.51 2.49
-2.72 8.46 2.49
-2.89 8.40 2.49
-3.06 8.34 2.49
-3.22 8.28 2.49
-3.39 8.21 2.49
-3.55 8.14 2.49
-3.72 8.07 2.49
-3.88 7.99 2.49
-4.04 7.91 2.49
-4.20 7.83 2.49
-4.35 7.75 2.49
-4.51 7.66 2.49
-4.66 7.57 2.49
-4.81 7.47 2.49
-4.96 7.37 2.49
-5.11 7.27 2.49
-5.25 7.17 2.49
-5.39 7.06 2.49
-5.53 6.95 2.49
-5.67 6.84 2.49
-5.81 6.72 2.49
-5.81 6.45 2.44
-5.82 6.22 2.39
-5.94 6.10 2.39
-6.06 5.98 2.39
-6.18 5.85 2.39
-6.30 5.73 2.39
-6.41 5.60 2.39
-6.52 5.47 2.39
-6.63 5.34 2.39
-6.74 5.20 2.39
-6.84 5.07 2.39
-6.94 4.93 2.39
-7.04 4.79 2.39
-7.13 4.64 2.39
-7.22 4.50 2.39
-7.31 4.35 2.39
-7.39 4.21 2.39
-7.48 4.06 2.39
-7.56 3.91 2.39
-7.63 3.75 2.39
-7.70 3.60 2.39
-7.77 3.44 2.39
-7.84 3.29 2.39
-7.90 3.13 2.39
-7.96 2.97 2.39
-8.02 2.81 2.39
-8.08 2.65 2.39
-8.13 2.48 2.39
-8.17 2.32 2.39
-8.22 2.15 2.39
-8.26 1.99 2.39
-8.29 1.82 2.39
-8.33 1.66 2.39
-8.36 1.49 2.39
-8.39 1.32 2.39
-8.41 1.15 2.39
-8.43 0.98 2.39
-8.45 0.81 2.39
-8.46 0.64 2.39
-8.47 0.47 2.39
-8.48 0.30 2.39
-8.48 0.13 2.39
-8.48 -0.04 2.39
-8.48 -0.21 2.39
-8.47 -0.38 2.39
-8.46 -0.55 2.39
-8.44 -0.72 2.39
-8.43 -0.89 2.39
-8.40 -1.06 2.39
-8.38 -1.22 2.39
-8.35 -1.39 2.39
-8.32 -1.56 2.39
-8.29 -1.72 2.39
-8.25 -1.89 2.39
-8.21 -2.06 2.39
-8.16 -2.22 2.39
-8.12 -2.38 2.39
-8.07 -2.54 2.39
-8.01 -2.70 2.39
-7.96 -2.86 2.39
-7.89 -3.02 2.39
-7.83 -3.18 2.39
-7.76 -3.34 2.39
-7.69 -3.49 2.39
-7.62 -3.64 2.39
-7.55 -3.80 2.39
-7.47 -3.95 2.39
-7.38 -4.09 2.39
-7.30 -4.24 2.39
-7.21 -4.39 2.39
-6.76 -4.30 2.27
-6.69 -4.45 2.28
-6.69 -4.64 2.31
-6.69 -4.84 2.34
-6.62 -5.00 2.35
-6.52 -5.13 2.35
-6.19 -5.07 2.27
-6.10 -5.21 2.28
-6.10 -5.43 2.32
-6.10 -5.65 2.36
-6.06 -5.85 2.39
-5.95 -5.97 2.39
-5.82 -6.09 2.39
-5.75 -6.25 2.41
-5.74 -6.50 2.46
-5.68 -6.70 2.49
-5.54 -6.81 2.49
-5.40 -6.92 2.49
-5.26 -7.02 2.49
-5.12 -7.13 2.49
-4.97 -7.23 2.49
-4.83 -7.33 2.49
-4.68 -7.42 2.49
-4.53 -7.51 2.49
-4.38 -7.60 2.49
-4.22 -7.68 2.49
-4.07 -7.77 2.49
-3.91 -7.85 2.49
-3.75 -7.92 2.49
-3.59 -7.99 2.49
-3.43 -8.06 2.49
-3.26 -8.13 2.49
-3.10 -8.19 2.49
-2.94 -8.25 2.49
-2.77 -8.31 2.49
-2.60 -8.36 2.49
-2.43 -8.41 2.49
-2.26 -8.46 2.49
-2.09 -8.50 2.49
-1.92 -8.54 2.49
-1.75 -8.57 2.49
-1.58 -8.61 2.49
-1.40 -8.64 2.49
-1.23 -8.66 2.49
-1.05 -8.68 2.49
-0.88 -8.70 2.49
-0.70 -8.72 2.49
-0.53 -8.73 2.49
-0.35 -8.74 2.49
-0.18 -8.74 2.49
-0.00 -8.05 2.49
0.16 -8.05 2.49
0.32 -8.04 2.49
0.48 -8.03 2.49
0.64 -8.02 2.49
0.80 -8.01 2.49
0.96 -7.99 2.49
1.13 -7.97 2.49
1.28 -7.94 2.49
1.44 -7.92 2.49
1.60 -7.88 2.49
1.76 -7.85 2.49
1.92 -7.81 2.49
2.07 -7.77 2.49
2.23 -7.73 2.49
2.32 -7.46 2.42
2.43 -7.32 2.39
2.58 -7.27 2.39
2.73 -7.21 2.39
2.87 -7.16 2.39
3.01 -7.10 2.39
3.15 -7.04 2.39
3.30 -6.97 2.39
3.43 -6.90 2.39
3.57 -6.83 2.39
3.71 -6.76 2.39
3.84 -6.68 2.39
3.98 -6.61 2.39
4.11 -6.52 2.39
4.24 -6.44 2.39
4.37 -6.35 2.39
4.50 -6.26 2.39
4.62 -6.17 2.39
4.74 -6.08 2.39
4.86 -5.98 2.39
4.98 -5.88 2.39
5.10 -5.78 2.39
5.22 -5.68 2.39
5.33 -5.57 2.39
5.44 -5.47 2.39
5.55 -5.36 2.39
5.66 -5.24 2.39
5.76 -5.13 2.39
5.86 -5.01 2.39
5.96 -4.89 2.39
6.06 -4.77 2.39
6.16 -4.65 2.39
6.16 -4.46 2.36
6.16 -4.27 2.32
6.15 -4.09 2.29
6.15 -3.92 2.26
6.15 -3.74 2.23
6.15 -3.58 2.20
6.15 -3.41 2.18
6.15 -3.25 2.15
6.15 -3.10 2.13
6.15 -2.94 2.11
6.15 -2.79 2.09
6.15 -2.64 2.07
6.15 -2.50 2.05
6.15 -2.35 2.04
6.14 -2.21 2.02
6.14 -2.08 2.01
6.14 -1.94 1.99
6.14 -1.80 1.98
6.14 -1.67 1.97
6.14 -1.54 1.96
6.14 -1.41 1.95
6.14 -1.28 1.94
6.14 -1.15 1.93
6.14 -1.02 1.92
6.14 -0.90 1.92
6.14 -0.77 1.91
6.14 -0.65 1.91
6.14 -0.52 1.90
6.14 -0.40 1.90
6.13 -0.27 1.90
6.13 -0.15 1.89
6.13 -0.03 1.89
6.13 0.10 1.89
6.13 0.22 1.89
6.13 0.34 1.90
6.13 0.47 1.90
6.13 0.59 1.90
6.13 0.71 1.90
6.13 0.84 1.91
6.13 0.97 1.91
6.13 1.09 1.92
6.13 1.22 1.93
6.13 1.35 1.93
6.13 1.48 1.94
6.13 1.61 1.95
6.12 1.74 1.96
6.12 1.87 1.97
6.12 2.01 1.98
6.12 2.14 2.00
6.12 2.28 2.01
6.12 2.42 2.03
6.12 2.57 2.04
6.12 2.71 2.06
6.12 2.86 2.08
6.12 3.01 2.10
6.12 3.16 2.12
6.12 3.32 2.14
6.12 3.48 2.16
6.11 3.65 2.19
6.11 3.81 2.22
6.11 3.99 2.24
6.11 4.16 2.27
6.11 4.34 2.30
6.11 4.53 2.34
6.11 4.72 2.37
6.06 4.88 2.39
5.96 5.00 2.39
5.86 5.12 2.39
5.76 5.24 2.39
5.65 5.36 2.39
5.55 5.47 2.39
5.44 5.58 2.39
5.32 5.69 2.39
5.21 5.80 2.39
5.09 5.90 2.39
4.97 6.00 2.39
4.85 6.10 2.39
4.73 6.20 2.39
4.61 6.29 2.39
4.48 6.39 2.39
4.35 6.48 2.39
4.22 6.56 2.39
4.09 6.65 2.39
3.95 6.73 2.39
3.82 6.81 2.39
3.68 6.88 2.39
3.54 6.96 2.39
3.40 7.03 2.39
3.26 7.10 2.39
2.56 5.87 1.96
2.98 7.22 2.39
2.83 7.28 2.39
2.68 7.34 2.39
2.54 7.39 2.39
2.39 7.44 2.39
2.25 7.51 2.40
2.18 7.86 2.49
2.02 7.90 2.49
1.86 7.94 2.49
1.70 7.98 2.49
1.54 8.01 2.49
1.38 8.04 2.49
1.22 8.07 2.49
1.06 8.09 2.49
0.90 8.11 2.49
0.73 8.13 2.49
0.57 8.14 2.49
0.41 8.15 2.49
0.24 8.16 2.49
0.08 8.16 2.49
-0.08 8.16 2.49
-0.25 8.16 2.49
-0.41 8.16 2.49
-0.58 8.15 2.49
-0.74 8.13 2.49
-0.90 8.12 2.49
-1.06 8.10 2.49
-1.23 8.08 2.49
-1.39 8.05 2.49
-1.55 8.02 2.49
-1.71 7.99 2.49
-1.87 7.95 2.49
-2.03 7.91 2.49
-2.19 7.87 2.49
-2.35 7.83 2.49
-2.50 7.78 2.49
-2.66 7.73 2.49
-2.81 7.67 2.49
-2.97 7.62 2.49
-3.12 7.55 2.49
-3.27 7.49 2.49
-3.42 7.42 2.49
-3.57 7.35 2.49
-3.71 7.28 2.49
-3.86 7.20 2.49
-4.00 7.13 2.49
-4.15 7.04 2.49
-4.29 6.96 2.49
-4.42 6.87 2.49
-4.56 6.78 2.49
-4.70 6.69 2.49
-4.83 6.59 2.49
-4.96 6.49 2.49
-5.09 6.39 2.49
-5.22 6.29 2.49
-5.34 6.18 2.49
-5.46 6.07 2.49
-5.59 5.96 2.49
-5.70 5.85 2.49
-5.80 5.72 2.49
-5.80 5.49 2.44
-5.81 5.28 2.40
-5.90 5.15 2.39
-6.00 5.03 2.39
-6.10 4.91 2.39
-6.20 4.79 2.39
-6.29 4.66 2.39
-6.38 4.53 2.39
-6.47 4.40 2.39
-6.56 4.27 2.39
-6.64 4.14 2.39
-6.72 4.01 2.39
-6.80 3.87 2.39
-6.88 3.73 2.39
-6.95 3.59 2.39
-7.02 3.45 2.39
-7.09 3.31 2.39
-7.15 3.17 2.39
-7.21 3.02 2.39
-7.27 2.88 2.39
-7.33 2.73 2.39
-7.38 2.58 2.39
-7.43 2.43 2.39
-7.48 2.28 2.39
-7.52 2.13 2.39
-7.56 1.98 2.39
-7.60 1.83 2.39
-7.63 1.68 2.39
-7.66 1.52 2.39
-7.69 1.37 2.39
-7.72 1.21 2.39
-7.74 1.06 2.39
-7.76 0.90 2.39
-7.77 0.75 2.39
-7.78 0.59 2.39
-7.79 0.44 2.39
-7.80 0.28 2.39
-7.80 0.12 2.39
-7.80 -0.03 2.39
-7.80 -0.19 2.39
-7.79 -0.35 2.39
-7.78 -0.50 2.39
-7.77 -0.66 2.39
-7.75 -0.82 2.39
-7.73 -0.97 2.39
-7.71 -1.13 2.39
-7.69 -1.28 2.39
-7.66 -1.43 2.39
-7.63 -1.59 2.39
-7.59 -1.74 2.39
-7.55 -1.89 2.39
-7.51 -2.04 2.39
-7.47 -2.19 2.39
-7.42 -2.34 2.39
-7.37 -2.49 2.39
-7.32 -2.64 2.39
-7.27 -2.78 2.39
-7.21 -2.93 2.39
-6.78 -2.91 2.27
-6.72 -3.05 2.27
-6.70 -3.20 2.28
-6.70 -3.37 2.31
-6.70 -3.54 2.33
-6.68 -3.71 2.35
-6.61 -3.84 2.35
-6.53 -3.97 2.35
-6.22 -3.96 2.27
-6.14 -4.08 2.27
-6.11 -4.24 2.29
-6.11 -4.42 2.32
-6.11 -4.61 2.36
-6.10 -4.80 2.39
-6.00 -4.92 2.39
-5.90 -5.04 2.39
-5.80 -5.16 2.39
-5.75 -5.33 2.42
-5.74 -5.54 2.46
-5.71 -5.73 2.49
-5.59 -5.84 2.49
-5.47 -5.95 2.49
-5.35 -6.06 2.49
-5.23 -6.17 2.49
-5.10 -6.27 2.49
-4.97 -6.37 2.49
-4.85 -6.47 2.49
-4.71 -6.56 2.49
-4.58 -6.65 2.49
-4.44 -6.74 2.49
-4.31 -6.83 2.49
-4.17 -6.91 2.49
-4.03 -7.00 2.49
-3.89 -7.07 2.49
-3.74 -7.15 2.49
-3.60 -7.22 2.49
-3.45 -7.29 2.49
-3.31 -7.36 2.49
-3.16 -7.42 2.49
-3.01 -7.49 2.49
-2.86 -7.54 2.49
-2.70 -7.60 2.49
-2.55 -7.65 2.49
-2.39 -7.70 2.49
-2.24 -7.74 2.49
-2.08 -7.79 2.49
-1.93 -7.83 2.49
-1.77 -7.86 2.49
-1.61 -7.90 2.49
-1.45 -7.93 2.49
-1.29 -7.95 2.49
-1.13 -7.98 2.49
-0.97 -8.00 2.49
-0.81 -8.01 2.49
-0.65 -8.03 2.49
-0.49 -8.04 2.49
-0.33 -8.05 2.49
-0.16 -8.05 2.49
-0.00 -7.45 2.49
0.15 -7.45 2.49
0.30 -7.45 2.49
0.45 -7.44 2.49
0.60 -7.43 2.49
0.74 -7.41 2.49
0.89 -7.40 2.49
1.04 -7.38 2.49
1.19 -7.35 2.49
1.34 -7.33 2.49
1.48 -7.30 2.49
1.63 -7.27 2.49
1.78 -7.23 2.49
1.92 -7.20 2.49
2.06 -7.16 2.49
2.21 -7.11 2.49
2.31 -6.95 2.45
2.39 -6.73 2.39
2.52 -6.68 2.39
2.66 -6.63 2.39
2.79 -6.57 2.39
2.92 -6.51 2.39
3.05 -6.45 2.39
3.18 -6.39 2.39
3.31 -6.33 2.39
3.43 -6.26 2.39
3.56 -6.19 2.39
3.68 -6.11 2.39
3.80 -6.04 2.39
3.92 -5.96 2.39
4.04 -5.88 2.39
4.16 -5.80 2.39
4.28 -5.72 2.39
4.39 -5.63 2.39
4.50 -5.54 2.39
4.61 -5.45 2.39
4.72 -5.35 2.39
4.83 -5.26 2.39
4.93 -5.16 2.39
5.04 -5.06 2.39
5.14 -4.96 2.39
5.24 -4.85 2.39
5.33 -4.75 2.39
5.43 -4.64 2.39
5.52 -4.53 2.39
5.61 -4.42 2.39
5.70 -4.31 2.39
5.78 -4.19 2.39
5.87 -4.07 2.39
5.95 -3.96 2.39
6.03 -3.84 2.39
6.10 -3.71 2.39
6.18 -3.59 2.39
6.15 -3.41 2.35
6.15 -3.25 2.33
6.15 -3.10 2.30
6.15 -2.94 2.28
6.15 -2.79 2.26
6.15 -2.64 2.24
6.15 -2.50 2.22
6.15 -2.35 2.20
6.14 -2.21 2.18
6.14 -2.07 2.17
6.14 -1.94 2.15
6.14 -1.80 2.14
6.14 -1.67 2.13
6.14 -1.54 2.12
6.14 -1.41 2.10
6.14 -1.28 2.09
6.14 -1.15 2.09
6.14 -1.02 2.08
6.14 -0.90 2.07
6.14 -0.77 2.07
6.14 -0.65 2.06
6.14 -0.52 2.06
6.14 -0.40 2.05
6.13 -0.27 2.05
6.13 -0.15 2.05
6.13 -0.03 2.05
6.13 0.10 2.05
6.13 0.22 2.05
6.13 0.34 2.05
6.13 0.47 2.05
6.13 0.59 2.05
6.13 0.71 2.06
6.13 0.84 2.06
6.13 0.97 2.07
6.13 1.09 2.07
6.13 1.22 2.08
6.13 1.35 2.09
6.13 1.48 2.10
6.13 1.61 2.11
6.12 1.74 2.12
6.12 1.87 2.13
6.12 2.01 2.14
6.12 2.14 2.16
6.12 2.28 2.17
6.12 2.42 2.19
6.12 2.57 2.21
6.12 2.71 2.23
6.12 2.86 2.25
6.12 3.01 2.27
6.12 3.17 2.29
6.12 3.32 2.31
6.12 3.48 2.34
6.11 3.65 2.37
6.10 3.81 2.39
6.03 3.93 2.39
5.95 4.05 2.39
5.87 4.17 2.39
5.78 4.29 2.39
5.70 4.40 2.39
5.61 4.52 2.39
5.52 4.63 2.39
5.42 4.74 2.39
5.33 4.85 2.39
5.23 4.96 2.39
5.13 5.06 2.39
5.03 5.16 2.39
4.92 5.26 2.39
4.82 5.36 2.39
4.71 5.46 2.39
4.60 5.55 2.39
4.49 5.65 2.39
4.38 5.74 2.39
4.26 5.82 2.39
4.14 5.91 2.39
4.02 5.99 2.39
3.90 6.07 2.39
3.78 6.15 2.39
3.66 6.22 2.39
3.53 6.30 2.39
3.41 6.37 2.39
3.28 6.44 2.39
3.15 6.50 2.39
3.02 6.56 2.39
2.56 5.87 2.12
2.75 6.68 2.39
2.62 6.74 2.39
2.48 6.79 2.39
2.35 6.84 2.39
2.24 6.98 2.43
2.16 7.23 2.49
2.02 7.27 2.49
1.87 7.31 2.49
1.72 7.35 2.49
1.58 7.38 2.49
1.43 7.41 2.49
1.28 7.44 2.49
1.13 7.46 2.49
0.98 7.48 2.49
0.83 7.50 2.49
0.68 7.52 2.49
0.53 7.53 2.49
0.38 7.54 2.49
0.22 7.55 2.49
0.07 7.55 2.49
-0.08 7.55 2.49
-0.23 7.55 2.49
-0.38 7.54 2.49
-0.53 7.53 2.49
-0.68 7.52 2.49
-0.83 7.51 2.49
-0.98 7.49 2.49
-1.14 7.47 2.49
-1.28 7.45 2.49
-1.43 7.42 2.49
-1.58 7.39 2.49
-1.73 7.36 2.49
-1.88 7.32 2.49
-2.02 7.28 2.49
-2.17 7.24 2.49
-2.31 7.19 2.49
-2.46 7.15 2.49
-2.60 7.10 2.49
-2.74 7.04 2.49
-2.88 6.99 2.49
-3.02 6.93 2.49
-3.16 6.87 2.49
-3.30 6.80 2.49
-3.44 6.73 2.49
-3.57 6.66 2.49
-3.70 6.59 2.49
-3.83 6.51 2.49
-3.96 6.44 2.49
-4.09 6.36 2.49
-4.22 6.27 2.49
-4.34 6.19 2.49
-4.47 6.10 2.49
-4.59 6.01 2.49
-4.71 5.91 2.49
-4.82 5.82 2.49
-4.94 5.72 2.49
-5.05 5.62 2.49
-5.17 5.52 2.49
-5.27 5.41 2.49
-5.38 5.30 2.49
-5.49 5.19 2.49
-5.59 5.08 2.49
-5.69 4.97 2.49
-5.79 4.85 2.49
-5.80 4.67 2.46
-5.80 4.48 2.42
-5.82 4.31 2.39
-5.90 4.19 2.39
-5.99 4.07 2.39
-6.07 3.95 2.39
-6.14 3.83 2.39
-6.22 3.71 2.39
-6.29 3.58 2.39
-6.36 3.45 2.39
-6.43 3.32 2.39
-6.49 3.19 2.39
-6.56 3.06 2.39
-6.61 2.93 2.39
-6.67 2.80 2.39
-6.73 2.66 2.39
-6.78 2.53 2.39
-6.83 2.39 2.39
-6.87 2.25 2.39
-6.91 2.11 2.39
-6.95 1.97 2.39
-6.99 1.83 2.39
-7.03 1.69 2.39
-7.06 1.55 2.39
-7.09 1.41 2.39
-7.11 1.27 2.39
-7.14 1.12 2.39
-7.16 0.98 2.39
-7.17 0.84 2.39
-7.19 0.69 2.39
-7.20 0.55 2.39
-7.21 0.40 2.39
-7.21 0.26 2.39
-7.22 0.11 2.39
-7.22 -0.03 2.39
-7.21 -0.18 2.39
-7.21 -0.32 2.39
-7.20 -0.47 2.39
-7.19 -0.61 2.39
-7.17 -0.75 2.39
-6.81 -0.85 2.27
-6.77 -0.99 2.27
-6.75 -1.12 2.27
-6.72 -1.26 2.27
-6.71 -1.40 2.27
-6.71 -1.54 2.28
-6.71 -1.68 2.29
-6.71 -1.82 2.31
-6.71 -1.97 2.32
-6.71 -2.11 2.33
-6.70 -2.26 2.35
-6.66 -2.40 2.35
-6.61 -2.53 2.35
-6.56 -2.66 2.35
-6.50 -2.79 2.35
-6.22 -2.82 2.27
-6.16 -2.94 2.27
-6.12 -3.08 2.28
-6.11 -3.23 2.30
-6.11 -3.39 2.32
-6.11 -3.55 2.35
-6.11 -3.71 2.38
-6.07 -3.86 2.39
-5.99 -3.98 2.39
-5.90 -4.10 2.39
-5.82 -4.21 2.39
-5.76 -4.35 2.40
-5.75 -4.52 2.44
-5.75 -4.71 2.47
-5.70 -4.86 2.49
-5.60 -4.98 2.49
-5.49 -5.09 2.49
-5.39 -5.20 2.49
-5.28 -5.30 2.49
-5.18 -5.41 2.49
-5.07 -5.51 2.49
-4.95 -5.61 2.49
-4.84 -5.71 2.49
-4.72 -5.80 2.49
-4.60 -5.89 2.49
-4.48 -5.98 2.49
-4.36 -6.07 2.49
-4.24 -6.16 2.49
-4.11 -6.24 2.49
-3.99 -6.32 2.49
-3.86 -6.40 2.49
-3.73 -6.48 2.49
-3.60 -6.55 2.49
-3.47 -6.62 2.49
-3.33 -6.69 2.49
-3.20 -6.75 2.49
-3.06 -6.81 2.49
-2.92 -6.87 2.49
-2.78 -6.93 2.49
-2.64 -6.98 2.49
-2.50 -7.03 2.49
-2.36 -7.08 2.49
-2.22 -7.13 2.49
-2.07 -7.17 2.49
-1.93 -7.21 2.49
-1.78 -7.24 2.49
-1.64 -7.28 2.49
-1.49 -7.31 2.49
-1.34 -7.34 2.49
-1.20 -7.36 2.49
-1.05 -7.38 2.49
-0.90 -7.40 2.49
-0.75 -7.42 2.49
-0.60 -7.43 2.49
-0.45 -7.44 2.49
-0.30 -7.45 2.49
-0.15 -7.45 2.49
-0.00 -6.93 2.49
0.14 -6.93 2.49
0.28 -6.92 2.49
0.41 -6.92 2.49
0.55 -6.91 2.49
0.69 -6.89 2.49
0.83 -6.88 2.49
0.97 -6.86 2.49
1.11 -6.84 2.49
1.24 -6.81 2.49
1.38 -6.79 2.49
1.52 -6.76 2.49
1.65 -6.73 2.49
1.79 -6.69 2.49
1.92 -6.65 2.49
2.05 -6.61 2.49
2.19 -6.57 2.49
2.31 -6.50 2.48
2.35 -6.21 2.39
2.47 -6.16 2.39
2.59 -6.11 2.39
2.72 -6.06 2.39
2.84 -6.00 2.39
2.96 -5.94 2.39
3.08 -5.88 2.39
3.19 -5.82 2.39
3.31 -5.75 2.39
3.42 -5.69 2.39
3.54 -5.62 2.39
3.65 -5.54 2.39
3.76 -5.47 2.39
3.87 -5.39 2.39
3.98 -5.31 2.39
4.08 -5.23 2.39
4.19 -5.15 2.39
4.29 -5.07 2.39
4.39 -4.98 2.39
4.49 -4.89 2.39
4.59 -4.80 2.39
4.68 -4.71 2.39
4.78 -4.61 2.39
4.87 -4.51 2.39
4.96 -4.42 2.39
5.05 -4.32 2.39
5.13 -4.21 2.39
5.22 -4.11 2.39
5.30 -4.00 2.39
5.38 -3.90 2.39
5.46 -3.79 2.39
5.53 -3.68 2.39
5.60 -3.57 2.39
5.68 -3.45 2.39
5.74 -3.34 2.39
5.81 -3.22 2.39
5.87 -3.11 2.39
5.94 -2.99 2.39
6.00 -2.87 2.39
6.05 -2.75 2.39
6.11 -2.63 2.39
6.16 -2.50 2.39
6.15 -2.35 2.37
6.14 -2.21 2.35
6.14 -2.07 2.33
6.14 -1.94 2.32
6.14 -1.80 2.30
6.14 -1.67 2.29
6.14 -1.54 2.27
6.14 -1.41 2.26
6.14 -1.28 2.25
6.14 -1.15 2.24
6.14 -1.02 2.24
6.14 -0.90 2.23
6.14 -0.77 2.22
6.14 -0.65 2.22
6.14 -0.52 2.21
6.14 -0.40 2.21
6.13 -0.27 2.20
6.13 -0.15 2.20
6.13 -0.03 2.20
6.13 0.10 2.20
6.13 0.22 2.20
6.13 0.34 2.20
6.13 0.47 2.21
6.13 0.59 2.21
6.13 0.72 2.21
6.13 0.84 2.22
6.13 0.97 2.22
6.13 1.09 2.23
6.13 1.22 2.24
6.13 1.35 2.25
6.13 1.48 2.26
6.13 1.61 2.27
6.12 1.74 2.28
6.12 1.87 2.29
6.12 2.01 2.31
6.12 2.15 2.32
6.12 2.28 2.34
6.12 2.42 2.36
6.12 2.57 2.38
6.11 2.71 2.39
6.05 2.83 2.39
6.00 2.95 2.39
5.94 3.07 2.39
5.87 3.19 2.39
5.81 3.31 2.39
5.74 3.43 2.39
5.67 3.54 2.39
5.60 3.65 2.39
5.53 3.77 2.39
5.45 3.88 2.39
5.37 3.99 2.39
5.29 4.09 2.39
5.21 4.20 2.39
5.13 4.30 2.39
5.04 4.41 2.39
4.95 4.51 2.39
4.86 4.61 2.39
4.77 4.70 2.39
4.67 4.80 2.39
4.58 4.89 2.39
4.48 4.98 2.39
4.38 5.07 2.39
4.28 5.16 2.39
4.17 5.25 2.39
4.07 5.33 2.39
3.96 5.41 2.39
3.85 5.49 2.39
3.74 5.57 2.39
3.63 5.64 2.39
3.51 5.71 2.39
3.40 5.78 2.39
3.28 5.85 2.39
3.17 5.92 2.39
3.05 5.98 2.39
2.93 6.04 2.39
2.80 6.10 2.39
2.56 5.87 2.28
2.56 6.21 2.39
2.45 6.30 2.41
2.31 6.31 2.39
2.24 6.53 2.46
2.14 6.67 2.49
2.01 6.71 2.49
1.87 6.75 2.49
1.74 6.79 2.49
1.60 6.83 2.49
1.46 6.86 2.49
1.33 6.89 2.49
1.19 6.91 2.49
1.05 6.93 2.49
0.91 6.95 2.49
0.77 6.97 2.49
0.63 6.99 2.49
0.49 7.00 2.49
0.35 7.01 2.49
0.21 7.01 2.49
0.07 7.02 2.49
-0.07 7.02 2.49
-0.21 7.01 2.49
-0.35 7.01 2.49
-0.50 7.00 2.49
-0.64 6.99 2.49
-0.78 6.98 2.49
-0.92 6.96 2.49
-1.05 6.94 2.49
-1.19 6.92 2.49
-1.33 6.89 2.49
-1.47 6.87 2.49
-1.61 6.83 2.49
-1.74 6.80 2.49
-1.88 6.77 2.49
-2.02 6.73 2.49
-2.15 6.68 2.49
-2.28 6.64 2.49
-2.42 6.59 2.49
-2.55 6.54 2.49
-2.68 6.49 2.49
-2.81 6.44 2.49
-2.94 6.38 2.49
-3.07 6.32 2.49
-3.19 6.26 2.49
-3.32 6.19 2.49
-3.44 6.12 2.49
-3.56 6.05 2.49
-3.68 5.98 2.49
-3.80 5.90 2.49
-3.92 5.83 2.49
-4.04 5.75 2.49
-4.15 5.67 2.49
-4.26 5.58 2.49
-4.37 5.49 2.49
-4.48 5.41 2.49
-4.59 5.31 2.49
-4.70 5.22 2.49
-4.80 5.13 2.49
-4.90 5.03 2.49
-5.00 4.93 2.49
-5.10 4.83 2.49
-5.19 4.72 2.49
-5.29 4.62 2.49
-5.38 4.51 2.49
-5.47 4.40 2.49
-5.55 4.29 2.49
-5.64 4.18 2.49
-5.72 4.06 2.49
-5.79 3.94 2.49
-5.79 3.77 2.46
-5.79 3.61 2.43
-5.80 3.46 2.40
-5.85 3.33 2.39
-5.91 3.21 2.39
-5.98 3.09 2.39
-6.03 2.97 2.39
-6.09 2.85 2.39
-6.15 2.72 2.39
-6.20 2.60 2.39
-6.25 2.47 2.39
-6.30 2.35 2.39
-6.34 2.22 2.39
-6.39 2.09 2.39
-6.43 1.96 2.39
-6.46 1.83 2.39
-6.50 1.70 2.39
-6.53 1.57 2.39
-6.56 1.44 2.39
-6.59 1.31 2.39
-6.61 1.18 2.39
-6.63 1.04 2.39
-6.65 0.91 2.39
-6.67 0.78 2.39
-6.68 0.64 2.39
-6.69 0.51 2.39
-6.70 0.37 2.39
-6.70 0.24 2.39
-6.71 0.11 2.39
-6.71 -0.03 2.39
-6.70 -0.16 2.39
-6.70 -0.30 2.39
-6.69 -0.43 2.39
-6.68 -0.57 2.39
-6.67 -0.70 2.39
-6.65 -0.83 2.39
-6.29 -0.92 2.27
-6.27 -1.04 2.27
-6.25 -1.17 2.27
-6.22 -1.29 2.27
-6.20 -1.42 2.27
-6.17 -1.54 2.27
-6.13 -1.67 2.27
-6.12 -1.79 2.28
-6.12 -1.93 2.29
-6.12 -2.06 2.31
-6.12 -2.20 2.32
-6.12 -2.34 2.34
-6.12 -2.48 2.36
-6.12 -2.63 2.38
-6.09 -2.76 2.39
-6.03 -2.88 2.39
-5.97 -3.00 2.39
-5.91 -3.12 2.39
-5.85 -3.24 2.39
-5.78 -3.36 2.39
-5.76 -3.50 2.41
-5.75 -3.66 2.44
-5.75 -3.82 2.47
-5.73 -3.97 2.49
-5.64 -4.08 2.49
-5.56 -4.20 2.49
-5.47 -4.31 2.49
-5.39 -4.42 2.49
-5.29 -4.52 2.49
-5.20 -4.63 2.49
-5.11 -4.73 2.49
-5.01 -4.83 2.49
-4.91 -4.93 2.49
-4.81 -5.03 2.49
-4.71 -5.12 2.49
-4.60 -5.21 2.49
-4.50 -5.30 2.49
-4.39 -5.39 2.49
-4.28 -5.48 2.49
-4.17 -5.56 2.49
-4.06 -5.65 2.49
-3.94 -5.73 2.49
-3.83 -5.80 2.49
-3.71 -5.88 2.49
-3.59 -5.95 2.49
-3.47 -6.02 2.49
-3.35 -6.09 2.49
-3.22 -6.15 2.49
-3.10 -6.22 2.49
-2.97 -6.28 2.49
-2.85 -6.33 2.49
-2.72 -6.39 2.49
-2.59 -6.44 2.49
-2.46 -6.49 2.49
-2.33 -6.54 2.49
-2.19 -6.58 2.49
-2.06 -6.63 2.49
-1.93 -6.66 2.49
-1.79 -6.70 2.49
-1.66 -6.74 2.49
-1.52 -6.77 2.49
-1.39 -6.80 2.49
-1.25 -6.82 2.49
-1.11 -6.84 2.49
-0.97 -6.86 2.49
-0.84 -6.88 2.49
-0.70 -6.90 2.49
-0.56 -6.91 2.49
-0.42 -6.92 2.49
-0.28 -6.93 2.49
-0.14 -6.93 2.49
-0.00 -6.47 2.49
0.13 -6.47 2.49
0.26 -6.46 2.49
0.39 -6.46 2.49
0.52 -6.45 2.49
0.65 -6.43 2.49
0.77 -6.42 2.49
0.90 -6.40 2.49
1.03 -6.38 2.49
1.16 -6.36 2.49
1.29 -6.34 2.49
1.41 -6.31 2.49
1.54 -6.28 2.49
1.67 -6.25 2.49
1.79 -6.21 2.49
1.92 -6.17 2.49
2.04 -6.13 2.49
2.16 -6.09 2.49
2.28 -6.05 2.49
2.31 -5.77 2.40
2.42 -5.70 2.39
2.54 -5.65 2.39
2.65 -5.60 2.39
2.76 -5.55 2.39
2.87 -5.49 2.39
2.98 -5.43 2.39
3.09 -5.37 2.39
3.20 -5.31 2.39
3.30 -5.24 2.39
3.41 -5.18 2.39
3.51 -5.11 2.39
3.61 -5.03 2.39
3.71 -4.96 2.39
3.81 -4.89 2.39
3.91 -4.81 2.39
4.01 -4.73 2.39
4.10 -4.65 2.39
4.19 -4.56 2.39
4.28 -4.48 2.39
4.37 -4.39 2.39
4.46 -4.30 2.39
4.55 -4.21 2.39
4.63 -4.12 2.39
4.71 -4.03 2.39
4.79 -3.93 2.39
4.87 -3.84 2.39
4.95 -3.74 2.39
5.02 -3.64 2.39
5.09 -3.54 2.39
5.16 -3.43 2.39
5.23 -3.33 2.39
5.30 -3.22 2.39
5.36 -3.12 2.39
5.42 -3.01 2.39
5.48 -2.90 2.39
5.54 -2.79 2.39
5.60 -2.68 2.39
5.65 -2.56 2.39
5.70 -2.45 2.39
5.75 -2.34 2.39
5.80 -2.22 2.39
5.84 -2.10 2.39
5.88 -1.99 2.39
5.92 -1.87 2.39
5.96 -1.75 2.39
5.99 -1.63 2.39
6.02 -1.51 2.39
6.05 -1.39 2.39
6.08 -1.26 2.39
6.11 -1.14 2.39
6.13 -1.02 2.39
6.15 -0.90 2.39
6.17 -0.77 2.39
6.14 -0.64 2.37
6.14 -0.52 2.37
6.14 -0.40 2.36
6.13 -0.27 2.36
6.13 -0.15 2.36
6.13 -0.03 2.36
6.13 0.10 2.36
6.13 0.22 2.36
6.13 0.34 2.36
6.13 0.47 2.36
6.13 0.59 2.37
6.13 0.72 2.37
6.17 0.85 2.39
6.15 0.97 2.39
6.13 1.09 2.39
6.11 1.22 2.39
6.08 1.34 2.39
6.05 1.46 2.39
6.02 1.58 2.39
5.99 1.70 2.39
5.96 1.82 2.39
5.92 1.94 2.39
5.88 2.06 2.39
5.84 2.18 2.39
5.79 2.30 2.39
5.75 2.41 2.39
5.70 2.53 2.39
5.65 2.64 2.39
5.59 2.75 2.39
5.54 2.87 2.39
5.48 2.98 2.39
5.42 3.09 2.39
5.36 3.20 2.39
5.29 3.30 2.39
5.23 3.41 2.39
5.16 3.51 2.39
5.09 3.62 2.39
5.01 3.72 2.39
4.94 3.82 2.39
4.86 3.92 2.39
4.78 4.02 2.39
4.70 4.11 2.39
4.62 4.21 2.39
4.54 4.30 2.39
4.45 4.39 2.39
4.36 4.48 2.39
4.27 4.57 2.39
4.18 4.65 2.39
4.08 4.73 2.39
3.99 4.82 2.39
3.89 4.90 2.39
3.79 4.97 2.39
3.69 5.05 2.39
3.59 5.12 2.39
3.49 5.19 2.39
3.38 5.26 2.39
3.28 5.33 2.39
3.17 5.40 2.39
3.06 5.46 2.39
2.95 5.52 2.39
2.84 5.58 2.39
2.73 5.64 2.39
2.62 5.69 2.39
2.50 5.74 2.39
2.39 5.79 2.39
2.27 5.84 2.39
2.24 6.13 2.49
2.12 6.18 2.49
2.00 6.23 2.49
1.87 6.26 2.49
1.75 6.30 2.49
1.62 6.34 2.49
1.49 6.37 2.49
1.36 6.40 2.49
1.24 6.42 2.49
1.11 6.45 2.49
0.98 6.47 2.49
0.85 6.49 2.49
0.72 6.50 2.49
0.59 6.52 2.49
0.46 6.53 2.49
0.33 6.54 2.49
0.19 6.54 2.49
0.06 6.55 2.49
-0.07 6.55 2.49
-0.20 6.54 2.49
-0.33 6.54 2.49
-0.46 6.53 2.49
-0.59 6.52 2.49
-0.72 6.51 2.49
-0.85 6.49 2.49
-0.98 6.47 2.49
-1.11 6.45 2.49
-1.24 6.43 2.49
-1.37 6.40 2.49
-1.50 6.38 2.49
-1.63 6.34 2.49
-1.75 6.31 2.49
-1.88 6.27 2.49
-2.01 6.24 2.49
-2.13 6.19 2.49
-2.26 6.15 2.49
-2.38 6.10 2.49
-2.50 6.06 2.49
-2.62 6.00 2.49
-2.74 5.95 2.49
-2.86 5.89 2.49
-2.98 5.84 2.49
-3.09 5.77 2.49
-3.21 5.71 2.49
-3.32 5.65 2.49
-3.44 5.58 2.49
-3.55 5.51 2.49
-3.66 5.44 2.49
-3.76 5.36 2.49
-3.87 5.28 2.49
-3.98 5.21 2.49
-4.08 5.13 2.49
-4.18 5.04 2.49
-4.28 4.96 2.49
-4.38 4.87 2.49
-4.48 4.78 2.49
-4.57 4.69 2.49
-4.66 4.60 2.49
-4.76 4.50 2.49
-4.84 4.41 2.49
-4.93 4.31 2.49
-5.02 4.21 2.49
-5.10 4.11 2.49
-5.18 4.00 2.49
-5.26 3.90 2.49
-5.34 3.79 2.49
-5.41 3.68 2.49
-5.48 3.57 2.49
-5.55 3.46 2.49
-5.62 3.35 2.49
-5.69 3.24 2.49
-5.75 3.12 2.49
-5.79 2.99 2.48
-5.79 2.85 2.46
-5.79 2.70 2.43
-5.79 2.57 2.41
-5.79 2.43 2.40
-5.83 2.31 2.39
-5.87 2.19 2.39
-5.92 2.07 2.39
-5.97 1.96 2.40
-5.99 1.83 2.39
-6.03 1.71 2.39
-6.06 1.59 2.39
-6.09 1.47 2.39
-6.12 1.35 2.39
-6.14 1.22 2.39
-6.17 1.10 2.39
-6.19 0.97 2.39
-6.21 0.85 2.39
-6.22 0.73 2.39
-6.23 0.60 2.39
-6.24 0.48 2.39
-6.25 0.35 2.39
-6.26 0.22 2.39
-6.26 0.10 2.39
-6.26 -0.03 2.39
-6.26 -0.15 2.39
-6.25 -0.28 2.39
-6.24 -0.40 2.39
-6.23 -0.53 2.39
-6.22 -0.65 2.39
-6.20 -0.78 2.39
-6.12 -0.89 2.37
-6.12 -1.02 2.37
-6.12 -1.15 2.38
-6.12 -1.27 2.39
-6.09 -1.39 2.39
-6.06 -1.52 2.39
-6.03 -1.64 2.39
-5.99 -1.76 2.39
-5.96 -1.88 2.39
-5.92 -2.00 2.39
-5.88 -2.11 2.39
-5.83 -2.23 2.39
-5.78 -2.35 2.39
-5.77 -2.48 2.40
-5.76 -2.61 2.42
-5.76 -2.75 2.44
-5.76 -2.89 2.47
-5.75 -3.04 2.49
-5.69 -3.15 2.49
-5.63 -3.27 2.49
-5.56 -3.38 2.49
-5.49 -3.49 2.49
-5.42 -3.60 2.49
-5.34 -3.71 2.49
-5.27 -3.81 2.49
-5.19 -3.92 2.49
-5.11 -4.02 2.49
-5.03 -4.12 2.49
-4.94 -4.22 2.49
-4.86 -4.32 2.49
-4.77 -4.41 2.49
-4.68 -4.51 2.49
-4.58 -4.60 2.49
-4.49 -4.69 2.49
-4.40 -4.78 2.49
-4.30 -4.87 2.49
-4.20 -4.95 2.49
-4.10 -5.03 2.49
-4.00 -5.11 2.49
-3.89 -5.19 2.49
-3.79 -5.27 2.49
-3.68 -5.34 2.49
-3.57 -5.42 2.49
-3.46 -5.49 2.49
-3.35 -5.55 2.49
-3.24 -5.62 2.49
-3.12 -5.68 2.49
-3.01 -5.74 2.49
-2.89 -5.80 2.49
-2.77 -5.86 2.49
-2.66 -5.91 2.49
-2.54 -5.96 2.49
-2.42 -6.01 2.49
-2.29 -6.06 2.49
-2.17 -6.10 2.49
-2.05 -6.14 2.49
-1.92 -6.18 2.49
-1.80 -6.22 2.49
-1.67 -6.26 2.49
-1.55 -6.29 2.49
-1.42 -6.32 2.49
-1.29 -6.34 2.49
-1.17 -6.37 2.49
-1.04 -6.39 2.49
-0.91 -6.41 2.49
-0.78 -6.42 2.49
-0.65 -6.44 2.49
-0.52 -6.45 2.49
-0.39 -6.46 2.49
-0.26 -6.46 2.49
-0.13 -6.47 2.49
-0.00 -6.06 2.49
0.12 -6.06 2.49
0.24 -6.05 2.49
0.36 -6.05 2.49
0.48 -6.04 2.49
0.60 -6.03 2.49
0.73 -6.01 2.49
0.85 -6.00 2.49
0.97 -5.98 2.49
1.09 -5.96 2.49
1.21 -5.93 2.49
1.32 -5.91 2.49
1.44 -5.88 2.49
1.56 -5.85 2.49
1.68 -5.82 2.49
1.79 -5.78 2.49
1.91 -5.75 2.49
2.03 -5.71 2.49
2.14 -5.66 2.49
2.25 -5.62 2.49
2.30 -5.43 2.43
2.37 -5.30 2.39
2.48 -5.25 2.39
2.59 -5.20 2.39
2.69 -5.14 2.39
2.79 -5.09 2.39
2.89 -5.03 2.39
2.99 -4.97 2.39
3.09 -4.91 2.39
3.19 -4.85 2.39
3.29 -4.78 2.39
3.38 -4.72 2.39
3.48 -4.65 2.39
3.57 -4.58 2.39
3.66 -4.50 2.39
3.75 -4.43 2.39
3.84 -4.35 2.39
3.93 -4.27 2.39
4.01 -4.20 2.39
4.10 -4.11 2.39
4.18 -4.03 2.39
4.26 -3.95 2.39
4.34 -3.86 2.39
4.41 -3.77 2.39
4.49 -3.68 2.39
4.56 -3.59 2.39
4.63 -3.50 2.39
4.70 -3.41 2.39
4.77 -3.31 2.39
4.84 -3.22 2.39
4.90 -3.12 2.39
4.96 -3.02 2.39
5.02 -2.92 2.39
5.08 -2.82 2.39
5.14 -2.72 2.39
5.19 -2.61 2.39
5.24 -2.51 2.39
5.29 -2.40 2.39
5.34 -2.29 2.39
5.38 -2.19 2.39
5.43 -2.08 2.39
5.47 -1.97 2.39
5.51 -1.86 2.39
5.54 -1.75 2.39
5.58 -1.64 2.39
5.61 -1.52 2.39
5.64 -1.41 2.39
5.67 -1.30 2.39
5.69 -1.18 2.39
5.72 -1.07 2.39
5.74 -0.95 2.39
5.76 -0.84 2.39
5.77 -0.72 2.39
5.79 -0.61 2.39
5.80 -0.49 2.39
5.81 -0.37 2.39
5.82 -0.26 2.39
5.82 -0.14 2.39
5.82 -0.02 2.39
5.82 0.09 2.39
5.82 0.21 2.39
5.82 0.33 2.39
5.81 0.44 2.39
5.80 0.56 2.39
5.79 0.68 2.39
5.77 0.79 2.39
5.76 0.91 2.39
5.74 1.02 2.39
5.72 1.14 2.39
5.69 1.25 2.39
5.67 1.37 2.39
5.64 1.48 2.39
5.61 1.59 2.39
5.58 1.71 2.39
5.54 1.82 2.39
5.51 1.93 2.39
5.47 2.04 2.39
5.43 2.15 2.39
5.38 2.26 2.39
5.34 2.37 2.39
5.29 2.47 2.39
5.24 2.58 2.39
5.19 2.68 2.39
5.13 2.79 2.39
5.08 2.89 2.39
5.02 2.99 2.39
4.96 3.09 2.39
4.89 3.19 2.39
4.83 3.29 2.39
4.76 3.39 2.39
4.70 3.48 2.39
4.62 3.58 2.39
4.55 3.67 2.39
4.48 3.76 2.39
4.40 3.85 2.39
4.33 3.94 2.39
4.25 4.02 2.39
4.16 4.11 2.39
4.08 4.19 2.39
4.00 4.27 2.39
3.91 4.35 2.39
3.82 4.43 2.39
3.73 4.51 2.39
3.64 4.58 2.39
3.55 4.66 2.39
3.46 4.73 2.39
3.36 4.80 2.39
3.27 4.86 2.39
3.17 4.93 2.39
3.07 4.99 2.39
2.97 5.05 2.39
2.87 5.11 2.39
2.76 5.17 2.39
2.66 5.22 2.39
2.55 5.28 2.39
2.46 5.35 2.40
2.34 5.38 2.39
2.25 5.47 2.41
2.22 5.70 2.49
2.10 5.75 2.49
1.99 5.79 2.49
1.87 5.83 2.49
1.75 5.86 2.49
1.63 5.90 2.49
1.52 5.93 2.49
1.40 5.96 2.49
1.28 5.99 2.49
1.16 6.01 2.49
1.04 6.04 2.49
0.92 6.06 2.49
0.79 6.07 2.49
0.67 6.09 2.49
0.55 6.10 2.49
0.43 6.11 2.49
0.30 6.12 2.49
0.18 6.12 2.49
0.06 6.13 2.49
-0.06 6.13 2.49
-0.19 6.13 2.49
-0.31 6.12 2.49
-0.43 6.11 2.49
-0.56 6.10 2.49
-0.68 6.09 2.49
-0.80 6.08 2.49
-0.92 6.06 2.49
-1.04 6.04 2.49
-1.16 6.02 2.49
-1.28 5.99 2.49
-1.40 5.97 2.49
-1.52 5.94 2.49
-1.64 5.91 2.49
-1.76 5.87 2.49
-1.88 5.84 2.49
-1.99 5.80 2.49
-2.11 5.76 2.49
-2.23 5.71 2.49
-2.34 5.67 2.49
-2.45 5.62 2.49
-2.57 5.57 2.49
-2.68 5.52 2.49
-2.79 5.46 2.49
-2.90 5.41 2.49
-3.00 5.35 2.49
-3.11 5.28 2.49
-3.22 5.22 2.49
-3.32 5.16 2.49
-3.42 5.09 2.49
-3.52 5.02 2.49
-3.62 4.95 2.49
-3.72 4.87 2.49
-3.82 4.80 2.49
-3.91 4.72 2.49
-4.01 4.64 2.49
-4.10 4.56 2.49
-4.19 4.48 2.49
-4.28 4.39 2.49
-4.37 4.30 2.49
-4.45 4.21 2.49
-4.53 4.12 2.49
-4.62 4.03 2.49
-4.70 3.94 2.49
-4.77 3.84 2.49
-4.85 3.75 2.49
-4.92 3.65 2.49
-5.00 3.55 2.49
-5.07 3.45 2.49
-5.13 3.35 2.49
-5.20 3.24 2.49
-5.26 3.14 2.49
-5.32 3.03 2.49
-5.38 2.92 2.49
-5.44 2.81 2.49
-5.50 2.70 2.49
-5.55 2.59 2.49
-5.60 2.48 2.49
-5.65 2.37 2.49
-5.69 2.25 2.49
-5.74 2.14 2.49
-5.78 2.02 2.49
-5.78 1.90 2.48
-5.78 1.77 2.46
-5.78 1.64 2.45
-5.78 1.52 2.44
-5.78 1.39 2.42
-5.78 1.27 2.41
-5.79 1.15 2.40
-5.79 1.03 2.40
-5.79 0.91 2.39
-5.81 0.80 2.39
-5.82 0.68 2.39
-5.83 0.56 2.39
-5.84 0.45 2.39
-5.85 0.33 2.39
-5.86 0.21 2.39
-5.86 0.09 2.39
-5.86 -0.02 2.39
-5.86 -0.14 2.39
-5.85 -0.26 2.39
-5.84 -0.38 2.39
-5.84 -0.49 2.39
-5.82 -0.61 2.39
-5.81 -0.73 2.39
-5.79 -0.84 2.39
-5.78 -0.96 2.39
-5.78 -1.08 2.40
-5.77 -1.20 2.41
-5.77 -1.32 2.42
-5.77 -1.44 2.43
-5.76 -1.56 2.44
-5.76 -1.69 2.45
-5.76 -1.82 2.47
-5.76 -1.94 2.49
-5.74 -2.06 2.49
-5.70 -2.18 2.49
-5.65 -2.29 2.49
-5.60 -2.41 2.49
-5.55 -2.52 2.49
-5.50 -2.63 2.49
-5.44 -2.74 2.49
-5.39 -2.85 2.49
-5.33 -2.95 2.49
-5.27 -3.06 2.49
-5.21 -3.16 2.49
-5.14 -3.27 2.49
-5.07 -3.37 2.49
-5.00 -3.47 2.49
-4.93 -3.57 2.49
-4.86 -3.67 2.49
-4.78 -3.76 2.49
-4.71 -3.86 2.49
-4.63 -3.95 2.49
-4.55 -4.04 2.49
-4.46 -4.13 2.49
-4.38 -4.22 2.49
-4.29 -4.31 2.49
-4.21 -4.39 2.49
-4.12 -4.48 2.49
-4.02 -4.56 2.49
-3.93 -4.64 2.49
-3.84 -4.71 2.49
-3.74 -4.79 2.49
-3.64 -4.86 2.49
-3.55 -4.93 2.49
-3.45 -5.00 2.49
-3.34 -5.07 2.49
-3.24 -5.14 2.49
-3.14 -5.20 2.49
-3.03 -5.26 2.49
-2.92 -5.32 2.49
-2.82 -5.38 2.49
-2.71 -5.43 2.49
-2.60 -5.49 2.49
-2.49 -5.54 2.49
-2.38 -5.58 2.49
-2.26 -5.63 2.49
-2.15 -5.67 2.49
-2.03 -5.72 2.49
-1.92 -5.75 2.49
-1.80 -5.79 2.49
-1.69 -5.83 2.49
-1.57 -5.86 2.49
-1.45 -5.89 2.49
-1.33 -5.92 2.49
-1.21 -5.94 2.49
-1.09 -5.96 2.49
-0.97 -5.98 2.49
-0.85 -6.00 2.49
-0.73 -6.02 2.49
-0.61 -6.03 2.49
-0.49 -6.04 2.49
-0.37 -6.05 2.49
-0.25 -6.05 2.49
-0.12 -6.06 2.49
-0.00 -5.69 2.49
0.11 -5.69 2.49
0.23 -5.69 2.49
0.34 -5.68 2.49
0.45 -5.67 2.49
0.57 -5.66 2.49
0.68 -5.65 2.49
0.79 -5.63 2.49
0.91 -5.62 2.49
1.02 -5.60 2.49
1.13 -5.57 2.49
1.24 -5.55 2.49
1.36 -5.52 2.49
1.47 -5.50 2.49
1.58 -5.46 2.49
1.69 -5.43 2.49
1.79 -5.40 2.49
1.90 -5.36 2.49
2.01 -5.32 2.49
2.12 -5.28 2.49
2.22 -5.24 2.49
2.30 -5.13 2.47
2.33 -4.93 2.39
2.43 -4.88 2.39
2.53 -4.83 2.39
2.62 -4.78 2.39
2.72 -4.73 2.39
2.81 -4.67 2.39
2.91 -4.61 2.39
3.00 -4.55 2.39
3.09 -4.49 2.39
3.18 -4.43 2.39
3.27 -4.36 2.39
3.35 -4.30 2.39
3.44 -4.23 2.39
3.52 -4.16 2.39
3.61 -4.09 2.39
3.69 -4.02 2.39
3.77 -3.94 2.39
3.85 -3.86 2.39
3.92 -3.79 2.39
4.00 -3.71 2.39
4.07 -3.63 2.39
4.15 -3.54 2.39
4.22 -3.46 2.39
4.29 -3.37 2.39
4.35 -3.29 2.39
4.42 -3.20 2.39
4.48 -3.11 2.39
4.54 -3.02 2.39
4.60 -2.93 2.39
4.66 -2.84 2.39
4.72 -2.74 2.39
4.77 -2.65 2.39
4.82 -2.55 2.39
4.88 -2.45 2.39
4.92 -2.35 2.39
4.97 -2.26 2.39
5.02 -2.16 2.39
5.06 -2.05 2.39
5.10 -1.95 2.39
5.14 -1.85 2.39
5.17 -1.75 2.39
5.21 -1.64 2.39
5.24 -1.54 2.39
5.27 -1.43 2.39
5.30 -1.33 2.39
5.33 -1.22 2.39
5.35 -1.11 2.39
5.37 -1.00 2.39
5.39 -0.90 2.39
5.41 -0.79 2.39
5.42 -0.68 2.39
5.44 -0.57 2.39
5.45 -0.46 2.39
5.46 -0.35 2.39
5.46 -0.24 2.39
5.47 -0.13 2.39
5.47 -0.02 2.39
5.47 0.09 2.39
5.47 0.20 2.39
5.46 0.31 2.39
5.46 0.42 2.39
5.45 0.53 2.39
5.44 0.64 2.39
5.42 0.74 2.39
5.41 0.85 2.39
5.39 0.96 2.39
5.37 1.07 2.39
5.35 1.18 2.39
5.32 1.28 2.39
5.30 1.39 2.39
5.27 1.50 2.39
5.24 1.60 2.39
5.21 1.71 2.39
5.17 1.81 2.39
5.13 1.92 2.39
5.10 2.02 2.39
5.05 2.12 2.39
5.01 2.22 2.39
4.97 2.32 2.39
4.92 2.42 2.39
4.87 2.52 2.39
4.82 2.62 2.39
4.77 2.72 2.39
4.71 2.81 2.39
4.65 2.91 2.39
4.60 3.00 2.39
4.54 3.09 2.39
4.47 3.18 2.39
4.41 3.27 2.39
4.34 3.36 2.39
4.28 3.45 2.39
4.21 3.53 2.39
4.13 3.62 2.39
4.06 3.70 2.39
3.99 3.78 2.39
3.91 3.86 2.39
3.83 3.94 2.39
3.75 4.01 2.39
3.67 4.09 2.39
3.59 4.16 2.39
3.51 4.23 2.39
3.42 4.30 2.39
3.33 4.37 2.39
3.25 4.44 2.39
3.16 4.50 2.39
3.07 4.57 2.39
2.97 4.63 2.39
2.88 4.69 2.39
2.79 4.74 2.39
2.69 4.80 2.39
2.59 4.85 2.39
2.50 4.91 2.39
2.40 4.95 2.39
2.30 5.00 2.39
2.25 5.16 2.44
2.19 5.31 2.49
2.08 5.35 2.49
1.97 5.40 2.49
1.86 5.43 2.49
1.76 5.47 2.49
1.65 5.51 2.49
1.53 5.54 2.49
1.42 5.57 2.49
1.31 5.60 2.49
1.20 5.62 2.49
1.09 5.65 2.49
0.97 5.67 2.49
0.86 5.69 2.49
0.74 5.70 2.49
0.63 5.72 2.49
0.52 5.73 2.49
0.40 5.74 2.49
0.29 5.74 2.49
0.17 5.75 2.49
0.06 5.75 2.49
-0.06 5.75 2.49
-0.18 5.75 2.49
-0.29 5.75 2.49
-0.41 5.74 2.49
-0.52 5.73 2.49
-0.64 5.72 2.49
-0.75 5.71 2.49
-0.87 5.69 2.49
-0.98 5.67 2.49
-1.09 5.65 2.49
-1.21 5.63 2.49
-1.32 5.60 2.49
-1.43 5.58 2.49
-1.54 5.55 2.49
-1.65 5.51 2.49
-1.76 5.48 2.49
-1.87 5.44 2.49
-1.98 5.40 2.49
-2.09 5.36 2.49
-2.20 5.32 2.49
-2.30 5.28 2.49
-2.41 5.23 2.49
-2.51 5.18 2.49
-2.62 5.13 2.49
-2.72 5.07 2.49
-2.82 5.02 2.49
-2.92 4.96 2.49
-3.02 4.90 2.49
-3.12 4.84 2.49
-3.21 4.78 2.49
-3.31 4.71 2.49
-3.40 4.64 2.49
-3.49 4.58 2.49
-3.59 4.50 2.49
-3.67 4.43 2.49
-3.76 4.36 2.49
-3.85 4.28 2.49
-3.93 4.20 2.49
-4.02 4.12 2.49
-4.10 4.04 2.49
-4.18 3.96 2.49
-4.26 3.87 2.49
-4.33 3.79 2.49
-4.41 3.70 2.49
-4.48 3.61 2.49
-4.55 3.52 2.49
-4.62 3.43 2.49
-4.69 3.33 2.49
-4.76 3.24 2.49
-4.82 3.14 2.49
-4.88 3.04 2.49
-4.94 2.94 2.49
-5.00 2.85 2.49
-5.05 2.74 2.49
-5.11 2.64 2.49
-5.16 2.54 2.49
-5.21 2.43 2.49
-5.26 2.33 2.49
-5.30 2.22 2.49
-5.35 2.12 2.49
-5.39 2.01 2.49
-5.42 1.90 2.49
-5.46 1.79 2.49
-5.50 1.68 2.49
-5.53 1.57 2.49
-5.56 1.46 2.49
-5.59 1.35 2.49
-5.61 1.23 2.49
-5.63 1.12 2.49
-5.65 1.01 2.49
-5.67 0.89 2.49
-5.69 0.78 2.49
-5.70 0.67 2.49
-5.72 0.55 2.49
-5.72 0.44 2.49
-5.73 0.32 2.49
-5.74 0.21 2.49
-5.74 0.09 2.49
-5.74 -0.02 2.49
-5.74 -0.14 2.49
-5.73 -0.25 2.49
-5.72 -0.37 2.49
-5.72 -0.48 2.49
-5.70 -0.60 2.49
-5.69 -0.71 2.49
-5.67 -0.83 2.49
-5.66 -0.94 2.49
-5.64 -1.05 2.49
-5.61 -1.17 2.49
-5.59 -1.28 2.49
-5.56 -1.39 2.49
-5.53 -1.50 2.49
-5.50 -1.61 2.49
-5.46 -1.72 2.49
-5.43 -1.83 2.49
-5.39 -1.94 2.49
-5.35 -2.05 2.49
-5.31 -2.15 2.49
-5.26 -2.26 2.49
-5.21 -2.36 2.49
-5.16 -2.47 2.49
-5.11 -2.57 2.49
-5.06 -2.67 2.49
-5.00 -2.77 2.49
-4.95 -2.87 2.49
-4.89 -2.97 2.49
-4.83 -3.07 2.49
-4.76 -3.16 2.49
-4.70 -3.26 2.49
-4.63 -3.35 2.49
-4.56 -3.44 2.49
-4.49 -3.53 2.49
-4.42 -3.62 2.49
-4.35 -3.71 2.49
-4.27 -3.80 2.49
-4.19 -3.88 2.49
-4.11 -3.96 2.49
-4.03 -4.05 2.49
-3.95 -4.12 2.49
-3.87 -4.20 2.49
-3.78 -4.28 2.49
-3.69 -4.35 2.49
