ply
format ascii 1.0
element vertex 2936
property float32 x
property float32 y
property float32 z
end_header
-6.39 -15.06 2.39
-6.09 -15.19 2.39
-5.96 -15.78 2.46
-5.71 -16.10 2.49
-5.39 -16.21 2.49
-5.06 -16.32 2.49
-4.74 -16.42 2.49
-4.41 -16.52 2.49
-4.08 -16.61 2.49
-3.74 -16.69 2.49
-3.41 -16.77 2.49
-3.07 -16.84 2.49
-2.73 -16.90 2.49
-2.39 -16.96 2.49
-2.05 -17.01 2.49
-1.71 -17.06 2.49
-1.37 -17.09 2.49
-1.03 -17.12 2.49
-0.68 -17.15 2.49
-0.34 -17.16 2.49
0.01 -14.82 2.49
0.30 -14.82 2.49
0.60 -14.82 2.49
0.90 -14.81 2.49
1.20 -14.79 2.49
1.50 -14.77 2.49
1.79 -14.74 2.49
2.09 -14.71 2.49
2.29 -14.07 2.39
2.49 -13.60 2.32
2.85 -13.98 2.39
3.13 -13.92 2.39
3.41 -13.86 2.39
3.69 -13.80 2.39
3.97 -13.73 2.39
4.25 -13.65 2.39
4.52 -13.57 2.39
4.80 -13.48 2.39
5.07 -13.39 2.39
5.34 -13.29 2.39
5.61 -13.19 2.39
5.88 -13.08 2.39
6.15 -12.98 2.39
6.41 -12.86 2.39
6.67 -12.73 2.39
5.45 -9.93 1.88
5.66 -9.82 1.88
7.44 -12.33 2.39
7.69 -12.18 2.39
7.93 -12.03 2.39
8.18 -11.88 2.39
8.42 -11.72 2.39
8.66 -11.55 2.39
8.89 -11.38 2.39
9.12 -11.21 2.39
9.35 -11.03 2.39
9.58 -10.84 2.39
9.80 -10.66 2.39
7.89 -8.24 1.88
8.06 -8.08 1.88
10.44 -10.06 2.39
10.65 -9.86 2.39
10.85 -9.65 2.39
11.04 -9.43 2.39
11.24 -9.21 2.39
11.43 -8.99 2.39
11.61 -8.77 2.39
11.79 -8.54 2.39
11.97 -8.30 2.39
12.14 -8.07 2.39
12.31 -7.82 2.39
12.47 -7.58 2.39
12.62 -7.33 2.39
12.77 -7.08 2.39
12.92 -6.83 2.39
13.06 -6.57 2.39
13.20 -6.31 2.39
13.33 -6.05 2.39
13.46 -5.78 2.39
13.58 -5.51 2.39
13.69 -5.24 2.39
13.80 -4.97 2.39
13.91 -4.69 2.39
14.01 -4.42 2.39
14.10 -4.14 2.39
14.19 -3.85 2.39
14.27 -3.57 2.39
14.34 -3.29 2.39
14.41 -3.00 2.39
11.95 -2.24 1.98
11.95 -1.99 1.97
11.95 -1.74 1.96
11.95 -1.50 1.95
12.04 -1.27 1.96
12.04 -1.02 1.96
12.04 -0.78 1.96
12.05 -0.54 1.95
12.05 -0.30 1.95
12.05 -0.05 1.95
11.96 0.19 1.93
11.96 0.43 1.93
11.96 0.67 1.94
11.96 0.91 1.94
11.96 1.15 1.94
11.97 1.39 1.94
11.97 1.64 1.95
11.92 1.88 1.95
11.87 2.11 1.94
11.87 2.36 1.95
11.87 2.61 1.96
11.87 2.86 1.97
11.88 3.11 1.98
11.93 3.38 1.99
11.98 3.66 2.01
11.98 3.92 2.03
10.50 3.67 1.79
11.98 4.46 2.05
11.98 4.74 2.07
11.98 5.02 2.09
11.98 5.31 2.10
11.98 5.60 2.12
11.99 5.89 2.14
11.99 6.20 2.17
11.99 6.50 2.19
11.99 6.82 2.21
11.99 7.14 2.24
11.83 7.37 2.24
11.40 7.43 2.18
11.16 7.60 2.16
10.90 7.74 2.14
10.71 7.93 2.14
10.48 8.09 2.12
10.35 8.33 2.13
10.37 8.70 2.17
10.37 9.06 2.21
10.27 9.33 2.22
10.85 10.27 2.39
10.64 10.49 2.39
10.43 10.70 2.39
10.22 10.91 2.39
9.95 11.06 2.38
9.56 11.06 2.34
9.20 11.09 2.31
9.31 11.69 2.39
9.07 11.87 2.39
8.83 12.05 2.39
8.59 12.23 2.39
8.34 12.40 2.39
8.09 12.56 2.39
7.84 12.72 2.39
7.58 12.87 2.39
7.32 13.02 2.39
7.05 13.16 2.39
6.79 13.30 2.39
6.52 13.43 2.39
6.25 13.56 2.39
5.97 13.66 2.39
5.69 13.78 2.39
5.41 13.89 2.39
5.13 13.99 2.39
4.85 14.09 2.39
4.56 14.18 2.39
4.28 14.26 2.39
3.99 14.34 2.39
3.70 14.42 2.39
3.41 14.49 2.39
3.12 14.55 2.39
2.82 14.60 2.39
2.53 14.65 2.39
2.24 14.70 2.39
2.02 15.37 2.49
1.71 15.40 2.49
1.40 15.43 2.49
1.09 15.45 2.49
0.78 15.46 2.49
0.47 15.47 2.49
0.16 15.47 2.49
-0.15 15.46 2.49
-0.46 15.45 2.49
-0.77 15.43 2.49
-1.08 15.41 2.49
-1.38 15.38 2.49
-1.69 15.34 2.49
-2.00 15.30 2.49
-2.30 15.25 2.49
-2.61 15.19 2.49
-2.91 15.13 2.49
-3.21 15.06 2.49
-3.51 14.99 2.49
-3.81 14.91 2.49
-4.11 14.82 2.49
-4.40 14.73 2.49
-4.69 14.63 2.49
-4.98 14.52 2.49
-5.27 14.41 2.49
-5.56 14.30 2.49
-5.83 14.15 2.49
-5.87 13.47 2.39
-6.13 13.34 2.39
-6.40 13.21 2.39
-6.66 13.07 2.39
-6.91 12.93 2.39
-7.17 12.78 2.39
-7.42 12.63 2.39
-7.67 12.47 2.39
-7.91 12.30 2.39
-8.15 12.14 2.39
-8.39 11.96 2.39
-8.62 11.79 2.39
-8.85 11.61 2.39
-9.08 11.42 2.39
-9.30 11.23 2.39
-6.38 7.40 1.60
-9.73 10.83 2.39
-10.09 10.79 2.43
-10.24 10.52 2.41
-10.39 10.25 2.40
-10.57 10.01 2.39
-10.74 9.78 2.39
-10.91 9.54 2.39
-10.98 9.22 2.36
-11.06 8.91 2.34
-11.20 8.66 2.34
-11.28 8.37 2.32
-11.36 8.08 2.30
-11.44 7.79 2.29
-11.51 7.51 2.27
-11.60 7.24 2.26
-11.70 6.98 2.25
-11.80 6.72 2.25
-11.88 6.45 2.24
-11.95 6.18 2.23
-12.02 5.92 2.22
-12.07 5.64 2.21
-12.12 5.37 2.20
-12.16 5.10 2.19
-12.20 4.83 2.18
-12.25 4.57 2.17
-12.32 4.32 2.17
-12.40 4.07 2.17
-12.52 3.83 2.18
-12.64 3.59 2.19
-12.76 3.35 2.20
-12.87 3.10 2.21
-12.98 2.85 2.22
-13.01 2.59 2.21
-13.02 2.32 2.21
-13.04 2.05 2.21
-13.05 1.79 2.20
-13.06 1.52 2.20
-13.07 1.26 2.20
-13.08 0.99 2.20
-13.09 0.73 2.20
-13.02 0.47 2.18
-12.91 0.20 2.17
-12.77 -0.06 2.14
-12.63 -0.31 2.12
-12.50 -0.56 2.10
-12.36 -0.80 2.08
-12.22 -1.04 2.06
-12.09 -1.27 2.04
-12.02 -1.51 2.04
-12.00 -1.75 2.04
-11.98 -2.00 2.04
-11.96 -2.24 2.05
-11.93 -2.48 2.05
-11.88 -2.72 2.05
-11.84 -2.97 2.06
-11.79 -3.21 2.06
-11.74 -3.45 2.06
-11.71 -3.70 2.07
-11.67 -3.94 2.08
-11.64 -4.19 2.09
-11.60 -4.45 2.10
-11.56 -4.70 2.11
-11.52 -4.96 2.12
-11.50 -5.22 2.13
-11.49 -5.50 2.15
-11.48 -5.78 2.17
-11.48 -6.07 2.19
-11.47 -6.36 2.22
-11.46 -6.66 2.24
-11.45 -6.97 2.27
-11.42 -7.27 2.29
-11.38 -7.57 2.31
-11.34 -7.88 2.34
-11.30 -8.19 2.36
-11.26 -8.51 2.39
-11.21 -8.83 2.42
-11.16 -9.16 2.44
-11.12 -9.51 2.48
-11.05 -9.84 2.50
-10.95 -10.15 2.53
-10.78 -10.41 2.54
-10.62 -10.67 2.55
-9.75 -10.20 2.39
-9.55 -10.40 2.39
-9.34 -10.59 2.39
-9.12 -10.77 2.39
-8.90 -10.95 2.39
-8.68 -11.13 2.39
-8.46 -11.30 2.39
-8.23 -11.47 2.39
-8.00 -11.63 2.39
-7.76 -11.79 2.39
-7.52 -11.95 2.39
-7.28 -12.10 2.39
-7.04 -12.24 2.39
-6.79 -12.38 2.39
-6.54 -12.52 2.39
-6.29 -12.65 2.39
-6.04 -12.77 2.39
-5.95 -13.27 2.46
-5.76 -13.57 2.49
-5.49 -13.69 2.49
-5.21 -13.80 2.49
-4.93 -13.90 2.49
-4.65 -14.00 2.49
-4.37 -14.09 2.49
-4.09 -14.18 2.49
-3.80 -14.26 2.49
-3.52 -14.34 2.49
-3.23 -14.41 2.49
-2.94 -14.48 2.49
-2.65 -14.54 2.49
-2.36 -14.59 2.49
-2.07 -14.64 2.49
-1.77 -14.68 2.49
-1.48 -14.72 2.49
-1.18 -14.75 2.49
-0.88 -14.78 2.49
-0.59 -14.80 2.49
-0.29 -14.81 2.49
0.01 -13.02 2.49
0.27 -13.02 2.49
0.53 -13.02 2.49
0.79 -13.01 2.49
1.05 -12.99 2.49
1.31 -12.98 2.49
1.58 -12.95 2.49
1.84 -12.92 2.49
2.10 -12.89 2.49
2.26 -12.32 2.39
2.51 -12.27 2.39
2.75 -12.22 2.39
3.00 -12.17 2.39
3.24 -12.11 2.39
3.49 -12.05 2.39
3.73 -11.98 2.39
3.97 -11.91 2.39
4.21 -11.83 2.39
4.45 -11.75 2.39
4.69 -11.67 2.39
4.92 -11.57 2.39
5.16 -11.48 2.39
5.39 -11.38 2.39
5.62 -11.27 2.39
5.85 -11.16 2.39
6.07 -11.05 2.39
6.30 -10.94 2.39
6.52 -10.82 2.39
6.74 -10.69 2.39
6.96 -10.56 2.39
7.17 -10.42 2.39
7.39 -10.28 2.39
7.59 -10.13 2.39
7.80 -9.98 2.39
8.00 -9.83 2.39
8.20 -9.67 2.39
8.40 -9.51 2.39
8.59 -9.34 2.39
8.53 -8.91 2.32
8.97 -9.00 2.39
9.15 -8.82 2.39
9.33 -8.64 2.39
9.51 -8.46 2.39
9.68 -8.27 2.39
9.85 -8.08 2.39
10.02 -7.88 2.39
10.18 -7.68 2.39
10.33 -7.48 2.39
10.49 -7.27 2.39
10.64 -7.06 2.39
10.78 -6.85 2.39
10.92 -6.64 2.39
11.06 -6.42 2.39
11.19 -6.20 2.39
11.32 -5.98 2.39
11.44 -5.75 2.39
11.56 -5.52 2.39
11.67 -5.29 2.39
11.78 -5.06 2.39
11.89 -4.83 2.39
11.99 -4.59 2.39
12.08 -4.35 2.39
12.17 -4.11 2.39
12.26 -3.86 2.39
12.34 -3.62 2.39
12.42 -3.37 2.39
12.49 -3.12 2.39
12.55 -2.87 2.39
12.61 -2.62 2.39
11.95 -2.24 2.26
11.95 -1.99 2.25
11.95 -1.74 2.24
11.95 -1.50 2.23
11.95 -1.26 2.23
11.96 -1.01 2.22
11.96 -0.77 2.22
11.96 -0.53 2.22
11.96 -0.29 2.21
11.96 -0.05 2.21
11.96 0.19 2.21
11.96 0.43 2.21
11.96 0.67 2.21
11.96 0.91 2.22
11.96 1.15 2.22
11.69 1.36 2.17
11.57 1.58 2.15
11.54 1.82 2.15
11.50 2.05 2.15
11.46 2.28 2.15
11.42 2.51 2.15
11.37 2.74 2.15
11.31 2.97 2.15
11.26 3.19 2.15
11.19 3.42 2.15
11.12 3.64 2.15
10.43 3.65 2.03
11.98 4.46 2.35
11.98 4.74 2.37
11.98 5.02 2.39
11.91 5.27 2.39
11.80 5.51 2.39
11.69 5.75 2.39
11.57 5.98 2.39
11.45 6.21 2.39
11.33 6.44 2.39
11.20 6.67 2.39
11.07 6.90 2.39
10.93 7.12 2.39
10.78 7.34 2.39
10.64 7.55 2.39
10.48 7.76 2.39
10.33 7.97 2.39
10.17 8.18 2.39
10.00 8.38 2.39
9.83 8.58 2.39
9.66 8.78 2.39
9.48 8.97 2.39
9.30 9.16 2.39
9.11 9.35 2.39
8.92 9.53 2.39
8.73 9.70 2.39
8.54 9.88 2.39
8.34 10.05 2.39
8.13 10.21 2.39
7.93 10.37 2.39
7.72 10.53 2.39
7.50 10.68 2.39
7.29 10.83 2.39
7.07 10.97 2.39
6.85 11.11 2.39
6.62 11.25 2.39
6.39 11.37 2.39
6.16 11.49 2.39
5.92 11.61 2.39
5.69 11.72 2.39
5.45 11.83 2.39
5.21 11.94 2.39
4.97 12.04 2.39
4.73 12.13 2.39
4.48 12.22 2.39
4.24 12.31 2.39
3.99 12.39 2.39
3.74 12.46 2.39
3.49 12.53 2.39
3.23 12.60 2.39
2.98 12.66 2.39
2.73 12.71 2.39
2.47 12.76 2.39
2.22 12.86 2.40
2.04 13.40 2.49
1.77 13.43 2.49
1.50 13.46 2.49
1.23 13.48 2.49
0.96 13.50 2.49
0.69 13.51 2.49
0.41 13.52 2.49
0.14 13.52 2.49
-0.13 13.52 2.49
-0.40 13.51 2.49
-0.67 13.49 2.49
-0.94 13.47 2.49
-1.21 13.45 2.49
-1.48 13.41 2.49
-1.75 13.38 2.49
-2.01 13.33 2.49
-2.28 13.29 2.49
-2.55 13.23 2.49
-2.81 13.17 2.49
-3.07 13.11 2.49
-3.33 13.04 2.49
-3.59 12.96 2.49
-3.85 12.88 2.49
-4.11 12.80 2.49
-4.36 12.71 2.49
-4.61 12.61 2.49
-4.86 12.51 2.49
-5.11 12.41 2.49
-5.36 12.30 2.49
-5.60 12.18 2.49
-5.84 12.06 2.49
-5.85 11.49 2.40
-6.05 11.32 2.39
-6.27 11.19 2.39
-6.49 11.05 2.39
-6.71 10.92 2.39
-6.93 10.78 2.39
-7.14 10.63 2.39
-7.35 10.48 2.39
-7.55 10.32 2.39
-7.75 10.17 2.39
-7.95 10.00 2.39
-8.15 9.84 2.39
-6.38 7.39 1.83
-8.53 9.49 2.39
-8.71 9.31 2.39
-8.89 9.13 2.39
-9.07 8.95 2.39
-9.24 8.76 2.39
-9.41 8.57 2.39
-9.58 8.37 2.39
-9.74 8.18 2.39
-10.17 8.20 2.46
-10.30 7.97 2.45
-10.44 7.74 2.45
-10.56 7.51 2.44
-10.69 7.28 2.44
-10.81 7.05 2.43
-10.92 6.82 2.43
-11.00 6.56 2.42
-11.08 6.31 2.41
-11.15 6.06 2.40
-11.23 5.81 2.39
-11.30 5.56 2.38
-11.36 5.31 2.37
-11.42 5.06 2.36
-11.46 4.81 2.35
-11.52 4.56 2.35
-11.58 4.32 2.34
-11.65 4.08 2.34
-11.71 3.84 2.34
-11.77 3.60 2.34
-11.87 3.37 2.34
-11.98 3.14 2.35
-12.08 2.91 2.36
-12.19 2.68 2.37
-12.20 2.43 2.37
-12.21 2.18 2.36
-12.22 1.93 2.36
-12.26 1.68 2.36
-12.30 1.43 2.36
-12.33 1.19 2.36
-12.37 0.94 2.36
-12.39 0.69 2.37
-12.41 0.44 2.37
-12.42 0.20 2.37
-12.34 -0.05 2.36
-12.21 -0.30 2.33
-12.08 -0.54 2.31
-11.95 -0.77 2.29
-11.83 -1.00 2.27
-11.70 -1.23 2.25
-11.61 -1.46 2.24
-11.59 -1.69 2.24
-11.57 -1.93 2.25
-11.55 -2.16 2.25
-11.52 -2.40 2.26
-11.50 -2.64 2.26
-11.47 -2.87 2.27
-11.43 -3.11 2.27
-11.38 -3.34 2.28
-11.34 -3.58 2.28
-11.31 -3.82 2.29
-11.27 -4.06 2.30
-11.23 -4.30 2.31
-11.19 -4.55 2.32
-11.15 -4.79 2.33
-11.11 -5.04 2.34
-11.06 -5.29 2.36
-11.04 -5.56 2.38
-11.03 -5.83 2.40
-11.02 -6.11 2.42
-11.01 -6.40 2.45
-10.99 -6.69 2.48
-10.96 -6.98 2.50
-10.90 -7.25 2.52
-10.84 -7.52 2.54
-10.73 -7.78 2.55
-9.91 -7.49 2.39
-9.75 -7.68 2.39
-9.60 -7.88 2.39
-9.43 -8.07 2.39
-9.27 -8.26 2.39
-9.10 -8.44 2.39
-8.93 -8.62 2.39
-8.75 -8.80 2.39
-8.58 -8.97 2.39
-8.39 -9.14 2.39
-8.21 -9.31 2.39
-8.02 -9.47 2.39
-7.83 -9.63 2.39
-7.63 -9.79 2.39
-7.43 -9.94 2.39
-7.23 -10.08 2.39
-7.03 -10.23 2.39
-6.82 -10.37 2.39
-6.61 -10.50 2.39
-6.40 -10.64 2.39
-6.19 -10.76 2.39
-5.97 -10.89 2.39
-5.94 -11.36 2.47
-5.77 -11.60 2.49
-5.54 -11.71 2.49
-5.30 -11.82 2.49
-5.06 -11.93 2.49
-4.82 -12.03 2.49
-4.58 -12.13 2.49
-4.34 -12.22 2.49
-4.09 -12.31 2.49
-3.84 -12.39 2.49
-3.59 -12.47 2.49
-3.34 -12.54 2.49
-3.09 -12.61 2.49
-2.84 -12.67 2.49
-2.58 -12.72 2.49
-2.33 -12.78 2.49
-2.07 -12.82 2.49
-1.81 -12.87 2.49
-1.56 -12.90 2.49
-1.30 -12.94 2.49
-1.04 -12.96 2.49
-0.78 -12.99 2.49
-0.52 -13.00 2.49
-0.25 -13.01 2.49
0.01 -11.60 2.49
0.24 -11.60 2.49
0.47 -11.60 2.49
0.71 -11.59 2.49
0.94 -11.58 2.49
1.17 -11.56 2.49
1.40 -11.54 2.49
1.64 -11.51 2.49
1.87 -11.48 2.49
2.10 -11.44 2.49
2.23 -10.93 2.39
2.45 -10.89 2.39
2.67 -10.84 2.39
2.89 -10.79 2.39
3.11 -10.73 2.39
3.32 -10.67 2.39
3.54 -10.61 2.39
3.75 -10.54 2.39
3.96 -10.46 2.39
4.17 -10.38 2.39
4.38 -10.30 2.39
4.59 -10.22 2.39
4.80 -10.13 2.39
5.00 -10.03 2.39
5.21 -9.93 2.39
5.41 -9.83 2.39
5.60 -9.72 2.39
5.80 -9.61 2.39
6.00 -9.50 2.39
6.19 -9.39 2.39
6.38 -9.27 2.39
6.57 -9.14 2.39
6.76 -9.01 2.39
6.94 -8.88 2.39
7.12 -8.74 2.39
7.30 -8.60 2.39
7.47 -8.46 2.39
7.64 -8.31 2.39
7.72 -8.06 2.36
7.88 -7.91 2.36
8.14 -7.84 2.39
8.30 -7.68 2.39
8.46 -7.52 2.39
8.61 -7.35 2.39
8.76 -7.18 2.39
8.91 -7.00 2.39
9.05 -6.83 2.39
9.19 -6.65 2.39
9.32 -6.46 2.39
9.46 -6.28 2.39
9.58 -6.09 2.39
9.71 -5.90 2.39
9.83 -5.71 2.39
9.95 -5.51 2.39
10.06 -5.31 2.39
10.17 -5.11 2.39
10.27 -4.91 2.39
10.37 -4.70 2.39
10.47 -4.50 2.39
10.56 -4.29 2.39
10.65 -4.08 2.39
10.74 -3.86 2.39
10.82 -3.65 2.39
10.89 -3.43 2.39
10.96 -3.21 2.39
11.03 -2.99 2.39
11.09 -2.77 2.39
11.15 -2.55 2.39
11.20 -2.33 2.39
11.25 -2.10 2.39
11.30 -1.88 2.39
11.34 -1.65 2.39
11.37 -1.43 2.39
11.40 -1.20 2.39
11.43 -0.97 2.39
11.45 -0.74 2.39
11.47 -0.51 2.39
11.48 -0.28 2.39
11.48 -0.05 2.39
11.49 0.18 2.39
11.49 0.41 2.39
11.48 0.64 2.39
11.47 0.87 2.39
11.45 1.10 2.39
11.43 1.33 2.39
10.28 1.41 2.16
10.28 1.62 2.16
10.28 1.83 2.17
10.28 2.04 2.18
10.28 2.26 2.19
10.28 2.48 2.20
10.28 2.70 2.21
10.29 2.92 2.22
10.29 3.14 2.23
10.29 3.37 2.25
10.29 3.60 2.26
10.29 3.84 2.28
10.74 4.25 2.39
10.65 4.46 2.39
10.56 4.68 2.39
10.47 4.89 2.39
10.37 5.10 2.39
10.27 5.31 2.39
10.16 5.51 2.39
10.05 5.72 2.39
9.93 5.92 2.39
9.82 6.12 2.39
9.69 6.31 2.39
9.56 6.51 2.39
9.43 6.70 2.39
9.30 6.89 2.39
9.16 7.07 2.39
9.02 7.26 2.39
8.87 7.44 2.39
8.72 7.61 2.39
8.57 7.79 2.39
8.41 7.96 2.39
8.25 8.12 2.39
8.08 8.29 2.39
7.91 8.45 2.39
7.74 8.61 2.39
7.57 8.76 2.39
7.39 8.91 2.39
7.21 9.06 2.39
7.03 9.20 2.39
6.84 9.34 2.39
6.65 9.47 2.39
6.46 9.60 2.39
6.27 9.73 2.39
6.06 9.84 2.39
5.87 9.96 2.39
5.66 10.08 2.39
5.46 10.19 2.39
5.25 10.29 2.39
5.05 10.40 2.39
4.84 10.49 2.39
4.62 10.59 2.39
4.41 10.68 2.39
4.20 10.76 2.39
3.98 10.84 2.39
3.76 10.92 2.39
3.54 10.99 2.39
3.32 11.06 2.39
3.09 11.12 2.39
2.87 11.18 2.39
2.64 11.23 2.39
2.42 11.28 2.39
2.21 11.43 2.41
2.05 11.85 2.49
1.81 11.89 2.49
1.57 11.92 2.49
1.33 11.94 2.49
1.09 11.96 2.49
0.85 11.98 2.49
0.61 11.99 2.49
0.37 12.00 2.49
0.13 12.00 2.49
-0.11 12.00 2.49
-0.35 11.99 2.49
-0.59 11.98 2.49
-0.83 11.96 2.49
-1.07 11.93 2.49
-1.31 11.91 2.49
-1.55 11.87 2.49
-1.79 11.84 2.49
-2.02 11.79 2.49
-2.26 11.75 2.49
-2.49 11.70 2.49
-2.73 11.64 2.49
-2.96 11.58 2.49
-3.19 11.51 2.49
-3.42 11.44 2.49
-3.65 11.37 2.49
-3.87 11.29 2.49
-4.10 11.20 2.49
-4.32 11.11 2.49
-4.54 11.02 2.49
-4.76 10.92 2.49
-4.97 10.82 2.49
-5.19 10.71 2.49
-5.40 10.60 2.49
-5.61 10.49 2.49
-5.81 10.37 2.49
-5.85 9.96 2.42
-5.96 9.70 2.39
-6.15 9.57 2.39
-6.34 9.45 2.39
-6.53 9.31 2.39
-6.71 9.18 2.39
-6.89 9.03 2.39
-7.07 8.89 2.39
-7.24 8.74 2.39
-6.37 7.39 2.06
-7.58 8.44 2.39
-7.74 8.28 2.39
-7.90 8.12 2.39
-8.06 7.96 2.39
-8.22 7.79 2.39
-8.37 7.62 2.39
-8.51 7.45 2.39
-8.66 7.27 2.39
-8.80 7.09 2.39
-8.94 6.91 2.39
-9.07 6.73 2.39
-9.20 6.54 2.39
-9.32 6.35 2.39
-9.44 6.16 2.39
-9.56 5.97 2.39
-9.68 5.77 2.39
-9.79 5.57 2.39
-10.34 5.62 2.50
-10.44 5.40 2.50
-10.53 5.19 2.49
-10.62 4.97 2.49
-10.71 4.75 2.49
-10.80 4.53 2.49
-10.91 4.32 2.50
-10.98 4.10 2.50
-11.04 3.87 2.49
-11.10 3.64 2.49
-11.16 3.42 2.49
-11.22 3.19 2.49
-11.28 2.96 2.49
-11.38 2.74 2.50
-11.42 2.51 2.50
-11.43 2.28 2.49
-11.45 2.04 2.49
-11.46 1.81 2.48
-11.46 1.57 2.48
-11.47 1.34 2.47
-11.48 1.11 2.47
-11.51 0.88 2.47
-11.54 0.65 2.47
-11.55 0.41 2.48
-11.55 0.18 2.48
-11.56 -0.05 2.48
-11.56 -0.28 2.48
-11.56 -0.51 2.48
-11.55 -0.75 2.48
-11.45 -0.97 2.47
-11.33 -1.19 2.45
-11.23 -1.41 2.43
-11.21 -1.64 2.43
-11.18 -1.86 2.44
-11.16 -2.09 2.44
-11.14 -2.32 2.45
-11.11 -2.55 2.45
-11.09 -2.78 2.46
-11.06 -3.01 2.47
-11.03 -3.24 2.47
-10.99 -3.47 2.48
-10.94 -3.70 2.49
-10.85 -3.91 2.48
-10.75 -4.12 2.48
-10.64 -4.32 2.48
-10.54 -4.53 2.47
-10.43 -4.73 2.47
-10.32 -4.94 2.47
-9.90 -4.98 2.39
-9.79 -5.18 2.39
-9.69 -5.37 2.39
-9.58 -5.57 2.39
-9.46 -5.76 2.39
-9.34 -5.95 2.39
-9.22 -6.13 2.39
-9.09 -6.31 2.39
-8.96 -6.50 2.39
-8.83 -6.67 2.39
-8.69 -6.85 2.39
-8.55 -7.02 2.39
-8.41 -7.19 2.39
-8.26 -7.36 2.39
-8.11 -7.52 2.39
-7.96 -7.68 2.39
-7.80 -7.84 2.39
-7.64 -8.00 2.39
-7.48 -8.15 2.39
-7.32 -8.30 2.39
-7.15 -8.44 2.39
-6.98 -8.58 2.39
-6.80 -8.72 2.39
-6.63 -8.86 2.39
-6.45 -8.99 2.39
-6.27 -9.12 2.39
-6.08 -9.24 2.39
-5.94 -9.43 2.41
-5.93 -9.86 2.49
-5.75 -10.01 2.49
-5.55 -10.12 2.49
-5.35 -10.23 2.49
-5.14 -10.34 2.49
-4.93 -10.44 2.49
-4.72 -10.54 2.49
-4.51 -10.63 2.49
-4.30 -10.72 2.49
-4.08 -10.81 2.49
-3.86 -10.89 2.49
-3.64 -10.97 2.49
-3.42 -11.04 2.49
-3.20 -11.11 2.49
-2.98 -11.17 2.49
-2.75 -11.23 2.49
-2.53 -11.29 2.49
-2.30 -11.34 2.49
-2.07 -11.39 2.49
-1.85 -11.43 2.49
-1.62 -11.47 2.49
-1.39 -11.50 2.49
-1.15 -11.53 2.49
-0.92 -11.55 2.49
-0.69 -11.57 2.49
-0.46 -11.58 2.49
-0.23 -11.59 2.49
0.01 -10.45 2.49
0.22 -10.45 2.49
0.43 -10.45 2.49
0.64 -10.44 2.49
0.85 -10.43 2.49
1.06 -10.41 2.49
1.27 -10.39 2.49
1.47 -10.36 2.49
1.68 -10.34 2.49
1.89 -10.30 2.49
2.10 -10.27 2.49
2.21 -9.80 2.39
2.41 -9.76 2.39
2.60 -9.71 2.39
2.80 -9.66 2.39
2.99 -9.61 2.39
3.19 -9.55 2.39
3.38 -9.49 2.39
3.57 -9.42 2.39
3.76 -9.35 2.39
3.95 -9.27 2.39
4.13 -9.20 2.39
4.32 -9.12 2.39
4.50 -9.03 2.39
4.69 -8.94 2.39
4.87 -8.85 2.39
5.05 -8.75 2.39
5.22 -8.65 2.39
5.40 -8.55 2.39
5.57 -8.44 2.39
5.74 -8.33 2.39
5.91 -8.22 2.39
6.07 -8.10 2.39
6.25 -7.99 2.39
6.41 -7.87 2.39
6.57 -7.74 2.39
6.72 -7.61 2.39
6.88 -7.47 2.39
7.03 -7.34 2.39
7.18 -7.20 2.39
7.32 -7.06 2.39
7.47 -6.91 2.39
7.61 -6.76 2.39
7.74 -6.61 2.39
7.88 -6.46 2.39
8.01 -6.30 2.39
8.14 -6.14 2.39
8.26 -5.98 2.39
8.38 -5.81 2.39
8.50 -5.65 2.39
8.62 -5.48 2.39
8.73 -5.30 2.39
8.84 -5.13 2.39
8.94 -4.95 2.39
9.04 -4.77 2.39
9.14 -4.59 2.39
9.24 -4.41 2.39
9.33 -4.23 2.39
9.41 -4.04 2.39
9.49 -3.85 2.39
9.57 -3.66 2.39
9.65 -3.47 2.39
9.72 -3.28 2.39
9.79 -3.08 2.39
9.85 -2.89 2.39
9.91 -2.69 2.39
9.97 -2.49 2.39
10.02 -2.29 2.39
10.07 -2.09 2.39
10.11 -1.89 2.39
10.15 -1.69 2.39
10.18 -1.48 2.39
10.22 -1.28 2.39
10.24 -1.07 2.39
10.27 -0.87 2.39
10.28 -0.66 2.39
10.30 -0.46 2.39
10.31 -0.25 2.39
10.32 -0.04 2.39
10.32 0.16 2.39
10.32 0.37 2.39
10.31 0.58 2.39
10.30 0.78 2.39
10.28 0.99 2.39
10.26 1.20 2.39
10.24 1.40 2.39
10.21 1.61 2.39
10.18 1.81 2.39
10.15 2.02 2.39
10.11 2.22 2.39
10.06 2.42 2.39
10.01 2.63 2.39
9.96 2.83 2.39
9.91 3.03 2.39
9.84 3.23 2.39
9.78 3.42 2.39
9.71 3.62 2.39
9.64 3.82 2.39
9.56 4.01 2.39
9.48 4.20 2.39
9.40 4.39 2.39
9.31 4.58 2.39
9.22 4.76 2.39
9.12 4.95 2.39
9.02 5.13 2.39
8.92 5.31 2.39
8.81 5.49 2.39
8.70 5.67 2.39
8.58 5.84 2.39
8.47 6.01 2.39
8.35 6.18 2.39
8.22 6.35 2.39
8.09 6.51 2.39
7.96 6.67 2.39
7.83 6.83 2.39
7.69 6.99 2.39
7.55 7.14 2.39
7.40 7.29 2.39
7.25 7.44 2.39
7.10 7.58 2.39
6.95 7.72 2.39
6.79 7.86 2.39
6.64 8.00 2.39
6.47 8.13 2.39
6.31 8.26 2.39
6.14 8.37 2.39
5.97 8.49 2.39
5.79 8.61 2.39
5.62 8.72 2.39
5.44 8.84 2.39
5.27 8.94 2.39
5.08 9.05 2.39
4.90 9.14 2.39
4.72 9.24 2.39
4.53 9.33 2.39
4.34 9.42 2.39
4.15 9.50 2.39
3.96 9.58 2.39
3.77 9.66 2.39
3.57 9.73 2.39
3.37 9.80 2.39
3.18 9.86 2.39
2.98 9.93 2.39
2.78 9.98 2.39
2.58 10.03 2.39
2.39 10.14 2.41
2.20 10.28 2.43
2.05 10.60 2.49
1.84 10.64 2.49
1.62 10.67 2.49
1.41 10.70 2.49
1.20 10.72 2.49
0.98 10.74 2.49
0.76 10.76 2.49
0.55 10.77 2.49
0.33 10.77 2.49
0.12 10.78 2.49
-0.10 10.77 2.49
-0.32 10.77 2.49
-0.53 10.75 2.49
-0.75 10.74 2.49
-0.96 10.72 2.49
-1.18 10.69 2.49
-1.39 10.67 2.49
-1.60 10.63 2.49
-1.82 10.59 2.49
-2.03 10.55 2.49
-2.24 10.51 2.49
-2.45 10.46 2.49
-2.66 10.40 2.49
-2.86 10.34 2.49
-3.07 10.28 2.49
-3.27 10.21 2.49
-3.48 10.14 2.49
-3.68 10.07 2.49
-3.88 9.99 2.49
-4.08 9.90 2.49
-4.27 9.82 2.49
-4.47 9.72 2.49
-4.66 9.63 2.49
-4.85 9.53 2.49
-5.04 9.43 2.49
-5.22 9.32 2.49
-5.41 9.21 2.49
-5.59 9.10 2.49
-5.77 8.98 2.49
-5.85 8.72 2.45
-5.87 8.37 2.39
-6.03 8.25 2.39
-6.19 8.12 2.39
-6.35 7.99 2.39
-6.51 7.86 2.39
-6.37 7.39 2.28
-6.81 7.59 2.39
-6.96 7.45 2.39
-7.11 7.30 2.39
-7.25 7.16 2.39
-7.39 7.01 2.39
-7.52 6.85 2.39
-7.66 6.70 2.39
-7.79 6.54 2.39
-7.91 6.38 2.39
-8.04 6.22 2.39
-8.16 6.05 2.39
-8.27 5.89 2.39
-8.39 5.72 2.39
-8.50 5.54 2.39
-8.60 5.37 2.39
-8.70 5.19 2.39
-8.80 5.02 2.39
-8.90 4.84 2.39
-8.99 4.66 2.39
-9.08 4.47 2.39
-9.16 4.29 2.39
-9.24 4.10 2.39
-9.32 3.91 2.39
-9.39 3.72 2.39
-9.46 3.53 2.39
-9.53 3.34 2.39
-9.59 3.15 2.39
-9.65 2.95 2.39
-9.70 2.76 2.39
-9.75 2.56 2.39
-9.80 2.36 2.39
-9.84 2.17 2.39
-9.88 1.97 2.39
-10.69 1.91 2.58
-10.70 1.69 2.57
-10.71 1.47 2.57
-10.72 1.25 2.57
-10.73 1.04 2.56
-10.73 0.82 2.56
-10.73 0.60 2.56
-10.72 0.39 2.55
-10.73 0.17 2.55
-10.73 -0.05 2.56
-10.73 -0.26 2.56
-10.73 -0.48 2.56
-10.72 -0.69 2.56
-10.71 -0.91 2.56
-10.70 -1.12 2.56
-10.68 -1.34 2.57
-9.91 -1.45 2.39
-9.88 -1.64 2.39
-9.84 -1.84 2.39
-9.80 -2.04 2.39
-9.76 -2.23 2.39
-9.71 -2.43 2.39
-9.65 -2.62 2.39
-9.60 -2.82 2.39
-9.54 -3.01 2.39
-9.47 -3.20 2.39
-9.40 -3.39 2.39
-9.33 -3.57 2.39
-9.26 -3.76 2.39
-9.18 -3.95 2.39
-9.10 -4.13 2.39
-9.01 -4.31 2.39
-8.92 -4.49 2.39
-8.83 -4.67 2.39
-8.73 -4.84 2.39
-8.63 -5.02 2.39
-8.52 -5.19 2.39
-8.42 -5.36 2.39
-8.31 -5.52 2.39
-8.19 -5.69 2.39
-8.08 -5.85 2.39
-7.96 -6.01 2.39
-7.83 -6.17 2.39
-7.71 -6.33 2.39
-7.58 -6.48 2.39
-7.45 -6.63 2.39
-7.31 -6.78 2.39
-7.17 -6.92 2.39
-7.03 -7.07 2.39
-6.89 -7.21 2.39
-6.74 -7.34 2.39
-6.59 -7.48 2.39
-6.44 -7.61 2.39
-6.29 -7.74 2.39
-6.14 -7.87 2.39
-5.97 -7.98 2.39
-5.93 -8.26 2.44
-5.89 -8.57 2.49
-5.72 -8.69 2.49
-5.54 -8.80 2.49
-5.36 -8.91 2.49
-5.18 -9.02 2.49
-5.00 -9.12 2.49
-4.82 -9.22 2.49
-4.63 -9.32 2.49
-4.45 -9.41 2.49
-4.26 -9.50 2.49
-4.06 -9.58 2.49
-3.87 -9.66 2.49
-3.68 -9.74 2.49
-3.48 -9.81 2.49
-3.28 -9.88 2.49
-3.09 -9.95 2.49
-2.89 -10.01 2.49
-2.68 -10.07 2.49
-2.48 -10.12 2.49
-2.28 -10.17 2.49
-2.07 -10.22 2.49
-1.87 -10.26 2.49
-1.66 -10.30 2.49
-1.46 -10.33 2.49
-1.25 -10.36 2.49
-1.04 -10.38 2.49
-0.83 -10.41 2.49
-0.62 -10.42 2.49
-0.41 -10.44 2.49
-0.20 -10.44 2.49
0.01 -9.50 2.49
0.20 -9.50 2.49
0.39 -9.49 2.49
0.58 -9.49 2.49
0.77 -9.47 2.49
0.96 -9.46 2.49
1.15 -9.44 2.49
1.34 -9.42 2.49
1.53 -9.39 2.49
1.72 -9.36 2.49
1.91 -9.33 2.49
2.09 -9.29 2.49
2.19 -8.87 2.39
2.37 -8.82 2.39
2.54 -8.78 2.39
2.72 -8.73 2.39
2.90 -8.67 2.39
3.07 -8.62 2.39
3.24 -8.56 2.39
3.42 -8.49 2.39
3.59 -8.42 2.39
3.76 -8.35 2.39
3.92 -8.28 2.39
4.09 -8.20 2.39
4.26 -8.12 2.39
4.42 -8.04 2.39
4.58 -7.95 2.39
4.74 -7.86 2.39
4.90 -7.76 2.39
5.06 -7.67 2.39
5.21 -7.57 2.39
5.37 -7.46 2.39
5.52 -7.36 2.39
5.67 -7.25 2.39
5.81 -7.13 2.39
5.96 -7.02 2.39
6.10 -6.90 2.39
6.24 -6.79 2.39
6.38 -6.66 2.39
6.52 -6.53 2.39
6.65 -6.40 2.39
6.78 -6.27 2.39
6.91 -6.14 2.39
7.03 -6.00 2.39
7.15 -5.86 2.39
7.27 -5.72 2.39
7.39 -5.57 2.39
7.50 -5.42 2.39
7.61 -5.27 2.39
7.72 -5.12 2.39
7.82 -4.97 2.39
7.92 -4.81 2.39
8.02 -4.65 2.39
8.11 -4.49 2.39
8.21 -4.33 2.39
8.29 -4.17 2.39
8.38 -4.00 2.39
8.46 -3.83 2.39
8.54 -3.66 2.39
8.61 -3.49 2.39
8.69 -3.32 2.39
8.75 -3.15 2.39
8.82 -2.97 2.39
8.88 -2.80 2.39
8.94 -2.62 2.39
8.99 -2.44 2.39
9.04 -2.26 2.39
9.09 -2.08 2.39
9.13 -1.90 2.39
9.17 -1.71 2.39
9.20 -1.53 2.39
9.24 -1.34 2.39
9.26 -1.16 2.39
9.29 -0.97 2.39
9.31 -0.79 2.39
9.33 -0.60 2.39
9.34 -0.41 2.39
9.35 -0.23 2.39
9.35 -0.04 2.39
9.36 0.15 2.39
9.35 0.34 2.39
9.35 0.52 2.39
9.34 0.71 2.39
9.32 0.90 2.39
9.31 1.09 2.39
9.28 1.27 2.39
9.26 1.46 2.39
9.23 1.65 2.39
9.20 1.83 2.39
9.16 2.01 2.39
9.12 2.20 2.39
9.08 2.38 2.39
9.03 2.56 2.39
8.98 2.75 2.39
8.92 2.93 2.39
8.86 3.10 2.39
8.80 3.28 2.39
8.74 3.46 2.39
8.67 3.63 2.39
8.59 3.81 2.39
8.52 3.98 2.39
8.44 4.15 2.39
8.35 4.32 2.39
8.27 4.49 2.39
8.18 4.65 2.39
8.08 4.82 2.39
7.98 4.98 2.39
7.88 5.14 2.39
7.78 5.29 2.39
7.67 5.45 2.39
7.56 5.60 2.39
7.45 5.75 2.39
7.33 5.90 2.39
7.21 6.05 2.39
7.09 6.19 2.39
6.97 6.33 2.39
6.84 6.47 2.39
6.71 6.61 2.39
6.57 6.74 2.39
6.44 6.87 2.39
6.30 7.00 2.39
6.15 7.12 2.39
6.01 7.24 2.39
5.86 7.36 2.39
5.71 7.47 2.39
5.56 7.59 2.39
5.41 7.70 2.39
5.25 7.80 2.39
5.09 7.91 2.39
4.93 8.01 2.39
4.77 8.10 2.39
4.61 8.20 2.39
4.44 8.29 2.39
4.27 8.37 2.39
4.11 8.46 2.39
3.93 8.54 2.39
3.76 8.61 2.39
3.59 8.69 2.39
3.41 8.75 2.39
3.24 8.82 2.39
3.06 8.88 2.39
2.88 8.94 2.39
2.70 9.00 2.39
2.52 9.05 2.39
2.34 9.09 2.39
2.20 9.32 2.44
2.05 9.57 2.49
1.86 9.61 2.49
1.67 9.64 2.49
1.47 9.67 2.49
1.28 9.70 2.49
1.08 9.72 2.49
0.89 9.74 2.49
0.69 9.75 2.49
0.50 9.76 2.49
0.30 9.77 2.49
0.11 9.77 2.49
-0.09 9.77 2.49
-0.29 9.76 2.49
-0.48 9.75 2.49
-0.68 9.74 2.49
-0.87 9.72 2.49
-1.07 9.70 2.49
-1.26 9.67 2.49
-1.45 9.64 2.49
-1.65 9.61 2.49
-1.84 9.57 2.49
-2.03 9.53 2.49
-2.22 9.48 2.49
-2.41 9.43 2.49
-2.60 9.38 2.49
-2.78 9.32 2.49
-2.97 9.26 2.49
-3.15 9.20 2.49
-3.34 9.13 2.49
-3.52 9.06 2.49
-3.70 8.98 2.49
-3.87 8.90 2.49
-4.05 8.82 2.49
-4.23 8.73 2.49
-4.40 8.65 2.49
-4.57 8.55 2.49
-4.74 8.46 2.49
-4.91 8.36 2.49
-5.07 8.25 2.49
-5.23 8.15 2.49
-5.39 8.04 2.49
-5.55 7.92 2.49
-5.71 7.81 2.49
-5.86 7.68 2.49
-5.86 7.38 2.43
-5.91 7.13 2.39
-6.05 7.01 2.39
-6.18 6.89 2.39
-6.32 6.76 2.39
-6.45 6.63 2.39
-6.58 6.50 2.39
-6.70 6.36 2.39
-6.83 6.22 2.39
-6.95 6.08 2.39
-7.07 5.94 2.39
-7.18 5.79 2.39
-7.29 5.65 2.39
-7.40 5.50 2.39
-7.51 5.34 2.39
-7.61 5.19 2.39
-7.71 5.03 2.39
-7.81 4.88 2.39
-7.90 4.72 2.39
-7.99 4.56 2.39
-8.08 4.39 2.39
-8.16 4.23 2.39
-8.24 4.06 2.39
-8.32 3.89 2.39
-8.39 3.73 2.39
-8.46 3.55 2.39
-8.53 3.38 2.39
-8.59 3.21 2.39
-8.65 3.04 2.39
-8.71 2.86 2.39
-8.76 2.68 2.39
-8.81 2.51 2.39
-8.86 2.33 2.39
-8.90 2.15 2.39
-8.94 1.97 2.39
-8.97 1.79 2.39
-9.00 1.61 2.39
-9.03 1.43 2.39
-9.06 1.24 2.39
-9.08 1.06 2.39
-9.09 0.88 2.39
-9.11 0.70 2.39
-9.12 0.51 2.39
-9.12 0.33 2.39
-9.12 0.15 2.39
-9.12 -0.04 2.39
-9.12 -0.22 2.39
-9.11 -0.40 2.39
-9.10 -0.59 2.39
-9.08 -0.77 2.39
-9.06 -0.95 2.39
-9.04 -1.13 2.39
-9.01 -1.31 2.39
-8.98 -1.49 2.39
-8.95 -1.67 2.39
-8.91 -1.85 2.39
-8.87 -2.03 2.39
-8.82 -2.21 2.39
-8.77 -2.38 2.39
-8.72 -2.56 2.39
-8.67 -2.73 2.39
-8.61 -2.91 2.39
-8.55 -3.08 2.39
-8.48 -3.25 2.39
-8.41 -3.42 2.39
-8.34 -3.59 2.39
-8.27 -3.75 2.39
-8.19 -3.92 2.39
-8.11 -4.08 2.39
-8.02 -4.24 2.39
-7.94 -4.40 2.39
-7.84 -4.56 2.39
-7.75 -4.72 2.39
-7.65 -4.87 2.39
-7.55 -5.02 2.39
-7.45 -5.17 2.39
-7.34 -5.32 2.39
-7.23 -5.47 2.39
-7.12 -5.61 2.39
-7.01 -5.75 2.39
-6.89 -5.89 2.39
-6.77 -6.03 2.39
-6.65 -6.16 2.39
-6.52 -6.30 2.39
-6.39 -6.42 2.39
-6.26 -6.55 2.39
-6.13 -6.68 2.39
-5.99 -6.80 2.39
-5.93 -7.00 2.42
-5.92 -7.29 2.48
-5.82 -7.46 2.49
-5.66 -7.57 2.49
-5.51 -7.68 2.49
-5.36 -7.79 2.49
-5.20 -7.90 2.49
-5.04 -8.00 2.49
-4.88 -8.10 2.49
-4.71 -8.20 2.49
-4.55 -8.29 2.49
-4.38 -8.38 2.49
-4.21 -8.47 2.49
-4.04 -8.55 2.49
-3.87 -8.64 2.49
-3.70 -8.71 2.49
-3.52 -8.79 2.49
-3.34 -8.86 2.49
-3.16 -8.92 2.49
-2.99 -8.98 2.49
-2.80 -9.04 2.49
-2.62 -9.10 2.49
-2.44 -9.15 2.49
-2.26 -9.20 2.49
-2.07 -9.25 2.49
-1.88 -9.29 2.49
-1.70 -9.33 2.49
-1.51 -9.36 2.49
-1.32 -9.39 2.49
-1.13 -9.42 2.49
-0.94 -9.44 2.49
-0.75 -9.46 2.49
-0.56 -9.47 2.49
-0.37 -9.48 2.49
-0.18 -9.49 2.49
0.01 -8.69 2.49
0.18 -8.69 2.49
0.36 -8.69 2.49
0.53 -8.68 2.49
0.71 -8.67 2.49
0.88 -8.66 2.49
1.05 -8.64 2.49
1.23 -8.62 2.49
1.40 -8.60 2.49
1.57 -8.57 2.49
1.75 -8.54 2.49
1.92 -8.50 2.49
2.09 -8.47 2.49
2.17 -8.08 2.39
2.33 -8.03 2.39
2.49 -7.99 2.39
2.65 -7.94 2.39
2.81 -7.89 2.39
2.97 -7.83 2.39
3.13 -7.77 2.39
3.28 -7.71 2.39
3.44 -7.64 2.39
3.59 -7.58 2.39
3.75 -7.50 2.39
3.90 -7.43 2.39
4.05 -7.35 2.39
4.19 -7.27 2.39
4.34 -7.19 2.39
4.49 -7.10 2.39
4.63 -7.01 2.39
4.77 -6.92 2.39
4.91 -6.83 2.39
5.05 -6.73 2.39
5.18 -6.63 2.39
5.32 -6.53 2.39
5.45 -6.42 2.39
5.58 -6.31 2.39
5.71 -6.20 2.39
5.83 -6.09 2.39
5.95 -5.97 2.39
6.08 -5.85 2.39
6.20 -5.74 2.39
6.32 -5.61 2.39
6.43 -5.49 2.39
6.54 -5.36 2.39
6.65 -5.23 2.39
6.76 -5.09 2.39
6.86 -4.96 2.39
6.96 -4.82 2.39
7.06 -4.68 2.39
7.15 -4.54 2.39
7.24 -4.40 2.39
7.33 -4.25 2.39
7.42 -4.11 2.39
7.50 -3.96 2.39
7.58 -3.81 2.39
7.66 -3.66 2.39
7.74 -3.50 2.39
7.81 -3.35 2.39
7.88 -3.19 2.39
7.94 -3.04 2.39
8.00 -2.88 2.39
8.06 -2.72 2.39
8.12 -2.56 2.39
8.17 -2.39 2.39
8.22 -2.23 2.39
8.26 -2.06 2.39
8.31 -1.90 2.39
8.35 -1.73 2.39
8.38 -1.56 2.39
8.41 -1.40 2.39
8.44 -1.23 2.39
8.47 -1.06 2.39
8.49 -0.89 2.39
8.51 -0.72 2.39
8.52 -0.55 2.39
8.53 -0.38 2.39
8.54 -0.21 2.39
8.55 -0.03 2.39
8.55 0.14 2.39
8.55 0.31 2.39
8.54 0.48 2.39
8.53 0.65 2.39
8.52 0.82 2.39
8.50 0.99 2.39
8.48 1.16 2.39
8.46 1.33 2.39
8.43 1.50 2.39
8.40 1.67 2.39
8.37 1.84 2.39
8.33 2.01 2.39
8.29 2.18 2.39
8.25 2.34 2.39
8.20 2.51 2.39
8.15 2.67 2.39
8.10 2.84 2.39
8.04 3.00 2.39
7.98 3.16 2.39
7.92 3.32 2.39
7.85 3.48 2.39
7.78 3.64 2.39
7.71 3.79 2.39
7.63 3.95 2.39
7.55 4.10 2.39
7.47 4.25 2.39
7.38 4.40 2.39
7.29 4.55 2.39
7.20 4.69 2.39
7.11 4.84 2.39
7.01 4.98 2.39
6.91 5.12 2.39
6.80 5.26 2.39
6.70 5.39 2.39
6.59 5.52 2.39
6.48 5.66 2.39
6.36 5.78 2.39
6.25 5.91 2.39
6.12 6.03 2.39
6.00 6.15 2.39
5.87 6.27 2.39
5.75 6.39 2.39
5.62 6.50 2.39
5.49 6.61 2.39
5.35 6.72 2.39
5.22 6.83 2.39
5.08 6.93 2.39
4.94 7.03 2.39
4.80 7.13 2.39
4.65 7.22 2.39
4.51 7.31 2.39
4.36 7.40 2.39
4.21 7.49 2.39
4.06 7.57 2.39
3.90 7.65 2.39
3.75 7.72 2.39
3.59 7.80 2.39
3.44 7.87 2.39
3.28 7.93 2.39
3.12 8.00 2.39
2.96 8.06 2.39
2.79 8.11 2.39
2.63 8.17 2.39
2.47 8.22 2.39
2.30 8.26 2.39
2.19 8.54 2.46
2.05 8.71 2.49
1.88 8.74 2.49
1.70 8.78 2.49
1.52 8.81 2.49
1.35 8.84 2.49
1.17 8.86 2.49
0.99 8.88 2.49
0.81 8.90 2.49
0.63 8.91 2.49
0.45 8.92 2.49
0.28 8.92 2.49
0.10 8.93 2.49
-0.08 8.92 2.49
-0.26 8.92 2.49
-0.44 8.91 2.49
-0.62 8.90 2.49
-0.80 8.88 2.49
-0.97 8.86 2.49
-1.15 8.84 2.49
-1.33 8.81 2.49
-1.50 8.78 2.49
-1.68 8.74 2.49
-1.85 8.71 2.49
-2.03 8.66 2.49
-2.20 8.62 2.49
-2.37 8.57 2.49
-2.54 8.52 2.49
-2.71 8.46 2.49
-2.88 8.41 2.49
-3.05 8.34 2.49
-3.21 8.28 2.49
-3.38 8.21 2.49
-3.54 8.14 2.49
-3.70 8.06 2.49
-3.86 7.98 2.49
-4.02 7.90 2.49
-4.18 7.82 2.49
-4.33 7.73 2.49
-4.48 7.64 2.49
-4.63 7.55 2.49
-4.78 7.45 2.49
-4.93 7.35 2.49
-5.08 7.25 2.49
-5.22 7.14 2.49
-5.36 7.03 2.49
-5.50 6.92 2.49
-5.63 6.81 2.49
-5.77 6.69 2.49
-5.86 6.53 2.48
-5.87 6.28 2.43
-5.90 6.06 2.39
-6.02 5.94 2.39
-6.13 5.82 2.39
-6.24 5.69 2.39
-6.36 5.56 2.39
-6.46 5.43 2.39
-6.57 5.30 2.39
-6.67 5.16 2.39
-6.77 5.03 2.39
-6.87 4.89 2.39
-6.96 4.75 2.39
-7.05 4.61 2.39
-7.14 4.46 2.39
-7.23 4.32 2.39
-7.31 4.17 2.39
-7.39 4.02 2.39
-7.47 3.87 2.39
-7.54 3.72 2.39
-7.61 3.56 2.39
-7.68 3.41 2.39
-7.74 3.25 2.39
-7.81 3.10 2.39
-7.86 2.94 2.39
-7.92 2.78 2.39
-7.97 2.62 2.39
-8.02 2.46 2.39
-8.06 2.29 2.39
-8.11 2.13 2.39
-8.14 1.97 2.39
-8.18 1.80 2.39
-8.21 1.64 2.39
-8.24 1.47 2.39
-8.27 1.31 2.39
-8.29 1.14 2.39
-8.31 0.97 2.39
-8.32 0.80 2.39
-8.33 0.64 2.39
-8.34 0.47 2.39
-8.35 0.30 2.39
-8.35 0.13 2.39
-8.35 -0.03 2.39
-8.35 -0.20 2.39
-8.34 -0.37 2.39
-8.33 -0.54 2.39
-8.31 -0.70 2.39
-8.29 -0.87 2.39
-8.27 -1.04 2.39
-8.25 -1.20 2.39
-8.22 -1.37 2.39
-8.19 -1.53 2.39
-8.16 -1.70 2.39
-8.12 -1.86 2.39
-8.08 -2.02 2.39
-8.03 -2.18 2.39
-7.99 -2.34 2.39
-7.94 -2.50 2.39
-7.88 -2.66 2.39
-7.83 -2.82 2.39
-7.77 -2.97 2.39
-7.71 -3.13 2.39
-7.64 -3.28 2.39
-7.57 -3.44 2.39
-7.50 -3.59 2.39
-7.43 -3.74 2.39
-7.35 -3.88 2.39
-7.27 -4.03 2.39
-7.18 -4.18 2.39
-7.10 -4.32 2.39
-7.01 -4.46 2.39
-6.92 -4.60 2.39
-6.82 -4.74 2.39
-6.73 -4.87 2.39
-6.63 -5.01 2.39
-6.52 -5.14 2.39
-6.42 -5.27 2.39
-6.31 -5.40 2.39
-6.20 -5.52 2.39
-6.09 -5.64 2.39
-5.97 -5.77 2.39
-5.92 -5.95 2.42
-5.92 -6.19 2.47
-5.86 -6.38 2.49
-5.73 -6.49 2.49
-5.60 -6.61 2.49
-5.46 -6.72 2.49
-5.33 -6.83 2.49
-5.19 -6.93 2.49
-5.05 -7.04 2.49
-4.91 -7.14 2.49
-4.76 -7.23 2.49
-4.61 -7.33 2.49
-4.47 -7.42 2.49
-4.32 -7.51 2.49
-4.17 -7.60 2.49
-4.01 -7.68 2.49
-3.86 -7.76 2.49
-3.70 -7.83 2.49
-3.54 -7.91 2.49
-3.38 -7.98 2.49
-3.22 -8.05 2.49
-3.06 -8.11 2.49
-2.90 -8.17 2.49
-2.73 -8.23 2.49
-2.57 -8.28 2.49
-2.40 -8.33 2.49
-2.23 -8.38 2.49
-2.06 -8.43 2.49
-1.90 -8.47 2.49
-1.73 -8.50 2.49
-1.55 -8.54 2.49
-1.38 -8.57 2.49
-1.21 -8.60 2.49
-1.04 -8.62 2.49
-0.86 -8.64 2.49
-0.69 -8.66 2.49
-0.52 -8.67 2.49
-0.34 -8.68 2.49
-0.17 -8.69 2.49
0.01 -8.01 2.49
0.17 -8.01 2.49
0.33 -8.01 2.49
0.49 -8.00 2.49
0.65 -7.99 2.49
0.81 -7.98 2.49
0.97 -7.96 2.49
1.13 -7.94 2.49
1.29 -7.92 2.49
1.45 -7.89 2.49
1.61 -7.86 2.49
1.77 -7.83 2.49
1.92 -7.80 2.49
2.08 -7.76 2.49
2.15 -7.40 2.39
2.31 -7.41 2.41
2.44 -7.31 2.39
2.59 -7.26 2.39
2.74 -7.21 2.39
2.88 -7.16 2.39
3.02 -7.10 2.39
3.17 -7.04 2.39
3.31 -6.98 2.39
3.45 -6.91 2.39
3.59 -6.84 2.39
3.73 -6.77 2.39
3.86 -6.70 2.39
4.00 -6.62 2.39
4.13 -6.54 2.39
4.26 -6.46 2.39
4.39 -6.37 2.39
4.52 -6.28 2.39
4.65 -6.19 2.39
4.77 -6.10 2.39
4.90 -6.01 2.39
5.02 -5.91 2.39
5.14 -5.81 2.39
5.25 -5.71 2.39
5.37 -5.60 2.39
5.48 -5.49 2.39
5.59 -5.38 2.39
5.70 -5.27 2.39
5.81 -5.16 2.39
5.91 -5.04 2.39
6.01 -4.93 2.39
6.11 -4.81 2.39
6.22 -4.69 2.39
6.31 -4.56 2.39
6.41 -4.44 2.39
6.50 -4.31 2.39
6.58 -4.18 2.39
6.67 -4.05 2.39
6.75 -3.91 2.39
6.83 -3.78 2.39
6.91 -3.64 2.39
6.98 -3.50 2.39
7.05 -3.37 2.39
7.12 -3.22 2.39
7.18 -3.08 2.39
7.25 -2.94 2.39
7.31 -2.79 2.39
7.36 -2.65 2.39
7.42 -2.50 2.39
7.47 -2.35 2.39
7.52 -2.20 2.39
7.56 -2.05 2.39
7.60 -1.90 2.39
7.64 -1.75 2.39
7.68 -1.59 2.39
7.71 -1.44 2.39
7.74 -1.28 2.39
7.77 -1.13 2.39
7.79 -0.97 2.39
7.81 -0.82 2.39
7.83 -0.66 2.39
7.84 -0.50 2.39
7.85 -0.35 2.39
7.86 -0.19 2.39
7.86 -0.03 2.39
7.86 0.13 2.39
7.86 0.28 2.39
7.85 0.44 2.39
7.85 0.60 2.39
7.83 0.76 2.39
7.82 0.91 2.39
7.80 1.07 2.39
7.78 1.23 2.39
7.75 1.38 2.39
7.73 1.54 2.39
7.70 1.69 2.39
7.66 1.85 2.39
7.63 2.00 2.39
7.58 2.15 2.39
7.54 2.31 2.39
7.49 2.46 2.39
7.45 2.61 2.39
7.39 2.76 2.39
7.34 2.91 2.39
7.28 3.05 2.39
7.22 3.20 2.39
7.15 3.34 2.39
7.08 3.49 2.39
7.01 3.63 2.39
6.94 3.77 2.39
6.86 3.91 2.39
6.79 4.04 2.39
6.70 4.18 2.39
6.62 4.31 2.39
6.53 4.45 2.39
6.44 4.58 2.39
6.35 4.70 2.39
6.25 4.83 2.39
6.15 4.95 2.39
6.05 5.07 2.39
5.95 5.19 2.39
5.84 5.31 2.39
5.74 5.43 2.39
5.63 5.54 2.39
5.51 5.65 2.39
5.40 5.76 2.39
5.28 5.87 2.39
5.16 5.98 2.39
5.04 6.08 2.39
4.92 6.18 2.39
4.80 6.28 2.39
4.67 6.37 2.39
4.54 6.46 2.39
4.41 6.55 2.39
4.28 6.64 2.39
4.14 6.72 2.39
4.01 6.80 2.39
3.87 6.88 2.39
3.73 6.96 2.39
3.59 7.03 2.39
3.45 7.10 2.39
3.30 7.17 2.39
3.16 7.23 2.39
3.01 7.29 2.39
2.87 7.35 2.39
2.72 7.41 2.39
2.57 7.46 2.39
2.42 7.51 2.39
2.27 7.55 2.39
2.19 7.87 2.47
2.05 7.97 2.49
1.89 8.00 2.49
1.73 8.04 2.49
1.56 8.07 2.49
1.40 8.10 2.49
1.24 8.12 2.49
1.08 8.15 2.49
0.91 8.16 2.49
0.75 8.18 2.49
0.58 8.19 2.49
0.42 8.20 2.49
0.25 8.21 2.49
0.09 8.21 2.49
-0.07 8.21 2.49
-0.24 8.20 2.49
-0.40 8.19 2.49
-0.57 8.18 2.49
-0.73 8.17 2.49
-0.89 8.15 2.49
-1.06 8.13 2.49
-1.22 8.10 2.49
-1.38 8.07 2.49
-1.54 8.04 2.49
-1.70 8.01 2.49
-1.86 7.97 2.49
-2.02 7.93 2.49
-2.18 7.88 2.49
-2.34 7.84 2.49
-2.49 7.79 2.49
-2.65 7.73 2.49
-2.80 7.68 2.49
-2.96 7.62 2.49
-3.11 7.55 2.49
-3.26 7.49 2.49
-3.41 7.42 2.49
-3.55 7.35 2.49
-3.70 7.27 2.49
-3.84 7.19 2.49
-3.98 7.11 2.49
-4.12 7.03 2.49
-4.26 6.94 2.49
-4.40 6.85 2.49
-4.54 6.76 2.49
-4.67 6.67 2.49
-4.80 6.57 2.49
-4.93 6.47 2.49
-5.06 6.37 2.49
-5.18 6.26 2.49
-5.31 6.16 2.49
-5.43 6.05 2.49
-5.54 5.93 2.49
-5.66 5.82 2.49
-5.77 5.70 2.49
-5.87 5.57 2.48
-5.87 5.35 2.44
-5.88 5.14 2.40
-5.95 5.00 2.39
-6.05 4.88 2.39
-6.14 4.75 2.39
-6.23 4.63 2.39
-6.32 4.50 2.39
-6.41 4.37 2.39
-6.49 4.24 2.39
-6.58 4.11 2.39
-6.65 3.97 2.39
-6.73 3.84 2.39
-6.80 3.70 2.39
-6.88 3.56 2.39
-6.94 3.42 2.39
-7.01 3.28 2.39
-7.07 3.14 2.39
-7.13 3.00 2.39
-7.19 2.85 2.39
-7.24 2.71 2.39
-7.29 2.56 2.39
-7.34 2.41 2.39
-7.38 2.26 2.39
-7.43 2.11 2.39
-7.46 1.96 2.39
-7.50 1.81 2.39
-7.53 1.66 2.39
-7.56 1.51 2.39
-7.59 1.36 2.39
-7.61 1.20 2.39
-7.63 1.05 2.39
-7.65 0.90 2.39
-7.67 0.74 2.39
-7.68 0.59 2.39
-7.68 0.43 2.39
-7.69 0.28 2.39
-7.69 0.12 2.39
-7.69 -0.03 2.39
-7.69 -0.18 2.39
-7.68 -0.34 2.39
-7.67 -0.49 2.39
-7.66 -0.65 2.39
-7.64 -0.80 2.39
-7.62 -0.95 2.39
-7.60 -1.11 2.39
-7.57 -1.26 2.39
-7.55 -1.41 2.39
-7.51 -1.56 2.39
-7.48 -1.71 2.39
-7.44 -1.86 2.39
-7.40 -2.01 2.39
-7.36 -2.16 2.39
-7.31 -2.31 2.39
-7.26 -2.45 2.39
-7.21 -2.60 2.39
-7.16 -2.74 2.39
-7.10 -2.88 2.39
-7.04 -3.02 2.39
-6.98 -3.17 2.39
-6.91 -3.30 2.39
-6.84 -3.44 2.39
-6.77 -3.58 2.39
-6.70 -3.71 2.39
-6.62 -3.85 2.39
-6.54 -3.98 2.39
-6.46 -4.11 2.39
-6.37 -4.24 2.39
-6.29 -4.36 2.39
-6.20 -4.49 2.39
-6.12 -4.63 2.40
-6.01 -4.73 2.39
-5.92 -4.86 2.39
-5.91 -5.06 2.43
-5.91 -5.26 2.47
-5.85 -5.43 2.49
-5.74 -5.54 2.49
-5.63 -5.66 2.49
-5.51 -5.77 2.49
-5.40 -5.88 2.49
-5.28 -5.98 2.49
-5.16 -6.09 2.49
-5.03 -6.19 2.49
-4.91 -6.29 2.49
-4.78 -6.39 2.49
-4.65 -6.48 2.49
-4.52 -6.58 2.49
-4.39 -6.67 2.49
-4.25 -6.75 2.49
-4.12 -6.84 2.49
-3.98 -6.92 2.49
-3.84 -7.00 2.49
-3.70 -7.07 2.49
-3.55 -7.15 2.49
-3.41 -7.22 2.49
-3.26 -7.29 2.49
-3.12 -7.35 2.49
-2.97 -7.41 2.49
-2.82 -7.47 2.49
-2.67 -7.53 2.49
-2.52 -7.58 2.49
-2.37 -7.63 2.49
-2.21 -7.68 2.49
-2.06 -7.72 2.49
-1.90 -7.76 2.49
-1.75 -7.80 2.49
-1.59 -7.84 2.49
-1.43 -7.87 2.49
-1.27 -7.90 2.49
-1.11 -7.92 2.49
-0.96 -7.94 2.49
-0.80 -7.96 2.49
-0.64 -7.98 2.49
-0.48 -7.99 2.49
-0.31 -8.00 2.49
-0.15 -8.01 2.49
0.01 -7.42 2.49
0.16 -7.42 2.49
0.31 -7.41 2.49
0.45 -7.41 2.49
0.60 -7.40 2.49
0.75 -7.39 2.49
0.90 -7.37 2.49
1.05 -7.35 2.49
1.20 -7.33 2.49
1.34 -7.31 2.49
1.49 -7.28 2.49
1.64 -7.25 2.49
1.78 -7.22 2.49
1.93 -7.18 2.49
2.07 -7.15 2.49
2.13 -6.84 2.40
2.26 -6.77 2.39
2.40 -6.72 2.39
2.53 -6.68 2.39
2.67 -6.62 2.39
2.80 -6.57 2.39
2.93 -6.52 2.39
3.06 -6.46 2.39
3.19 -6.40 2.39
3.32 -6.33 2.39
3.45 -6.27 2.39
3.58 -6.20 2.39
3.70 -6.13 2.39
3.82 -6.05 2.39
3.95 -5.98 2.39
4.07 -5.90 2.39
4.19 -5.82 2.39
4.30 -5.73 2.39
4.42 -5.65 2.39
4.53 -5.56 2.39
4.64 -5.47 2.39
4.75 -5.38 2.39
4.86 -5.28 2.39
4.97 -5.18 2.39
5.07 -5.08 2.39
5.18 -4.98 2.39
5.28 -4.88 2.39
5.38 -4.77 2.39
5.47 -4.67 2.39
5.57 -4.56 2.39
5.66 -4.45 2.39
5.75 -4.33 2.39
5.84 -4.22 2.39
5.92 -4.10 2.39
6.00 -3.98 2.39
6.08 -3.86 2.39
6.17 -3.74 2.39
6.24 -3.62 2.39
6.32 -3.50 2.39
6.39 -3.37 2.39
6.46 -3.24 2.39
6.52 -3.11 2.39
6.59 -2.98 2.39
6.65 -2.85 2.39
6.70 -2.72 2.39
6.76 -2.58 2.39
6.81 -2.45 2.39
6.86 -2.31 2.39
6.91 -2.17 2.39
6.95 -2.03 2.39
6.99 -1.90 2.39
7.03 -1.75 2.39
7.07 -1.61 2.39
7.10 -1.47 2.39
7.13 -1.33 2.39
7.16 -1.19 2.39
7.18 -1.04 2.39
7.20 -0.90 2.39
7.22 -0.75 2.39
7.24 -0.61 2.39
7.25 -0.46 2.39
7.26 -0.32 2.39
7.27 -0.17 2.39
7.27 -0.03 2.39
7.27 0.12 2.39
7.27 0.26 2.39
7.26 0.41 2.39
7.25 0.55 2.39
7.24 0.70 2.39
7.23 0.85 2.39
7.21 0.99 2.39
7.19 1.14 2.39
7.17 1.28 2.39
7.14 1.42 2.39
7.12 1.57 2.39
7.08 1.71 2.39
7.05 1.85 2.39
7.01 1.99 2.39
6.97 2.13 2.39
6.93 2.27 2.39
6.88 2.41 2.39
6.83 2.55 2.39
6.78 2.69 2.39
6.73 2.82 2.39
6.67 2.96 2.39
6.61 3.09 2.39
6.55 3.22 2.39
6.48 3.35 2.39
6.42 3.48 2.39
6.35 3.61 2.39
6.27 3.74 2.39
6.19 3.86 2.39
6.11 3.98 2.39
6.03 4.11 2.39
5.95 4.23 2.39
5.86 4.34 2.39
5.78 4.46 2.39
5.69 4.58 2.39
5.59 4.69 2.39
5.50 4.80 2.39
5.40 4.91 2.39
5.30 5.02 2.39
5.20 5.12 2.39
5.10 5.23 2.39
4.99 5.33 2.39
4.88 5.43 2.39
4.77 5.52 2.39
4.66 5.62 2.39
4.55 5.71 2.39
4.43 5.80 2.39
4.32 5.89 2.39
4.20 5.97 2.39
4.08 6.06 2.39
3.95 6.14 2.39
3.83 6.21 2.39
3.70 6.29 2.39
3.58 6.36 2.39
3.45 6.43 2.39
3.32 6.50 2.39
3.19 6.56 2.39
3.05 6.63 2.39
2.92 6.69 2.39
2.79 6.74 2.39
2.65 6.80 2.39
2.51 6.85 2.39
2.38 6.90 2.39
2.24 6.94 2.39
2.19 7.28 2.49
2.04 7.33 2.49
1.89 7.36 2.49
1.74 7.40 2.49
1.60 7.43 2.49
1.45 7.46 2.49
1.30 7.49 2.49
1.15 7.51 2.49
0.99 7.53 2.49
0.84 7.55 2.49
0.69 7.56 2.49
0.54 7.57 2.49
0.39 7.58 2.49
0.24 7.59 2.49
0.08 7.59 2.49
-0.07 7.59 2.49
-0.22 7.58 2.49
-0.37 7.58 2.49
-0.52 7.56 2.49
-0.68 7.55 2.49
-0.83 7.53 2.49
-0.98 7.51 2.49
-1.13 7.49 2.49
-1.28 7.47 2.49
-1.43 7.44 2.49
-1.58 7.41 2.49
-1.72 7.37 2.49
-1.87 7.33 2.49
-2.02 7.29 2.49
-2.16 7.25 2.49
-2.31 7.20 2.49
-2.45 7.15 2.49
-2.59 7.10 2.49
-2.73 7.04 2.49
-2.87 6.99 2.49
-3.01 6.92 2.49
-3.15 6.86 2.49
-3.28 6.79 2.49
-3.42 6.73 2.49
-3.55 6.65 2.49
-3.68 6.58 2.49
-3.81 6.50 2.49
-3.94 6.42 2.49
-4.07 6.34 2.49
-4.20 6.26 2.49
-4.32 6.17 2.49
-4.44 6.08 2.49
-4.56 5.99 2.49
-4.68 5.89 2.49
-4.79 5.80 2.49
-4.91 5.70 2.49
-5.02 5.60 2.49
-5.13 5.49 2.49
-5.24 5.39 2.49
-5.34 5.28 2.49
-5.45 5.17 2.49
-5.55 5.06 2.49
-5.65 4.94 2.49
-5.74 4.83 2.49
-5.84 4.71 2.49
-5.87 4.55 2.47
-5.87 4.36 2.43
-5.88 4.19 2.40
-5.93 4.05 2.39
-6.01 3.93 2.39
-6.09 3.80 2.39
-6.16 3.68 2.39
-6.23 3.55 2.39
-6.30 3.43 2.39
-6.36 3.30 2.39
-6.43 3.17 2.39
-6.49 3.04 2.39
-6.54 2.91 2.39
-6.60 2.77 2.39
-6.65 2.64 2.39
-6.70 2.51 2.39
-6.75 2.37 2.39
-6.79 2.23 2.39
-6.83 2.10 2.39
-6.87 1.96 2.39
-6.91 1.82 2.39
-6.94 1.68 2.39
-6.97 1.54 2.39
-7.00 1.40 2.39
-7.03 1.26 2.39
-7.05 1.11 2.39
-7.07 0.97 2.39
-7.08 0.83 2.39
-7.10 0.69 2.39
-7.11 0.54 2.39
-7.11 0.40 2.39
-7.12 0.26 2.39
-7.12 0.12 2.39
-7.12 -0.03 2.39
-7.12 -0.17 2.39
-7.11 -0.31 2.39
-7.10 -0.46 2.39
-7.09 -0.60 2.39
-7.07 -0.74 2.39
-7.06 -0.88 2.39
-7.04 -1.02 2.39
-7.01 -1.17 2.39
-6.99 -1.31 2.39
-6.96 -1.45 2.39
-6.93 -1.58 2.39
-6.89 -1.72 2.39
-6.85 -1.86 2.39
-6.81 -2.00 2.39
-6.77 -2.13 2.39
-6.73 -2.27 2.39
-6.68 -2.40 2.39
-6.63 -2.54 2.39
-6.57 -2.67 2.39
-6.52 -2.80 2.39
-6.46 -2.93 2.39
-6.40 -3.06 2.39
-6.34 -3.19 2.39
-6.27 -3.31 2.39
-6.20 -3.44 2.39
-6.13 -3.56 2.39
-6.06 -3.68 2.39
-5.98 -3.81 2.39
-5.92 -3.93 2.40
-5.91 -4.10 2.43
-5.91 -4.28 2.46
-5.90 -4.46 2.49
-5.81 -4.57 2.49
-5.71 -4.69 2.49
-5.62 -4.80 2.49
-5.52 -4.92 2.49
-5.42 -5.02 2.49
-5.32 -5.13 2.49
-5.21 -5.24 2.49
-5.11 -5.34 2.49
-5.00 -5.44 2.49
-4.89 -5.54 2.49
-4.78 -5.64 2.49
-4.66 -5.74 2.49
-4.55 -5.83 2.49
-4.43 -5.92 2.49
-4.31 -6.01 2.49
-4.19 -6.09 2.49
-4.06 -6.17 2.49
-3.94 -6.26 2.49
-3.81 -6.33 2.49
-3.68 -6.41 2.49
-3.55 -6.48 2.49
-3.42 -6.55 2.49
-3.29 -6.62 2.49
-3.16 -6.69 2.49
-3.02 -6.75 2.49
-2.89 -6.81 2.49
-2.75 -6.87 2.49
-2.61 -6.92 2.49
-2.47 -6.97 2.49
-2.33 -7.02 2.49
-2.19 -7.07 2.49
-2.05 -7.11 2.49
-1.90 -7.15 2.49
-1.76 -7.19 2.49
-1.62 -7.22 2.49
-1.47 -7.26 2.49
-1.33 -7.29 2.49
-1.18 -7.31 2.49
-1.03 -7.34 2.49
-0.88 -7.36 2.49
-0.74 -7.37 2.49
-0.59 -7.39 2.49
-0.44 -7.40 2.49
-0.29 -7.41 2.49
-0.14 -7.41 2.49
0.01 -6.90 2.49
0.15 -6.90 2.49
0.28 -6.89 2.49
0.42 -6.89 2.49
0.56 -6.88 2.49
0.70 -6.87 2.49
0.84 -6.86 2.49
0.98 -6.84 2.49
1.11 -6.82 2.49
1.25 -6.80 2.49
1.39 -6.77 2.49
1.52 -6.74 2.49
1.66 -6.71 2.49
1.79 -6.68 2.49
1.93 -6.64 2.49
2.06 -6.61 2.49
2.13 -6.38 2.42
2.23 -6.25 2.39
2.36 -6.21 2.39
2.48 -6.16 2.39
2.60 -6.11 2.39
2.73 -6.06 2.39
2.85 -6.00 2.39
2.97 -5.95 2.39
3.09 -5.89 2.39
3.21 -5.83 2.39
3.33 -5.76 2.39
3.44 -5.70 2.39
3.56 -5.63 2.39
3.67 -5.56 2.39
3.78 -5.48 2.39
3.89 -5.41 2.39
4.00 -5.33 2.39
4.11 -5.25 2.39
4.21 -5.17 2.39
4.32 -5.08 2.39
4.42 -5.00 2.39
4.52 -4.91 2.39
4.62 -4.82 2.39
4.72 -4.73 2.39
4.81 -4.63 2.39
4.91 -4.53 2.39
5.00 -4.44 2.39
5.09 -4.34 2.39
5.17 -4.23 2.39
5.26 -4.13 2.39
5.34 -4.03 2.39
5.42 -3.92 2.39
5.50 -3.81 2.39
5.58 -3.70 2.39
5.65 -3.59 2.39
5.73 -3.48 2.39
5.80 -3.36 2.39
5.87 -3.24 2.39
5.93 -3.13 2.39
5.99 -3.01 2.39
6.05 -2.89 2.39
6.11 -2.77 2.39
6.18 -2.65 2.39
6.23 -2.52 2.39
6.28 -2.40 2.39
6.33 -2.27 2.39
6.38 -2.15 2.39
6.42 -2.02 2.39
6.46 -1.89 2.39
6.50 -1.76 2.39
6.53 -1.63 2.39
6.57 -1.50 2.39
6.60 -1.37 2.39
6.63 -1.24 2.39
6.65 -1.10 2.39
6.67 -0.97 2.39
6.69 -0.83 2.39
6.71 -0.70 2.39
6.72 -0.57 2.39
6.74 -0.43 2.39
6.74 -0.30 2.39
6.75 -0.16 2.39
6.75 -0.03 2.39
6.75 0.11 2.39
6.75 0.25 2.39
6.75 0.38 2.39
6.74 0.52 2.39
6.73 0.65 2.39
6.72 0.79 2.39
6.70 0.92 2.39
6.68 1.06 2.39
6.66 1.19 2.39
6.64 1.32 2.39
6.61 1.46 2.39
6.58 1.59 2.39
6.55 1.72 2.39
6.51 1.85 2.39
6.48 1.98 2.39
6.44 2.11 2.39
6.39 2.24 2.39
6.35 2.37 2.39
6.30 2.50 2.39
6.25 2.62 2.39
6.20 2.75 2.39
6.13 2.87 2.39
6.08 2.99 2.39
6.02 3.11 2.39
5.95 3.23 2.39
5.89 3.35 2.39
5.82 3.47 2.39
5.75 3.59 2.39
5.68 3.70 2.39
5.60 3.81 2.39
5.53 3.92 2.39
5.45 4.04 2.39
5.36 4.14 2.39
5.28 4.25 2.39
5.19 4.36 2.39
5.11 4.46 2.39
5.02 4.56 2.39
4.92 4.66 2.39
4.83 4.76 2.39
4.73 4.85 2.39
4.64 4.95 2.39
4.54 5.04 2.39
4.43 5.13 2.39
4.33 5.22 2.39
4.22 5.30 2.39
4.12 5.39 2.39
4.01 5.47 2.39
3.90 5.55 2.39
3.79 5.62 2.39
3.67 5.70 2.39
3.56 5.77 2.39
3.44 5.84 2.39
3.32 5.91 2.39
3.20 5.97 2.39
3.08 6.04 2.39
2.96 6.10 2.39
2.84 6.15 2.39
2.71 6.21 2.39
2.59 6.26 2.39
2.46 6.31 2.39
2.33 6.36 2.39
2.21 6.40 2.39
2.17 6.72 2.49
2.03 6.77 2.49
1.90 6.80 2.49
1.76 6.84 2.49
1.62 6.87 2.49
1.48 6.90 2.49
1.34 6.93 2.49
1.20 6.96 2.49
1.06 6.98 2.49
0.92 7.00 2.49
0.78 7.01 2.49
0.64 7.03 2.49
0.50 7.04 2.49
0.36 7.04 2.49
0.22 7.05 2.49
0.08 7.05 2.49
-0.06 7.05 2.49
-0.20 7.04 2.49
-0.35 7.04 2.49
-0.49 7.03 2.49
-0.63 7.01 2.49
-0.77 7.00 2.49
-0.91 6.98 2.49
-1.05 6.96 2.49
-1.19 6.94 2.49
-1.32 6.91 2.49
-1.46 6.88 2.49
-1.60 6.85 2.49
-1.74 6.81 2.49
-1.87 6.77 2.49
-2.01 6.73 2.49
-2.14 6.69 2.49
-2.27 6.65 2.49
-2.41 6.60 2.49
-2.54 6.55 2.49
-2.67 6.49 2.49
-2.80 6.43 2.49
-2.93 6.38 2.49
-3.05 6.31 2.49
-3.18 6.25 2.49
-3.30 6.18 2.49
-3.42 6.11 2.49
-3.54 6.04 2.49
-3.66 5.97 2.49
-3.78 5.89 2.49
-3.90 5.81 2.49
-4.01 5.73 2.49
-4.13 5.65 2.49
-4.24 5.56 2.49
-4.35 5.48 2.49
-4.45 5.39 2.49
-4.56 5.29 2.49
-4.66 5.20 2.49
-4.77 5.10 2.49
-4.87 5.01 2.49
-4.96 4.91 2.49
-5.06 4.80 2.49
-5.15 4.70 2.49
-5.25 4.59 2.49
-5.34 4.49 2.49
-5.42 4.38 2.49
-5.51 4.27 2.49
-5.59 4.15 2.49
-5.67 4.04 2.49
-5.75 3.92 2.49
-5.83 3.81 2.49
-5.87 3.67 2.48
-5.87 3.51 2.45
-5.88 3.35 2.43
-5.89 3.20 2.40
-5.92 3.07 2.39
-5.97 2.95 2.39
-6.03 2.83 2.39
-6.09 2.71 2.39
-6.14 2.58 2.39
-6.18 2.46 2.39
-6.23 2.33 2.39
-6.27 2.20 2.39
-6.32 2.08 2.39
-6.35 1.95 2.39
-6.39 1.82 2.39
-6.42 1.69 2.39
-6.46 1.56 2.39
-6.48 1.43 2.39
-6.51 1.30 2.39
-6.53 1.17 2.39
-6.55 1.04 2.39
-6.57 0.91 2.39
-6.59 0.77 2.39
-6.60 0.64 2.39
-6.61 0.51 2.39
-6.62 0.37 2.39
-6.62 0.24 2.39
-6.62 0.11 2.39
-6.62 -0.03 2.39
-6.62 -0.16 2.39
-6.61 -0.29 2.39
-6.61 -0.42 2.39
-6.59 -0.56 2.39
-6.58 -0.69 2.39
-6.56 -0.82 2.39
-6.54 -0.95 2.39
-6.52 -1.08 2.39
-6.50 -1.21 2.39
-6.47 -1.34 2.39
-6.44 -1.47 2.39
-6.41 -1.60 2.39
-6.38 -1.73 2.39
-6.34 -1.86 2.39
-6.30 -1.99 2.39
-6.26 -2.11 2.39
-6.21 -2.24 2.39
-6.17 -2.36 2.39
-6.12 -2.48 2.39
-6.06 -2.61 2.39
-6.01 -2.73 2.39
-5.95 -2.85 2.39
-5.91 -2.97 2.40
-5.91 -3.12 2.42
-5.90 -3.27 2.45
-5.91 -3.43 2.47
-5.88 -3.58 2.49
-5.80 -3.69 2.49
-5.73 -3.81 2.49
-5.65 -3.92 2.49
-5.57 -4.04 2.49
-5.49 -4.15 2.49
-5.40 -4.26 2.49
-5.32 -4.36 2.49
-5.23 -4.47 2.49
-5.14 -4.57 2.49
-5.04 -4.67 2.49
-4.95 -4.77 2.49
-4.85 -4.87 2.49
-4.75 -4.97 2.49
-4.65 -5.06 2.49
-4.55 -5.16 2.49
-4.44 -5.25 2.49
-4.34 -5.34 2.49
-4.23 -5.42 2.49
-4.12 -5.51 2.49
-4.01 -5.59 2.49
-3.89 -5.67 2.49
-3.78 -5.74 2.49
-3.66 -5.82 2.49
-3.55 -5.89 2.49
-3.43 -5.96 2.49
-3.31 -6.03 2.49
-3.18 -6.10 2.49
-3.06 -6.16 2.49
-2.94 -6.22 2.49
-2.81 -6.28 2.49
-2.69 -6.33 2.49
-2.56 -6.39 2.49
-2.43 -6.44 2.49
-2.30 -6.49 2.49
-2.17 -6.53 2.49
-2.04 -6.57 2.49
-1.90 -6.61 2.49
-1.77 -6.65 2.49
-1.64 -6.69 2.49
-1.50 -6.72 2.49
-1.37 -6.75 2.49
-1.23 -6.78 2.49
-1.10 -6.80 2.49
-0.96 -6.82 2.49
-0.82 -6.84 2.49
-0.68 -6.86 2.49
-0.55 -6.87 2.49
-0.41 -6.88 2.49
-0.27 -6.89 2.49
-0.13 -6.90 2.49
0.01 -6.44 2.49
0.14 -6.44 2.49
0.27 -6.44 2.49
0.40 -6.43 2.49
0.52 -6.42 2.49
0.65 -6.41 2.49
0.78 -6.40 2.49
0.91 -6.38 2.49
1.04 -6.37 2.49
1.17 -6.35 2.49
1.30 -6.32 2.49
1.42 -6.30 2.49
1.55 -6.27 2.49
1.67 -6.24 2.49
1.80 -6.20 2.49
1.92 -6.17 2.49
2.05 -6.13 2.49
2.13 -5.97 2.45
2.20 -5.79 2.39
2.32 -5.77 2.40
2.43 -5.70 2.39
2.55 -5.65 2.39
2.66 -5.60 2.39
2.77 -5.55 2.39
2.88 -5.50 2.39
3.00 -5.44 2.39
3.10 -5.38 2.39
3.21 -5.32 2.39
3.32 -5.25 2.39
3.43 -5.19 2.39
3.53 -5.12 2.39
3.63 -5.05 2.39
3.73 -4.97 2.39
3.83 -4.90 2.39
3.93 -4.82 2.39
4.03 -4.74 2.39
4.13 -4.66 2.39
4.22 -4.58 2.39
4.31 -4.50 2.39
4.40 -4.41 2.39
4.49 -4.32 2.39
4.58 -4.23 2.39
4.66 -4.14 2.39
4.75 -4.05 2.39
4.83 -3.95 2.39
4.91 -3.85 2.39
4.99 -3.76 2.39
5.06 -3.66 2.39
5.14 -3.56 2.39
5.21 -3.45 2.39
5.28 -3.35 2.39
5.34 -3.24 2.39
5.41 -3.14 2.39
5.47 -3.03 2.39
5.53 -2.92 2.39
5.59 -2.81 2.39
5.65 -2.69 2.39
5.70 -2.58 2.39
5.76 -2.47 2.39
5.81 -2.35 2.39
5.85 -2.23 2.39
5.90 -2.12 2.39
5.94 -2.00 2.39
5.98 -1.88 2.39
6.02 -1.76 2.39
6.06 -1.64 2.39
6.09 -1.52 2.39
6.12 -1.40 2.39
6.15 -1.27 2.39
6.18 -1.15 2.39
6.20 -1.03 2.39
6.22 -0.90 2.39
6.24 -0.78 2.39
6.26 -0.65 2.39
6.27 -0.53 2.39
6.28 -0.40 2.39
6.29 -0.28 2.39
6.30 -0.15 2.39
6.30 -0.02 2.39
6.30 0.10 2.39
6.30 0.23 2.39
6.29 0.36 2.39
6.29 0.48 2.39
6.28 0.61 2.39
6.26 0.73 2.39
6.25 0.86 2.39
6.23 0.98 2.39
6.21 1.11 2.39
6.19 1.23 2.39
6.16 1.36 2.39
6.13 1.48 2.39
6.10 1.60 2.39
6.07 1.72 2.39
6.03 1.85 2.39
6.00 1.97 2.39
5.96 2.09 2.39
5.91 2.21 2.39
5.87 2.32 2.39
5.82 2.44 2.39
