ply
format ascii 1.0
element vertex 2867
property float32 x
property float32 y
property float32 z
end_header
10.26 -5.45 0.67
10.60 -5.36 0.69
10.82 -5.21 0.70
10.92 -4.99 0.71
11.43 -4.95 0.74
12.11 -4.95 0.79
12.55 -4.84 0.82
12.55 -4.56 0.82
11.46 -3.90 0.75
11.54 -3.67 0.76
11.72 -3.47 0.77
12.57 -3.45 0.83
12.57 -3.18 0.84
12.58 -2.92 0.84
12.58 -2.65 0.84
12.59 -2.39 0.85
12.59 -2.13 0.85
12.60 -1.87 0.86
12.60 -1.62 0.87
12.60 -1.36 0.87
12.61 -1.11 0.88
12.61 -0.85 0.89
12.62 -0.60 0.89
12.62 -0.35 0.90
12.63 -0.09 0.91
12.63 0.16 0.92
12.63 0.41 0.93
12.64 0.67 0.94
12.64 0.92 0.95
12.65 1.18 0.96
12.65 1.44 0.97
22.73 3.04 1.75
22.75 3.51 1.78
16.45 2.88 1.30
23.28 4.56 1.86
26.45 5.73 2.14
29.38 6.99 2.41
29.01 7.52 2.41
28.62 8.03 2.41
28.24 8.54 2.41
27.85 9.04 2.41
27.46 9.52 2.41
27.06 10.00 2.41
26.66 10.46 2.41
26.25 10.92 2.41
25.84 11.36 2.41
25.43 11.80 2.41
25.02 12.22 2.41
24.47 12.57 2.39
24.05 12.97 2.39
23.63 13.36 2.39
23.20 13.74 2.39
22.78 14.12 2.39
22.35 14.48 2.39
21.92 14.84 2.39
21.49 15.18 2.39
21.05 15.52 2.39
20.62 15.85 2.39
20.18 16.17 2.39
17.14 14.30 2.08
20.13 17.50 2.50
19.67 17.81 2.50
10.73 10.12 1.40
10.32 10.12 1.37
18.28 18.68 2.50
17.82 18.95 2.50
17.35 19.21 2.50
16.88 19.47 2.50
16.41 19.71 2.50
15.94 19.95 2.50
15.47 20.18 2.50
11.62 15.80 1.93
14.53 20.62 2.50
14.06 20.83 2.50
13.59 21.03 2.50
13.11 21.22 2.50
12.64 21.40 2.50
12.16 21.58 2.50
11.69 21.75 2.50
11.21 21.91 2.50
10.74 22.06 2.50
10.26 22.21 2.50
2.45 5.58 0.62
9.31 22.48 2.50
8.83 22.60 2.50
8.35 22.72 2.50
7.88 22.83 2.50
7.40 22.93 2.50
6.92 23.03 2.50
6.44 23.12 2.50
5.97 23.20 2.50
5.49 23.28 2.50
5.01 23.35 2.50
4.53 23.41 2.50
4.06 23.47 2.50
3.58 23.51 2.50
3.10 23.56 2.50
2.62 23.59 2.50
2.15 23.62 2.50
1.67 23.64 2.50
1.19 23.66 2.50
0.72 23.66 2.50
0.24 23.67 2.50
-0.24 23.66 2.50
-0.71 23.65 2.50
-1.19 23.63 2.50
-1.66 23.61 2.50
-2.14 23.57 2.50
-2.61 23.54 2.50
-3.09 23.49 2.50
-3.56 23.44 2.50
-4.04 23.38 2.50
-4.51 23.32 2.50
-4.99 23.24 2.50
-5.46 23.17 2.50
-5.69 22.13 2.39
-6.14 22.04 2.39
-6.59 21.94 2.39
-7.04 21.84 2.39
-7.49 21.73 2.39
-7.95 21.62 2.39
-8.40 21.50 2.39
-8.85 21.37 2.39
-9.29 21.24 2.39
-9.64 20.88 2.37
-9.66 19.86 2.27
-9.68 18.91 2.18
-9.69 18.04 2.09
-9.71 17.22 2.01
-9.72 16.46 1.94
-9.73 15.75 1.88
-9.74 15.08 1.81
-9.75 14.45 1.75
-9.76 13.86 1.70
-9.77 13.29 1.65
-9.78 12.76 1.60
-9.78 12.24 1.55
-10.05 12.08 1.55
-29.16 5.71 2.40
-27.72 4.85 2.25
-26.24 4.05 2.11
-24.71 3.31 1.96
-22.33 2.53 1.76
-21.22 1.98 1.65
-20.68 1.51 1.59
-20.17 1.07 1.54
-19.69 0.64 1.49
-19.22 0.24 1.44
-18.72 -0.14 1.39
-18.23 -0.50 1.34
-17.76 -0.84 1.30
-17.31 -1.17 1.25
-16.96 -1.49 1.22
-16.64 -1.80 1.19
-16.35 -2.10 1.16
-16.06 -2.39 1.13
-15.78 -2.67 1.11
-15.50 -2.95 1.08
-15.24 -3.22 1.06
-15.03 -3.49 1.04
-14.83 -3.76 1.02
-14.67 -4.03 1.00
-14.52 -4.31 0.99
-14.38 -4.58 0.98
-14.23 -4.85 0.96
-14.08 -5.11 0.95
-13.93 -5.38 0.94
-13.78 -5.64 0.93
-13.64 -5.90 0.92
-13.62 -6.22 0.91
-13.61 -6.55 0.91
-13.59 -6.88 0.91
-13.57 -7.22 0.91
-13.56 -7.56 0.91
-13.55 -7.92 0.91
-13.59 -8.31 0.92
-13.64 -8.72 0.92
-13.69 -9.14 0.93
-13.74 -9.58 0.94
-13.80 -10.04 0.95
-13.87 -10.53 0.96
-13.95 -11.03 0.97
-14.02 -11.55 0.98
-14.10 -12.10 0.99
-14.33 -12.80 1.02
-14.39 -13.39 1.03
-14.40 -13.94 1.04
-14.43 -14.54 1.05
-14.46 -15.17 1.07
-14.46 -15.80 1.08
-14.46 -16.45 1.10
-14.46 -17.13 1.11
-14.54 -17.94 1.13
-14.65 -18.84 1.16
-14.65 -19.62 1.18
-14.64 -20.46 1.21
-14.62 -21.32 1.23
-14.54 -22.15 1.25
-14.32 -22.79 1.26
-14.08 -23.45 1.27
-13.87 -24.18 1.28
-13.75 -25.12 1.31
-13.62 -26.11 1.34
-13.61 -27.41 1.38
-13.58 -28.80 1.43
-13.54 -30.26 1.48
-13.66 -32.24 1.55
-13.48 -33.68 1.60
-13.38 -35.47 1.66
-13.36 -37.71 1.74
-13.98 -42.10 1.92
-13.79 -44.50 2.01
0.00 -39.09 2.50
0.79 -39.09 2.50
1.50 -37.46 2.39
2.25 -37.41 2.39
3.00 -37.35 2.39
3.75 -37.26 2.39
4.49 -37.15 2.39
5.23 -37.02 2.39
5.97 -36.90 2.40
6.70 -36.73 2.40
7.42 -36.53 2.40
8.13 -36.31 2.40
8.84 -36.07 2.40
9.54 -35.81 2.40
10.23 -35.53 2.40
10.91 -35.23 2.40
11.59 -34.91 2.40
12.25 -34.57 2.40
12.55 -33.28 2.33
13.32 -33.29 2.36
12.55 -29.63 2.12
13.23 -29.58 2.15
11.49 -24.36 1.79
11.51 -23.19 1.73
11.44 -21.94 1.66
11.36 -20.75 1.59
11.40 -19.88 1.55
11.49 -19.13 1.51
11.50 -18.31 1.47
11.60 -17.68 1.45
9.83 -14.35 1.20
9.89 -13.83 1.18
10.06 -13.48 1.17
10.27 -13.21 1.17
9.69 -11.96 1.08
9.99 -11.84 1.10
10.41 -11.85 1.12
10.85 -11.85 1.15
9.79 -10.28 1.02
10.03 -10.11 1.03
10.44 -10.12 1.06
10.88 -10.13 1.09
9.71 -8.68 0.96
9.96 -8.56 0.97
10.43 -8.60 1.01
10.88 -8.61 1.04
11.34 -8.61 1.08
10.47 -7.62 0.99
10.10 -7.05 0.94
9.93 -6.64 0.92
9.91 -6.34 0.91
9.95 -6.09 0.91
10.06 -5.89 0.92
10.17 -5.68 0.92
10.26 -5.46 0.93
10.43 -5.29 0.94
10.64 -5.13 0.96
10.91 -4.99 0.98
11.42 -4.95 1.02
12.08 -4.95 1.08
11.14 -4.31 1.00
10.98 -3.99 0.98
10.96 -3.74 0.98
11.03 -3.52 0.99
11.14 -3.31 1.00
11.32 -3.12 1.01
11.67 -2.96 1.05
12.58 -2.93 1.13
12.58 -2.66 1.14
12.59 -2.40 1.14
12.59 -2.14 1.14
12.60 -1.88 1.15
12.60 -1.63 1.15
12.60 -1.37 1.16
12.61 -1.12 1.17
12.61 -0.86 1.17
12.62 -0.61 1.18
12.62 -0.35 1.19
12.63 -0.10 1.20
12.63 0.15 1.20
12.63 0.41 1.21
12.64 0.66 1.22
12.64 0.91 1.23
12.65 1.17 1.24
12.65 1.43 1.25
22.73 3.03 2.27
18.56 2.85 1.87
16.45 2.87 1.68
23.18 4.52 2.39
23.02 4.97 2.40
22.77 5.40 2.40
22.52 5.82 2.40
22.26 6.23 2.40
22.10 6.67 2.41
21.83 7.07 2.41
21.55 7.46 2.41
21.27 7.84 2.41
20.99 8.22 2.41
20.70 8.59 2.41
20.41 8.96 2.41
20.12 9.31 2.41
19.82 9.66 2.41
19.51 10.00 2.41
19.20 10.34 2.41
18.89 10.67 2.41
18.58 10.99 2.41
18.26 11.30 2.41
17.94 11.61 2.41
17.62 11.91 2.41
17.29 12.20 2.41
16.87 12.42 2.39
16.54 12.70 2.39
16.21 12.97 2.39
15.87 13.23 2.39
15.53 13.49 2.39
15.19 13.74 2.39
10.75 10.12 1.73
10.33 10.12 1.70
14.16 14.45 2.39
13.81 14.67 2.39
13.46 14.89 2.39
13.11 15.10 2.39
12.76 15.31 2.39
12.40 15.51 2.39
12.05 15.70 2.39
11.62 15.79 2.38
11.33 16.06 2.39
10.97 16.23 2.39
10.61 16.40 2.39
10.69 17.28 2.50
10.31 17.44 2.50
9.93 17.59 2.50
9.54 17.74 2.50
9.16 17.88 2.50
8.78 18.02 2.50
8.39 18.15 2.50
2.45 5.58 0.76
7.62 18.38 2.50
7.23 18.49 2.50
6.84 18.59 2.50
6.45 18.69 2.50
6.07 18.78 2.50
5.68 18.87 2.50
5.29 18.95 2.50
4.90 19.03 2.50
4.51 19.09 2.50
4.12 19.16 2.50
3.72 19.21 2.50
3.33 19.26 2.50
2.94 19.31 2.50
2.55 19.34 2.50
2.16 19.38 2.50
1.77 19.40 2.50
1.37 19.42 2.50
0.98 19.44 2.50
0.59 19.44 2.50
0.20 19.45 2.50
-0.19 19.44 2.50
-0.59 19.43 2.50
-0.98 19.42 2.50
-1.37 19.40 2.50
-1.76 19.38 2.50
-2.15 19.35 2.50
-2.54 19.31 2.50
-2.93 19.26 2.50
-3.32 19.21 2.50
-3.71 19.16 2.50
-4.10 19.09 2.50
-4.49 19.03 2.50
-4.87 18.95 2.50
-5.26 18.87 2.50
-5.65 18.78 2.50
-5.78 17.92 2.39
-6.15 17.83 2.39
-6.52 17.73 2.39
-6.89 17.62 2.39
-7.25 17.51 2.39
-7.62 17.39 2.39
-7.98 17.27 2.39
-8.35 17.14 2.39
-8.71 17.00 2.39
-9.07 16.86 2.39
-9.43 16.72 2.39
-9.72 16.45 2.38
-9.73 15.74 2.30
-9.74 15.07 2.22
-9.75 14.44 2.15
-9.76 13.84 2.08
-9.77 13.28 2.02
-9.78 12.75 1.97
-9.79 12.24 1.91
-9.80 11.76 1.86
-9.81 11.30 1.81
-9.81 10.86 1.77
-9.82 10.43 1.72
-9.83 10.03 1.68
-9.83 9.64 1.64
-9.84 9.27 1.61
-9.84 8.90 1.57
-10.01 8.70 1.57
-45.96 10.89 4.94
-29.29 6.33 3.12
-27.22 5.31 2.87
-25.89 4.51 2.70
-20.85 3.20 2.15
-20.51 2.73 2.10
-20.14 2.27 2.04
-19.60 1.81 1.97
-19.12 1.38 1.91
-18.79 0.98 1.86
-18.46 0.59 1.81
-18.12 0.22 1.77
-17.66 -0.14 1.71
-17.22 -0.49 1.66
-16.89 -0.82 1.62
-16.58 -1.13 1.58
-16.28 -1.44 1.54
-15.99 -1.74 1.51
-15.71 -2.03 1.47
-15.44 -2.31 1.44
-15.19 -2.59 1.41
-14.99 -2.86 1.39
-14.80 -3.13 1.37
-14.61 -3.40 1.35
-14.42 -3.66 1.33
-14.24 -3.92 1.31
-14.10 -4.19 1.29
-13.96 -4.46 1.28
-13.82 -4.72 1.27
-13.68 -4.98 1.25
-13.54 -5.24 1.24
-13.40 -5.50 1.23
-13.26 -5.75 1.22
-13.17 -6.03 1.21
-13.16 -6.34 1.21
-13.14 -6.66 1.22
-13.12 -6.99 1.22
-13.10 -7.32 1.22
-13.07 -7.65 1.22
-13.05 -7.99 1.23
-13.06 -8.36 1.24
-13.10 -8.76 1.25
-13.14 -9.17 1.26
-13.18 -9.60 1.27
-13.21 -10.03 1.28
-13.27 -10.51 1.30
-13.34 -11.01 1.32
-13.40 -11.52 1.34
-13.47 -12.05 1.36
-13.68 -12.74 1.40
-13.89 -13.47 1.44
-13.89 -14.02 1.46
-13.92 -14.62 1.48
-13.94 -15.24 1.51
-13.95 -15.88 1.53
-13.93 -16.51 1.56
-13.91 -17.17 1.59
-13.91 -17.90 1.62
-14.00 -18.78 1.66
-14.07 -19.68 1.71
-14.05 -20.51 1.74
-14.04 -21.41 1.79
-13.96 -22.23 1.82
-13.72 -22.86 1.84
-13.46 -23.48 1.86
-13.11 -23.96 1.87
-12.86 -24.67 1.89
-12.68 -25.56 1.93
-12.48 -26.47 1.97
-12.31 -27.53 2.02
-12.29 -29.05 2.11
-12.24 -30.62 2.20
-12.16 -32.27 2.29
-11.95 -33.76 2.37
-11.72 -35.34 2.45
-11.18 -36.10 2.48
-10.12 -35.15 2.39
-9.44 -35.45 2.39
-8.75 -35.73 2.39
-8.05 -35.99 2.39
-7.35 -36.23 2.39
-6.67 -36.64 2.41
-6.17 -38.24 2.50
-5.42 -38.42 2.50
-4.65 -38.59 2.50
-3.89 -38.73 2.50
-3.11 -38.85 2.50
-2.34 -38.94 2.50
-1.56 -39.02 2.50
-0.78 -39.06 2.50
0.00 -28.86 2.50
0.58 -28.86 2.50
1.16 -28.84 2.50
1.66 -27.62 2.39
2.22 -27.57 2.39
2.77 -27.51 2.39
3.31 -27.44 2.39
3.86 -27.34 2.39
4.40 -27.24 2.39
4.94 -27.12 2.39
5.48 -26.98 2.39
6.01 -26.86 2.40
6.54 -26.70 2.40
7.06 -26.52 2.40
7.58 -26.33 2.40
8.09 -26.12 2.40
8.59 -25.90 2.40
9.09 -25.67 2.40
9.58 -25.43 2.40
10.06 -25.17 2.40
10.54 -24.90 2.40
11.00 -24.62 2.40
10.12 -21.47 2.12
10.72 -21.62 2.16
11.12 -21.34 2.16
11.36 -20.77 2.13
11.40 -19.89 2.07
11.49 -19.15 2.02
11.50 -18.33 1.97
11.60 -17.69 1.93
9.92 -14.48 1.61
9.85 -13.78 1.56
10.05 -13.49 1.55
9.34 -12.02 1.41
9.58 -11.83 1.42
9.98 -11.84 1.45
10.36 -11.80 1.47
9.31 -10.19 1.30
9.58 -10.07 1.31
10.02 -10.11 1.35
10.43 -10.12 1.39
10.51 -9.79 1.38
9.58 -8.57 1.24
10.00 -8.59 1.28
10.42 -8.60 1.32
10.86 -8.61 1.36
11.33 -8.61 1.40
10.50 -7.65 1.28
10.11 -7.07 1.23
9.99 -6.69 1.20
9.95 -6.38 1.19
10.00 -6.13 1.18
10.06 -5.89 1.18
10.17 -5.69 1.19
10.30 -5.49 1.20
10.48 -5.32 1.21
10.63 -5.13 1.22
10.91 -5.00 1.25
11.40 -4.95 1.30
12.06 -4.95 1.38
10.95 -4.24 1.25
10.84 -3.95 1.23
10.81 -3.70 1.23
10.92 -3.49 1.24
11.03 -3.29 1.25
11.21 -3.10 1.27
11.47 -2.92 1.30
12.58 -2.94 1.43
12.58 -2.67 1.43
12.59 -2.41 1.43
12.59 -2.15 1.43
12.60 -1.89 1.44
12.60 -1.64 1.44
12.60 -1.38 1.45
12.61 -1.13 1.45
12.61 -0.87 1.46
12.62 -0.62 1.47
12.62 -0.36 1.47
12.63 -0.11 1.48
12.63 0.14 1.49
12.63 0.40 1.50
12.64 0.65 1.51
12.64 0.91 1.52
12.65 1.16 1.53
12.65 1.42 1.54
17.79 2.36 2.19
17.64 2.70 2.19
16.44 2.85 2.06
18.98 3.69 2.40
18.81 4.05 2.40
18.63 4.40 2.40
18.44 4.75 2.40
18.25 5.09 2.40
18.05 5.43 2.40
17.85 5.77 2.40
17.65 6.09 2.40
17.44 6.42 2.40
17.30 6.76 2.41
17.08 7.07 2.41
16.85 7.38 2.41
16.62 7.68 2.41
16.39 7.98 2.41
16.16 8.27 2.41
15.92 8.56 2.41
15.67 8.84 2.41
15.43 9.11 2.41
15.17 9.38 2.41
14.92 9.64 2.41
14.66 9.90 2.41
14.40 10.15 2.41
14.14 10.40 2.41
13.87 10.64 2.41
13.60 10.87 2.41
13.33 11.10 2.41
13.06 11.33 2.41
12.78 11.54 2.41
12.50 11.76 2.41
12.22 11.97 2.41
11.94 12.17 2.41
11.65 12.36 2.41
11.30 12.49 2.39
11.01 12.67 2.39
10.72 12.85 2.39
10.43 13.02 2.39
10.13 13.19 2.39
9.84 13.36 2.39
9.54 13.51 2.39
9.24 13.67 2.39
8.94 13.81 2.39
8.64 13.96 2.39
8.34 14.09 2.39
8.03 14.22 2.39
7.73 14.35 2.39
7.42 14.47 2.39
7.11 14.59 2.39
6.80 14.70 2.39
2.45 5.58 0.90
6.18 14.90 2.39
5.87 14.99 2.39
5.56 15.08 2.39
5.24 15.17 2.39
4.93 15.25 2.39
4.81 15.97 2.50
4.48 16.05 2.50
4.15 16.11 2.50
3.82 16.17 2.50
3.49 16.23 2.50
3.16 16.28 2.50
2.83 16.33 2.50
2.50 16.36 2.50
2.16 16.40 2.50
1.83 16.43 2.50
1.50 16.45 2.50
1.17 16.47 2.50
0.83 16.48 2.50
0.50 16.49 2.50
0.17 16.50 2.50
-0.16 16.49 2.50
-0.50 16.48 2.50
-0.83 16.47 2.50
-1.16 16.45 2.50
-1.49 16.43 2.50
-1.82 16.41 2.50
-2.16 16.38 2.50
-2.49 16.34 2.50
-2.82 16.29 2.50
-3.15 16.24 2.50
-3.48 16.19 2.50
-3.80 16.13 2.50
-4.13 16.06 2.50
-4.46 15.99 2.50
-4.79 15.91 2.50
-5.11 15.83 2.50
-5.44 15.75 2.50
-5.76 15.65 2.50
-5.83 14.91 2.39
-6.14 14.82 2.39
-6.45 14.71 2.39
-6.75 14.60 2.39
-7.06 14.49 2.39
-7.36 14.37 2.39
-7.67 14.25 2.39
-7.97 14.12 2.39
-8.27 13.98 2.39
-8.57 13.84 2.39
-8.86 13.70 2.39
-9.16 13.55 2.39
-9.45 13.39 2.39
-9.75 13.23 2.39
-9.78 12.74 2.33
-9.79 12.23 2.27
-9.80 11.75 2.21
-9.81 11.29 2.15
-9.81 10.85 2.10
-9.82 10.42 2.05
-9.83 10.02 2.00
-9.83 9.63 1.96
-9.84 9.26 1.92
-9.85 8.90 1.88
-9.85 8.55 1.84
-9.86 8.21 1.80
-9.86 7.88 1.77
-9.87 7.57 1.73
-9.87 7.26 1.70
-9.88 6.96 1.67
-9.88 6.67 1.65
-9.89 6.39 1.62
-9.89 6.12 1.59
-9.90 5.85 1.57
-9.95 5.61 1.55
-47.69 13.31 6.37
-46.61 12.01 6.16
-20.03 4.73 2.62
-18.81 4.05 2.44
-18.69 3.63 2.40
-18.56 3.22 2.36
-18.42 2.82 2.33
-18.28 2.42 2.29
-18.11 2.03 2.25
-17.92 1.64 2.21
-17.74 1.27 2.17
-17.55 0.90 2.14
-17.36 0.54 2.10
-17.14 0.19 2.06
-16.82 -0.15 2.01
-16.52 -0.48 1.97
-16.22 -0.79 1.92
-15.93 -1.10 1.88
-15.65 -1.40 1.84
-15.38 -1.69 1.80
-15.14 -1.97 1.77
-14.95 -2.25 1.74
-14.76 -2.52 1.71
-14.57 -2.79 1.69
-14.38 -3.06 1.67
-14.20 -3.32 1.64
-14.02 -3.57 1.62
-13.84 -3.82 1.60
-13.70 -4.08 1.58
-13.57 -4.34 1.57
-13.43 -4.60 1.55
-13.30 -4.85 1.54
-13.16 -5.10 1.53
-13.03 -5.35 1.52
-12.90 -5.60 1.50
-12.77 -5.85 1.49
-12.73 -6.15 1.50
-12.73 -6.46 1.50
-12.70 -6.78 1.51
-12.68 -7.09 1.51
-12.65 -7.42 1.52
-12.63 -7.74 1.52
-12.60 -8.08 1.53
-12.58 -8.42 1.54
-12.56 -8.79 1.55
-12.59 -9.19 1.57
-12.62 -9.60 1.59
-12.64 -10.02 1.61
-12.61 -10.42 1.62
-12.61 -10.84 1.64
-12.66 -11.34 1.67
-12.72 -11.86 1.70
-12.73 -12.35 1.72
-12.96 -13.09 1.78
-13.41 -14.10 1.87
-13.42 -14.68 1.90
-13.43 -15.30 1.94
-13.44 -15.94 1.98
-13.40 -16.57 2.01
-13.30 -17.12 2.04
-13.18 -17.69 2.06
-13.09 -18.32 2.10
-13.33 -19.47 2.19
-13.42 -20.47 2.26
-13.28 -21.17 2.30
-13.12 -21.88 2.34
-12.93 -22.57 2.38
-12.63 -23.12 2.40
-12.28 -23.58 2.41
-11.92 -24.05 2.43
-11.68 -24.81 2.47
-6.85 -15.33 1.51
-10.41 -24.63 2.39
-9.95 -24.91 2.39
-9.48 -25.17 2.39
-8.99 -25.43 2.39
-8.51 -25.67 2.39
-8.01 -25.90 2.39
-7.51 -26.11 2.39
-7.00 -26.32 2.39
-6.50 -26.57 2.40
-6.22 -27.83 2.50
-5.67 -28.00 2.50
-5.12 -28.16 2.50
-4.56 -28.30 2.50
-4.00 -28.42 2.50
-3.44 -28.53 2.50
-2.87 -28.62 2.50
-2.30 -28.70 2.50
-1.72 -28.76 2.50
-1.15 -28.81 2.50
-0.57 -28.84 2.50
0.00 -22.85 2.50
0.46 -22.85 2.50
0.92 -22.84 2.50
1.37 -22.81 2.50
1.75 -21.84 2.39
2.19 -21.79 2.39
2.62 -21.73 2.39
3.06 -21.66 2.39
3.49 -21.58 2.39
3.91 -21.49 2.39
4.34 -21.39 2.39
4.76 -21.28 2.39
5.18 -21.15 2.39
5.59 -21.02 2.39
6.01 -20.90 2.40
6.42 -20.74 2.40
6.82 -20.58 2.40
7.22 -20.40 2.40
7.61 -20.22 2.40
8.00 -20.02 2.40
8.38 -19.82 2.40
8.76 -19.60 2.40
9.13 -19.38 2.40
9.49 -19.15 2.40
9.85 -18.91 2.40
10.20 -18.66 2.40
10.54 -18.41 2.40
10.88 -18.14 2.40
11.21 -17.87 2.40
11.51 -17.57 2.39
9.94 -14.53 2.01
9.84 -13.79 1.94
8.80 -11.82 1.69
9.18 -11.82 1.73
9.57 -11.83 1.76
8.84 -10.49 1.59
9.01 -10.27 1.59
9.19 -10.06 1.59
9.61 -10.10 1.64
10.01 -10.11 1.68
8.92 -8.67 1.47
9.29 -8.66 1.51
9.58 -8.59 1.53
9.99 -8.59 1.58
10.41 -8.60 1.62
10.85 -8.61 1.67
11.32 -8.61 1.72
11.40 -8.32 1.72
10.11 -7.08 1.51
10.07 -6.75 1.49
10.08 -6.47 1.48
10.08 -6.19 1.46
10.06 -5.90 1.45
10.17 -5.69 1.45
10.24 -5.47 1.46
10.57 -5.38 1.49
10.80 -5.22 1.52
10.90 -5.00 1.52
11.39 -4.95 1.59
12.03 -4.95 1.67
10.95 -4.25 1.51
10.84 -3.96 1.49
10.81 -3.71 1.49
10.91 -3.50 1.50
11.03 -3.29 1.51
11.20 -3.10 1.53
11.44 -2.92 1.57
12.58 -2.95 1.72
12.58 -2.68 1.72
12.59 -2.42 1.72
12.59 -2.16 1.73
12.59 -1.90 1.73
12.60 -1.65 1.73
12.60 -1.39 1.74
12.61 -1.13 1.74
12.61 -0.88 1.75
12.62 -0.63 1.76
12.62 -0.37 1.76
12.63 -0.12 1.77
12.63 0.13 1.78
12.63 0.39 1.79
12.64 0.64 1.80
12.64 0.90 1.81
12.64 1.15 1.82
12.65 1.41 1.84
16.29 2.15 2.38
16.28 2.48 2.40
16.15 2.79 2.40
16.02 3.10 2.40
15.89 3.41 2.40
15.75 3.71 2.40
15.60 4.01 2.40
15.45 4.30 2.40
15.30 4.59 2.40
15.14 4.88 2.40
14.97 5.16 2.40
14.81 5.44 2.40
14.63 5.71 2.40
14.46 5.98 2.40
14.28 6.24 2.40
14.09 6.50 2.40
13.97 6.79 2.41
13.77 7.04 2.41
13.58 7.29 2.41
13.38 7.53 2.41
13.18 7.77 2.41
12.97 8.00 2.41
12.76 8.23 2.41
12.55 8.46 2.41
12.33 8.68 2.41
12.11 8.90 2.41
11.89 9.11 2.41
11.67 9.31 2.41
11.44 9.51 2.41
11.21 9.71 2.41
10.98 9.91 2.41
10.74 10.09 2.41
10.33 10.10 2.37
10.27 10.46 2.41
10.03 10.63 2.41
9.78 10.80 2.41
9.54 10.96 2.41
9.29 11.12 2.41
9.04 11.28 2.41
8.79 11.43 2.41
8.54 11.58 2.41
8.28 11.72 2.41
8.02 11.85 2.41
7.77 11.98 2.41
7.51 12.11 2.41
7.24 12.23 2.41
6.94 12.28 2.39
6.68 12.40 2.39
6.42 12.51 2.39
6.15 12.61 2.39
5.89 12.71 2.39
2.45 5.58 1.04
5.35 12.89 2.39
5.08 12.98 2.39
4.81 13.06 2.39
4.54 13.13 2.39
4.27 13.20 2.39
4.00 13.27 2.39
3.73 13.33 2.39
3.45 13.39 2.39
3.18 13.44 2.39
3.03 14.07 2.50
2.74 14.11 2.50
2.45 14.15 2.50
2.17 14.19 2.50
1.88 14.22 2.50
1.59 14.25 2.50
1.30 14.27 2.50
1.01 14.29 2.50
0.72 14.30 2.50
0.44 14.31 2.50
0.15 14.31 2.50
-0.14 14.31 2.50
-0.43 14.30 2.50
-0.72 14.29 2.50
-1.01 14.27 2.50
-1.30 14.25 2.50
-1.58 14.23 2.50
-1.87 14.20 2.50
-2.16 14.17 2.50
-2.44 14.13 2.50
-2.73 14.08 2.50
-3.02 14.03 2.50
-3.30 13.98 2.50
-3.59 13.92 2.50
-3.87 13.86 2.50
-4.15 13.79 2.50
-4.43 13.72 2.50
-4.71 13.64 2.50
-4.99 13.56 2.50
-5.27 13.47 2.50
-5.55 13.38 2.50
-5.80 13.23 2.49
-5.85 12.64 2.39
-6.11 12.54 2.39
-6.38 12.43 2.39
-6.64 12.32 2.39
-6.89 12.21 2.39
-7.15 12.09 2.39
-7.41 11.96 2.39
-7.66 11.83 2.39
-7.92 11.70 2.39
-8.17 11.56 2.39
-8.42 11.42 2.39
-8.67 11.27 2.39
-8.91 11.12 2.39
-9.16 10.97 2.39
-9.40 10.81 2.39
-9.64 10.64 2.39
-9.82 10.41 2.38
-9.83 10.01 2.33
-9.83 9.62 2.28
-9.84 9.25 2.23
-9.85 8.89 2.18
-9.85 8.54 2.14
-9.86 8.20 2.10
-9.86 7.88 2.06
-9.87 7.56 2.02
-9.87 7.25 1.98
-9.88 6.95 1.95
-9.88 6.67 1.92
-9.89 6.38 1.89
-9.89 6.11 1.86
-9.90 5.84 1.83
-9.90 5.58 1.80
-9.91 5.32 1.78
-9.91 5.07 1.75
-9.92 4.82 1.73
-9.92 4.58 1.71
-9.92 4.34 1.69
-9.93 4.11 1.67
-9.93 3.88 1.65
-9.94 3.65 1.63
-9.94 3.42 1.61
-9.94 3.20 1.60
-9.94 2.98 1.58
-9.95 2.77 1.57
-10.05 2.58 1.57
-10.04 2.36 1.55
-10.12 2.17 1.55
-15.99 3.10 2.43
-15.91 2.75 2.40
-15.82 2.41 2.37
-15.81 2.08 2.35
-15.84 1.76 2.33
-15.86 1.44 2.32
-15.88 1.12 2.31
-15.83 0.80 2.29
-15.72 0.48 2.26
-15.58 0.16 2.23
-15.33 -0.15 2.19
-15.12 -0.45 2.15
-14.96 -0.74 2.12
-14.80 -1.03 2.09
-14.64 -1.32 2.06
-14.49 -1.60 2.03
-14.34 -1.87 2.01
-14.24 -2.15 1.99
-14.14 -2.43 1.97
-14.03 -2.70 1.95
-13.93 -2.97 1.94
-13.82 -3.24 1.92
-13.64 -3.49 1.90
-13.47 -3.73 1.88
-13.32 -3.98 1.86
-13.19 -4.23 1.84
-13.07 -4.48 1.83
-12.94 -4.73 1.81
-12.81 -4.98 1.80
-12.68 -5.22 1.79
-12.56 -5.47 1.78
-12.43 -5.71 1.77
-12.31 -5.96 1.76
-12.31 -6.26 1.77
-12.30 -6.57 1.78
-12.28 -6.88 1.79
-12.26 -7.19 1.79
-10.51 -6.45 1.55
-10.53 -6.76 1.57
-10.54 -7.07 1.58
-10.83 -7.58 1.64
-11.13 -8.13 1.70
-12.07 -9.19 1.87
-12.09 -9.59 1.89
-12.10 -10.01 1.91
-12.07 -10.39 1.93
-12.03 -10.78 1.95
-11.98 -11.19 1.97
-11.99 -11.65 2.00
-12.01 -12.14 2.04
-11.98 -12.61 2.07
-11.95 -13.09 2.10
-12.05 -13.75 2.16
-12.13 -14.41 2.22
-12.04 -14.90 2.25
-11.95 -15.40 2.28
-11.90 -15.99 2.32
-11.80 -16.54 2.36
-11.69 -17.10 2.39
-11.57 -17.68 2.43
-11.46 -18.28 2.48
-11.33 -18.91 2.52
-11.14 -19.47 2.56
-10.08 -18.47 2.39
-9.74 -18.72 2.39
-9.39 -18.96 2.39
-9.03 -19.20 2.39
-6.84 -15.32 1.89
-8.30 -19.64 2.39
-7.92 -19.85 2.39
-7.54 -20.05 2.39
-7.15 -20.24 2.39
-6.76 -20.42 2.39
-6.40 -20.71 2.41
-6.22 -21.65 2.50
-5.80 -21.81 2.50
-5.37 -21.96 2.50
-4.94 -22.09 2.50
-4.50 -22.22 2.50
-4.06 -22.34 2.50
-3.62 -22.44 2.50
-3.17 -22.53 2.50
-2.72 -22.61 2.50
-2.27 -22.68 2.50
-1.82 -22.74 2.50
-1.36 -22.78 2.50
-0.91 -22.82 2.50
-0.45 -22.84 2.50
0.00 -18.90 2.50
0.38 -18.90 2.50
0.76 -18.89 2.50
1.14 -18.87 2.50
1.51 -18.84 2.50
1.81 -18.02 2.39
2.17 -17.98 2.39
2.53 -17.92 2.39
2.88 -17.86 2.39
3.24 -17.78 2.39
3.59 -17.70 2.39
3.94 -17.61 2.39
4.28 -17.51 2.39
4.63 -17.41 2.39
4.97 -17.29 2.39
5.31 -17.17 2.39
5.64 -17.03 2.39
5.98 -16.91 2.40
6.31 -16.76 2.40
6.63 -16.61 2.40
6.95 -16.44 2.40
7.26 -16.27 2.40
7.57 -16.09 2.40
7.88 -15.91 2.40
8.18 -15.72 2.40
8.47 -15.52 2.40
8.76 -15.31 2.40
9.04 -15.10 2.40
9.32 -14.88 2.40
9.59 -14.65 2.40
9.84 -14.39 2.39
9.84 -13.80 2.33
8.79 -11.81 2.03
9.17 -11.82 2.07
9.55 -11.82 2.11
8.81 -10.46 1.90
8.84 -10.09 1.87
9.21 -10.10 1.91
9.60 -10.10 1.96
9.77 -9.88 1.96
8.83 -8.58 1.74
9.19 -8.58 1.78
9.57 -8.59 1.83
9.97 -8.59 1.88
10.40 -8.60 1.93
10.84 -8.61 1.99
11.30 -8.61 2.05
11.40 -8.33 2.04
10.12 -7.09 1.79
10.06 -6.75 1.76
10.08 -6.48 1.75
10.08 -6.20 1.74
10.05 -5.91 1.72
10.16 -5.70 1.72
10.24 -5.48 1.72
10.57 -5.38 1.77
10.79 -5.23 1.79
10.89 -5.01 1.80
11.37 -4.96 1.87
12.01 -4.95 1.97
10.96 -4.26 1.79
10.84 -3.97 1.76
10.81 -3.71 1.75
10.89 -3.50 1.76
11.01 -3.30 1.77
11.17 -3.10 1.80
11.41 -2.92 1.83
12.58 -2.96 2.02
11.85 -2.53 1.90
12.59 -2.43 2.02
12.59 -2.17 2.02
12.59 -1.91 2.02
12.60 -1.65 2.03
12.60 -1.40 2.03
12.61 -1.14 2.03
12.61 -0.89 2.04
12.62 -0.64 2.05
12.62 -0.38 2.05
12.63 -0.13 2.06
12.63 0.12 2.07
12.63 0.38 2.08
12.64 0.63 2.09
12.64 0.89 2.10
12.64 1.14 2.12
12.65 1.40 2.13
14.15 1.85 2.40
14.05 2.13 2.40
13.95 2.40 2.40
13.85 2.67 2.40
13.74 2.94 2.40
13.63 3.20 2.40
13.51 3.46 2.40
13.39 3.72 2.40
13.26 3.97 2.40
13.13 4.22 2.40
12.99 4.47 2.40
12.85 4.71 2.40
12.71 4.95 2.40
12.57 5.19 2.40
12.42 5.42 2.40
12.26 5.65 2.40
12.10 5.87 2.40
11.94 6.09 2.40
11.78 6.31 2.40
11.61 6.53 2.40
11.49 6.77 2.41
11.32 6.97 2.41
11.14 7.18 2.41
10.96 7.38 2.41
10.77 7.57 2.41
10.59 7.76 2.41
10.40 7.95 2.41
10.21 8.14 2.41
10.01 8.32 2.41
9.81 8.49 2.41
9.61 8.66 2.41
9.41 8.83 2.41
9.21 9.00 2.41
9.00 9.16 2.41
8.79 9.31 2.41
8.58 9.46 2.41
8.37 9.61 2.41
8.15 9.75 2.41
7.94 9.89 2.41
7.72 10.03 2.41
7.50 10.16 2.41
7.28 10.29 2.41
7.05 10.41 2.41
6.83 10.53 2.41
6.60 10.64 2.41
6.37 10.75 2.41
6.11 10.80 2.39
5.88 10.90 2.39
5.65 11.00 2.39
5.42 11.09 2.39
5.19 11.18 2.39
2.45 5.58 1.19
4.72 11.35 2.39
4.48 11.43 2.39
4.24 11.50 2.39
4.00 11.57 2.39
3.77 11.63 2.39
3.53 11.69 2.39
3.29 11.75 2.39
3.05 11.80 2.39
2.80 11.85 2.39
2.56 11.89 2.39
2.42 12.44 2.50
2.17 12.48 2.50
1.91 12.51 2.50
1.66 12.54 2.50
1.40 12.57 2.50
1.15 12.59 2.50
0.89 12.60 2.50
0.64 12.61 2.50
0.38 12.62 2.50
0.13 12.62 2.50
-0.13 12.62 2.50
-0.38 12.61 2.50
-0.63 12.60 2.50
-0.89 12.59 2.50
-1.14 12.57 2.50
-1.40 12.55 2.50
-1.65 12.52 2.50
-1.90 12.50 2.50
-2.16 12.46 2.50
-2.41 12.42 2.50
-2.66 12.38 2.50
-2.91 12.33 2.50
-3.16 12.28 2.50
-3.41 12.22 2.50
-3.66 12.16 2.50
-3.91 12.09 2.50
-4.16 12.02 2.50
-4.40 11.95 2.50
-4.65 11.87 2.50
-4.89 11.79 2.50
-5.14 11.70 2.50
-5.38 11.61 2.50
-5.62 11.51 2.50
-5.84 11.37 2.49
-5.85 10.86 2.40
-6.07 10.74 2.39
-6.30 10.63 2.39
-6.52 10.52 2.39
-6.74 10.41 2.39
-6.97 10.29 2.39
-7.18 10.16 2.39
-7.40 10.03 2.39
-7.62 9.90 2.39
-7.83 9.77 2.39
-8.04 9.63 2.39
-8.25 9.48 2.39
-8.46 9.34 2.39
-8.67 9.18 2.39
-8.87 9.03 2.39
-9.08 8.87 2.39
-9.28 8.71 2.39
-9.47 8.54 2.39
-9.67 8.37 2.39
-9.86 8.19 2.39
-9.86 7.87 2.35
-9.87 7.55 2.31
-9.87 7.24 2.27
-9.88 6.95 2.23
-9.88 6.66 2.19
-9.89 6.37 2.16
-9.89 6.10 2.13
-9.90 5.83 2.10
-9.90 5.57 2.07
-9.91 5.31 2.04
-9.91 5.06 2.01
-9.92 4.81 1.99
-9.92 4.57 1.96
-9.92 4.33 1.94
-9.93 4.10 1.92
-9.93 3.87 1.90
-9.94 3.64 1.88
-9.94 3.42 1.86
-9.94 3.20 1.84
-9.95 2.98 1.82
-9.95 2.76 1.80
-9.95 2.55 1.79
-9.96 2.34 1.77
-9.96 2.13 1.76
-9.96 1.92 1.75
-9.97 1.71 1.73
-9.97 1.51 1.72
-9.97 1.31 1.71
-9.98 1.10 1.70
-9.98 0.90 1.69
-9.99 0.70 1.68
-9.99 0.50 1.68
-9.99 0.30 1.67
-10.00 0.10 1.66
-10.00 -0.10 1.66
-10.00 -0.30 1.65
-10.01 -0.51 1.65
-10.01 -0.71 1.64
-10.01 -0.91 1.64
-10.02 -1.11 1.64
-10.02 -1.32 1.63
-10.02 -1.52 1.63
-10.03 -1.73 1.63
-10.03 -1.94 1.63
-10.03 -2.15 1.63
-10.04 -2.36 1.63
-10.04 -2.57 1.64
-10.04 -2.79 1.64
-10.05 -3.01 1.64
-10.05 -3.23 1.65
-10.06 -3.46 1.65
-10.06 -3.69 1.66
-10.06 -3.92 1.66
-10.07 -4.15 1.67
-10.07 -4.39 1.68
-10.08 -4.64 1.69
-10.08 -4.89 1.70
-10.08 -5.14 1.71
-10.09 -5.40 1.72
-10.09 -5.66 1.73
-10.10 -5.94 1.75
-10.10 -6.21 1.76
-10.31 -6.63 1.81
-10.56 -7.09 1.88
-10.84 -7.60 1.95
-11.14 -8.15 2.02
-11.67 -8.90 2.14
-11.63 -9.24 2.16
-11.59 -9.60 2.18
-11.59 -9.99 2.21
-11.54 -10.36 2.23
-11.50 -10.74 2.25
-11.45 -11.13 2.28
-11.39 -11.53 2.31
-11.34 -11.95 2.34
-11.27 -12.36 2.37
-11.14 -12.72 2.38
-11.01 -13.09 2.40
-10.86 -13.45 2.42
-10.71 -13.82 2.44
-10.26 -13.79 2.39
-10.01 -14.04 2.39
-9.75 -14.28 2.39
-9.49 -14.51 2.39
-9.22 -14.73 2.39
-8.95 -14.95 2.39
-8.67 -15.17 2.39
-8.39 -15.38 2.39
-8.10 -15.58 2.39
-7.80 -15.77 2.39
-7.50 -15.96 2.39
-6.83 -15.31 2.27
-6.89 -16.32 2.39
-6.57 -16.49 2.39
-6.33 -16.85 2.42
-6.19 -17.52 2.50
-5.85 -17.67 2.50
-5.50 -17.82 2.50
-5.15 -17.95 2.50
-4.80 -18.08 2.50
-4.44 -18.19 2.50
-4.09 -18.30 2.50
-3.72 -18.40 2.50
-3.36 -18.49 2.50
-2.99 -18.58 2.50
-2.62 -18.65 2.50
-2.25 -18.71 2.50
-1.88 -18.77 2.50
-1.50 -18.81 2.50
-1.13 -18.85 2.50
-0.75 -18.87 2.50
-0.37 -18.89 2.50
0.00 -16.10 2.50
0.32 -16.10 2.50
0.65 -16.09 2.50
0.97 -16.07 2.50
1.29 -16.05 2.50
1.61 -16.01 2.50
1.85 -15.31 2.39
2.15 -15.27 2.39
2.45 -15.21 2.39
2.76 -15.15 2.39
3.06 -15.09 2.39
3.35 -15.01 2.39
3.65 -14.93 2.39
3.94 -14.84 2.39
4.23 -14.74 2.39
4.52 -14.64 2.39
4.81 -14.53 2.39
5.09 -14.41 2.39
5.37 -14.29 2.39
5.65 -14.16 2.39
5.93 -14.04 2.40
6.20 -13.90 2.40
6.46 -13.75 2.40
6.73 -13.59 2.40
6.98 -13.43 2.40
7.24 -13.27 2.40
7.49 -13.10 2.40
7.73 -12.92 2.40
7.97 -12.74 2.40
8.21 -12.55 2.40
8.44 -12.35 2.40
8.66 -12.16 2.40
8.80 -11.85 2.37
9.10 -11.75 2.40
9.20 -11.40 2.37
8.82 -10.49 2.22
8.83 -10.09 2.18
9.20 -10.10 2.23
9.40 -9.91 2.23
9.40 -9.52 2.19
8.84 -8.60 2.03
9.18 -8.58 2.07
9.56 -8.59 2.12
9.96 -8.59 2.18
10.38 -8.60 2.24
10.83 -8.61 2.30
11.29 -8.61 2.37
11.40 -8.34 2.37
10.13 -7.11 2.08
10.05 -6.75 2.04
10.08 -6.48 2.03
10.08 -6.21 2.01
10.05 -5.91 1.99
10.16 -5.71 1.99
10.23 -5.48 1.99
10.56 -5.39 2.04
10.78 -5.23 2.07
10.88 -5.01 2.08
11.35 -4.96 2.15
11.99 -4.95 2.26
10.97 -4.28 2.06
10.84 -3.98 2.03
10.81 -3.72 2.02
10.89 -3.51 2.02
10.99 -3.30 2.04
11.15 -3.10 2.06
11.39 -2.93 2.10
11.77 -2.78 2.17
11.75 -2.52 2.16
12.59 -2.44 2.32
12.59 -2.18 2.32
12.59 -1.92 2.32
12.60 -1.66 2.32
12.60 -1.41 2.32
12.61 -1.15 2.33
12.61 -0.90 2.33
12.62 -0.65 2.34
12.62 -0.39 2.35
12.62 -0.14 2.36
12.63 0.11 2.36
12.63 0.37 2.37
12.64 0.62 2.39
12.64 0.88 2.40
12.57 1.13 2.40
12.50 1.37 2.40
12.43 1.62 2.40
12.35 1.86 2.40
12.27 2.10 2.40
12.18 2.34 2.40
12.09 2.58 2.40
12.00 2.81 2.40
11.90 3.04 2.40
11.80 3.27 2.40
11.69 3.49 2.40
11.58 3.71 2.40
11.47 3.93 2.40
11.35 4.15 2.40
11.23 4.36 2.40
11.10 4.57 2.40
10.97 4.78 2.40
10.84 4.98 2.40
10.71 5.19 2.40
10.57 5.38 2.40
10.43 5.58 2.40
10.28 5.77 2.40
10.13 5.96 2.40
9.98 6.14 2.40
9.83 6.33 2.40
9.67 6.50 2.40
9.56 6.71 2.41
9.39 6.88 2.41
9.23 7.05 2.41
9.06 7.22 2.41
8.89 7.38 2.41
8.72 7.54 2.41
8.54 7.69 2.41
8.37 7.84 2.41
8.19 7.99 2.41
8.01 8.13 2.41
7.82 8.28 2.41
7.64 8.41 2.41
7.45 8.55 2.41
7.26 8.68 2.41
7.07 8.80 2.41
6.88 8.93 2.41
6.68 9.04 2.41
6.49 9.16 2.41
6.29 9.27 2.41
6.06 9.33 2.39
5.86 9.43 2.39
5.65 9.53 2.39
5.45 9.63 2.39
5.25 9.72 2.39
5.04 9.81 2.39
4.84 9.89 2.39
4.63 9.98 2.39
2.45 5.58 1.33
4.21 10.13 2.39
4.00 10.20 2.39
3.79 10.26 2.39
3.58 10.33 2.39
3.37 10.39 2.39
3.15 10.44 2.39
2.94 10.49 2.39
2.72 10.54 2.39
2.51 10.58 2.39
2.29 10.62 2.39
2.16 11.12 2.50
1.94 11.15 2.50
1.71 11.18 2.50
1.48 11.21 2.50
1.26 11.23 2.50
1.03 11.25 2.50
0.80 11.26 2.50
0.57 11.27 2.50
0.34 11.28 2.50
0.12 11.28 2.50
-0.11 11.28 2.50
-0.34 11.27 2.50
-0.57 11.27 2.50
-0.79 11.25 2.50
-1.02 11.24 2.50
-1.25 11.22 2.50
-1.48 11.20 2.50
-1.70 11.17 2.50
-1.93 11.13 2.50
-2.15 11.10 2.50
-2.38 11.06 2.50
-2.60 11.01 2.50
-2.83 10.97 2.50
-3.05 10.91 2.50
-3.27 10.86 2.50
-3.49 10.80 2.50
-3.72 10.74 2.50
-3.93 10.67 2.50
-4.15 10.60 2.50
-4.37 10.52 2.50
-4.59 10.44 2.50
-4.80 10.36 2.50
-5.02 10.27 2.50
-5.23 10.18 2.50
-5.44 10.09 2.50
-5.65 9.99 2.50
-5.86 9.89 2.50
-5.87 9.46 2.41
-6.02 9.28 2.39
-6.21 9.17 2.39
-6.41 9.05 2.39
-6.60 8.94 2.39
-6.79 8.82 2.39
-6.98 8.70 2.39
-7.17 8.57 2.39
-7.35 8.44 2.39
-7.54 8.31 2.39
-7.72 8.17 2.39
-7.90 8.03 2.39
-8.08 7.89 2.39
-8.25 7.74 2.39
-8.43 7.59 2.39
-8.60 7.43 2.39
-8.77 7.28 2.39
-8.93 7.12 2.39
-9.10 6.95 2.39
-9.26 6.78 2.39
-9.42 6.61 2.39
-9.57 6.44 2.39
-9.72 6.26 2.39
-9.88 6.08 2.39
-9.90 5.82 2.36
-9.90 5.56 2.33
-9.91 5.30 2.30
-9.91 5.05 2.27
-9.92 4.80 2.24
-9.92 4.56 2.22
-9.92 4.32 2.19
-9.93 4.09 2.17
-9.93 3.86 2.14
-9.94 3.63 2.12
-9.94 3.41 2.10
-9.94 3.19 2.08
-9.95 2.97 2.06
-9.95 2.76 2.04
-9.95 2.54 2.03
-9.96 2.33 2.01
-9.96 2.12 2.00
-9.96 1.91 1.98
-9.97 1.71 1.97
-9.97 1.50 1.96
-9.98 1.30 1.95
-9.98 1.10 1.94
-9.98 0.89 1.93
-9.99 0.69 1.92
-9.99 0.49 1.91
-9.99 0.29 1.90
-10.00 0.09 1.89
-10.00 -0.11 1.89
-10.00 -0.31 1.88
-10.01 -0.51 1.88
-10.01 -0.71 1.88
-10.01 -0.92 1.87
-10.02 -1.12 1.87
-10.02 -1.32 1.87
-10.02 -1.53 1.87
-10.03 -1.74 1.87
-10.03 -1.95 1.87
-10.03 -2.16 1.87
-10.04 -2.37 1.87
-10.04 -2.58 1.88
-10.04 -2.80 1.88
-10.05 -3.02 1.89
-10.05 -3.24 1.89
-10.06 -3.46 1.90
-10.06 -3.69 1.90
-10.06 -3.93 1.91
-10.07 -4.16 1.92
-10.07 -4.40 1.93
-10.08 -4.64 1.94
-10.08 -4.89 1.96
-10.08 -5.15 1.97
-10.09 -5.41 1.99
-10.09 -5.67 2.00
-10.10 -5.94 2.02
-10.10 -6.22 2.04
-10.31 -6.64 2.10
-10.57 -7.11 2.17
-10.85 -7.61 2.25
-11.15 -8.16 2.34
-11.30 -8.62 2.40
-11.25 -8.95 2.42
-11.14 -9.24 2.43
-11.03 -9.52 2.44
-10.91 -9.80 2.45
-10.78 -10.08 2.46
-10.63 -10.35 2.46
-10.17 -10.30 2.39
-9.99 -10.53 2.39
-9.80 -10.76 2.39
-9.61 -10.98 2.39
-9.41 -11.20 2.39
-9.21 -11.42 2.39
-9.01 -11.63 2.39
-8.80 -11.84 2.39
-8.58 -12.04 2.39
-8.36 -12.24 2.39
-8.13 -12.44 2.39
-7.90 -12.63 2.39
-7.66 -12.81 2.39
-7.42 -12.99 2.39
-7.17 -13.16 2.39
-6.92 -13.33 2.39
-6.67 -13.49 2.39
-6.41 -13.65 2.39
-6.28 -14.09 2.44
-6.14 -14.55 2.50
-5.85 -14.69 2.50
-5.57 -14.83 2.50
-5.28 -14.96 2.50
-4.99 -15.09 2.50
-4.69 -15.21 2.50
-4.39 -15.32 2.50
-4.09 -15.42 2.50
-3.79 -15.52 2.50
-3.48 -15.61 2.50
-3.17 -15.69 2.50
-2.86 -15.77 2.50
-2.55 -15.83 2.50
-2.23 -15.89 2.50
-1.92 -15.95 2.50
-1.60 -15.99 2.50
-1.28 -16.03 2.50
-0.96 -16.06 2.50
-0.64 -16.08 2.50
-0.32 -16.09 2.50
0.00 -14.01 2.50
0.28 -14.01 2.50
0.56 -14.00 2.50
0.84 -13.98 2.50
1.12 -13.96 2.50
1.40 -13.93 2.50
1.68 -13.90 2.50
1.87 -13.29 2.39
2.13 -13.24 2.39
2.40 -13.19 2.39
2.66 -13.13 2.39
2.92 -13.07 2.39
3.18 -13.00 2.39
3.43 -12.92 2.39
3.69 -12.84 2.39
3.94 -12.75 2.39
4.19 -12.66 2.39
4.43 -12.56 2.39
4.68 -12.45 2.39
4.92 -12.34 2.39
5.16 -12.23 2.39
5.39 -12.10 2.39
5.63 -11.98 2.39
5.86 -11.86 2.40
6.09 -11.72 2.40
6.31 -11.58 2.40
6.53 -11.43 2.40
6.75 -11.28 2.40
6.96 -11.12 2.40
7.16 -10.96 2.40
7.37 -10.80 2.40
7.57 -10.63 2.40
7.76 -10.45 2.40
7.95 -10.27 2.40
8.14 -10.09 2.40
8.32 -9.90 2.40
8.50 -9.71 2.40
8.67 -9.52 2.40
8.84 -9.32 2.40
9.00 -9.12 2.40
8.86 -8.63 2.32
9.17 -8.58 2.36
9.46 -8.51 2.40
9.60 -8.29 2.40
9.74 -8.08 2.40
9.88 -7.86 2.40
10.00 -7.64 2.40
10.13 -7.42 2.40
10.13 -7.12 2.37
9.94 -6.69 2.30
9.90 -6.38 2.27
9.95 -6.13 2.26
10.05 -5.92 2.26
10.16 -5.71 2.26
10.23 -5.49 2.26
10.40 -5.32 2.28
10.60 -5.15 2.31
10.93 -5.04 2.37
11.14 -4.87 2.40
11.20 -4.64 2.40
10.93 -4.27 2.33
10.81 -3.97 2.29
10.78 -3.72 2.28
10.83 -3.50 2.28
10.94 -3.29 2.29
11.06 -3.09 2.31
11.31 -2.91 2.36
11.51 -2.72 2.40
11.52 -2.48 2.40
11.53 -2.24 2.40
11.54 -2.01 2.40
11.54 -1.77 2.40
11.53 -1.53 2.40
11.53 -1.30 2.40
11.51 -1.06 2.40
11.50 -0.83 2.40
11.47 -0.60 2.40
11.45 -0.36 2.40
11.41 -0.13 2.40
11.38 0.09 2.40
11.34 0.32 2.40
11.29 0.55 2.40
11.10 0.76 2.37
10.92 0.97 2.34
10.91 1.19 2.35
10.99 1.42 2.38
11.01 1.65 2.40
10.94 1.87 2.40
10.87 2.08 2.40
10.79 2.29 2.40
10.71 2.50 2.40
10.62 2.70 2.40
10.54 2.91 2.40
10.44 3.11 2.40
10.35 3.31 2.40
10.25 3.51 2.40
10.15 3.70 2.40
10.04 3.89 2.40
9.93 4.08 2.40
9.82 4.27 2.40
9.71 4.45 2.40
9.59 4.64 2.40
9.47 4.82 2.40
9.34 4.99 2.40
9.22 5.16 2.40
9.09 5.33 2.40
8.96 5.50 2.40
8.82 5.67 2.40
8.68 5.83 2.40
8.54 5.99 2.40
8.40 6.14 2.40
8.25 6.30 2.40
8.11 6.45 2.40
7.96 6.59 2.40
7.84 6.77 2.41
7.68 6.91 2.41
7.52 7.04 2.41
7.37 7.18 2.41
7.20 7.31 2.41
7.04 7.44 2.41
6.87 7.56 2.41
6.71 7.69 2.41
6.54 7.81 2.41
6.37 7.92 2.41
6.19 8.03 2.41
5.99 8.10 2.39
5.81 8.20 2.39
5.64 8.30 2.39
5.46 8.40 2.39
5.28 8.50 2.39
5.10 8.59 2.39
4.92 8.68 2.39
4.73 8.76 2.39
4.55 8.84 2.39
4.36 8.92 2.39
4.18 8.99 2.39
2.44 5.55 1.47
3.80 9.13 2.39
3.61 9.20 2.39
3.42 9.26 2.39
3.23 9.32 2.39
3.04 9.37 2.39
2.85 9.42 2.39
2.65 9.47 2.39
2.46 9.51 2.39
2.26 9.55 2.39
2.16 10.00 2.50
1.95 10.04 2.50
1.75 10.07 2.50
1.55 10.10 2.50
1.34 10.12 2.50
1.14 10.14 2.50
0.93 10.16 2.50
0.72 10.17 2.50
0.52 10.18 2.50
0.31 10.19 2.50
0.11 10.19 2.50
-0.10 10.19 2.50
-0.31 10.19 2.50
-0.51 10.18 2.50
-0.72 10.17 2.50
-0.92 10.15 2.50
-1.13 10.13 2.50
-1.33 10.11 2.50
-1.54 10.08 2.50
-1.74 10.05 2.50
-1.95 10.02 2.50
-2.15 9.98 2.50
-2.35 9.94 2.50
-2.55 9.90 2.50
-2.76 9.85 2.50
-2.96 9.80 2.50
-3.16 9.75 2.50
-3.36 9.69 2.50
-3.55 9.63 2.50
-3.75 9.56 2.50
-3.95 9.49 2.50
-4.14 9.42 2.50
-4.34 9.35 2.50
-4.53 9.27 2.50
-4.72 9.18 2.50
-4.91 9.10 2.50
-5.10 9.01 2.50
-5.29 8.91 2.50
-5.48 8.82 2.50
-5.66 8.72 2.50
-5.84 8.62 2.50
-5.89 8.31 2.44
-5.95 8.05 2.39
-6.12 7.94 2.39
-6.29 7.83 2.39
-6.46 7.72 2.39
-6.62 7.60 2.39
-6.79 7.48 2.39
-6.95 7.35 2.39
-7.11 7.22 2.39
-7.27 7.09 2.39
-7.43 6.96 2.39
-7.58 6.82 2.39
-7.73 6.68 2.39
-7.88 6.54 2.39
-8.03 6.39 2.39
-8.18 6.24 2.39
-8.32 6.09 2.39
-8.46 5.93 2.39
-8.60 5.78 2.39
-8.73 5.61 2.39
-8.87 5.45 2.39
-9.00 5.28 2.39
-9.12 5.11 2.39
-9.25 4.94 2.39
-9.37 4.77 2.39
-9.49 4.59 2.39
-9.60 4.41 2.39
-9.72 4.23 2.39
-9.83 4.04 2.39
-9.93 3.85 2.39
-9.94 3.63 2.37
-9.94 3.40 2.35
-9.94 3.18 2.33
-9.95 2.96 2.31
-9.95 2.75 2.29
-9.95 2.53 2.27
-9.96 2.32 2.25
-9.96 2.11 2.24
-9.96 1.91 2.22
-9.97 1.70 2.21
-9.97 1.50 2.19
-9.98 1.29 2.18
-9.98 1.09 2.17
-9.98 0.89 2.16
-9.99 0.69 2.15
-9.99 0.48 2.14
-9.99 0.28 2.14
-10.00 0.08 2.13
-10.00 -0.12 2.12
-10.00 -0.32 2.12
-10.01 -0.52 2.11
-10.01 -0.72 2.11
-10.01 -0.92 2.11
-10.02 -1.13 2.11
-10.02 -1.33 2.11
-10.02 -1.54 2.11
-10.03 -1.74 2.11
-10.03 -1.95 2.11
-10.03 -2.16 2.11
-10.04 -2.38 2.11
-10.04 -2.59 2.12
-10.04 -2.81 2.12
-10.05 -3.03 2.13
-10.05 -3.25 2.14
-10.06 -3.47 2.15
-10.06 -3.70 2.16
-10.06 -3.93 2.17
-10.07 -4.17 2.18
-10.07 -4.41 2.19
-10.08 -4.65 2.20
-10.08 -4.90 2.22
-10.08 -5.16 2.24
-10.09 -5.42 2.25
-10.09 -5.68 2.27
-10.10 -5.95 2.29
-10.16 -6.26 2.33
-10.32 -6.65 2.39
-10.58 -7.12 2.47
-10.13 -7.12 2.39
-10.01 -7.34 2.39
-9.89 -7.56 2.39
-9.77 -7.78 2.39
-9.64 -8.00 2.39
-9.50 -8.21 2.39
-9.36 -8.42 2.39
-9.21 -8.63 2.39
-9.06 -8.84 2.39
-8.91 -9.04 2.39
-8.75 -9.24 2.39
-8.58 -9.43 2.39
-8.41 -9.63 2.39
-8.24 -9.82 2.39
-8.06 -10.00 2.39
-7.88 -10.19 2.39
-7.69 -10.36 2.39
-7.50 -10.54 2.39
-7.30 -10.71 2.39
-7.10 -10.88 2.39
-6.90 -11.04 2.39
-6.69 -11.20 2.39
-6.48 -11.35 2.39
-6.26 -11.50 2.39
-6.24 -12.03 2.47
-6.07 -12.29 2.50
-5.83 -12.43 2.50
-5.59 -12.56 2.50
-5.35 -12.69 2.50
-5.10 -12.81 2.50
-4.85 -12.93 2.50
-4.60 -13.04 2.50
-4.34 -13.15 2.50
-4.09 -13.25 2.50
-3.82 -13.35 2.50
-3.56 -13.43 2.50
-3.30 -13.52 2.50
-3.03 -13.59 2.50
-2.76 -13.66 2.50
-2.49 -13.73 2.50
-2.22 -13.78 2.50
-1.94 -13.83 2.50
-1.67 -13.88 2.50
-1.39 -13.92 2.50
-1.11 -13.95 2.50
-0.83 -13.97 2.50
-0.56 -13.99 2.50
-0.28 -14.00 2.50
0.00 -12.39 2.50
0.25 -12.38 2.50
0.50 -12.38 2.50
0.74 -12.36 2.50
0.99 -12.35 2.50
1.24 -12.32 2.50
1.48 -12.29 2.50
1.72 -12.26 2.50
1.89 -11.71 2.39
2.12 -11.66 2.39
2.35 -11.61 2.39
2.58 -11.56 2.39
2.81 -11.50 2.39
3.03 -11.43 2.39
3.26 -11.36 2.39
3.48 -11.28 2.39
3.70 -11.20 2.39
3.92 -11.11 2.39
4.14 -11.02 2.39
4.35 -10.93 2.39
4.56 -10.83 2.39
4.77 -10.72 2.39
4.98 -10.61 2.39
5.18 -10.49 2.39
5.38 -10.37 2.39
5.58 -10.25 2.39
5.78 -10.12 2.39
5.98 -10.00 2.40
6.16 -9.86 2.40
6.35 -9.72 2.40
6.53 -9.58 2.40
6.71 -9.43 2.40
6.88 -9.28 2.40
7.05 -9.12 2.40
7.22 -8.96 2.40
7.38 -8.80 2.40
7.54 -8.63 2.40
7.70 -8.46 2.40
7.85 -8.29 2.40
8.00 -8.11 2.40
8.14 -7.93 2.40
8.28 -7.75 2.40
8.41 -7.57 2.40
8.54 -7.38 2.40
8.67 -7.19 2.40
8.79 -7.00 2.40
8.90 -6.81 2.40
9.02 -6.61 2.40
9.12 -6.42 2.40
9.23 -6.22 2.40
9.33 -6.02 2.40
9.42 -5.81 2.40
9.51 -5.61 2.40
9.59 -5.41 2.40
9.67 -5.20 2.40
9.75 -4.99 2.40
9.82 -4.78 2.40
9.89 -4.57 2.40
9.95 -4.36 2.40
10.01 -4.15 2.40
10.06 -3.94 2.40
10.11 -3.73 2.40
10.15 -3.51 2.40
10.19 -3.30 2.40
10.23 -3.09 2.40
10.26 -2.87 2.40
10.29 -2.66 2.40
10.31 -2.45 2.40
10.32 -2.23 2.40
10.34 -2.02 2.40
10.34 -1.81 2.40
10.35 -1.59 2.40
10.35 -1.38 2.40
10.34 -1.17 2.40
10.34 -0.96 2.40
10.32 -0.75 2.40
10.31 -0.54 2.40
10.29 -0.33 2.40
10.26 -0.13 2.40
10.23 0.08 2.40
10.20 0.28 2.40
10.16 0.49 2.40
10.12 0.69 2.40
10.08 0.89 2.40
10.03 1.09 2.40
9.97 1.28 2.40
9.92 1.48 2.40
9.86 1.67 2.40
9.80 1.87 2.40
9.73 2.06 2.40
9.66 2.25 2.40
9.59 2.43 2.40
9.51 2.62 2.40
9.43 2.80 2.40
9.35 2.98 2.40
9.26 3.16 2.40
9.17 3.34 2.40
9.08 3.51 2.40
8.98 3.68 2.40
8.88 3.85 2.40
8.78 4.02 2.40
8.68 4.19 2.40
8.57 4.35 2.40
8.46 4.51 2.40
8.35 4.67 2.40
8.23 4.82 2.40
8.11 4.98 2.40
7.99 5.13 2.40
7.87 5.28 2.40
7.74 5.42 2.40
7.61 5.56 2.40
7.48 5.70 2.40
7.35 5.84 2.40
7.22 5.97 2.40
7.08 6.11 2.40
6.94 6.23 2.40
6.80 6.36 2.40
6.66 6.48 2.40
6.51 6.60 2.40
6.39 6.75 2.41
6.25 6.86 2.41
6.06 6.94 2.39
5.91 7.05 2.39
5.76 7.15 2.39
5.60 7.25 2.39
5.44 7.35 2.39
5.29 7.45 2.39
5.13 7.54 2.39
4.96 7.63 2.39
4.80 7.72 2.39
4.64 7.81 2.39
4.47 7.89 2.39
4.31 7.96 2.39
4.14 8.04 2.39
3.97 8.11 2.39
3.80 8.18 2.39
2.45 5.55 1.61
3.46 8.31 2.39
3.29 8.37 2.39
3.12 8.42 2.39
2.94 8.48 2.39
2.77 8.53 2.39
2.59 8.57 2.39
2.42 8.62 2.39
2.24 8.66 2.39
2.15 9.07 2.50
1.97 9.11 2.50
1.78 9.14 2.50
1.60 9.17 2.50
1.41 9.19 2.50
1.22 9.22 2.50
1.03 9.24 2.50
0.85 9.25 2.50
0.66 9.26 2.50
0.47 9.27 2.50
0.28 9.28 2.50
0.10 9.28 2.50
-0.09 9.28 2.50
-0.28 9.28 2.50
-0.47 9.27 2.50
-0.65 9.26 2.50
-0.84 9.25 2.50
-1.03 9.23 2.50
-1.22 9.21 2.50
-1.40 9.18 2.50
-1.59 9.16 2.50
-1.77 9.13 2.50
-1.96 9.09 2.50
-2.14 9.05 2.50
-2.33 9.01 2.50
-2.51 8.97 2.50
-2.69 8.92 2.50
-2.88 8.87 2.50
-3.06 8.82 2.50
-3.24 8.76 2.50
-3.42 8.70 2.50
-3.59 8.64 2.50
-3.77 8.57 2.50
-3.95 8.50 2.50
-4.12 8.43 2.50
-4.30 8.35 2.50
-4.47 8.27 2.50
-4.64 8.19 2.50
-4.81 8.11 2.50
-4.98 8.02 2.50
-5.15 7.93 2.50
-5.32 7.83 2.50
-5.48 7.73 2.50
-5.64 7.63 2.50
-5.81 7.53 2.50
-5.90 7.34 2.47
-5.91 7.05 2.41
-6.02 6.90 2.39
-6.17 6.79 2.39
-6.32 6.67 2.39
-6.46 6.56 2.39
-6.60 6.44 2.39
-6.75 6.31 2.39
-6.88 6.19 2.39
-7.02 6.06 2.39
-7.16 5.93 2.39
-7.29 5.79 2.39
-7.42 5.66 2.39
-7.55 5.52 2.39
-7.67 5.37 2.39
-7.80 5.23 2.39
-7.92 5.08 2.39
-8.04 4.93 2.39
-8.15 4.78 2.39
-8.27 4.63 2.39
-8.38 4.47 2.39
-8.49 4.31 2.39
-8.59 4.15 2.39
-8.69 3.98 2.39
-8.79 3.82 2.39
-8.89 3.65 2.39
-8.99 3.48 2.39
-9.08 3.30 2.39
-9.16 3.13 2.39
-9.25 2.95 2.39
-9.33 2.77 2.39
-9.41 2.59 2.39
-9.49 2.41 2.39
-9.56 2.22 2.39
-9.63 2.04 2.39
-9.69 1.85 2.39
-9.75 1.66 2.39
-9.81 1.46 2.39
-9.87 1.27 2.39
-9.92 1.07 2.39
-9.96 0.88 2.39
-9.99 0.68 2.39
-9.99 0.48 2.38
-9.99 0.28 2.37
-10.00 0.08 2.36
-10.00 -0.13 2.36
-10.00 -0.33 2.35
-10.01 -0.53 2.35
-10.01 -0.73 2.35
-10.01 -0.93 2.35
-10.02 -1.14 2.34
-10.02 -1.34 2.34
-10.02 -1.55 2.34
-10.03 -1.75 2.35
-10.03 -1.96 2.35
-10.03 -2.17 2.35
-10.04 -2.38 2.36
-10.04 -2.60 2.36
-10.04 -2.81 2.37
-10.05 -3.03 2.38
-10.05 -3.26 2.39
-10.04 -3.48 2.39
-10.00 -3.69 2.39
-9.95 -3.90 2.39
-9.90 -4.11 2.39
-9.84 -4.32 2.39
-9.78 -4.53 2.39
-9.72 -4.73 2.39
-9.65 -4.94 2.39
-9.57 -5.15 2.39
-9.49 -5.35 2.39
-9.41 -5.56 2.39
-9.32 -5.76 2.39
-9.23 -5.96 2.39
-9.13 -6.16 2.39
-9.03 -6.36 2.39
-8.92 -6.55 2.39
-8.81 -6.75 2.39
-8.70 -6.94 2.39
-8.58 -7.13 2.39
-8.46 -7.32 2.39
-8.33 -7.50 2.39
-8.20 -7.69 2.39
-8.06 -7.87 2.39
-7.92 -8.04 2.39
-7.78 -8.22 2.39
-7.63 -8.39 2.39
-7.47 -8.56 2.39
-7.32 -8.73 2.39
-7.16 -8.89 2.39
-6.99 -9.05 2.39
-6.82 -9.21 2.39
-6.65 -9.36 2.39
-6.48 -9.51 2.39
-6.30 -9.65 2.39
-6.21 -9.95 2.43
-6.18 -10.36 2.50
-5.99 -10.50 2.50
-5.79 -10.64 2.50
-5.58 -10.77 2.50
-5.37 -10.89 2.50
-5.16 -11.01 2.50
-4.95 -11.13 2.50
-4.73 -11.24 2.50
-4.52 -11.35 2.50
-4.29 -11.45 2.50
-4.07 -11.55 2.50
-3.84 -11.64 2.50
-3.61 -11.73 2.50
-3.38 -11.81 2.50
-3.15 -11.89 2.50
-2.91 -11.96 2.50
-2.68 -12.03 2.50
-2.44 -12.09 2.50
-2.20 -12.14 2.50
-1.96 -12.19 2.50
-1.72 -12.24 2.50
-1.47 -12.28 2.50
-1.23 -12.31 2.50
-0.98 -12.34 2.50
-0.74 -12.36 2.50
-0.49 -12.37 2.50
-0.24 -12.38 2.50
0.00 -11.09 2.50
0.22 -11.09 2.50
0.44 -11.08 2.50
0.67 -11.07 2.50
0.89 -11.05 2.50
1.11 -11.03 2.50
1.32 -11.01 2.50
1.54 -10.97 2.50
1.76 -10.94 2.50
1.90 -10.45 2.39
2.10 -10.40 2.39
2.31 -10.35 2.39
2.51 -10.30 2.39
2.72 -10.24 2.39
2.92 -10.18 2.39
3.12 -10.11 2.39
3.32 -10.04 2.39
3.51 -9.96 2.39
3.71 -9.88 2.39
3.90 -9.79 2.39
4.09 -9.70 2.39
4.28 -9.61 2.39
4.46 -9.51 2.39
4.65 -9.41 2.39
4.83 -9.30 2.39
5.00 -9.19 2.39
5.18 -9.08 2.39
5.35 -8.96 2.39
5.52 -8.84 2.39
5.69 -8.72 2.39
5.85 -8.59 2.39
6.02 -8.47 2.40
6.18 -8.33 2.40
6.33 -8.19 2.40
6.48 -8.05 2.40
6.63 -7.91 2.40
6.77 -7.76 2.40
6.91 -7.61 2.40
7.05 -7.45 2.40
7.18 -7.30 2.40
7.31 -7.14 2.40
7.44 -6.98 2.40
7.56 -6.81 2.40
7.68 -6.65 2.40
7.80 -6.48 2.40
7.91 -6.31 2.40
8.01 -6.14 2.40
8.12 -5.96 2.40
8.21 -5.79 2.40
8.31 -5.61 2.40
8.40 -5.43 2.40
8.49 -5.25 2.40
8.57 -5.06 2.40
8.65 -4.88 2.40
8.72 -4.69 2.40
8.79 -4.51 2.40
8.86 -4.32 2.40
8.92 -4.13 2.40
8.98 -3.94 2.40
9.04 -3.75 2.40
9.09 -3.56 2.40
9.13 -3.37 2.40
9.17 -3.18 2.40
9.21 -2.99 2.40
9.25 -2.80 2.40
9.28 -2.60 2.40
9.30 -2.41 2.40
9.32 -2.22 2.40
9.34 -2.03 2.40
9.36 -1.83 2.40
9.37 -1.64 2.40
9.37 -1.45 2.40
9.37 -1.26 2.40
9.37 -1.07 2.40
9.37 -0.88 2.40
9.36 -0.69 2.40
9.35 -0.50 2.40
9.33 -0.31 2.40
9.31 -0.12 2.40
9.28 0.06 2.40
9.26 0.25 2.40
9.23 0.43 2.40
9.19 0.62 2.40
9.15 0.80 2.40
9.11 0.98 2.40
9.07 1.16 2.40
9.02 1.34 2.40
8.97 1.51 2.40
8.91 1.69 2.40
8.85 1.86 2.40
8.79 2.04 2.40
8.73 2.21 2.40
8.66 2.38 2.40
8.59 2.54 2.40
8.51 2.71 2.40
8.44 2.87 2.40
8.36 3.03 2.40
8.27 3.19 2.40
8.19 3.35 2.40
8.10 3.51 2.40
8.01 3.66 2.40
7.91 3.81 2.40
7.82 3.96 2.40
7.72 4.11 2.40
7.62 4.25 2.40
7.51 4.40 2.40
7.41 4.54 2.40
7.30 4.68 2.40
7.19 4.81 2.40
7.07 4.95 2.40
6.96 5.08 2.40
6.84 5.20 2.40
6.72 5.33 2.40
6.60 5.45 2.40
6.47 5.58 2.40
6.35 5.69 2.40
6.22 5.81 2.40
6.08 5.92 2.39
5.95 6.03 2.39
5.82 6.14 2.39
5.68 6.24 2.39
5.55 6.34 2.39
5.41 6.44 2.39
5.27 6.54 2.39
5.13 6.64 2.39
4.99 6.73 2.39
4.84 6.82 2.39
4.70 6.90 2.39
4.55 6.99 2.39
4.40 7.07 2.39
4.25 7.15 2.39
4.10 7.22 2.39
3.95 7.29 2.39
3.80 7.36 2.39
3.64 7.43 2.39
3.49 7.49 2.39
2.45 5.55 1.76
3.17 7.61 2.39
3.02 7.67 2.39
2.86 7.72 2.39
2.70 7.77 2.39
2.54 7.82 2.39
2.38 7.86 2.39
2.22 7.90 2.39
2.14 8.25 2.49
1.98 8.32 2.50
1.81 8.35 2.50
1.63 8.38 2.50
1.46 8.41 2.50
1.29 8.43 2.50
1.12 8.45 2.50
0.95 8.47 2.50
0.78 8.49 2.50
0.61 8.50 2.50
0.43 8.51 2.50
0.26 8.51 2.50
0.09 8.51 2.50
-0.08 8.51 2.50
-0.26 8.51 2.50
-0.43 8.50 2.50
-0.60 8.49 2.50
-0.77 8.48 2.50
-0.94 8.46 2.50
-1.12 8.44 2.50
-1.29 8.42 2.50
-1.46 8.40 2.50
-1.63 8.37 2.50
-1.80 8.34 2.50
-1.97 8.30 2.50
-2.14 8.26 2.50
-2.30 8.22 2.50
-2.47 8.18 2.50
-2.64 8.13 2.50
-2.80 8.08 2.50
-2.97 8.03 2.50
-3.13 7.98 2.50
-3.30 7.92 2.50
-3.46 7.86 2.50
-3.62 7.79 2.50
-3.78 7.72 2.50
-3.94 7.65 2.50
-4.10 7.58 2.50
-4.26 7.50 2.50
-4.41 7.43 2.50
-4.57 7.34 2.50
-4.72 7.26 2.50
-4.87 7.17 2.50
-5.02 7.08 2.50
-5.17 6.99 2.50
-5.32 6.89 2.50
-5.47 6.79 2.50
-5.61 6.69 2.50
-5.75 6.58 2.50
-5.89 6.48 2.50
-5.92 6.24 2.45
-5.93 6.01 2.40
-6.04 5.88 2.39
-6.17 5.77 2.39
-6.30 5.65 2.39
-6.42 5.54 2.39
-6.55 5.41 2.39
-6.67 5.29 2.39
-6.78 5.17 2.39
-6.90 5.04 2.39
-7.01 4.91 2.39
-7.13 4.77 2.39
-7.24 4.64 2.39
-7.34 4.50 2.39
-7.45 4.36 2.39
-7.55 4.22 2.39
-7.65 4.07 2.39
-7.75 3.93 2.39
-7.84 3.78 2.39
-7.93 3.63 2.39
-8.02 3.48 2.39
-8.11 3.32 2.39
-8.19 3.17 2.39
-8.28 3.01 2.39
-8.35 2.85 2.39
-8.43 2.68 2.39
-8.50 2.52 2.39
-8.57 2.35 2.39
-8.64 2.19 2.39
-8.70 2.02 2.39
-8.76 1.85 2.39
-8.82 1.67 2.39
-8.88 1.50 2.39
-8.93 1.32 2.39
-8.97 1.15 2.39
-9.02 0.97 2.39
-9.06 0.79 2.39
-9.10 0.61 2.39
-9.13 0.43 2.39
-9.16 0.25 2.39
-9.19 0.06 2.39
-9.21 -0.12 2.39
-9.23 -0.31 2.39
-9.25 -0.49 2.39
-9.26 -0.68 2.39
-9.27 -0.87 2.39
-9.28 -1.06 2.39
-9.28 -1.25 2.39
-9.27 -1.44 2.39
-9.27 -1.63 2.39
-9.26 -1.82 2.39
-9.25 -2.01 2.39
-9.23 -2.20 2.39
-9.21 -2.39 2.39
-9.18 -2.58 2.39
-9.15 -2.77 2.39
-9.12 -2.96 2.39
-9.08 -3.15 2.39
-9.04 -3.34 2.39
-8.99 -3.53 2.39
-8.94 -3.72 2.39
-8.89 -3.91 2.39
-8.83 -4.09 2.39
-8.77 -4.28 2.39
-8.71 -4.47 2.39
-8.64 -4.65 2.39
-8.56 -4.84 2.39
-8.49 -5.02 2.39
-8.40 -5.20 2.39
-8.32 -5.38 2.39
-8.23 -5.56 2.39
-8.14 -5.73 2.39
-8.04 -5.91 2.39
-7.94 -6.08 2.39
-7.83 -6.26 2.39
-7.72 -6.42 2.39
-7.61 -6.59 2.39
-7.49 -6.76 2.39
-7.37 -6.92 2.39
-7.25 -7.08 2.39
-7.12 -7.24 2.39
-6.99 -7.40 2.39
-6.86 -7.55 2.39
-6.72 -7.70 2.39
-6.57 -7.85 2.39
-6.43 -7.99 2.39
-6.28 -8.14 2.39
-6.19 -8.36 2.42
-6.19 -8.71 2.48
-6.06 -8.91 2.50
-5.90 -9.05 2.50
-5.72 -9.18 2.50
-5.55 -9.30 2.50
-5.37 -9.43 2.50
-5.19 -9.55 2.50
-5.00 -9.66 2.50
-4.82 -9.77 2.50
-4.63 -9.88 2.50
-4.44 -9.98 2.50
-4.24 -10.08 2.50
-4.05 -10.18 2.50
-3.85 -10.27 2.50
-3.64 -10.36 2.50
-3.44 -10.44 2.50
-3.24 -10.51 2.50
-3.03 -10.59 2.50
-2.82 -10.65 2.50
-2.61 -10.72 2.50
-2.40 -10.78 2.50
-2.18 -10.83 2.50
-1.97 -10.88 2.50
-1.75 -10.92 2.50
-1.54 -10.96 2.50
-1.32 -10.99 2.50
-1.10 -11.02 2.50
-0.88 -11.05 2.50
-0.66 -11.06 2.50
-0.44 -11.08 2.50
-0.22 -11.09 2.50
0.00 -10.03 2.50
0.20 -10.03 2.50
0.40 -10.02 2.50
0.60 -10.01 2.50
0.80 -10.00 2.50
1.00 -9.98 2.50
1.20 -9.96 2.50
1.40 -9.93 2.50
1.59 -9.89 2.50
1.79 -9.86 2.50
1.90 -9.41 2.39
2.09 -9.37 2.39
2.27 -9.32 2.39
2.46 -9.26 2.39
2.64 -9.21 2.39
2.82 -9.15 2.39
3.00 -9.08 2.39
3.18 -9.01 2.39
3.35 -8.94 2.39
3.53 -8.87 2.39
3.70 -8.79 2.39
3.87 -8.70 2.39
4.04 -8.61 2.39
4.20 -8.52 2.39
4.37 -8.43 2.39
4.53 -8.33 2.39
4.69 -8.23 2.39
4.84 -8.12 2.39
5.00 -8.01 2.39
5.15 -7.90 2.39
5.30 -7.79 2.39
5.45 -7.67 2.39
5.59 -7.55 2.39
5.73 -7.42 2.39
5.87 -7.29 2.39
6.01 -7.17 2.40
6.14 -7.04 2.40
6.27 -6.90 2.40
6.39 -6.77 2.40
6.52 -6.63 2.40
6.63 -6.48 2.40
6.75 -6.34 2.40
6.86 -6.19 2.40
6.97 -6.04 2.40
7.08 -5.89 2.40
7.18 -5.73 2.40
7.28 -5.58 2.40
7.37 -5.42 2.40
7.46 -5.26 2.40
7.55 -5.10 2.40
7.63 -4.94 2.40
7.71 -4.78 2.40
7.79 -4.61 2.40
7.86 -4.44 2.40
7.93 -4.28 2.40
8.00 -4.11 2.40
8.06 -3.94 2.40
8.12 -3.77 2.40
8.18 -3.60 2.40
8.23 -3.42 2.40
8.27 -3.25 2.40
8.32 -3.08 2.40
8.36 -2.90 2.40
8.40 -2.73 2.40
8.43 -2.56 2.40
8.46 -2.38 2.40
8.48 -2.21 2.40
8.50 -2.03 2.40
8.52 -1.86 2.40
8.54 -1.68 2.40
8.55 -1.51 2.40
8.56 -1.33 2.40
8.56 -1.16 2.40
8.56 -0.98 2.40
8.56 -0.81 2.40
8.55 -0.64 2.40
8.54 -0.46 2.40
8.53 -0.29 2.40
8.51 -0.12 2.40
8.49 0.05 2.40
8.47 0.22 2.40
8.44 0.39 2.40
8.41 0.56 2.40
8.38 0.72 2.40
8.34 0.89 2.40
8.30 1.06 2.40
8.26 1.22 2.40
8.21 1.38 2.40
8.16 1.54 2.40
8.11 1.70 2.40
8.06 1.86 2.40
8.00 2.02 2.40
7.94 2.17 2.40
7.87 2.33 2.40
7.81 2.48 2.40
7.74 2.63 2.40
7.67 2.78 2.40
7.59 2.92 2.40
7.52 3.07 2.40
7.44 3.21 2.40
7.35 3.36 2.40
7.27 3.50 2.40
7.18 3.63 2.40
7.09 3.77 2.40
7.00 3.90 2.40
6.90 4.03 2.40
6.81 4.16 2.40
6.71 4.29 2.40
6.61 4.42 2.40
6.51 4.54 2.40
6.40 4.66 2.40
6.29 4.78 2.40
6.18 4.90 2.40
6.06 5.01 2.39
5.95 5.12 2.39
5.84 5.23 2.39
5.72 5.34 2.39
5.60 5.44 2.39
5.48 5.54 2.39
5.36 5.64 2.39
5.24 5.74 2.39
5.11 5.84 2.39
4.98 5.93 2.39
4.86 6.02 2.39
4.73 6.11 2.39
4.59 6.19 2.39
4.46 6.28 2.39
4.33 6.36 2.39
4.19 6.44 2.39
4.06 6.51 2.39
3.92 6.58 2.39
3.78 6.65 2.39
3.64 6.72 2.39
3.50 6.79 2.39
3.36 6.85 2.39
3.22 6.91 2.39
2.45 5.55 1.91
2.93 7.02 2.39
2.78 7.07 2.39
2.64 7.12 2.39
2.49 7.16 2.39
2.34 7.21 2.39
2.20 7.25 2.39
2.13 7.56 2.48
1.98 7.64 2.50
1.82 7.67 2.50
1.67 7.70 2.50
1.51 7.73 2.50
1.35 7.75 2.50
1.19 7.78 2.50
1.04 7.80 2.50
0.88 7.81 2.50
0.72 7.83 2.50
0.56 7.84 2.50
0.40 7.85 2.50
0.24 7.85 2.50
0.08 7.85 2.50
-0.08 7.85 2.50
-0.24 7.85 2.50
-0.40 7.84 2.50
-0.55 7.83 2.50
-0.71 7.82 2.50
-0.87 7.81 2.50
-1.03 7.79 2.50
-1.19 7.77 2.50
-1.35 7.75 2.50
-1.50 7.72 2.50
-1.66 7.69 2.50
-1.82 7.66 2.50
-1.97 7.62 2.50
-2.13 7.59 2.50
-2.28 7.54 2.50
-2.43 7.50 2.50
-2.59 7.46 2.50
-2.74 7.41 2.50
-2.89 7.35 2.50
-3.04 7.30 2.50
-3.19 7.24 2.50
-3.34 7.18 2.50
-3.49 7.12 2.50
-3.64 7.05 2.50
-3.78 6.99 2.50
-3.93 6.92 2.50
-4.07 6.84 2.50
-4.21 6.77 2.50
