ply
format ascii 1.0
element vertex 2900
property float32 x
property float32 y
property float32 z
end_header
6.41 -26.08 2.54
6.80 -25.46 2.49
7.15 -24.78 2.44
7.06 -22.75 2.25
2.40 -7.22 0.72
2.53 -7.14 0.72
2.06 -5.46 0.55
8.90 -22.20 2.26
9.31 -21.94 2.25
9.72 -21.68 2.25
10.13 -21.43 2.24
10.55 -21.21 2.24
10.99 -21.02 2.24
11.43 -20.84 2.25
11.87 -20.64 2.25
12.29 -20.42 2.26
12.14 -19.28 2.16
12.16 -18.47 2.09
12.38 -18.01 2.07
12.39 -17.27 2.01
12.62 -16.86 1.99
13.16 -16.87 2.03
13.72 -16.88 2.06
14.28 -16.86 2.09
14.88 -16.88 2.13
15.50 -16.89 2.17
15.12 -15.82 2.07
15.13 -15.21 2.03
15.14 -14.62 2.00
15.15 -14.05 1.96
15.16 -13.50 1.93
15.17 -12.98 1.89
15.18 -12.47 1.86
15.19 -11.97 1.83
15.19 -11.49 1.81
15.20 -11.02 1.78
15.21 -10.57 1.76
15.22 -10.13 1.74
15.23 -9.70 1.71
15.23 -9.28 1.69
15.24 -8.87 1.68
15.25 -8.47 1.66
15.25 -8.08 1.64
15.26 -7.69 1.62
15.27 -7.31 1.61
15.27 -6.94 1.60
15.28 -6.58 1.58
15.29 -6.22 1.57
15.29 -5.87 1.56
15.30 -5.52 1.55
16.29 -5.51 1.64
16.95 -5.36 1.69
15.35 -4.52 1.52
15.35 -4.18 1.52
17.01 -4.27 1.67
22.67 -5.21 2.22
22.76 -4.75 2.22
22.85 -4.29 2.22
23.17 -3.88 2.24
23.24 -3.41 2.24
10.68 -1.35 1.03
10.70 -1.13 1.03
14.00 -1.20 1.34
19.90 -1.30 1.91
23.43 -1.06 2.24
23.44 -0.59 2.24
22.78 -0.12 2.18
22.77 0.34 2.18
22.76 0.80 2.18
22.73 1.25 2.18
23.35 1.76 2.24
18.50 1.77 1.78
15.68 1.82 1.51
13.92 1.90 1.35
13.87 2.17 1.35
13.84 2.45 1.35
13.80 2.73 1.35
13.79 3.02 1.35
13.79 3.31 1.36
13.80 3.61 1.37
13.81 3.91 1.38
13.88 4.23 1.39
16.15 5.28 1.63
16.21 5.66 1.65
16.21 6.03 1.66
16.22 6.41 1.68
16.18 6.77 1.69
16.10 7.12 1.70
16.00 7.46 1.70
20.90 10.26 2.24
20.68 10.68 2.24
20.46 11.09 2.24
20.23 11.49 2.24
19.99 11.89 2.24
19.38 12.07 2.20
18.57 12.08 2.14
11.61 7.90 1.36
11.26 7.99 1.33
11.40 8.44 1.37
11.22 8.66 1.37
11.04 8.88 1.37
10.86 9.10 1.37
9.48 8.27 1.22
10.48 9.52 1.37
10.29 9.73 1.37
10.09 9.93 1.37
9.88 10.13 1.37
9.67 10.32 1.37
9.46 10.51 1.37
9.00 10.41 1.33
10.26 12.36 1.56
9.85 12.37 1.53
9.46 12.37 1.51
9.07 12.38 1.49
8.70 12.39 1.47
8.34 12.39 1.45
7.99 12.40 1.43
7.64 12.40 1.41
7.31 12.41 1.40
6.98 12.42 1.38
6.66 12.42 1.37
6.34 12.43 1.35
10.45 21.54 2.33
10.13 21.99 2.35
9.80 22.45 2.38
9.29 22.50 2.37
8.78 22.55 2.35
8.26 22.52 2.33
7.76 22.57 2.32
7.26 22.57 2.31
6.77 22.58 2.29
6.28 22.59 2.28
5.63 21.95 2.20
5.62 23.92 2.39
5.14 24.03 2.39
4.66 24.12 2.39
4.17 24.21 2.39
3.69 24.29 2.39
3.20 24.35 2.39
2.71 24.41 2.39
2.31 25.51 2.49
1.80 25.55 2.49
1.29 25.58 2.49
0.77 25.60 2.49
0.26 25.61 2.49
-0.26 25.61 2.49
-0.77 25.59 2.49
-1.28 25.57 2.49
-1.80 25.54 2.49
-2.31 25.50 2.49
-2.82 25.44 2.49
-3.33 25.38 2.49
-3.84 25.31 2.49
-4.35 25.23 2.49
-4.85 25.13 2.49
-5.36 25.03 2.49
-5.65 24.03 2.41
-6.03 23.53 2.37
-6.54 23.54 2.38
-7.04 23.51 2.39
-7.51 23.36 2.39
-7.98 23.21 2.39
-8.45 23.04 2.39
-8.91 22.87 2.39
-9.36 22.69 2.39
-9.70 22.23 2.36
-9.73 21.12 2.27
-9.77 19.16 2.09
-9.84 14.62 1.72
-6.19 8.81 1.05
-9.87 12.40 1.54
-10.31 -12.69 1.56
-19.73 -29.98 3.41
-18.94 -30.07 3.38
-18.33 -30.44 3.37
-17.56 -30.54 3.35
-8.62 -15.71 1.70
-8.24 -15.76 1.69
-7.84 -15.76 1.67
-7.47 -15.79 1.66
-8.39 -18.70 1.94
-8.03 -18.92 1.95
-7.59 -18.93 1.93
-8.91 -23.59 2.39
-8.44 -23.77 2.39
-7.96 -23.94 2.39
-7.48 -24.10 2.39
-7.00 -24.25 2.39
-6.51 -24.38 2.39
-6.28 -25.57 2.49
-5.77 -25.69 2.49
-5.25 -25.81 2.49
-4.73 -25.91 2.49
-4.21 -26.00 2.49
-3.69 -26.09 2.49
-3.16 -26.16 2.49
-2.64 -26.22 2.49
-2.11 -26.27 2.49
-1.59 -26.31 2.49
-1.06 -26.34 2.49
-0.53 -26.36 2.49
0.00 -21.25 2.49
0.43 -21.24 2.49
0.85 -21.23 2.49
1.28 -21.21 2.49
1.64 -20.38 2.40
2.04 -20.27 2.39
2.45 -20.23 2.39
2.85 -20.17 2.39
3.26 -20.11 2.39
3.66 -20.04 2.39
4.06 -19.97 2.39
4.46 -19.88 2.39
4.86 -19.79 2.39
5.26 -19.69 2.39
5.62 -19.46 2.38
2.27 -7.31 0.90
2.37 -7.13 0.88
2.51 -7.06 0.88
2.06 -5.46 0.68
2.89 -7.20 0.91
7.45 -17.55 2.24
7.80 -17.40 2.24
8.19 -17.32 2.25
8.58 -17.24 2.26
8.96 -17.14 2.27
9.30 -16.95 2.27
9.64 -16.76 2.27
9.98 -16.57 2.27
10.32 -16.38 2.27
10.65 -16.19 2.28
10.98 -15.97 2.28
11.29 -15.73 2.27
11.59 -15.49 2.27
11.89 -15.25 2.27
12.19 -15.00 2.27
12.48 -14.74 2.27
12.78 -14.49 2.27
13.06 -14.23 2.27
13.34 -13.96 2.27
13.61 -13.68 2.27
13.88 -13.40 2.27
14.14 -13.11 2.27
14.39 -12.82 2.27
14.63 -12.52 2.26
14.85 -12.20 2.26
15.07 -11.88 2.26
15.19 -11.49 2.24
15.20 -11.02 2.21
15.21 -10.57 2.18
15.22 -10.13 2.15
15.23 -9.70 2.13
15.23 -9.28 2.10
15.24 -8.87 2.08
15.25 -8.47 2.05
15.25 -8.08 2.03
15.26 -7.69 2.01
15.27 -7.31 2.00
15.27 -6.94 1.98
15.28 -6.58 1.96
15.29 -6.22 1.95
15.29 -5.87 1.93
15.30 -5.52 1.92
15.40 -5.21 1.92
15.41 -4.87 1.91
16.98 -5.00 2.09
15.35 -4.18 1.88
17.01 -4.27 2.07
18.30 -4.21 2.22
18.37 -3.84 2.22
18.44 -3.47 2.22
18.71 -3.13 2.24
8.61 -1.26 1.03
8.63 -1.09 1.03
10.79 -1.14 1.28
14.00 -1.20 1.66
18.91 -1.24 2.24
18.92 -0.86 2.24
18.93 -0.48 2.24
18.40 -0.10 2.18
18.40 0.27 2.18
18.38 0.64 2.18
18.36 1.01 2.18
18.33 1.38 2.18
18.51 1.77 2.20
15.69 1.82 1.87
13.92 1.90 1.67
13.87 2.17 1.67
13.84 2.45 1.67
13.80 2.73 1.67
13.79 3.02 1.68
13.79 3.31 1.68
13.80 3.61 1.69
13.81 3.91 1.71
13.88 4.23 1.73
15.65 5.12 1.96
15.65 5.47 1.97
15.66 5.82 1.99
15.66 6.19 2.00
15.67 6.56 2.02
15.68 6.93 2.04
15.68 7.32 2.06
16.91 8.31 2.24
16.75 8.65 2.25
16.57 8.98 2.25
16.39 9.31 2.25
16.20 9.64 2.25
16.00 9.96 2.25
15.80 10.28 2.25
15.58 10.59 2.25
15.35 10.89 2.25
12.62 9.34 1.87
14.88 11.48 2.24
14.64 11.77 2.24
14.39 12.06 2.24
9.51 8.30 1.51
13.54 12.30 2.19
13.01 12.31 2.14
12.51 12.32 2.10
12.03 12.33 2.06
11.56 12.34 2.02
11.11 12.34 1.99
10.68 12.35 1.95
10.26 12.36 1.92
9.85 12.37 1.89
9.46 12.37 1.86
9.07 12.38 1.84
8.70 12.39 1.81
8.34 12.39 1.79
7.99 12.40 1.77
7.64 12.40 1.75
7.31 12.41 1.73
6.54 11.64 1.60
6.29 11.73 1.60
6.34 12.43 1.67
8.21 16.91 2.25
7.93 17.22 2.27
7.66 17.54 2.29
7.37 17.85 2.32
7.28 18.69 2.41
6.90 18.83 2.41
6.52 18.97 2.41
6.10 18.96 2.39
5.72 19.08 2.39
5.33 19.19 2.39
4.95 19.29 2.39
4.56 19.38 2.39
4.17 19.47 2.39
3.77 19.55 2.39
3.38 19.62 2.39
2.99 19.68 2.39
2.59 19.73 2.39
2.29 20.63 2.49
1.87 20.67 2.49
1.46 20.71 2.49
1.04 20.73 2.49
0.63 20.74 2.49
0.21 20.75 2.49
-0.21 20.75 2.49
-0.62 20.74 2.49
-1.04 20.72 2.49
-1.46 20.70 2.49
-1.87 20.66 2.49
-2.29 20.62 2.49
-2.70 20.57 2.49
-3.11 20.51 2.49
-3.52 20.45 2.49
-3.93 20.37 2.49
-4.34 20.29 2.49
-4.75 20.20 2.49
-5.15 20.10 2.49
-5.55 19.99 2.49
-5.74 19.14 2.40
-6.09 18.93 2.39
-6.14 17.85 2.27
-6.69 18.24 2.34
-7.22 18.53 2.39
-7.59 18.39 2.39
-7.96 18.23 2.39
-8.32 18.07 2.39
-8.68 17.90 2.39
-9.04 17.72 2.39
-9.40 17.54 2.39
-9.75 17.35 2.39
-11.42 19.40 2.71
-13.21 21.45 3.03
-13.66 21.21 3.03
-9.84 14.62 2.12
-6.19 8.81 1.29
-14.96 20.42 3.04
-15.36 20.10 3.04
-9.89 12.41 1.91
-16.14 19.45 3.04
-16.52 19.12 3.03
-16.90 18.78 3.03
-17.29 18.46 3.04
-17.69 18.14 3.04
-9.93 9.78 1.67
-18.47 17.47 3.05
-18.84 17.12 3.05
-9.95 8.33 1.56
-10.23 -8.07 1.54
-10.24 -8.41 1.57
-10.27 -9.92 1.69
-10.27 -10.33 1.72
-21.59 -22.60 3.69
-21.09 -22.98 3.68
-20.60 -23.37 3.68
-10.33 -12.20 1.88
-19.59 -24.10 3.66
-10.33 -13.25 1.98
-17.93 -23.97 3.53
-16.85 -23.49 3.41
-15.90 -23.13 3.31
-15.19 -23.09 3.26
-14.55 -23.11 3.22
-11.43 -18.98 2.61
-10.12 -17.61 2.39
-8.62 -15.71 2.11
-9.41 -18.00 2.39
-9.05 -18.19 2.39
-8.68 -18.37 2.39
-8.32 -18.55 2.39
-7.94 -18.71 2.39
-7.57 -18.87 2.39
-7.19 -19.02 2.39
-6.80 -19.16 2.39
-6.42 -19.30 2.39
-6.29 -20.27 2.49
-5.88 -20.39 2.49
-5.47 -20.51 2.49
-5.06 -20.61 2.49
-4.65 -20.71 2.49
-4.23 -20.81 2.49
-3.81 -20.89 2.49
-3.39 -20.96 2.49
-2.97 -21.03 2.49
-2.55 -21.09 2.49
-2.13 -21.13 2.49
-1.70 -21.17 2.49
-1.28 -21.21 2.49
-0.85 -21.23 2.49
-0.43 -21.24 2.49
0.00 -17.78 2.49
0.36 -17.78 2.49
0.71 -17.77 2.49
1.07 -17.75 2.49
1.43 -17.73 2.49
1.71 -16.96 2.39
2.05 -16.92 2.39
2.39 -16.88 2.39
2.73 -16.83 2.39
3.06 -16.77 2.39
3.40 -16.71 2.39
3.73 -16.63 2.39
4.07 -16.56 2.39
4.40 -16.47 2.39
4.59 -15.90 2.32
2.27 -7.30 1.07
2.37 -7.12 1.05
2.50 -7.05 1.05
2.06 -5.46 0.82
2.88 -7.19 1.09
6.67 -15.72 2.40
6.97 -15.55 2.39
7.27 -15.37 2.39
7.56 -15.19 2.38
7.84 -15.00 2.37
8.12 -14.80 2.37
8.40 -14.60 2.36
8.66 -14.38 2.36
8.91 -14.15 2.35
9.16 -13.92 2.34
9.40 -13.68 2.33
9.63 -13.43 2.32
9.86 -13.18 2.31
10.09 -12.93 2.30
10.31 -12.68 2.29
10.53 -12.43 2.29
10.74 -12.19 2.28
10.96 -11.94 2.28
5.71 -5.98 1.16
5.72 -5.75 1.14
5.72 -5.52 1.12
5.72 -5.31 1.10
5.73 -5.10 1.08
5.72 -4.89 1.06
5.73 -4.71 1.04
5.83 -4.60 1.04
5.83 -4.41 1.03
5.92 -4.29 1.03
13.14 -9.14 2.25
13.32 -8.87 2.25
13.50 -8.60 2.25
13.66 -8.32 2.25
13.83 -8.05 2.25
13.98 -7.77 2.25
14.13 -7.48 2.25
14.27 -7.19 2.25
14.41 -6.90 2.25
14.54 -6.61 2.25
14.66 -6.31 2.25
14.78 -6.02 2.25
14.89 -5.71 2.25
14.87 -5.37 2.23
14.96 -5.06 2.23
15.05 -4.76 2.22
15.13 -4.45 2.22
15.21 -4.15 2.22
15.29 -3.84 2.22
15.36 -3.53 2.22
15.42 -3.22 2.22
15.62 -2.94 2.24
7.18 -1.20 1.03
7.20 -1.06 1.03
8.71 -1.10 1.24
10.79 -1.14 1.53
13.99 -1.20 1.98
15.84 -1.04 2.24
15.86 -0.72 2.24
15.87 -0.40 2.24
15.35 -0.08 2.17
15.34 0.23 2.17
15.33 0.54 2.17
15.32 0.84 2.17
15.29 1.15 2.17
15.26 1.46 2.17
15.69 1.82 2.24
13.92 1.89 1.99
13.87 2.17 1.99
13.84 2.45 1.99
13.80 2.73 1.99
13.79 3.02 2.00
13.79 3.31 2.01
13.80 3.61 2.02
13.80 3.91 2.03
13.88 4.23 2.06
14.97 4.89 2.23
14.39 5.03 2.16
14.29 5.32 2.16
14.18 5.60 2.16
14.07 5.89 2.16
13.95 6.17 2.17
13.82 6.45 2.17
13.69 6.73 2.17
14.10 7.28 2.25
13.96 7.57 2.26
13.81 7.84 2.26
13.64 8.12 2.26
13.47 8.39 2.26
13.29 8.65 2.25
13.10 8.91 2.25
12.91 9.16 2.25
12.72 9.42 2.25
12.54 9.68 2.25
12.34 9.92 2.25
12.13 10.17 2.25
9.51 8.30 1.80
11.70 10.63 2.25
11.47 10.85 2.25
11.26 11.09 2.25
11.09 11.37 2.26
10.92 11.65 2.28
10.75 11.94 2.29
10.58 12.24 2.31
10.26 12.36 2.29
9.85 12.37 2.25
9.46 12.37 2.22
9.07 12.38 2.19
8.69 12.37 2.16
8.34 12.39 2.13
7.99 12.40 2.10
7.64 12.40 2.08
7.31 12.41 2.06
6.54 11.63 1.90
6.28 11.72 1.90
6.34 12.43 1.99
6.94 14.30 2.27
6.70 14.54 2.29
6.45 14.78 2.30
6.43 15.57 2.41
6.07 15.59 2.39
5.76 15.71 2.39
5.44 15.82 2.39
5.12 15.92 2.39
4.80 16.02 2.39
4.48 16.11 2.39
4.15 16.20 2.39
3.83 16.28 2.39
3.50 16.35 2.39
3.17 16.42 2.39
2.84 16.47 2.39
2.51 16.53 2.39
2.27 17.29 2.49
1.92 17.33 2.49
1.57 17.36 2.49
1.22 17.39 2.49
0.88 17.41 2.49
0.53 17.42 2.49
0.18 17.43 2.49
-0.17 17.43 2.49
-0.52 17.42 2.49
-0.87 17.41 2.49
-1.22 17.38 2.49
-1.57 17.36 2.49
-1.92 17.32 2.49
-2.27 17.28 2.49
-2.61 17.23 2.49
-2.96 17.17 2.49
-3.30 17.11 2.49
-3.65 17.04 2.49
-3.99 16.96 2.49
-4.33 16.88 2.49
-4.66 16.79 2.49
-5.00 16.69 2.49
-5.34 16.59 2.49
-5.67 16.48 2.49
-5.79 15.80 2.41
-6.06 15.57 2.39
-6.37 15.44 2.39
-6.68 15.31 2.39
-6.99 15.18 2.39
-7.29 15.03 2.39
-7.59 14.88 2.39
-7.89 14.73 2.39
-8.19 14.57 2.39
-8.48 14.40 2.39
-8.77 14.23 2.39
-9.05 14.05 2.39
-9.33 13.87 2.39
-6.17 8.78 1.54
-10.74 14.65 2.60
-10.79 14.12 2.54
-9.88 12.41 2.27
-12.92 15.57 2.89
-13.39 15.49 2.93
-13.81 15.35 2.95
-14.25 15.20 2.98
-14.68 15.05 3.01
-15.10 14.88 3.03
-9.93 9.40 1.95
-15.72 14.28 3.03
-16.01 13.97 3.04
-16.29 13.65 3.04
-16.57 13.33 3.04
-16.84 13.00 3.04
-17.11 12.67 3.04
-17.39 12.34 3.04
-17.67 12.01 3.05
-17.96 11.69 3.06
-18.24 11.36 3.07
-18.52 11.02 3.07
-18.79 10.68 3.08
-10.00 5.42 1.62
-19.60 10.12 3.15
-20.54 10.09 3.26
-10.01 4.67 1.57
-10.01 4.43 1.56
-10.02 4.19 1.55
-10.04 3.97 1.54
-10.16 -3.90 1.54
-10.16 -4.14 1.55
-10.17 -4.38 1.57
-17.13 -7.79 2.66
-16.97 -8.13 2.66
-10.19 -5.14 1.61
-17.19 -9.10 2.75
-17.30 -9.61 2.80
-17.20 -10.01 2.81
-16.61 -10.12 2.75
-16.04 -10.22 2.69
-10.21 -6.80 1.73
-15.46 -10.74 2.66
-15.36 -11.14 2.68
-15.25 -11.54 2.70
-15.14 -11.94 2.72
-10.24 -8.41 1.87
-15.20 -13.01 2.82
-15.28 -13.62 2.89
-10.27 -9.52 1.97
-15.26 -14.74 2.99
-10.27 -10.33 2.05
-10.29 -10.77 2.10
-14.84 -16.17 3.09
-14.66 -16.63 3.12
-10.31 -12.18 2.25
-14.07 -17.32 3.14
-11.40 -14.62 2.61
-10.18 -13.60 2.39
-9.90 -13.81 2.39
-9.62 -14.00 2.39
-9.34 -14.20 2.39
-9.06 -14.38 2.39
-8.77 -14.57 2.39
-8.47 -14.74 2.39
-8.18 -14.91 2.39
-7.88 -15.07 2.39
-7.58 -15.23 2.39
-7.27 -15.38 2.39
-6.96 -15.53 2.39
-6.65 -15.66 2.39
-6.35 -15.83 2.40
-6.27 -16.61 2.49
-5.94 -16.73 2.49
-5.60 -16.85 2.49
-5.27 -16.96 2.49
-4.92 -17.07 2.49
-4.58 -17.16 2.49
-4.24 -17.25 2.49
-3.89 -17.34 2.49
-3.54 -17.41 2.49
-3.19 -17.48 2.49
-2.84 -17.54 2.49
-2.49 -17.60 2.49
-2.13 -17.65 2.49
-1.78 -17.69 2.49
-1.42 -17.72 2.49
-1.07 -17.75 2.49
-0.71 -17.76 2.49
-0.36 -17.78 2.49
0.00 -15.27 2.49
0.31 -15.27 2.49
0.61 -15.26 2.49
0.92 -15.25 2.49
1.23 -15.22 2.49
1.53 -15.20 2.49
1.76 -14.54 2.39
2.05 -14.50 2.39
2.34 -14.45 2.39
2.63 -14.40 2.39
2.92 -14.35 2.39
3.21 -14.29 2.39
3.49 -14.22 2.39
3.78 -14.15 2.39
4.06 -14.07 2.39
2.27 -7.30 1.25
2.37 -7.12 1.23
2.50 -7.05 1.22
2.06 -5.46 0.95
2.88 -7.19 1.27
5.72 -13.48 2.39
6.07 -13.53 2.42
6.33 -13.40 2.42
6.60 -13.26 2.42
6.86 -13.11 2.42
7.09 -12.93 2.41
7.33 -12.75 2.40
7.56 -12.56 2.40
7.81 -12.40 2.39
8.05 -12.23 2.39
8.29 -12.06 2.39
8.52 -11.88 2.39
8.75 -11.70 2.39
8.97 -11.50 2.38
9.18 -11.29 2.38
9.38 -11.08 2.37
5.43 -6.16 1.34
5.51 -6.01 1.33
5.71 -5.98 1.35
5.72 -5.75 1.33
5.72 -5.52 1.30
5.72 -5.31 1.28
5.73 -5.10 1.25
5.73 -4.90 1.23
5.73 -4.71 1.21
5.74 -4.52 1.20
5.74 -4.34 1.18
5.74 -4.17 1.16
5.74 -3.99 1.14
5.74 -3.82 1.13
5.73 -3.65 1.11
5.72 -3.48 1.10
5.71 -3.32 1.08
5.70 -3.17 1.07
5.69 -3.01 1.05
5.68 -2.87 1.04
5.74 -2.75 1.04
5.80 -2.64 1.04
5.85 -2.52 1.04
5.81 -2.36 1.03
5.85 -2.25 1.03
5.99 -2.16 1.04
6.03 -2.04 1.04
5.97 -1.89 1.03
6.01 -1.77 1.03
6.14 -1.67 1.04
6.17 -1.55 1.04
6.24 -1.43 1.05
6.38 -1.33 1.07
6.55 -1.23 1.09
6.76 -1.13 1.12
7.09 -1.04 1.18
8.71 -1.10 1.44
10.78 -1.14 1.78
13.60 -1.17 2.24
13.62 -0.89 2.24
13.63 -0.62 2.24
13.01 -0.33 2.14
13.02 -0.07 2.14
13.01 0.19 2.14
13.01 0.45 2.14
12.99 0.72 2.14
12.98 0.98 2.14
12.95 1.24 2.14
12.93 1.50 2.14
13.55 1.84 2.25
13.51 2.12 2.25
13.47 2.39 2.25
13.43 2.66 2.25
13.38 2.93 2.26
13.32 3.20 2.26
13.26 3.47 2.26
13.18 3.73 2.26
13.09 3.99 2.26
13.00 4.25 2.26
12.90 4.51 2.25
12.80 4.76 2.25
12.48 4.93 2.21
12.11 5.07 2.17
12.02 5.31 2.17
11.92 5.56 2.17
11.82 5.80 2.17
11.71 6.05 2.18
11.60 6.29 2.18
11.49 6.53 2.18
11.37 6.77 2.19
11.25 7.00 2.19
11.42 7.43 2.25
11.26 7.66 2.25
11.15 7.91 2.26
11.03 8.17 2.27
10.92 8.43 2.28
10.80 8.68 2.29
10.67 8.94 2.30
9.52 8.31 2.09
10.41 9.46 2.33
10.27 9.71 2.34
10.12 9.96 2.35
9.96 10.21 2.36
8.88 9.48 2.15
8.89 9.88 2.20
9.48 10.96 2.40
9.31 11.21 2.41
9.09 11.41 2.42
8.85 11.58 2.41
8.62 11.75 2.41
8.38 11.92 2.41
8.13 12.08 2.41
7.88 12.24 2.41
7.63 12.39 2.41
7.31 12.41 2.39
6.55 11.66 2.22
6.29 11.74 2.21
6.34 12.43 2.31
6.34 13.06 2.41
6.03 13.09 2.39
5.77 13.21 2.39
5.50 13.32 2.39
5.23 13.43 2.39
4.96 13.53 2.39
4.69 13.62 2.39
4.41 13.71 2.39
4.13 13.80 2.39
3.86 13.88 2.39
3.58 13.95 2.39
3.30 14.02 2.39
3.01 14.08 2.39
2.73 14.14 2.39
2.45 14.20 2.39
2.24 14.79 2.48
1.95 14.89 2.49
1.66 14.92 2.49
1.36 14.95 2.49
1.05 14.98 2.49
0.75 14.99 2.49
0.45 15.00 2.49
0.15 15.01 2.49
-0.15 15.01 2.49
-0.45 15.00 2.49
-0.75 14.99 2.49
-1.05 14.97 2.49
-1.35 14.95 2.49
-1.65 14.92 2.49
-1.95 14.88 2.49
-2.25 14.84 2.49
-2.55 14.79 2.49
-2.84 14.74 2.49
-3.14 14.68 2.49
-3.43 14.61 2.49
-3.73 14.54 2.49
-4.02 14.46 2.49
-4.31 14.38 2.49
-4.59 14.29 2.49
-4.88 14.19 2.49
-5.17 14.09 2.49
-5.45 13.99 2.49
-5.73 13.87 2.49
-5.83 13.36 2.42
-6.03 13.08 2.39
-6.28 12.95 2.39
-6.54 12.82 2.39
-6.80 12.69 2.39
-7.05 12.55 2.39
-7.30 12.40 2.39
-7.55 12.26 2.39
-7.79 12.10 2.39
-8.04 11.94 2.39
-6.17 8.78 1.78
-8.51 11.61 2.39
-8.74 11.44 2.39
-8.97 11.26 2.39
-9.20 11.08 2.39
-9.42 10.90 2.39
-9.64 10.71 2.39
-9.85 10.51 2.39
-10.88 11.16 2.59
-11.56 11.39 2.69
-9.93 9.40 2.27
-13.32 12.10 2.99
-9.95 8.68 2.19
-13.89 11.64 3.01
-14.18 11.40 3.02
-14.45 11.15 3.03
-9.97 7.38 2.06
-14.99 10.64 3.05
-15.24 10.36 3.06
-15.45 10.05 3.06
-10.01 6.23 1.95
-15.80 9.40 3.05
-15.98 9.08 3.05
-10.00 5.42 1.88
-16.33 8.43 3.04
-16.50 8.10 3.05
-10.02 4.67 1.83
-16.91 7.48 3.06
-17.10 7.16 3.07
-10.02 3.96 1.78
-17.58 6.54 3.10
-17.83 6.23 3.13
-18.01 5.89 3.14
-18.16 5.54 3.14
-18.30 5.18 3.15
-18.09 4.73 3.09
-10.05 2.41 1.71
-17.60 3.85 2.98
-17.78 3.52 3.00
-18.01 3.19 3.02
-18.23 2.86 3.05
-18.45 2.51 3.08
-10.08 1.17 1.68
-18.74 1.79 3.11
-18.77 1.41 3.11
-18.79 1.03 3.11
-18.80 0.66 3.11
-18.88 0.28 3.12
-18.98 -0.10 3.13
-19.10 -0.48 3.15
-19.21 -0.87 3.17
-10.10 -0.66 1.67
-19.42 -1.67 3.21
-19.04 -2.41 3.16
-18.42 -2.70 3.07
-18.27 -3.06 3.05
-18.35 -3.45 3.08
-18.42 -3.85 3.10
-18.32 -4.21 3.10
-10.14 -2.55 1.72
-17.64 -4.81 3.01
-17.14 -5.05 2.94
-16.68 -5.28 2.88
-16.66 -5.64 2.90
-16.67 -6.02 2.92
-16.48 -6.33 2.90
-16.25 -6.62 2.89
-16.06 -6.92 2.88
-10.18 -4.63 1.84
-15.74 -7.54 2.87
-15.57 -7.85 2.87
-15.39 -8.15 2.86
-15.13 -8.41 2.84
-10.21 -5.94 1.94
-14.62 -8.91 2.81
-14.38 -9.16 2.80
-10.21 -6.80 2.01
-14.13 -9.82 2.83
-14.00 -10.15 2.84
-13.89 -10.50 2.86
-13.79 -10.87 2.88
-10.24 -8.41 2.17
-13.58 -11.62 2.93
-10.26 -9.14 2.25
-12.62 -11.71 2.82
-11.87 -11.47 2.71
-10.27 -10.33 2.39
-10.08 -10.55 2.39
-9.86 -10.75 2.39
-9.65 -10.94 2.39
-9.43 -11.14 2.39
-9.20 -11.33 2.39
-8.98 -11.51 2.39
-8.74 -11.69 2.39
-8.51 -11.86 2.39
-8.27 -12.03 2.39
-8.03 -12.20 2.39
-7.78 -12.36 2.39
-7.53 -12.52 2.39
-7.28 -12.67 2.39
-7.03 -12.81 2.39
-6.77 -12.95 2.39
-6.51 -13.09 2.39
-6.30 -13.33 2.41
-6.24 -13.91 2.49
-5.96 -14.04 2.49
-5.67 -14.16 2.49
-5.39 -14.27 2.49
-5.10 -14.37 2.49
-4.81 -14.48 2.49
-4.52 -14.57 2.49
-4.23 -14.66 2.49
-3.94 -14.74 2.49
-3.64 -14.82 2.49
-3.34 -14.89 2.49
-3.04 -14.96 2.49
-2.74 -15.02 2.49
-2.44 -15.07 2.49
-2.14 -15.12 2.49
-1.83 -15.16 2.49
-1.53 -15.19 2.49
-1.22 -15.22 2.49
-0.92 -15.24 2.49
-0.61 -15.26 2.49
-0.31 -15.27 2.49
0.00 -13.37 2.49
0.27 -13.37 2.49
0.54 -13.36 2.49
0.81 -13.35 2.49
1.07 -13.33 2.49
1.34 -13.31 2.49
1.61 -13.28 2.49
1.80 -12.69 2.39
2.05 -12.66 2.39
2.30 -12.61 2.39
2.56 -12.56 2.39
2.81 -12.51 2.39
3.06 -12.45 2.39
3.31 -12.39 2.39
3.56 -12.32 2.39
2.27 -7.30 1.43
2.37 -7.12 1.40
2.50 -7.05 1.40
2.06 -5.46 1.09
2.87 -7.16 1.44
4.96 -11.68 2.37
5.24 -11.69 2.39
5.48 -11.59 2.39
5.71 -11.48 2.39
6.02 -11.51 2.42
6.25 -11.39 2.42
6.47 -11.26 2.42
6.70 -11.12 2.42
6.92 -10.99 2.42
7.14 -10.85 2.42
7.36 -10.71 2.42
7.57 -10.56 2.43
7.78 -10.40 2.42
7.98 -10.23 2.42
4.99 -6.15 1.48
4.99 -5.89 1.44
5.05 -5.73 1.43
5.27 -5.74 1.45
5.71 -5.98 1.54
5.72 -5.75 1.51
5.72 -5.52 1.48
5.72 -5.31 1.46
5.73 -5.10 1.43
5.73 -4.90 1.41
5.73 -4.71 1.39
5.74 -4.52 1.36
5.74 -4.34 1.34
5.74 -4.17 1.33
5.74 -3.99 1.31
5.74 -3.82 1.29
5.73 -3.65 1.27
5.72 -3.48 1.25
5.71 -3.32 1.24
5.70 -3.17 1.22
5.70 -3.02 1.21
5.70 -2.87 1.19
5.70 -2.73 1.18
5.71 -2.60 1.17
5.72 -2.46 1.16
5.74 -2.34 1.16
5.77 -2.21 1.16
5.81 -2.10 1.16
5.85 -1.98 1.16
5.91 -1.87 1.16
5.98 -1.76 1.17
6.05 -1.65 1.17
6.14 -1.54 1.19
6.25 -1.44 1.20
6.38 -1.33 1.22
6.55 -1.23 1.25
6.76 -1.13 1.28
7.09 -1.04 1.34
8.70 -1.10 1.64
10.78 -1.14 2.03
11.93 -1.02 2.25
11.95 -0.78 2.25
11.97 -0.54 2.25
11.52 -0.29 2.16
11.52 -0.06 2.16
11.52 0.17 2.16
11.51 0.40 2.16
11.50 0.63 2.16
11.49 0.86 2.16
11.47 1.09 2.16
11.45 1.32 2.16
11.42 1.55 2.16
11.84 1.85 2.25
11.81 2.09 2.25
11.76 2.33 2.25
11.71 2.56 2.25
11.65 2.80 2.25
11.59 3.03 2.25
11.53 3.26 2.25
11.45 3.49 2.25
11.38 3.72 2.25
11.30 3.94 2.25
11.21 4.17 2.25
11.14 4.40 2.25
11.07 4.63 2.26
11.00 4.86 2.26
10.65 4.97 2.21
10.52 5.17 2.21
10.44 5.39 2.21
10.34 5.60 2.22
10.25 5.82 2.22
10.14 6.04 2.22
10.04 6.25 2.23
9.93 6.46 2.23
9.82 6.67 2.24
9.70 6.88 2.24
10.01 7.41 2.35
9.90 7.64 2.36
9.79 7.87 2.37
9.67 8.10 2.38
9.55 8.33 2.39
9.42 8.56 2.40
9.29 8.79 2.41
9.13 8.99 2.42
8.95 9.17 2.42
8.76 9.35 2.42
8.57 9.52 2.42
8.38 9.69 2.42
8.18 9.85 2.42
7.97 10.01 2.42
7.76 10.16 2.42
7.56 10.31 2.41
7.35 10.46 2.41
7.13 10.60 2.41
6.92 10.74 2.41
6.70 10.87 2.41
6.47 11.00 2.41
6.20 11.03 2.39
5.97 11.15 2.39
5.75 11.26 2.39
5.52 11.37 2.39
5.29 11.48 2.39
5.06 11.58 2.39
4.82 11.68 2.39
4.59 11.78 2.39
4.35 11.87 2.39
4.11 11.95 2.39
3.87 12.03 2.39
3.63 12.10 2.39
3.38 12.17 2.39
3.14 12.24 2.39
2.89 12.30 2.39
2.64 12.35 2.39
2.41 12.49 2.41
2.21 12.82 2.46
1.98 13.02 2.49
1.72 13.06 2.49
1.45 13.09 2.49
1.19 13.12 2.49
0.93 13.14 2.49
0.66 13.15 2.49
0.40 13.16 2.49
0.13 13.17 2.49
-0.13 13.17 2.49
-0.40 13.16 2.49
-0.66 13.15 2.49
-0.92 13.14 2.49
-1.19 13.11 2.49
-1.45 13.09 2.49
-1.71 13.06 2.49
-1.97 13.02 2.49
-2.24 12.98 2.49
-2.50 12.93 2.49
-2.75 12.88 2.49
-3.01 12.82 2.49
-3.27 12.75 2.49
-3.52 12.69 2.49
-3.78 12.61 2.49
-4.03 12.53 2.49
-4.28 12.45 2.49
-4.53 12.36 2.49
-4.78 12.27 2.49
-5.02 12.17 2.49
-5.27 12.07 2.49
-5.51 11.96 2.49
-5.75 11.85 2.49
-5.86 11.49 2.44
-5.96 11.13 2.39
-6.19 11.01 2.39
-6.41 10.88 2.39
-6.62 10.75 2.39
-6.84 10.62 2.39
-7.05 10.48 2.39
-6.17 8.78 2.03
-7.47 10.19 2.39
-7.67 10.04 2.39
-7.87 9.88 2.39
-8.07 9.72 2.39
-8.26 9.56 2.39
-8.45 9.39 2.39
-8.64 9.22 2.39
-8.82 9.05 2.39
-9.00 8.87 2.39
-9.18 8.69 2.39
-9.35 8.50 2.39
-9.52 8.31 2.39
-9.69 8.12 2.39
-9.85 7.92 2.39
-11.05 8.53 2.64
-12.44 9.20 2.93
-13.23 9.39 3.07
-13.43 9.13 3.07
-9.99 6.50 2.25
-13.82 8.60 3.08
-14.01 8.33 3.08
-14.18 8.06 3.08
-10.00 5.42 2.15
-10.01 5.17 2.13
-14.62 7.18 3.08
-14.76 6.88 3.08
-14.89 6.58 3.07
-15.01 6.28 3.07
-10.02 3.96 2.03
-15.29 5.69 3.08
-15.40 5.38 3.08
-15.52 5.07 3.08
-15.62 4.76 3.08
-15.73 4.45 3.08
-15.83 4.14 3.09
-10.05 2.41 1.95
-16.11 3.53 3.11
-16.26 3.22 3.13
-16.39 2.90 3.14
-16.46 2.58 3.14
-16.53 2.25 3.14
-16.61 1.92 3.15
-16.72 1.60 3.17
-16.83 1.27 3.18
-16.94 0.93 3.20
-17.04 0.59 3.21
-17.13 0.25 3.23
-16.68 -0.09 3.14
-16.08 -0.41 3.03
-15.91 -0.72 3.00
-10.10 -0.66 1.91
-16.05 -1.38 3.03
-16.12 -1.71 3.05
-16.18 -2.05 3.07
-10.12 -1.49 1.92
-16.26 -2.72 3.10
-16.13 -3.03 3.09
-15.77 -3.30 3.03
-15.42 -3.55 2.97
-15.07 -3.79 2.92
-15.05 -4.11 2.93
-15.06 -4.43 2.95
-15.06 -4.77 2.97
-15.06 -5.10 2.99
-15.05 -5.43 3.00
-15.02 -5.77 3.02
-10.18 -4.14 2.06
-14.69 -6.33 3.00
-14.45 -6.57 2.98
-14.22 -6.82 2.96
-14.05 -7.08 2.95
-13.89 -7.36 2.95
-13.73 -7.63 2.95
-13.56 -7.89 2.94
-13.22 -8.06 2.90
-10.21 -6.51 2.27
-10.21 -6.80 2.30
-11.35 -7.89 2.59
-11.25 -8.16 2.60
-10.18 -7.70 2.39
-10.02 -7.90 2.39
-9.86 -8.10 2.39
-9.70 -8.30 2.39
-9.53 -8.50 2.39
-9.36 -8.69 2.39
-9.19 -8.87 2.39
-9.01 -9.06 2.39
-8.83 -9.24 2.39
-8.64 -9.41 2.39
-8.45 -9.59 2.39
-8.26 -9.76 2.39
-8.06 -9.92 2.39
-7.86 -10.08 2.39
-7.66 -10.24 2.39
-7.45 -10.39 2.39
-7.24 -10.54 2.39
-7.03 -10.68 2.39
-6.82 -10.83 2.39
-6.60 -10.96 2.39
-6.38 -11.09 2.39
-6.26 -11.42 2.43
-6.18 -11.83 2.49
-5.95 -11.95 2.49
-5.70 -12.07 2.49
-5.46 -12.18 2.49
-5.22 -12.29 2.49
-4.97 -12.40 2.49
-4.72 -12.49 2.49
-4.47 -12.59 2.49
-4.22 -12.68 2.49
-3.96 -12.76 2.49
-3.70 -12.84 2.49
-3.45 -12.91 2.49
-3.19 -12.98 2.49
-2.93 -13.04 2.49
-2.66 -13.10 2.49
-2.40 -13.15 2.49
-2.14 -13.19 2.49
-1.87 -13.24 2.49
-1.61 -13.27 2.49
-1.34 -13.30 2.49
-1.07 -13.33 2.49
-0.80 -13.35 2.49
-0.54 -13.36 2.49
-0.27 -13.37 2.49
0.00 -11.88 2.49
0.24 -11.88 2.49
0.48 -11.87 2.49
0.72 -11.86 2.49
0.95 -11.84 2.49
1.19 -11.82 2.49
1.43 -11.80 2.49
1.66 -11.77 2.49
1.82 -11.24 2.39
2.05 -11.21 2.39
2.27 -11.16 2.39
2.49 -11.11 2.39
2.72 -11.06 2.39
2.94 -11.01 2.39
3.16 -10.94 2.39
2.27 -7.30 1.60
2.37 -7.12 1.58
2.50 -7.05 1.57
2.06 -5.46 1.22
2.88 -7.19 1.63
4.45 -10.48 2.39
4.66 -10.39 2.39
4.87 -10.30 2.39
5.07 -10.20 2.39
5.28 -10.09 2.39
5.48 -9.98 2.39
5.68 -9.87 2.39
5.94 -9.86 2.42
6.13 -9.74 2.42
6.19 -9.41 2.37
6.37 -9.26 2.36
6.54 -9.12 2.36
6.71 -8.96 2.35
6.87 -8.81 2.35
5.00 -6.16 1.67
4.99 -5.90 1.62
5.06 -5.74 1.61
5.28 -5.75 1.64
5.71 -5.98 1.74
5.72 -5.75 1.70
5.72 -5.52 1.67
5.72 -5.31 1.64
5.73 -5.10 1.61
5.73 -4.90 1.59
5.73 -4.71 1.56
5.74 -4.52 1.54
5.74 -4.34 1.51
5.74 -4.17 1.49
5.74 -3.99 1.47
5.74 -3.82 1.45
5.73 -3.65 1.43
5.72 -3.48 1.41
5.71 -3.32 1.39
5.70 -3.17 1.37
5.70 -3.02 1.36
5.70 -2.87 1.34
5.70 -2.73 1.33
5.71 -2.60 1.32
5.72 -2.46 1.31
5.74 -2.34 1.30
5.77 -2.22 1.30
5.81 -2.10 1.30
5.85 -1.98 1.30
5.91 -1.87 1.31
5.98 -1.76 1.31
6.05 -1.65 1.32
6.14 -1.54 1.33
6.25 -1.44 1.35
6.38 -1.33 1.37
6.55 -1.23 1.40
6.76 -1.13 1.44
7.09 -1.04 1.51
8.70 -1.10 1.85
10.60 -1.12 2.25
10.62 -0.91 2.25
10.64 -0.70 2.25
10.66 -0.48 2.25
10.26 -0.26 2.16
10.26 -0.05 2.17
10.26 0.15 2.17
10.25 0.36 2.17
10.25 0.56 2.17
10.23 0.77 2.17
10.22 0.97 2.17
10.20 1.18 2.17
10.18 1.38 2.17
10.15 1.59 2.17
10.12 1.79 2.17
10.57 2.09 2.28
10.53 2.31 2.28
10.49 2.52 2.28
10.45 2.73 2.28
10.41 2.95 2.29
10.39 3.17 2.30
10.36 3.39 2.31
10.33 3.61 2.31
10.28 3.82 2.32
10.22 4.03 2.32
10.15 4.25 2.33
10.09 4.46 2.33
10.02 4.67 2.34
9.95 4.88 2.35
9.66 4.98 2.30
9.36 5.07 2.25
9.27 5.26 2.26
9.17 5.46 2.26
9.08 5.65 2.27
8.98 5.84 2.27
8.87 6.03 2.27
8.77 6.22 2.28
8.66 6.41 2.28
8.54 6.59 2.29
8.43 6.77 2.29
8.30 6.96 2.30
8.58 7.48 2.41
8.42 7.65 2.41
8.26 7.81 2.41
8.10 7.97 2.41
7.94 8.13 2.41
7.77 8.29 2.41
7.60 8.44 2.41
7.43 8.59 2.41
7.25 8.74 2.41
7.08 8.89 2.41
6.90 9.03 2.41
6.72 9.17 2.41
6.54 9.30 2.41
6.34 9.42 2.41
6.10 9.46 2.39
5.90 9.58 2.39
5.71 9.70 2.39
5.51 9.81 2.39
5.32 9.92 2.39
5.11 10.02 2.39
4.91 10.12 2.39
4.71 10.22 2.39
4.50 10.31 2.39
4.29 10.40 2.39
4.08 10.48 2.39
3.87 10.56 2.39
3.66 10.63 2.39
3.44 10.70 2.39
3.23 10.77 2.39
3.01 10.83 2.39
2.79 10.89 2.39
2.57 10.94 2.39
2.35 10.99 2.39
2.18 11.30 2.45
1.99 11.55 2.49
1.76 11.59 2.49
1.53 11.62 2.49
1.29 11.65 2.49
1.06 11.67 2.49
0.82 11.69 2.49
0.59 11.71 2.49
0.35 11.71 2.49
0.12 11.72 2.49
-0.12 11.72 2.49
-0.35 11.71 2.49
-0.59 11.70 2.49
-0.82 11.69 2.49
-1.06 11.67 2.49
-1.29 11.65 2.49
-1.52 11.62 2.49
-1.76 11.59 2.49
-1.99 11.55 2.49
-2.22 11.51 2.49
-2.45 11.46 2.49
-2.68 11.41 2.49
-2.91 11.35 2.49
-3.14 11.29 2.49
-3.36 11.22 2.49
-3.59 11.15 2.49
-3.81 11.08 2.49
-4.03 11.00 2.49
-4.25 10.92 2.49
-4.47 10.83 2.49
-4.69 10.74 2.49
-4.90 10.64 2.49
-5.12 10.54 2.49
-5.33 10.44 2.49
-5.54 10.33 2.49
-5.74 10.22 2.49
-5.89 10.00 2.47
-5.90 9.58 2.40
-6.09 9.45 2.39
-6.27 9.32 2.39
-6.17 8.78 2.28
-6.64 9.07 2.39
-6.82 8.93 2.39
-7.00 8.79 2.39
-7.18 8.65 2.39
-7.35 8.51 2.39
-7.52 8.36 2.39
-7.69 8.20 2.39
-7.85 8.05 2.39
-8.01 7.89 2.39
-8.17 7.73 2.39
-8.32 7.56 2.39
-8.48 7.40 2.39
-8.62 7.22 2.39
-8.77 7.05 2.39
-8.91 6.87 2.39
-9.04 6.69 2.39
-9.18 6.51 2.39
-9.31 6.33 2.39
-9.43 6.14 2.39
-9.56 5.95 2.39
-9.67 5.76 2.39
-9.79 5.56 2.39
-9.90 5.36 2.39
-10.85 5.60 2.59
-11.06 5.43 2.62
-11.37 5.30 2.66
-11.77 5.21 2.73
-13.15 5.50 3.03
-10.02 3.96 2.29
-10.03 3.73 2.27
-10.04 3.51 2.26
-13.61 4.45 3.04
-13.70 4.17 3.04
-13.80 3.91 3.04
-13.93 3.64 3.05
-10.05 2.41 2.19
-10.06 2.20 2.18
-14.25 2.82 3.08
-14.31 2.53 3.08
-14.35 2.25 3.08
-14.36 1.95 3.07
-14.20 1.64 3.03
-14.04 1.34 2.99
-14.00 1.05 2.97
-13.99 0.77 2.97
-13.98 0.49 2.96
-13.96 0.21 2.96
-13.95 -0.07 2.95
-14.06 -0.36 2.98
-14.16 -0.64 3.00
-10.10 -0.66 2.14
-14.24 -1.22 3.02
-14.20 -1.51 3.02
-14.15 -1.79 3.02
-14.08 -2.07 3.01
-13.79 -2.31 2.96
-13.67 -2.57 2.94
-13.66 -2.86 2.95
-10.14 -2.33 2.20
-13.64 -3.43 2.97
-13.62 -3.71 2.98
-13.59 -4.00 2.99
-10.17 -3.22 2.25
-10.16 -3.44 2.27
-13.40 -4.84 3.01
-11.31 -4.34 2.56
-11.27 -4.59 2.57
-11.24 -4.84 2.58
-11.20 -5.09 2.60
-11.16 -5.35 2.61
-10.12 -5.10 2.39
-10.01 -5.30 2.39
-9.91 -5.50 2.39
-9.80 -5.70 2.39
-9.68 -5.90 2.39
-9.56 -6.09 2.39
-9.44 -6.28 2.39
-9.31 -6.47 2.39
-9.18 -6.66 2.39
-9.05 -6.84 2.39
-8.91 -7.03 2.39
-8.77 -7.20 2.39
-8.62 -7.38 2.39
-8.47 -7.55 2.39
-8.32 -7.72 2.39
-8.17 -7.89 2.39
-8.01 -8.05 2.39
-7.84 -8.21 2.39
-7.68 -8.37 2.39
-7.15 -8.11 2.28
-7.03 -8.31 2.29
-6.80 -8.37 2.27
-6.63 -8.50 2.27
-6.81 -9.10 2.39
-6.62 -9.24 2.39
-6.44 -9.37 2.39
-6.25 -9.50 2.39
-6.23 -9.90 2.46
-6.12 -10.16 2.49
-5.91 -10.28 2.49
-5.70 -10.40 2.49
-5.49 -10.51 2.49
-5.28 -10.62 2.49
-5.07 -10.73 2.49
-4.85 -10.83 2.49
-4.64 -10.92 2.49
-4.42 -11.02 2.49
-4.19 -11.10 2.49
-3.97 -11.19 2.49
-3.75 -11.26 2.49
-3.52 -11.34 2.49
-3.29 -11.41 2.49
-3.06 -11.47 2.49
-2.83 -11.53 2.49
-2.60 -11.59 2.49
-2.37 -11.64 2.49
-2.13 -11.68 2.49
-1.90 -11.72 2.49
-1.66 -11.76 2.49
-1.43 -11.79 2.49
-1.19 -11.82 2.49
-0.95 -11.84 2.49
-0.71 -11.86 2.49
-0.48 -11.87 2.49
-0.24 -11.88 2.49
0.00 -10.68 2.49
0.22 -10.68 2.49
0.43 -10.67 2.49
0.64 -10.66 2.49
0.86 -10.65 2.49
1.07 -10.63 2.49
1.28 -10.60 2.49
1.50 -10.58 2.49
1.71 -10.54 2.49
1.84 -10.07 2.39
2.04 -10.03 2.39
2.24 -9.99 2.39
2.44 -9.94 2.39
2.64 -9.89 2.39
2.84 -9.84 2.39
2.27 -7.30 1.78
2.37 -7.12 1.75
1.96 -5.52 1.37
2.05 -5.43 1.36
2.88 -7.19 1.81
4.00 -9.42 2.39
4.19 -9.34 2.39
4.37 -9.26 2.39
4.56 -9.17 2.39
4.74 -9.07 2.39
4.92 -8.97 2.39
5.10 -8.87 2.39
5.28 -8.77 2.39
5.45 -8.66 2.39
5.63 -8.55 2.39
5.76 -8.39 2.38
5.92 -8.25 2.37
6.07 -8.12 2.37
6.22 -7.98 2.36
5.01 -6.16 1.86
5.00 -5.90 1.81
5.07 -5.75 1.79
5.29 -5.76 1.83
5.71 -5.98 1.93
5.72 -5.75 1.89
5.72 -5.52 1.86
5.72 -5.31 1.83
5.73 -5.10 1.79
5.73 -4.90 1.76
5.73 -4.71 1.74
5.74 -4.52 1.71
5.74 -4.34 1.68
5.74 -4.17 1.66
5.74 -3.99 1.64
5.74 -3.82 1.61
5.73 -3.65 1.59
5.72 -3.48 1.57
5.71 -3.32 1.55
5.70 -3.17 1.53
5.70 -3.02 1.51
5.70 -2.87 1.49
5.70 -2.73 1.48
5.71 -2.60 1.47
5.72 -2.46 1.46
5.74 -2.34 1.45
5.77 -2.22 1.45
5.81 -2.10 1.45
5.85 -1.98 1.45
5.91 -1.87 1.45
5.98 -1.76 1.46
6.05 -1.65 1.47
6.14 -1.54 1.48
6.25 -1.44 1.50
6.38 -1.33 1.53
6.55 -1.23 1.56
6.76 -1.13 1.61
7.09 -1.04 1.68
8.70 -1.10 2.06
9.53 -1.01 2.25
9.55 -0.82 2.25
9.57 -0.63 2.25
9.58 -0.44 2.25
9.37 -0.24 2.20
9.37 -0.05 2.20
9.37 0.14 2.20
9.36 0.33 2.20
9.36 0.51 2.20
9.35 0.70 2.20
9.33 0.89 2.20
9.32 1.08 2.20
9.29 1.26 2.20
9.27 1.45 2.20
9.24 1.64 2.21
9.68 1.92 2.32
9.64 2.11 2.32
9.63 2.31 2.33
9.61 2.51 2.33
9.59 2.71 2.34
9.56 2.91 2.35
9.54 3.12 2.36
9.51 3.32 2.37
9.47 3.52 2.38
9.43 3.72 2.38
9.37 3.92 2.39
9.31 4.11 2.39
9.24 4.31 2.40
9.17 4.50 2.41
9.09 4.69 2.41
8.99 4.87 2.41
8.89 5.05 2.41
8.44 5.02 2.31
8.28 5.15 2.30
8.18 5.33 2.30
8.09 5.50 2.30
7.99 5.67 2.31
7.89 5.84 2.31
7.78 6.00 2.32
7.67 6.17 2.32
7.56 6.33 2.32
7.45 6.50 2.33
7.33 6.66 2.33
7.21 6.82 2.34
7.08 6.97 2.34
6.96 7.13 2.35
6.98 7.45 2.41
6.83 7.59 2.41
6.68 7.72 2.41
6.52 7.86 2.41
6.37 7.99 2.41
6.21 8.12 2.41
5.99 8.17 2.39
5.82 8.29 2.39
5.66 8.40 2.39
5.49 8.51 2.39
5.31 8.62 2.39
5.14 8.73 2.39
4.96 8.83 2.39
4.78 8.92 2.39
4.60 9.02 2.39
4.42 9.11 2.39
4.24 9.19 2.39
4.05 9.28 2.39
3.86 9.35 2.39
3.67 9.43 2.39
3.48 9.50 2.39
3.29 9.57 2.39
3.10 9.63 2.39
2.91 9.69 2.39
2.71 9.75 2.39
2.51 9.80 2.39
2.32 9.85 2.39
2.16 10.10 2.44
2.00 10.36 2.49
1.79 10.40 2.49
1.58 10.43 2.49
1.37 10.46 2.49
1.16 10.48 2.49
0.95 10.51 2.49
0.74 10.52 2.49
0.53 10.53 2.49
0.32 10.54 2.49
0.11 10.55 2.49
-0.11 10.55 2.49
-0.32 10.54 2.49
-0.53 10.53 2.49
-0.74 10.52 2.49
-0.95 10.50 2.49
-1.16 10.48 2.49
-1.37 10.46 2.49
-1.58 10.43 2.49
-1.79 10.39 2.49
-2.00 10.35 2.49
-2.21 10.31 2.49
-2.41 10.27 2.49
-2.62 10.22 2.49
-2.82 10.16 2.49
-3.03 10.10 2.49
-3.23 10.04 2.49
-3.43 9.97 2.49
-3.63 9.90 2.49
-3.83 9.83 2.49
-4.02 9.75 2.49
-4.22 9.67 2.49
-4.41 9.58 2.49
-4.60 9.49 2.49
-4.79 9.39 2.49
-4.98 9.30 2.49
-5.17 9.20 2.49
-5.35 9.09 2.49
-5.53 8.98 2.49
-5.71 8.87 2.49
-5.89 8.75 2.49
-5.92 8.42 2.43
-5.98 8.16 2.39
-6.14 8.04 2.39
-6.30 7.91 2.39
-6.46 7.78 2.39
-6.62 7.65 2.39
-6.77 7.52 2.39
-6.92 7.38 2.39
-7.07 7.24 2.39
-7.21 7.10 2.39
-7.35 6.95 2.39
-7.49 6.81 2.39
-7.63 6.65 2.39
-7.76 6.50 2.39
-7.89 6.34 2.39
-8.02 6.18 2.39
-8.14 6.02 2.39
-8.26 5.86 2.39
-8.38 5.69 2.39
-8.49 5.52 2.39
-8.60 5.35 2.39
-8.70 5.18 2.39
-8.81 5.00 2.39
-8.91 4.83 2.39
-9.00 4.65 2.39
-9.10 4.47 2.39
-9.18 4.28 2.39
-9.27 4.10 2.39
-9.35 3.91 2.39
-9.43 3.72 2.39
-9.50 3.53 2.39
-9.57 3.34 2.39
-9.64 3.15 2.39
-9.70 2.96 2.39
-9.76 2.76 2.39
-9.81 2.57 2.39
-9.86 2.37 2.39
-9.91 2.17 2.39
-9.95 1.97 2.39
-9.99 1.77 2.39
-10.03 1.57 2.39
-11.03 1.50 2.62
-11.03 1.27 2.61
-11.02 1.05 2.61
-11.02 0.83 2.60
-11.01 0.60 2.60
-10.99 0.38 2.59
-10.98 0.16 2.59
-10.98 -0.06 2.59
-10.98 -0.28 2.59
-10.98 -0.50 2.59
-10.10 -0.66 2.38
-10.96 -0.94 2.59
-10.95 -1.16 2.59
-10.09 -1.28 2.39
-10.06 -1.48 2.39
-10.03 -1.68 2.39
-10.00 -1.88 2.39
-9.96 -2.08 2.39
-9.91 -2.28 2.39
-9.87 -2.48 2.39
-9.82 -2.68 2.39
-9.76 -2.88 2.39
-9.70 -3.07 2.39
-9.64 -3.27 2.39
-9.58 -3.46 2.39
-9.51 -3.65 2.39
-9.43 -3.84 2.39
-9.35 -4.03 2.39
-9.27 -4.22 2.39
-9.19 -4.40 2.39
-9.10 -4.59 2.39
-9.01 -4.77 2.39
-8.91 -4.95 2.39
-8.81 -5.13 2.39
-8.71 -5.31 2.39
-8.60 -5.48 2.39
-8.49 -5.65 2.39
-8.37 -5.82 2.39
-8.26 -5.99 2.39
-8.13 -6.15 2.39
-8.01 -6.32 2.39
-7.88 -6.48 2.39
-7.75 -6.64 2.39
-7.23 -6.44 2.27
-7.12 -6.61 2.28
-7.13 -6.88 2.32
-7.08 -7.12 2.35
-6.94 -7.26 2.35
-6.55 -7.14 2.27
-6.55 -7.43 2.32
-6.55 -7.74 2.38
-6.44 -7.93 2.39
-6.28 -8.06 2.39
-6.21 -8.30 2.43
-6.21 -8.66 2.49
-6.04 -8.78 2.49
-5.86 -8.91 2.49
-5.68 -9.02 2.49
-5.50 -9.13 2.49
-5.31 -9.24 2.49
-5.13 -9.35 2.49
-4.94 -9.45 2.49
-4.75 -9.55 2.49
-4.56 -9.64 2.49
-4.36 -9.73 2.49
-4.17 -9.82 2.49
-3.97 -9.90 2.49
-3.77 -9.98 2.49
-3.57 -10.06 2.49
-3.37 -10.13 2.49
-3.16 -10.19 2.49
-2.96 -10.25 2.49
-2.75 -10.31 2.49
-2.54 -10.37 2.49
-2.34 -10.41 2.49
-2.13 -10.46 2.49
-1.92 -10.50 2.49
-1.71 -10.54 2.49
-1.49 -10.57 2.49
-1.28 -10.60 2.49
-1.07 -10.62 2.49
-0.86 -10.64 2.49
-0.64 -10.66 2.49
-0.43 -10.67 2.49
-0.21 -10.68 2.49
0.00 -9.69 2.49
0.20 -9.69 2.49
0.39 -9.68 2.49
0.58 -9.67 2.49
0.78 -9.66 2.49
0.97 -9.64 2.49
1.16 -9.62 2.49
1.36 -9.59 2.49
1.55 -9.56 2.49
1.74 -9.53 2.49
1.85 -9.10 2.39
2.04 -9.08 2.40
2.22 -9.02 2.39
2.40 -8.97 2.39
2.58 -8.92 2.39
2.27 -7.30 1.97
2.37 -7.12 1.93
1.96 -5.52 1.51
2.05 -5.43 1.49
2.88 -7.19 1.99
3.63 -8.55 2.39
3.80 -8.47 2.39
3.97 -8.40 2.39
4.14 -8.32 2.39
4.30 -8.23 2.39
4.47 -8.14 2.39
4.63 -8.05 2.39
4.79 -7.96 2.39
4.95 -7.86 2.39
5.10 -7.76 2.39
5.26 -7.65 2.39
5.41 -7.54 2.39
5.56 -7.43 2.39
5.68 -7.28 2.38
5.00 -6.16 2.04
5.01 -5.91 2.00
5.08 -5.76 1.98
5.29 -5.77 2.02
5.71 -5.98 2.13
5.72 -5.75 2.09
5.72 -5.52 2.05
5.72 -5.31 2.01
5.73 -5.10 1.98
5.73 -4.90 1.94
5.73 -4.71 1.91
5.74 -4.52 1.88
5.74 -4.34 1.86
5.74 -4.17 1.83
5.74 -3.99 1.80
5.74 -3.82 1.78
5.73 -3.65 1.75
5.72 -3.49 1.73
5.71 -3.32 1.70
5.70 -3.17 1.68
5.70 -3.02 1.66
5.70 -2.87 1.65
5.70 -2.73 1.63
5.71 -2.60 1.62
5.72 -2.46 1.61
5.74 -2.34 1.60
5.77 -2.22 1.59
5.81 -2.10 1.59
5.85 -1.98 1.60
5.91 -1.87 1.60
5.98 -1.76 1.61
6.05 -1.65 1.62
6.14 -1.54 1.64
6.25 -1.44 1.66
6.38 -1.33 1.68
6.55 -1.23 1.72
6.76 -1.13 1.77
7.09 -1.04 1.85
8.69 -1.10 2.26
8.75 -0.93 2.27
8.76 -0.75 2.27
8.77 -0.58 2.27
8.78 -0.40 2.27
8.61 -0.22 2.23
8.62 -0.05 2.23
8.61 0.13 2.23
8.61 0.30 2.23
8.60 0.47 2.23
8.59 0.64 2.23
8.58 0.82 2.23
8.56 0.99 2.23
8.55 1.16 2.23
8.52 1.33 2.23
8.50 1.50 2.23
8.47 1.68 2.24
8.91 1.95 2.36
8.89 2.13 2.37
8.87 2.32 2.37
8.85 2.50 2.38
8.82 2.69 2.39
8.79 2.87 2.39
8.75 3.06 2.40
8.71 3.24 2.41
8.64 3.41 2.41
8.57 3.58 2.41
8.49 3.75 2.41
8.42 3.92 2.41
8.33 4.09 2.41
8.25 4.26 2.41
8.16 4.42 2.41
8.07 4.58 2.41
7.98 4.75 2.41
7.89 4.91 2.41
7.74 5.04 2.40
7.44 5.05 2.33
7.33 5.20 2.33
7.24 5.35 2.34
7.14 5.51 2.34
7.04 5.66 2.34
6.93 5.81 2.35
6.83 5.96 2.35
6.72 6.10 2.36
6.61 6.25 2.36
6.49 6.39 2.37
6.37 6.53 2.37
6.25 6.67 2.38
6.13 6.81 2.38
6.00 6.94 2.39
5.88 7.08 2.39
5.73 7.20 2.39
5.59 7.31 2.39
5.44 7.42 2.39
5.29 7.53 2.39
5.14 7.63 2.39
4.98 7.73 2.39
4.82 7.83 2.39
4.67 7.92 2.39
4.51 8.01 2.39
4.34 8.10 2.39
4.18 8.19 2.39
4.01 8.27 2.39
3.85 8.35 2.39
3.68 8.42 2.39
3.51 8.49 2.39
3.34 8.56 2.39
3.16 8.63 2.39
2.99 8.69 2.39
2.81 8.75 2.39
2.64 8.80 2.39
2.46 8.85 2.39
2.28 8.90 2.39
2.15 9.12 2.44
2.01 9.37 2.49
1.82 9.41 2.49
1.63 9.44 2.49
1.44 9.47 2.49
1.25 9.50 2.49
1.06 9.52 2.49
0.87 9.54 2.49
0.67 9.56 2.49
0.48 9.57 2.49
0.29 9.57 2.49
0.10 9.58 2.49
-0.10 9.58 2.49
-0.29 9.57 2.49
-0.48 9.57 2.49
-0.67 9.55 2.49
-0.86 9.54 2.49
-1.05 9.52 2.49
-1.25 9.50 2.49
-1.44 9.47 2.49
-1.63 9.44 2.49
-1.82 9.40 2.49
-2.00 9.37 2.49
-2.19 9.32 2.49
-2.38 9.28 2.49
-2.56 9.23 2.49
-2.75 9.17 2.49
-2.93 9.12 2.49
-3.11 9.06 2.49
-3.30 8.99 2.49
-3.48 8.92 2.49
-3.65 8.85 2.49
-3.83 8.78 2.49
-4.01 8.70 2.49
-4.18 8.62 2.49
-4.35 8.53 2.49
-4.52 8.44 2.49
-4.69 8.35 2.49
-4.86 8.26 2.49
-5.02 8.16 2.49
-5.19 8.05 2.49
-5.35 7.95 2.49
-5.51 7.84 2.49
-5.66 7.73 2.49
-5.82 7.61 2.49
-5.93 7.45 2.48
-5.94 7.16 2.42
-6.01 6.95 2.39
-6.15 6.83 2.39
-6.28 6.70 2.39
-6.42 6.58 2.39
-6.55 6.45 2.39
-6.68 6.32 2.39
-6.80 6.18 2.39
-6.93 6.04 2.39
-7.05 5.90 2.39
-7.16 5.76 2.39
-7.28 5.62 2.39
-7.39 5.47 2.39
-7.50 5.32 2.39
-7.61 5.17 2.39
-7.71 5.02 2.39
-7.81 4.86 2.39
-7.90 4.70 2.39
-8.00 4.54 2.39
-8.09 4.38 2.39
-8.18 4.22 2.39
-8.26 4.06 2.39
-8.34 3.89 2.39
-8.42 3.72 2.39
-8.49 3.55 2.39
-8.56 3.38 2.39
-8.63 3.21 2.39
-8.69 3.03 2.39
-8.75 2.86 2.39
-8.81 2.68 2.39
-8.86 2.51 2.39
-8.91 2.33 2.39
-8.96 2.15 2.39
-9.00 1.97 2.39
-9.04 1.79 2.39
-9.07 1.61 2.39
-9.10 1.42 2.39
-9.13 1.24 2.39
-9.16 1.06 2.39
-9.18 0.87 2.39
-9.19 0.69 2.39
-9.21 0.51 2.39
-9.22 0.32 2.39
-9.22 0.14 2.39
-9.22 -0.05 2.39
-9.22 -0.23 2.39
-9.22 -0.42 2.39
-9.21 -0.60 2.39
-9.19 -0.79 2.39
-9.18 -0.97 2.39
-9.16 -1.16 2.39
-9.13 -1.34 2.39
-9.10 -1.53 2.39
-9.07 -1.71 2.39
-9.04 -1.89 2.39
-9.00 -2.07 2.39
-8.96 -2.25 2.39
-8.91 -2.43 2.39
-8.86 -2.61 2.39
-8.81 -2.79 2.39
-8.75 -2.96 2.39
-8.69 -3.14 2.39
-8.63 -3.31 2.39
-8.56 -3.49 2.39
-8.49 -3.66 2.39
-8.42 -3.83 2.39
-8.34 -4.00 2.39
-8.26 -4.16 2.39
-8.17 -4.33 2.39
-8.09 -4.49 2.39
-7.99 -4.66 2.39
-7.90 -4.82 2.39
-7.80 -4.97 2.39
-7.70 -5.13 2.39
-7.21 -5.01 2.27
-7.11 -5.16 2.27
-7.10 -5.37 2.30
-7.10 -5.60 2.34
-7.04 -5.78 2.35
-6.92 -5.92 2.35
-6.56 -5.85 2.27
-6.52 -6.05 2.30
-6.53 -6.31 2.34
-6.53 -6.57 2.39
-6.40 -6.70 2.39
-6.26 -6.83 2.39
-6.19 -7.02 2.42
-6.19 -7.31 2.47
-6.10 -7.50 2.49
-5.94 -7.63 2.49
-5.79 -7.74 2.49
-5.63 -7.86 2.49
-5.48 -7.97 2.49
-5.32 -8.08 2.49
-5.15 -8.19 2.49
-4.99 -8.29 2.49
-4.82 -8.39 2.49
-4.65 -8.48 2.49
-4.48 -8.58 2.49
-4.31 -8.66 2.49
-4.13 -8.75 2.49
-3.96 -8.83 2.49
-3.78 -8.91 2.49
-3.60 -8.98 2.49
-3.42 -9.06 2.49
-3.24 -9.12 2.49
-3.05 -9.19 2.49
-2.87 -9.25 2.49
-2.68 -9.30 2.49
-2.50 -9.36 2.49
-2.31 -9.40 2.49
-2.12 -9.45 2.49
-1.93 -9.49 2.49
-1.74 -9.53 2.49
-1.55 -9.56 2.49
-1.36 -9.59 2.49
-1.16 -9.62 2.49
-0.97 -9.64 2.49
-0.78 -9.66 2.49
-0.58 -9.67 2.49
-0.39 -9.68 2.49
-0.19 -9.69 2.49
0.00 -8.86 2.49
0.18 -8.86 2.49
0.36 -8.85 2.49
0.53 -8.84 2.49
0.71 -8.83 2.49
0.89 -8.81 2.49
1.06 -8.79 2.49
1.24 -8.77 2.49
1.42 -8.74 2.49
1.59 -8.71 2.49
1.77 -8.68 2.49
1.86 -8.29 2.39
2.03 -8.25 2.39
2.19 -8.20 2.39
2.36 -8.16 2.39
2.29 -7.38 2.17
2.37 -7.14 2.12
1.96 -5.52 1.65
2.05 -5.43 1.63
3.16 -7.88 2.39
3.32 -7.82 2.39
3.47 -7.75 2.39
3.63 -7.68 2.39
3.78 -7.60 2.39
3.93 -7.52 2.39
4.08 -7.44 2.39
4.23 -7.36 2.39
4.38 -7.27 2.39
4.52 -7.18 2.39
4.67 -7.09 2.39
4.81 -7.00 2.39
4.95 -6.90 2.39
5.08 -6.80 2.39
5.22 -6.69 2.39
5.35 -6.59 2.39
5.02 -5.93 2.19
5.08 -5.77 2.17
5.30 -5.78 2.21
5.50 -5.76 2.24
5.72 -5.75 2.28
5.72 -5.53 2.24
5.72 -5.31 2.20
5.73 -5.10 2.16
5.73 -4.90 2.13
5.73 -4.71 2.09
5.74 -4.52 2.06
5.74 -4.34 2.03
5.74 -4.17 2.00
5.74 -3.99 1.97
5.74 -3.82 1.94
5.73 -3.65 1.92
5.72 -3.49 1.89
5.71 -3.32 1.86
5.70 -3.17 1.84
5.70 -3.02 1.82
5.70 -2.87 1.80
5.70 -2.73 1.78
5.71 -2.60 1.77
5.72 -2.46 1.76
5.74 -2.34 1.75
5.77 -2.22 1.74
5.81 -2.10 1.74
5.85 -1.98 1.74
5.91 -1.87 1.75
5.98 -1.76 1.76
6.05 -1.65 1.77
6.14 -1.54 1.79
6.25 -1.44 1.81
6.38 -1.33 1.84
6.54 -1.23 1.88
6.76 -1.13 1.94
7.09 -1.04 2.02
8.15 -1.03 2.32
8.16 -0.87 2.32
8.17 -0.70 2.32
8.18 -0.54 2.32
8.20 -0.37 2.32
7.92 -0.20 2.24
7.93 -0.04 2.24
7.93 0.12 2.24
7.92 0.28 2.24
7.92 0.43 2.24
7.91 0.59 2.24
7.90 0.75 2.24
7.89 0.91 2.25
7.87 1.07 2.25
7.85 1.23 2.25
7.83 1.39 2.25
7.81 1.54 2.25
7.78 1.70 2.25
7.75 1.86 2.26
8.18 2.14 2.39
8.15 2.31 2.40
8.12 2.47 2.41
8.09 2.64 2.41
8.03 2.80 2.41
7.97 2.96 2.41
7.91 3.12 2.41
7.84 3.28 2.41
7.77 3.43 2.41
7.70 3.59 2.41
7.62 3.74 2.41
7.55 3.89 2.41
7.47 4.04 2.41
7.39 4.20 2.41
7.31 4.35 2.41
7.22 4.49 2.41
7.14 4.64 2.41
7.04 4.79 2.42
6.95 4.93 2.42
6.85 5.07 2.42
6.59 5.09 2.36
6.49 5.22 2.36
6.40 5.36 2.37
6.30 5.49 2.37
6.20 5.63 2.38
6.09 5.76 2.38
5.99 5.89 2.38
5.88 6.02 2.39
5.76 6.14 2.39
5.63 6.26 2.39
5.51 6.37 2.39
5.38 6.48 2.39
5.25 6.58 2.39
5.11 6.69 2.39
4.98 6.79 2.39
4.84 6.89 2.39
4.70 6.98 2.39
4.56 7.07 2.39
4.41 7.16 2.39
4.27 7.25 2.39
4.12 7.33 2.39
3.97 7.41 2.39
3.82 7.49 2.39
3.67 7.57 2.39
3.52 7.64 2.39
3.37 7.71 2.39
3.21 7.77 2.39
3.05 7.83 2.39
2.89 7.89 2.39
2.74 7.95 2.39
2.58 8.00 2.39
2.41 8.05 2.39
2.25 8.10 2.39
2.13 8.31 2.44
2.01 8.53 2.49
1.84 8.57 2.49
1.66 8.61 2.49
1.49 8.64 2.49
1.32 8.67 2.49
1.14 8.69 2.49
0.97 8.71 2.49
0.79 8.73 2.49
0.62 8.74 2.49
0.44 8.75 2.49
0.26 8.76 2.49
0.09 8.76 2.49
-0.09 8.76 2.49
-0.26 8.76 2.49
-0.44 8.75 2.49
-0.61 8.74 2.49
-0.79 8.73 2.49
-0.97 8.71 2.49
-1.14 8.69 2.49
-1.31 8.66 2.49
-1.49 8.64 2.49
-1.66 8.60 2.49
-1.83 8.57 2.49
-2.01 8.53 2.49
-2.18 8.49 2.49
-2.35 8.44 2.49
-2.52 8.39 2.49
-2.68 8.34 2.49
-2.85 8.29 2.49
-3.02 8.23 2.49
-3.18 8.17 2.49
-3.34 8.10 2.49
-3.51 8.03 2.49
-3.67 7.96 2.49
-3.83 7.89 2.49
-3.98 7.81 2.49
-4.14 7.73 2.49
-4.29 7.64 2.49
-4.45 7.55 2.49
-4.60 7.46 2.49
-4.75 7.37 2.49
-4.89 7.27 2.49
-5.04 7.17 2.49
-5.18 7.07 2.49
-5.32 6.97 2.49
-5.46 6.86 2.49
-5.60 6.75 2.49
-5.73 6.63 2.49
-5.87 6.52 2.49
-5.95 6.35 2.47
-5.96 6.11 2.43
-5.99 5.90 2.39
-6.11 5.78 2.39
-6.22 5.65 2.39
-6.34 5.53 2.39
-6.45 5.40 2.39
-6.55 5.27 2.39
-6.66 5.14 2.39
-6.76 5.00 2.39
-6.86 4.87 2.39
-6.96 4.73 2.39
-7.05 4.59 2.39
-7.14 4.45 2.39
-7.23 4.30 2.39
-7.32 4.16 2.39
-7.40 4.01 2.39
-7.48 3.86 2.39
-7.56 3.71 2.39
-7.63 3.56 2.39
-7.70 3.40 2.39
-7.77 3.25 2.39
-7.83 3.09 2.39
-7.89 2.93 2.39
-7.95 2.78 2.39
-8.01 2.62 2.39
-8.06 2.46 2.39
-8.11 2.29 2.39
-8.15 2.13 2.39
-8.19 1.97 2.39
-8.23 1.80 2.39
-8.27 1.64 2.39
-8.30 1.47 2.39
-8.33 1.30 2.39
-8.35 1.14 2.39
-8.38 0.97 2.39
-8.39 0.80 2.39
-8.41 0.63 2.39
-8.42 0.46 2.39
-8.43 0.29 2.39
-8.43 0.12 2.39
-8.44 -0.05 2.39
-8.43 -0.21 2.39
-8.43 -0.38 2.39
-8.42 -0.55 2.39
-8.41 -0.72 2.39
-8.39 -0.89 2.39
-8.37 -1.06 2.39
-8.35 -1.23 2.39
-8.33 -1.40 2.39
-8.30 -1.56 2.39
-8.27 -1.73 2.39
-8.23 -1.89 2.39
-8.19 -2.06 2.39
-8.15 -2.22 2.39
-8.10 -2.39 2.39
-8.06 -2.55 2.39
-8.00 -2.71 2.39
-7.95 -2.87 2.39
-7.89 -3.03 2.39
-7.83 -3.19 2.39
-7.76 -3.35 2.39
-7.70 -3.50 2.39
-7.63 -3.66 2.39
-7.17 -3.61 2.27
-7.09 -3.76 2.27
-7.07 -3.93 2.29
-7.08 -4.12 2.31
-7.08 -4.32 2.34
-7.02 -4.47 2.35
-6.93 -4.61 2.35
-6.59 -4.59 2.27
-6.51 -4.72 2.27
-6.50 -4.92 2.30
-6.51 -5.13 2.34
-6.51 -5.35 2.38
-6.43 -5.51 2.39
-6.32 -5.63 2.39
-6.21 -5.76 2.39
-6.17 -5.96 2.42
-6.17 -6.21 2.47
-6.10 -6.39 2.49
-5.97 -6.51 2.49
-5.84 -6.63 2.49
-5.71 -6.75 2.49
-5.57 -6.86 2.49
-5.44 -6.97 2.49
-5.29 -7.08 2.49
-5.15 -7.19 2.49
-5.01 -7.29 2.49
-4.86 -7.39 2.49
-4.71 -7.48 2.49
-4.56 -7.58 2.49
-4.41 -7.67 2.49
-4.25 -7.76 2.49
-4.10 -7.84 2.49
-3.94 -7.92 2.49
-3.78 -8.00 2.49
-3.62 -8.07 2.49
-3.46 -8.15 2.49
-3.29 -8.21 2.49
-3.13 -8.28 2.49
-2.96 -8.34 2.49
-2.79 -8.40 2.49
-2.62 -8.45 2.49
-2.45 -8.51 2.49
-2.28 -8.55 2.49
-2.11 -8.60 2.49
-1.94 -8.64 2.49
-1.76 -8.68 2.49
-1.59 -8.71 2.49
-1.41 -8.74 2.49
-1.24 -8.77 2.49
-1.06 -8.79 2.49
-0.89 -8.81 2.49
-0.71 -8.83 2.49
-0.53 -8.84 2.49
-0.35 -8.85 2.49
-0.18 -8.86 2.49
0.00 -8.15 2.49
0.16 -8.15 2.49
0.33 -8.14 2.49
0.49 -8.13 2.49
0.65 -8.12 2.49
0.82 -8.11 2.49
0.98 -8.09 2.49
1.14 -8.07 2.49
1.30 -8.05 2.49
1.46 -8.02 2.49
1.63 -7.99 2.49
1.79 -7.95 2.49
1.87 -7.59 2.39
2.02 -7.55 2.39
2.17 -7.51 2.39
2.32 -7.46 2.39
2.47 -7.41 2.39
1.96 -5.52 1.79
2.05 -5.43 1.78
2.91 -7.25 2.39
3.05 -7.19 2.39
3.20 -7.13 2.39
3.34 -7.06 2.39
3.48 -6.99 2.39
3.62 -6.92 2.39
3.76 -6.85 2.39
3.89 -6.77 2.39
4.03 -6.69 2.39
4.16 -6.61 2.39
4.29 -6.52 2.39
4.42 -6.44 2.39
4.55 -6.35 2.39
4.68 -6.25 2.39
4.80 -6.16 2.39
4.92 -6.06 2.39
5.02 -5.93 2.38
5.09 -5.78 2.36
5.28 -5.75 2.39
5.39 -5.65 2.39
5.51 -5.54 2.39
5.61 -5.42 2.39
5.72 -5.31 2.39
5.73 -5.10 2.35
5.73 -4.90 2.31
5.73 -4.71 2.27
5.74 -4.52 2.24
5.74 -4.34 2.21
5.74 -4.17 2.17
5.74 -3.99 2.14
5.74 -3.82 2.11
5.73 -3.65 2.08
5.72 -3.49 2.05
5.71 -3.32 2.03
5.70 -3.17 2.00
5.70 -3.02 1.98
5.70 -2.87 1.96
5.70 -2.73 1.94
5.71 -2.60 1.92
5.72 -2.46 1.91
5.74 -2.34 1.90
5.77 -2.22 1.90
5.81 -2.10 1.89
5.85 -1.98 1.90
5.91 -1.87 1.90
5.98 -1.76 1.91
6.05 -1.65 1.92
6.14 -1.54 1.94
6.25 -1.44 1.97
6.38 -1.33 2.00
6.54 -1.23 2.04
6.75 -1.13 2.10
7.08 -1.04 2.20
7.63 -0.97 2.36
7.64 -0.81 2.36
7.65 -0.66 2.36
7.66 -0.50 2.36
7.68 -0.35 2.36
7.41 -0.19 2.28
7.41 -0.04 2.28
7.41 0.11 2.28
7.40 0.26 2.28
7.40 0.41 2.28
7.39 0.55 2.28
7.38 0.70 2.28
7.37 0.85 2.28
7.35 1.00 2.28
7.34 1.15 2.28
7.32 1.30 2.28
7.29 1.44 2.29
7.27 1.59 2.29
7.24 1.74 2.29
7.57 1.98 2.41
7.55 2.13 2.41
7.50 2.28 2.41
7.45 2.43 2.41
7.40 2.58 2.41
7.34 2.73 2.41
7.28 2.87 2.41
7.22 3.02 2.41
7.16 3.16 2.41
7.09 3.30 2.41
7.02 3.44 2.41
6.95 3.58 2.41
6.88 3.72 2.41
6.80 3.86 2.41
6.73 4.00 2.41
6.65 4.14 2.41
6.57 4.27 2.41
6.48 4.40 2.42
6.40 4.54 2.42
6.31 4.67 2.42
6.21 4.79 2.42
6.05 4.86 2.39
5.95 4.98 2.39
5.84 5.10 2.39
5.74 5.21 2.39
5.63 5.33 2.39
5.53 5.44 2.39
5.41 5.55 2.39
5.30 5.66 2.39
5.19 5.76 2.39
5.07 5.86 2.39
4.95 5.96 2.39
4.83 6.06 2.39
4.71 6.16 2.39
4.58 6.25 2.39
4.45 6.34 2.39
4.33 6.43 2.39
4.20 6.51 2.39
4.06 6.59 2.39
3.93 6.67 2.39
3.80 6.75 2.39
3.66 6.83 2.39
3.52 6.90 2.39
3.38 6.97 2.39
3.24 7.03 2.39
3.10 7.09 2.39
2.96 7.16 2.39
2.81 7.21 2.39
2.67 7.27 2.39
2.52 7.32 2.39
2.37 7.37 2.39
2.22 7.41 2.39
2.12 7.62 2.44
2.01 7.82 2.49
1.85 7.86 2.49
1.69 7.89 2.49
1.53 7.93 2.49
1.37 7.95 2.49
1.21 7.98 2.49
1.05 8.00 2.49
0.89 8.02 2.49
0.73 8.04 2.49
0.57 8.05 2.49
0.41 8.06 2.49
0.24 8.07 2.49
0.08 8.07 2.49
-0.08 8.07 2.49
-0.24 8.07 2.49
-0.40 8.06 2.49
-0.57 8.05 2.49
-0.73 8.04 2.49
-0.89 8.02 2.49
-1.05 8.00 2.49
-1.21 7.98 2.49
-1.37 7.95 2.49
-1.53 7.92 2.49
-1.69 7.89 2.49
-1.85 7.85 2.49
-2.00 7.82 2.49
-2.16 7.77 2.49
-2.32 7.73 2.49
-2.47 7.68 2.49
-2.62 7.63 2.49
-2.78 7.58 2.49
-2.93 7.52 2.49
-3.08 7.46 2.49
-3.23 7.40 2.49
-3.38 7.33 2.49
-3.52 7.26 2.49
-3.67 7.19 2.49
-3.81 7.11 2.49
-3.95 7.04 2.49
-4.09 6.95 2.49
-4.23 6.87 2.49
-4.37 6.78 2.49
-4.51 6.70 2.49
-4.64 6.60 2.49
-4.77 6.51 2.49
-4.90 6.41 2.49
-5.03 6.31 2.49
-5.16 6.21 2.49
-5.28 6.11 2.49
-5.40 6.00 2.49
-5.52 5.89 2.49
-5.64 5.78 2.49
-5.75 5.67 2.49
-5.87 5.55 2.49
-5.97 5.42 2.49
-5.97 5.21 2.45
-5.98 5.01 2.41
-6.03 4.85 2.39
-6.13 4.73 2.39
-6.23 4.61 2.39
-6.32 4.48 2.39
-6.41 4.35 2.39
-6.49 4.22 2.39
-6.58 4.09 2.39
-6.66 3.96 2.39
-6.74 3.83 2.39
-6.47 3.50 2.27
-6.55 3.38 2.28
-6.84 3.36 2.35
-6.91 3.22 2.35
-6.95 3.07 2.34
-6.95 2.91 2.33
-6.96 2.75 2.31
-6.96 2.59 2.29
-6.97 2.43 2.28
-7.00 2.29 2.27
-7.04 2.14 2.27
-7.08 2.00 2.27
-7.50 1.96 2.39
-7.54 1.81 2.39
-7.58 1.66 2.39
-7.61 1.51 2.39
-7.64 1.35 2.39
-7.67 1.20 2.39
-7.69 1.05 2.39
-7.71 0.89 2.39
-7.73 0.74 2.39
-7.74 0.58 2.39
-7.75 0.43 2.39
-7.76 0.27 2.39
-7.76 0.11 2.39
-7.77 -0.04 2.39
-7.76 -0.20 2.39
-7.76 -0.35 2.39
-7.75 -0.51 2.39
-7.74 -0.67 2.39
-7.73 -0.82 2.39
-7.71 -0.98 2.39
-7.69 -1.13 2.39
-7.66 -1.28 2.39
-7.64 -1.44 2.39
-7.61 -1.59 2.39
-7.58 -1.74 2.39
-7.54 -1.90 2.39
-7.50 -2.05 2.39
-7.46 -2.20 2.39
-7.41 -2.35 2.39
-7.37 -2.50 2.39
-7.32 -2.64 2.39
-7.26 -2.79 2.39
-7.21 -2.94 2.39
-7.15 -3.08 2.39
-7.08 -3.22 2.39
-7.02 -3.36 2.39
-6.95 -3.51 2.39
-6.78 -3.59 2.36
-6.49 -3.61 2.28
-6.48 -3.78 2.30
-6.49 -3.95 2.33
-6.49 -4.14 2.36
-6.48 -4.32 2.39
-6.39 -4.45 2.39
-6.30 -4.57 2.39
-6.21 -4.70 2.39
-6.15 -4.85 2.41
-6.15 -5.05 2.44
-6.15 -5.27 2.49
-6.07 -5.41 2.49
-5.96 -5.53 2.49
-5.85 -5.65 2.49
-5.73 -5.77 2.49
-5.62 -5.88 2.49
-5.50 -5.99 2.49
-5.38 -6.10 2.49
-5.25 -6.21 2.49
-5.13 -6.31 2.49
-5.00 -6.42 2.49
-4.87 -6.52 2.49
-4.74 -6.61 2.49
-4.61 -6.71 2.49
-4.47 -6.80 2.49
-4.33 -6.89 2.49
-4.20 -6.97 2.49
-4.06 -7.06 2.49
-3.91 -7.14 2.49
-3.77 -7.21 2.49
-3.62 -7.29 2.49
-3.48 -7.36 2.49
-3.33 -7.43 2.49
-3.18 -7.50 2.49
-3.03 -7.56 2.49
-2.88 -7.62 2.49
-2.72 -7.67 2.49
-2.57 -7.73 2.49
-2.41 -7.78 2.49
-2.26 -7.83 2.49
-2.10 -7.87 2.49
-1.94 -7.91 2.49
-1.78 -7.95 2.49
