ply
format ascii 1.0
element vertex 2880
property float32 x
property float32 y
property float32 z
end_header
1.34 26.56 2.49
0.80 26.58 2.49
0.27 26.59 2.49
-0.27 26.59 2.49
-0.80 26.57 2.49
-1.33 26.55 2.49
-1.86 26.51 2.49
-2.39 26.46 2.49
-2.92 26.40 2.49
-3.45 26.33 2.49
-3.98 26.26 2.49
-4.51 26.16 2.49
-5.03 26.06 2.49
-5.55 25.95 2.49
-6.07 25.83 2.49
-6.31 24.63 2.39
-6.80 24.49 2.39
-6.68 22.32 2.19
-7.78 24.19 2.39
-8.26 24.02 2.39
-8.74 23.84 2.39
-9.21 23.66 2.39
-9.68 23.46 2.39
-10.15 23.25 2.39
-11.39 24.75 2.57
-11.41 23.53 2.47
-11.32 22.20 2.35
-11.28 21.07 2.25
-11.23 19.99 2.16
-11.13 18.92 2.07
-11.14 18.09 2.01
-11.14 17.31 1.94
-11.13 16.55 1.89
-11.07 15.76 1.82
-11.01 15.03 1.76
-11.02 14.43 1.72
-11.06 13.89 1.68
-11.09 13.37 1.64
-11.12 12.87 1.61
-11.17 12.41 1.58
-11.21 11.97 1.55
-11.24 11.53 1.53
-11.27 11.10 1.50
-11.30 10.70 1.48
-11.33 10.30 1.45
-11.36 9.92 1.43
-11.39 9.55 1.41
-11.41 9.19 1.39
-11.45 8.84 1.38
-11.48 8.50 1.36
-11.51 8.17 1.34
-11.53 7.84 1.33
-11.55 7.52 1.31
-11.57 7.21 1.30
-11.58 6.90 1.29
-11.61 6.60 1.27
-11.67 6.33 1.27
-11.73 6.06 1.26
-11.79 5.80 1.26
-11.85 5.53 1.25
-11.91 5.27 1.25
-11.96 5.01 1.24
-12.00 4.75 1.24
-12.04 4.48 1.23
-12.07 4.22 1.23
-12.10 3.96 1.22
-12.13 3.70 1.22
-12.16 3.45 1.21
-12.18 3.19 1.21
-12.21 2.94 1.21
-12.23 2.68 1.20
-12.25 2.43 1.20
-12.25 2.18 1.20
-12.26 1.93 1.19
-12.27 1.67 1.19
-12.27 1.43 1.19
-12.28 1.18 1.19
-12.28 0.93 1.19
-12.29 0.68 1.19
-12.29 0.43 1.19
-12.28 0.19 1.19
-12.28 -0.06 1.19
-12.27 -0.31 1.19
-12.27 -0.55 1.19
-12.27 -0.80 1.19
-12.27 -1.05 1.19
-12.27 -1.30 1.19
-12.27 -1.55 1.20
-12.28 -1.80 1.20
-12.29 -2.05 1.21
-12.30 -2.31 1.21
-12.31 -2.57 1.22
-12.32 -2.83 1.23
-12.33 -3.09 1.23
-12.33 -3.36 1.24
-12.35 -3.63 1.25
-12.38 -3.91 1.26
-12.41 -4.20 1.27
-12.48 -4.50 1.29
-12.55 -4.81 1.31
-12.62 -5.13 1.33
-12.69 -5.46 1.35
-12.69 -5.77 1.36
-12.70 -6.08 1.37
-12.75 -6.42 1.39
-12.81 -6.78 1.41
-12.87 -7.14 1.44
-12.93 -7.52 1.46
-12.91 -7.86 1.48
-12.90 -8.21 1.49
-12.89 -8.57 1.51
-12.87 -8.94 1.53
-12.86 -9.32 1.55
-12.83 -9.70 1.57
-12.74 -10.04 1.59
-12.67 -10.40 1.60
-12.58 -10.76 1.62
-12.50 -11.13 1.64
-12.41 -11.51 1.66
-12.36 -11.93 1.68
-12.32 -12.38 1.71
-12.23 -12.79 1.73
-12.13 -13.21 1.76
-12.04 -13.65 1.78
-11.94 -14.10 1.81
-11.85 -14.58 1.84
-11.74 -15.04 1.87
-11.57 -15.47 1.90
-11.47 -15.99 1.93
-11.44 -16.65 1.98
-11.41 -17.33 2.04
-11.38 -18.06 2.10
-11.38 -18.89 2.17
-11.64 -20.24 2.29
-11.53 -21.01 2.35
-11.85 -22.67 2.51
-11.50 -23.11 2.54
-11.14 -23.55 2.56
-9.95 -22.19 2.39
-9.50 -22.39 2.39
-9.05 -22.57 2.39
-8.60 -22.75 2.39
-8.14 -22.92 2.39
-7.68 -23.07 2.39
-7.21 -23.22 2.39
-6.74 -23.36 2.39
-6.54 -24.51 2.49
-6.05 -24.63 2.49
-5.56 -24.75 2.49
-5.06 -24.86 2.49
-4.56 -24.96 2.49
-4.06 -25.04 2.49
-3.55 -25.12 2.49
-3.05 -25.19 2.49
-2.54 -25.25 2.49
-2.03 -25.30 2.49
-1.53 -25.33 2.49
-1.02 -25.36 2.49
-0.51 -25.38 2.49
0.00 -20.61 2.49
0.42 -20.60 2.49
0.83 -20.59 2.49
1.24 -20.58 2.49
1.66 -20.55 2.49
2.07 -20.52 2.49
2.38 -19.62 2.39
2.62 -18.53 2.26
3.16 -19.52 2.39
3.56 -19.46 2.39
3.95 -19.38 2.39
4.34 -19.30 2.39
4.72 -19.22 2.39
5.11 -19.12 2.39
5.49 -19.02 2.39
5.88 -18.91 2.39
6.26 -18.82 2.39
6.64 -18.69 2.39
7.02 -18.56 2.39
7.39 -18.42 2.39
7.76 -18.27 2.39
8.13 -18.12 2.39
8.49 -17.95 2.39
8.85 -17.78 2.39
9.21 -17.61 2.39
9.56 -17.42 2.39
9.91 -17.23 2.39
10.26 -17.03 2.39
10.60 -16.83 2.39
10.94 -16.62 2.39
11.28 -16.40 2.39
11.61 -16.17 2.39
11.93 -15.94 2.39
12.26 -15.71 2.39
12.57 -15.46 2.39
12.88 -15.21 2.39
13.19 -14.95 2.39
13.49 -14.69 2.39
13.79 -14.42 2.39
14.08 -14.15 2.39
14.37 -13.87 2.39
14.65 -13.58 2.39
14.92 -13.29 2.39
15.19 -12.99 2.39
15.46 -12.69 2.39
15.20 -11.98 2.32
15.00 -11.33 2.25
15.01 -10.88 2.22
15.03 -10.44 2.19
15.04 -10.01 2.16
15.06 -9.58 2.13
14.99 -9.12 2.10
14.99 -8.72 2.07
14.99 -8.32 2.05
14.99 -7.93 2.02
15.00 -7.55 2.00
14.93 -7.15 1.97
14.94 -6.78 1.95
14.94 -6.43 1.94
14.94 -6.07 1.92
14.94 -5.73 1.90
14.87 -5.36 1.88
14.88 -5.03 1.87
14.89 -4.70 1.86
14.90 -4.38 1.85
14.91 -4.06 1.84
14.87 -3.73 1.82
14.88 -3.41 1.81
14.89 -3.10 1.80
14.90 -2.79 1.80
14.91 -2.49 1.79
14.87 -2.18 1.78
14.87 -1.87 1.77
14.87 -1.57 1.77
14.87 -1.27 1.77
14.86 -0.97 1.76
14.86 -0.67 1.76
14.80 -0.37 1.75
14.80 -0.07 1.75
14.80 0.23 1.75
14.80 0.52 1.75
14.80 0.82 1.75
14.74 1.12 1.74
14.74 1.41 1.75
14.74 1.71 1.75
14.74 2.01 1.75
14.73 2.31 1.76
14.67 2.61 1.76
14.66 2.91 1.76
14.66 3.22 1.77
14.65 3.52 1.77
14.64 3.83 1.78
14.58 4.13 1.78
14.63 4.47 1.80
14.67 4.80 1.81
14.72 5.15 1.83
14.93 5.56 1.87
15.18 6.00 1.92
15.44 6.47 1.97
15.72 6.96 2.02
16.02 7.48 2.07
16.33 8.03 2.13
16.07 8.30 2.12
2.34 1.27 0.31
2.29 1.30 0.31
2.27 1.35 0.31
15.54 9.68 2.14
15.93 10.38 2.23
16.36 11.13 2.32
16.68 11.85 2.39
16.45 12.18 2.39
16.20 12.51 2.39
15.95 12.84 2.39
15.69 13.16 2.39
15.43 13.47 2.39
15.16 13.78 2.39
14.88 14.09 2.39
14.60 14.38 2.39
14.31 14.68 2.39
14.01 14.96 2.39
13.71 15.24 2.39
13.41 15.52 2.39
13.10 15.79 2.39
12.78 16.05 2.39
12.46 16.31 2.39
12.13 16.55 2.39
11.79 16.80 2.39
11.46 17.03 2.39
11.11 17.26 2.39
10.77 17.48 2.39
10.41 17.70 2.39
10.06 17.90 2.39
9.70 18.10 2.39
9.33 18.30 2.39
8.96 18.48 2.39
8.59 18.66 2.39
8.22 18.83 2.39
7.84 18.99 2.39
7.46 19.15 2.39
7.07 19.29 2.39
6.68 19.43 2.39
6.29 19.56 2.39
5.89 19.66 2.39
5.49 19.78 2.39
5.10 19.88 2.39
4.70 19.98 2.39
4.29 20.07 2.39
3.89 20.15 2.39
3.49 20.22 2.39
3.08 20.29 2.39
2.67 20.35 2.39
2.26 20.39 2.39
1.88 20.73 2.42
1.50 21.35 2.49
1.07 21.37 2.49
0.65 21.39 2.49
0.22 21.39 2.49
-0.21 21.39 2.49
-0.64 21.38 2.49
-1.07 21.36 2.49
-1.50 21.33 2.49
-1.93 21.30 2.49
-2.35 21.25 2.49
-2.78 21.19 2.49
-3.20 21.13 2.49
-3.63 21.06 2.49
-4.05 20.98 2.49
-4.47 20.89 2.49
-4.88 20.79 2.49
-5.30 20.69 2.49
-5.71 20.57 2.49
-6.12 20.45 2.49
-6.26 19.47 2.39
-6.65 19.34 2.39
-7.03 19.20 2.39
-7.42 19.05 2.39
-7.79 18.89 2.39
-8.17 18.73 2.39
-8.54 18.56 2.39
-8.91 18.38 2.39
-9.27 18.19 2.39
-9.64 17.99 2.39
-9.99 17.79 2.39
-10.21 17.35 2.36
-10.26 16.66 2.29
-10.36 16.09 2.24
-10.35 15.39 2.17
-10.33 14.71 2.11
-10.40 14.20 2.07
-10.46 13.70 2.02
-10.51 13.20 1.98
-10.55 12.72 1.94
-10.57 12.24 1.90
-10.63 11.82 1.87
-10.69 11.41 1.84
-10.74 11.02 1.81
-10.79 10.64 1.78
-10.83 10.26 1.76
-10.89 9.90 1.73
-10.94 9.55 1.71
-10.99 9.21 1.69
-11.03 8.88 1.67
-11.08 8.56 1.65
-11.12 8.24 1.63
-11.16 7.93 1.62
-11.19 7.61 1.60
-11.21 7.30 1.58
-11.23 7.00 1.56
-11.25 6.70 1.55
-11.31 6.43 1.54
-11.37 6.17 1.53
-11.44 5.91 1.52
-11.50 5.65 1.52
-11.56 5.40 1.51
-11.62 5.14 1.50
-11.67 4.89 1.50
-11.71 4.63 1.49
-11.75 4.38 1.49
-11.78 4.12 1.48
-11.81 3.87 1.47
-11.83 3.61 1.47
-11.86 3.36 1.46
-11.89 3.11 1.46
-11.92 2.87 1.46
-11.94 2.62 1.45
-11.95 2.37 1.45
-11.96 2.13 1.45
-11.97 1.88 1.44
-11.97 1.64 1.44
-11.98 1.39 1.44
-11.98 1.15 1.43
-11.99 0.91 1.43
-11.99 0.67 1.43
-11.99 0.42 1.43
-11.99 0.18 1.43
-11.98 -0.06 1.43
-11.98 -0.30 1.43
-11.97 -0.54 1.43
-11.97 -0.78 1.43
-11.97 -1.02 1.44
-11.96 -1.26 1.44
-11.96 -1.51 1.44
-11.97 -1.75 1.45
-11.98 -2.00 1.46
-11.99 -2.25 1.46
-12.00 -2.50 1.47
-12.01 -2.76 1.48
-12.01 -3.01 1.49
-12.02 -3.27 1.49
-12.02 -3.53 1.50
-12.05 -3.81 1.52
-12.08 -4.08 1.53
-12.11 -4.36 1.55
-12.15 -4.66 1.56
-12.21 -4.97 1.58
-12.28 -5.28 1.61
-12.33 -5.60 1.63
-12.30 -5.89 1.64
-12.28 -6.18 1.65
-12.28 -6.50 1.67
-12.33 -6.84 1.70
-12.38 -7.20 1.72
-12.42 -7.56 1.75
-12.38 -7.88 1.77
-12.33 -8.20 1.79
-12.30 -8.54 1.81
-12.28 -8.90 1.83
-12.26 -9.26 1.85
-12.23 -9.63 1.88
-12.14 -9.96 1.90
-12.05 -10.30 1.91
-11.95 -10.65 1.93
-11.86 -11.00 1.95
-11.77 -11.36 1.98
-11.69 -11.74 2.00
-11.64 -12.17 2.03
-11.58 -12.61 2.07
-11.53 -13.07 2.11
-11.43 -13.50 2.14
-11.33 -13.94 2.17
-11.23 -14.39 2.21
-11.12 -14.86 2.24
-11.00 -15.34 2.28
-10.77 -15.67 2.30
-10.60 -16.10 2.33
-10.45 -16.59 2.37
-10.30 -17.09 2.41
-9.85 -17.12 2.39
-9.50 -17.31 2.39
-9.15 -17.50 2.39
-8.80 -17.68 2.39
-8.44 -17.85 2.39
-8.02 -17.89 2.37
-7.66 -18.04 2.37
-7.30 -18.19 2.37
-6.98 -18.47 2.39
-6.61 -18.60 2.39
-6.23 -18.73 2.39
-5.93 -19.10 2.42
-5.71 -19.78 2.49
-5.31 -19.89 2.49
-4.91 -20.00 2.49
-4.51 -20.09 2.49
-4.11 -20.18 2.49
-3.70 -20.26 2.49
-3.29 -20.33 2.49
-2.88 -20.39 2.49
-2.47 -20.45 2.49
-2.06 -20.49 2.49
-1.65 -20.53 2.49
-1.24 -20.56 2.49
-0.83 -20.59 2.49
-0.41 -20.60 2.49
0.00 -17.33 2.49
0.35 -17.32 2.49
0.70 -17.31 2.49
1.04 -17.30 2.49
1.39 -17.28 2.49
1.74 -17.25 2.49
2.09 -17.21 2.49
2.33 -16.46 2.39
2.66 -16.41 2.39
2.99 -16.35 2.39
3.32 -16.29 2.39
3.64 -16.23 2.39
3.97 -16.15 2.39
4.29 -16.07 2.39
4.62 -15.98 2.39
4.94 -15.89 2.39
5.26 -15.79 2.39
5.57 -15.69 2.39
5.89 -15.57 2.39
6.21 -15.48 2.39
6.52 -15.35 2.39
6.83 -15.22 2.39
7.14 -15.08 2.39
7.44 -14.94 2.39
7.74 -14.79 2.39
8.04 -14.64 2.39
8.33 -14.48 2.39
8.62 -14.31 2.39
8.91 -14.14 2.39
9.19 -13.96 2.39
9.47 -13.78 2.39
9.75 -13.59 2.39
10.02 -13.39 2.39
10.29 -13.19 2.39
10.56 -12.98 2.39
10.82 -12.77 2.39
11.08 -12.56 2.39
11.33 -12.33 2.39
11.58 -12.11 2.39
11.82 -11.88 2.39
12.06 -11.64 2.39
12.30 -11.40 2.39
12.53 -11.15 2.39
12.75 -10.90 2.39
12.97 -10.65 2.39
13.19 -10.39 2.39
13.40 -10.12 2.39
13.60 -9.86 2.39
13.80 -9.58 2.39
14.00 -9.31 2.39
14.19 -9.03 2.39
14.37 -8.74 2.39
14.55 -8.46 2.39
14.72 -8.17 2.39
14.88 -7.87 2.39
15.04 -7.57 2.39
14.93 -7.15 2.35
14.94 -6.78 2.33
14.94 -6.42 2.31
14.94 -6.07 2.29
14.94 -5.73 2.27
14.87 -5.36 2.24
14.88 -5.03 2.23
14.89 -4.70 2.21
14.90 -4.38 2.20
14.91 -4.06 2.19
14.87 -3.73 2.17
14.88 -3.41 2.16
14.89 -3.10 2.15
14.90 -2.79 2.15
14.91 -2.49 2.14
14.87 -2.17 2.12
14.87 -1.87 2.12
14.87 -1.57 2.11
14.87 -1.27 2.11
14.86 -0.97 2.10
14.86 -0.67 2.10
14.80 -0.37 2.09
14.80 -0.07 2.09
14.80 0.23 2.09
14.80 0.52 2.09
14.80 0.82 2.09
14.74 1.12 2.08
14.74 1.41 2.09
14.74 1.71 2.09
14.74 2.01 2.09
14.73 2.32 2.10
14.67 2.61 2.10
14.66 2.91 2.10
14.66 3.22 2.11
14.65 3.52 2.12
14.64 3.84 2.13
14.58 4.13 2.13
14.63 4.47 2.15
14.67 4.80 2.17
14.72 5.15 2.19
14.93 5.56 2.24
15.18 6.00 2.29
15.44 6.47 2.35
15.61 6.91 2.39
15.47 7.23 2.39
15.33 7.54 2.39
15.18 7.84 2.39
2.34 1.27 0.37
2.29 1.30 0.37
2.27 1.35 0.37
14.51 9.04 2.39
14.33 9.34 2.39
14.15 9.62 2.39
13.95 9.91 2.39
13.75 10.19 2.39
13.55 10.46 2.39
13.34 10.74 2.39
13.12 11.00 2.39
12.90 11.27 2.39
12.68 11.53 2.39
12.44 11.78 2.39
12.21 12.03 2.39
11.97 12.27 2.39
11.72 12.51 2.39
11.47 12.75 2.39
11.21 12.98 2.39
10.95 13.20 2.39
10.68 13.42 2.39
10.41 13.63 2.39
10.14 13.84 2.39
9.86 14.04 2.39
9.58 14.24 2.39
9.29 14.43 2.39
9.00 14.61 2.39
8.70 14.79 2.39
8.41 14.97 2.39
8.11 15.13 2.39
7.80 15.29 2.39
7.49 15.45 2.39
7.18 15.60 2.39
6.87 15.74 2.39
6.55 15.87 2.39
6.23 16.00 2.39
5.90 16.11 2.39
5.58 16.22 2.39
5.25 16.33 2.39
4.92 16.43 2.39
4.59 16.53 2.39
4.26 16.62 2.39
3.93 16.70 2.39
3.59 16.77 2.39
3.25 16.84 2.39
2.91 16.90 2.39
2.57 16.96 2.39
2.23 17.00 2.39
1.90 17.17 2.41
1.61 17.82 2.49
1.26 17.84 2.49
0.90 17.86 2.49
0.54 17.88 2.49
0.18 17.88 2.49
-0.18 17.88 2.49
-0.54 17.87 2.49
-0.90 17.86 2.49
-1.25 17.83 2.49
-1.61 17.80 2.49
-1.97 17.76 2.49
-2.32 17.72 2.49
-2.68 17.67 2.49
-3.03 17.61 2.49
-3.38 17.54 2.49
-3.73 17.46 2.49
-4.08 17.38 2.49
-4.43 17.30 2.49
-4.78 17.20 2.49
-5.12 17.10 2.49
-5.46 16.99 2.49
-5.80 16.87 2.49
-6.13 16.75 2.49
-6.20 15.93 2.39
-6.52 15.80 2.39
-6.83 15.66 2.39
-7.14 15.52 2.39
-7.45 15.37 2.39
-7.76 15.21 2.39
-8.06 15.05 2.39
-8.36 14.88 2.39
-8.65 14.71 2.39
-8.94 14.53 2.39
-9.23 14.34 2.39
-9.51 14.15 2.39
-9.79 13.95 2.39
-9.89 13.51 2.35
-9.95 13.03 2.30
-10.00 12.56 2.25
-10.04 12.10 2.21
-10.07 11.66 2.16
-10.14 11.27 2.13
-10.20 10.90 2.10
-10.25 10.52 2.06
-10.30 10.15 2.03
-10.34 9.79 2.00
-10.40 9.46 1.98
-10.45 9.13 1.95
-10.51 8.81 1.93
-10.55 8.50 1.91
-10.60 8.19 1.89
-10.64 7.89 1.87
-10.69 7.59 1.85
-10.73 7.30 1.83
-10.77 7.02 1.81
-10.81 6.74 1.80
-10.83 6.45 1.78
-10.92 6.21 1.77
-11.05 5.99 1.77
-11.16 5.77 1.77
-11.22 5.52 1.77
-11.28 5.27 1.76
-11.33 5.02 1.75
-11.39 4.77 1.75
-11.43 4.52 1.74
-11.46 4.27 1.73
-11.49 4.02 1.72
-11.52 3.77 1.72
-11.55 3.53 1.71
-11.58 3.28 1.71
-11.61 3.04 1.70
-11.63 2.80 1.70
-11.66 2.56 1.69
-11.67 2.32 1.69
-11.68 2.08 1.68
-11.68 1.84 1.68
-11.69 1.60 1.68
-11.70 1.36 1.67
-11.70 1.12 1.67
-11.71 0.89 1.67
-11.71 0.65 1.67
-11.71 0.42 1.67
-11.71 0.18 1.67
-11.70 -0.06 1.67
-11.70 -0.29 1.67
-11.69 -0.52 1.67
-11.68 -0.76 1.67
-11.68 -1.00 1.67
-11.67 -1.23 1.67
-11.67 -1.47 1.68
-11.68 -1.71 1.68
-11.69 -1.95 1.69
-11.70 -2.19 1.70
-11.70 -2.44 1.71
-11.71 -2.69 1.72
-11.71 -2.94 1.73
-11.72 -3.19 1.74
-11.72 -3.44 1.75
-11.74 -3.71 1.76
-11.76 -3.98 1.78
-11.78 -4.25 1.79
-11.81 -4.53 1.81
-11.83 -4.81 1.83
-11.89 -5.11 1.85
-11.95 -5.43 1.88
-11.95 -5.72 1.90
-11.93 -6.01 1.91
-11.90 -6.29 1.93
-11.87 -6.59 1.95
-11.87 -6.90 1.97
-11.90 -7.25 2.00
-11.93 -7.60 2.03
-11.88 -7.91 2.05
-11.83 -8.22 2.07
-11.78 -8.54 2.09
-11.72 -8.86 2.11
-11.69 -9.21 2.14
-11.65 -9.57 2.16
-11.57 -9.89 2.19
-11.47 -10.22 2.21
-11.38 -10.55 2.23
-11.28 -10.88 2.25
-11.17 -11.23 2.28
-11.07 -11.57 2.30
-10.95 -11.93 2.33
-10.81 -12.25 2.35
-10.66 -12.59 2.37
-10.50 -12.92 2.39
-10.34 -13.26 2.42
-9.96 -13.30 2.39
-9.69 -13.50 2.39
-9.41 -13.69 2.39
-9.13 -13.87 2.39
-8.85 -14.05 2.39
-8.57 -14.23 2.39
-8.28 -14.40 2.39
-7.99 -14.56 2.39
-7.70 -14.71 2.39
-7.40 -14.87 2.39
-7.10 -15.01 2.39
-6.79 -15.15 2.39
-6.49 -15.28 2.39
-6.18 -15.41 2.39
-5.95 -15.73 2.42
-5.80 -16.32 2.49
-5.47 -16.43 2.49
-5.14 -16.54 2.49
-4.80 -16.64 2.49
-4.47 -16.73 2.49
-4.13 -16.82 2.49
-3.79 -16.90 2.49
-3.45 -16.97 2.49
-3.11 -17.03 2.49
-2.77 -17.09 2.49
-2.42 -17.15 2.49
-2.08 -17.19 2.49
-1.73 -17.23 2.49
-1.39 -17.26 2.49
-1.04 -17.29 2.49
-0.69 -17.31 2.49
-0.35 -17.32 2.49
0.00 -14.93 2.49
0.30 -14.93 2.49
0.60 -14.92 2.49
0.90 -14.91 2.49
1.20 -14.89 2.49
1.50 -14.86 2.49
1.80 -14.83 2.49
2.10 -14.79 2.49
2.31 -14.23 2.41
2.58 -14.09 2.39
2.86 -14.04 2.39
3.14 -13.98 2.39
3.42 -13.92 2.39
3.70 -13.85 2.39
3.98 -13.77 2.39
4.26 -13.69 2.39
4.53 -13.61 2.39
4.80 -13.52 2.39
5.07 -13.42 2.39
5.34 -13.32 2.39
5.61 -13.21 2.39
5.88 -13.10 2.39
6.15 -13.00 2.39
6.41 -12.87 2.39
6.67 -12.74 2.39
6.92 -12.61 2.39
7.18 -12.47 2.39
7.43 -12.33 2.39
7.67 -12.18 2.39
7.92 -12.02 2.39
8.16 -11.86 2.39
8.40 -11.70 2.39
8.63 -11.53 2.39
8.87 -11.36 2.39
9.09 -11.18 2.39
9.32 -11.00 2.39
9.54 -10.81 2.39
9.76 -10.62 2.39
9.97 -10.43 2.39
10.18 -10.23 2.39
10.39 -10.02 2.39
10.59 -9.81 2.39
10.79 -9.60 2.39
10.98 -9.39 2.39
11.17 -9.17 2.39
11.35 -8.94 2.39
11.53 -8.71 2.39
11.71 -8.48 2.39
11.88 -8.25 2.39
12.05 -8.01 2.39
12.21 -7.77 2.39
12.37 -7.52 2.39
12.52 -7.28 2.39
12.66 -7.03 2.39
12.81 -6.77 2.39
12.94 -6.52 2.39
13.08 -6.26 2.39
13.20 -5.99 2.39
13.32 -5.73 2.39
13.44 -5.46 2.39
13.55 -5.19 2.39
13.66 -4.92 2.39
13.76 -4.65 2.39
13.85 -4.37 2.39
13.94 -4.09 2.39
14.02 -3.81 2.39
14.10 -3.53 2.39
14.17 -3.25 2.39
14.24 -2.97 2.39
14.30 -2.68 2.39
14.35 -2.39 2.39
14.40 -2.11 2.39
14.45 -1.82 2.39
14.48 -1.53 2.39
14.52 -1.24 2.39
14.54 -0.94 2.39
14.56 -0.65 2.39
14.58 -0.36 2.39
14.59 -0.07 2.39
14.59 0.22 2.39
14.58 0.52 2.39
14.58 0.81 2.39
14.56 1.10 2.39
14.54 1.40 2.39
14.51 1.69 2.39
14.48 1.98 2.39
14.44 2.27 2.39
14.40 2.56 2.39
14.34 2.85 2.39
14.29 3.14 2.39
14.23 3.42 2.39
14.16 3.71 2.39
14.08 3.99 2.39
14.00 4.28 2.39
13.92 4.56 2.39
13.83 4.84 2.39
13.73 5.12 2.39
13.63 5.39 2.39
13.52 5.67 2.39
13.41 5.94 2.39
13.29 6.21 2.39
13.16 6.47 2.39
13.03 6.74 2.39
2.34 1.27 0.43
2.29 1.30 0.43
2.27 1.35 0.43
12.46 7.77 2.39
12.31 8.02 2.39
12.15 8.26 2.39
11.98 8.51 2.39
11.81 8.75 2.39
11.63 8.98 2.39
11.45 9.22 2.39
11.27 9.45 2.39
11.08 9.67 2.39
10.88 9.89 2.39
10.68 10.11 2.39
10.48 10.33 2.39
10.27 10.54 2.39
10.06 10.74 2.39
9.84 10.94 2.39
9.62 11.14 2.39
9.40 11.33 2.39
9.17 11.52 2.39
8.94 11.70 2.39
8.70 11.88 2.39
8.46 12.05 2.39
8.22 12.22 2.39
7.97 12.39 2.39
7.72 12.54 2.39
7.47 12.70 2.39
7.22 12.85 2.39
6.96 12.99 2.39
6.70 13.13 2.39
6.43 13.26 2.39
6.16 13.38 2.39
5.89 13.49 2.39
5.62 13.61 2.39
5.34 13.72 2.39
5.06 13.82 2.39
4.79 13.92 2.39
4.51 14.01 2.39
4.22 14.10 2.39
3.94 14.18 2.39
3.66 14.26 2.39
3.37 14.33 2.39
3.08 14.39 2.39
2.79 14.45 2.39
2.50 14.51 2.39
2.21 14.55 2.39
1.92 14.64 2.40
1.69 15.26 2.49
1.39 15.29 2.49
1.08 15.31 2.49
0.77 15.33 2.49
0.46 15.34 2.49
0.16 15.35 2.49
-0.15 15.35 2.49
-0.46 15.34 2.49
-0.77 15.32 2.49
-1.08 15.30 2.49
-1.38 15.28 2.49
-1.69 15.25 2.49
-1.99 15.21 2.49
-2.30 15.16 2.49
-2.60 15.11 2.49
-2.90 15.05 2.49
-3.20 14.99 2.49
-3.50 14.92 2.49
-3.80 14.85 2.49
-4.10 14.77 2.49
-4.39 14.68 2.49
-4.69 14.58 2.49
-4.98 14.49 2.49
-5.27 14.38 2.49
-5.55 14.27 2.49
-5.84 14.15 2.49
-6.12 14.03 2.49
-6.14 13.34 2.39
-6.40 13.20 2.39
-6.66 13.06 2.39
-6.92 12.93 2.39
-7.18 12.78 2.39
-7.43 12.63 2.39
-7.68 12.48 2.39
-7.93 12.32 2.39
-8.17 12.15 2.39
-8.41 11.99 2.39
-8.65 11.81 2.39
-8.88 11.63 2.39
-9.11 11.45 2.39
-9.34 11.26 2.39
-9.56 11.07 2.39
-9.69 10.77 2.37
-9.74 10.41 2.33
-9.79 10.05 2.29
-9.84 9.70 2.26
-9.89 9.36 2.23
-9.95 9.05 2.20
-10.01 8.74 2.18
-10.06 8.44 2.15
-10.11 8.14 2.13
-10.16 7.85 2.10
-10.21 7.56 2.08
-10.25 7.28 2.06
-10.30 7.01 2.04
-10.34 6.74 2.02
-10.37 6.46 2.00
-10.39 6.19 1.99
-10.42 5.93 1.97
-10.54 5.72 1.97
-10.66 5.51 1.97
-10.77 5.30 1.97
-10.88 5.08 1.97
-11.00 4.87 1.98
-11.11 4.65 1.98
-11.16 4.41 1.97
-11.19 4.17 1.96
-11.22 3.93 1.96
-11.25 3.69 1.95
-11.28 3.45 1.94
-11.31 3.21 1.94
-11.34 2.97 1.93
-11.37 2.74 1.93
-11.38 2.50 1.92
-11.39 2.26 1.92
-11.40 2.03 1.91
-11.41 1.79 1.91
-11.42 1.56 1.90
-11.43 1.33 1.90
-11.43 1.10 1.90
-11.44 0.87 1.89
-11.44 0.64 1.89
-11.44 0.41 1.89
-11.44 0.18 1.89
-11.43 -0.05 1.89
-11.43 -0.28 1.89
-11.42 -0.51 1.89
-11.41 -0.74 1.89
-11.40 -0.97 1.89
-11.40 -1.20 1.90
-11.39 -1.43 1.90
-11.40 -1.67 1.91
-11.41 -1.90 1.92
-11.41 -2.14 1.92
-11.42 -2.38 1.93
-11.42 -2.62 1.94
-11.43 -2.86 1.95
-11.43 -3.11 1.97
-11.43 -3.36 1.98
-11.44 -3.61 1.99
-11.46 -3.87 2.01
-11.48 -4.14 2.03
-11.50 -4.41 2.05
-11.52 -4.68 2.07
-11.54 -4.96 2.09
-11.58 -5.26 2.11
-11.62 -5.56 2.14
-11.59 -5.84 2.16
-11.56 -6.12 2.18
-11.53 -6.40 2.19
-11.50 -6.69 2.21
-11.47 -6.98 2.23
-11.45 -7.29 2.26
-11.47 -7.63 2.29
-11.41 -7.93 2.31
-11.36 -8.23 2.34
-11.30 -8.54 2.36
-11.24 -8.85 2.38
-11.18 -9.17 2.41
-11.11 -9.50 2.44
-11.01 -9.80 2.46
-10.83 -10.04 2.46
-10.65 -10.28 2.47
-10.46 -10.51 2.47
-9.90 -10.36 2.39
-9.69 -10.55 2.39
-9.48 -10.74 2.39
-9.26 -10.93 2.39
-9.04 -11.11 2.39
-8.81 -11.29 2.39
-8.58 -11.47 2.39
-8.35 -11.63 2.39
-8.11 -11.80 2.39
-7.87 -11.96 2.39
-7.63 -12.11 2.39
-7.39 -12.26 2.39
-7.14 -12.41 2.39
-6.89 -12.55 2.39
-6.63 -12.68 2.39
-6.38 -12.81 2.39
-6.12 -12.94 2.39
-5.96 -13.28 2.43
-5.83 -13.74 2.49
-5.56 -13.85 2.49
-5.28 -13.96 2.49
-5.00 -14.06 2.49
-4.71 -14.16 2.49
-4.43 -14.25 2.49
-4.14 -14.34 2.49
-3.85 -14.42 2.49
-3.56 -14.49 2.49
-3.27 -14.56 2.49
-2.98 -14.63 2.49
-2.68 -14.68 2.49
-2.39 -14.73 2.49
-2.09 -14.78 2.49
-1.79 -14.82 2.49
-1.49 -14.85 2.49
-1.20 -14.88 2.49
-0.90 -14.90 2.49
-0.60 -14.92 2.49
-0.30 -14.93 2.49
0.00 -13.11 2.49
0.26 -13.11 2.49
0.53 -13.10 2.49
0.79 -13.09 2.49
1.05 -13.07 2.49
1.32 -13.05 2.49
1.58 -13.02 2.49
1.84 -12.99 2.49
2.09 -12.87 2.48
2.26 -12.37 2.39
2.51 -12.32 2.39
2.76 -12.27 2.39
3.00 -12.22 2.39
3.25 -12.15 2.39
3.49 -12.09 2.39
3.74 -12.02 2.39
3.98 -11.94 2.39
4.22 -11.86 2.39
4.45 -11.78 2.39
4.69 -11.69 2.39
4.92 -11.59 2.39
5.16 -11.49 2.39
5.39 -11.39 2.39
5.62 -11.28 2.39
5.84 -11.17 2.39
6.07 -11.05 2.39
6.30 -10.94 2.39
6.52 -10.81 2.39
6.73 -10.68 2.39
6.95 -10.55 2.39
7.16 -10.41 2.39
7.37 -10.27 2.39
7.58 -10.12 2.39
7.78 -9.96 2.39
7.98 -9.81 2.39
8.18 -9.65 2.39
8.37 -9.48 2.39
8.56 -9.32 2.39
8.75 -9.14 2.39
8.93 -8.97 2.39
9.11 -8.79 2.39
9.29 -8.61 2.39
9.46 -8.42 2.39
9.63 -8.23 2.39
9.80 -8.04 2.39
9.96 -7.84 2.39
10.12 -7.64 2.39
10.27 -7.44 2.39
10.42 -7.23 2.39
10.56 -7.02 2.39
10.71 -6.81 2.39
10.84 -6.60 2.39
10.98 -6.38 2.39
11.10 -6.16 2.39
11.23 -5.94 2.39
11.35 -5.71 2.39
11.46 -5.48 2.39
11.57 -5.25 2.39
11.68 -5.02 2.39
11.78 -4.79 2.39
11.88 -4.55 2.39
11.97 -4.31 2.39
12.06 -4.07 2.39
12.14 -3.83 2.39
12.22 -3.59 2.39
12.29 -3.34 2.39
12.36 -3.10 2.39
12.42 -2.85 2.39
12.48 -2.60 2.39
12.53 -2.35 2.39
12.58 -2.10 2.39
12.62 -1.84 2.39
12.66 -1.59 2.39
12.69 -1.34 2.39
12.72 -1.08 2.39
12.74 -0.83 2.39
12.76 -0.57 2.39
12.77 -0.32 2.39
12.78 -0.06 2.39
12.78 0.20 2.39
12.78 0.45 2.39
12.77 0.71 2.39
12.75 0.97 2.39
12.73 1.22 2.39
12.71 1.48 2.39
12.68 1.73 2.39
12.65 1.99 2.39
12.61 2.24 2.39
12.56 2.50 2.39
12.51 2.75 2.39
12.46 3.00 2.39
12.40 3.25 2.39
12.33 3.50 2.39
12.26 3.75 2.39
12.19 3.99 2.39
12.11 4.24 2.39
12.02 4.48 2.39
11.93 4.72 2.39
11.84 4.96 2.39
11.74 5.20 2.39
11.63 5.43 2.39
11.53 5.67 2.39
11.41 5.90 2.39
2.34 1.27 0.50
2.29 1.30 0.49
2.27 1.35 0.49
10.91 6.80 2.39
10.77 7.02 2.39
10.63 7.23 2.39
10.49 7.45 2.39
10.34 7.66 2.39
10.18 7.86 2.39
10.02 8.07 2.39
9.86 8.27 2.39
9.69 8.47 2.39
9.52 8.66 2.39
9.35 8.85 2.39
9.17 9.04 2.39
8.99 9.22 2.39
8.80 9.40 2.39
8.61 9.58 2.39
8.42 9.75 2.39
8.22 9.92 2.39
8.02 10.08 2.39
7.82 10.24 2.39
7.62 10.40 2.39
7.41 10.55 2.39
7.19 10.70 2.39
6.98 10.84 2.39
6.76 10.98 2.39
6.54 11.11 2.39
6.31 11.24 2.39
6.09 11.37 2.39
5.85 11.47 2.39
5.62 11.59 2.39
5.39 11.70 2.39
5.15 11.80 2.39
4.91 11.91 2.39
4.67 12.00 2.39
4.43 12.09 2.39
4.19 12.18 2.39
3.94 12.26 2.39
3.70 12.34 2.39
3.45 12.41 2.39
3.20 12.48 2.39
2.95 12.54 2.39
2.70 12.59 2.39
2.44 12.65 2.39
2.19 12.69 2.39
1.93 12.75 2.39
1.75 13.32 2.49
1.48 13.35 2.49
1.21 13.38 2.49
0.94 13.40 2.49
0.68 13.41 2.49
0.41 13.42 2.49
0.14 13.43 2.49
-0.13 13.43 2.49
-0.40 13.42 2.49
-0.67 13.41 2.49
-0.94 13.39 2.49
-1.21 13.37 2.49
-1.48 13.34 2.49
-1.74 13.31 2.49
-2.01 13.27 2.49
-2.28 13.22 2.49
-2.54 13.18 2.49
-2.80 13.12 2.49
-3.07 13.06 2.49
-3.33 12.99 2.49
-3.59 12.92 2.49
-3.85 12.85 2.49
-4.10 12.76 2.49
-4.36 12.68 2.49
-4.61 12.59 2.49
-4.86 12.49 2.49
-5.11 12.39 2.49
-5.36 12.28 2.49
-5.60 12.17 2.49
-5.84 12.05 2.49
-6.08 11.93 2.49
-6.12 11.43 2.42
-6.28 11.19 2.39
-6.50 11.06 2.39
-6.72 10.92 2.39
-6.94 10.78 2.39
-7.15 10.64 2.39
-7.36 10.49 2.39
-7.57 10.34 2.39
-7.78 10.19 2.39
-7.98 10.03 2.39
-8.18 9.86 2.39
-8.37 9.69 2.39
-8.56 9.52 2.39
-8.75 9.35 2.39
-8.93 9.17 2.39
-9.11 8.98 2.39
-9.29 8.80 2.39
-9.46 8.61 2.39
-9.59 8.38 2.38
-9.65 8.09 2.35
-9.70 7.81 2.33
-9.75 7.53 2.30
-9.80 7.26 2.28
-9.85 6.99 2.26
-9.89 6.73 2.24
-9.93 6.47 2.22
-9.96 6.21 2.20
-9.98 5.95 2.18
-10.01 5.70 2.16
-10.07 5.47 2.15
-10.18 5.27 2.15
-10.29 5.06 2.15
-10.40 4.86 2.15
-10.51 4.65 2.16
-10.54 4.42 2.14
-10.56 4.18 2.13
-10.61 3.95 2.13
-10.69 3.74 2.13
-10.77 3.53 2.13
-10.85 3.32 2.13
-10.93 3.10 2.14
-11.01 2.89 2.14
-11.08 2.67 2.14
-11.12 2.44 2.14
-11.13 2.21 2.14
-11.14 1.98 2.13
-11.15 1.75 2.12
-11.16 1.53 2.12
-11.17 1.30 2.12
-11.17 1.07 2.11
-11.18 0.85 2.11
-11.18 0.62 2.11
-11.18 0.40 2.11
-11.18 0.17 2.11
-11.17 -0.05 2.11
-11.17 -0.28 2.11
-11.16 -0.50 2.11
-11.15 -0.72 2.11
-11.15 -0.95 2.11
-11.14 -1.17 2.11
-11.13 -1.40 2.12
-11.13 -1.63 2.12
-11.13 -1.86 2.13
-11.14 -2.09 2.14
-11.14 -2.32 2.15
-11.15 -2.56 2.16
-11.15 -2.79 2.17
-11.15 -3.03 2.19
-11.15 -3.28 2.20
-11.15 -3.52 2.21
-11.17 -3.77 2.23
-11.19 -4.03 2.25
-11.20 -4.29 2.27
-11.22 -4.56 2.29
-11.23 -4.83 2.32
-11.25 -5.11 2.34
-11.27 -5.39 2.37
-11.27 -5.68 2.39
-11.24 -5.95 2.41
-11.21 -6.22 2.43
-11.18 -6.50 2.45
-11.14 -6.78 2.47
-11.10 -7.07 2.50
-11.07 -7.36 2.52
-10.97 -7.62 2.53
-10.85 -7.86 2.54
-10.72 -8.10 2.55
-9.89 -7.79 2.39
-9.73 -7.99 2.39
-9.57 -8.18 2.39
-9.40 -8.37 2.39
-9.23 -8.55 2.39
-9.05 -8.74 2.39
-8.87 -8.92 2.39
-8.69 -9.09 2.39
-8.51 -9.26 2.39
-8.32 -9.43 2.39
-8.13 -9.59 2.39
-7.93 -9.76 2.39
-7.73 -9.91 2.39
-7.53 -10.06 2.39
-7.33 -10.21 2.39
-7.12 -10.36 2.39
-6.91 -10.50 2.39
-6.70 -10.63 2.39
-6.48 -10.76 2.39
-6.27 -10.89 2.39
-6.05 -11.01 2.39
-5.97 -11.41 2.45
-5.84 -11.73 2.49
-5.60 -11.85 2.49
-5.36 -11.96 2.49
-5.12 -12.06 2.49
-4.88 -12.16 2.49
-4.63 -12.26 2.49
-4.39 -12.35 2.49
-4.14 -12.43 2.49
-3.89 -12.51 2.49
-3.63 -12.59 2.49
-3.38 -12.66 2.49
-3.13 -12.72 2.49
-2.87 -12.78 2.49
-2.61 -12.84 2.49
-2.35 -12.89 2.49
-2.09 -12.93 2.49
-1.83 -12.97 2.49
-1.57 -13.01 2.49
-1.31 -13.04 2.49
-1.05 -13.06 2.49
-0.79 -13.08 2.49
-0.52 -13.10 2.49
-0.26 -13.10 2.49
0.00 -11.67 2.49
0.24 -11.67 2.49
0.47 -11.66 2.49
0.70 -11.65 2.49
0.94 -11.64 2.49
1.17 -11.62 2.49
1.41 -11.59 2.49
1.64 -11.56 2.49
1.87 -11.53 2.49
2.08 -11.37 2.47
2.23 -10.97 2.39
2.46 -10.93 2.39
2.67 -10.87 2.39
2.89 -10.82 2.39
3.11 -10.76 2.39
3.33 -10.70 2.39
3.54 -10.63 2.39
3.75 -10.56 2.39
3.96 -10.48 2.39
4.18 -10.40 2.39
4.38 -10.32 2.39
4.59 -10.23 2.39
4.80 -10.14 2.39
5.00 -10.04 2.39
5.20 -9.94 2.39
5.40 -9.83 2.39
5.60 -9.72 2.39
5.79 -9.61 2.39
5.99 -9.50 2.39
6.18 -9.39 2.39
6.37 -9.26 2.39
6.56 -9.13 2.39
6.74 -9.00 2.39
6.92 -8.87 2.39
7.10 -8.73 2.39
7.28 -8.59 2.39
7.45 -8.44 2.39
7.62 -8.29 2.39
7.78 -8.14 2.39
7.95 -7.98 2.39
8.11 -7.82 2.39
8.26 -7.66 2.39
8.42 -7.49 2.39
8.57 -7.32 2.39
8.72 -7.15 2.39
8.86 -6.98 2.39
9.00 -6.80 2.39
9.14 -6.62 2.39
9.27 -6.43 2.39
9.40 -6.25 2.39
9.52 -6.06 2.39
9.65 -5.87 2.39
9.76 -5.67 2.39
9.88 -5.48 2.39
9.99 -5.28 2.39
10.09 -5.08 2.39
10.20 -4.88 2.39
10.29 -4.67 2.39
10.39 -4.47 2.39
10.48 -4.26 2.39
10.56 -4.05 2.39
10.65 -3.84 2.39
10.72 -3.62 2.39
10.80 -3.41 2.39
10.86 -3.19 2.39
10.93 -2.97 2.39
10.99 -2.75 2.39
11.04 -2.53 2.39
11.10 -2.31 2.39
11.14 -2.09 2.39
11.18 -1.86 2.39
11.22 -1.64 2.39
11.25 -1.41 2.39
11.28 -1.19 2.39
11.31 -0.96 2.39
11.33 -0.73 2.39
11.34 -0.51 2.39
11.35 -0.28 2.39
11.36 -0.05 2.39
11.36 0.18 2.39
11.36 0.40 2.39
11.35 0.63 2.39
11.34 0.86 2.39
11.32 1.09 2.39
11.30 1.31 2.39
11.27 1.54 2.39
11.24 1.77 2.39
11.20 1.99 2.39
11.16 2.22 2.39
11.12 2.44 2.39
11.07 2.67 2.39
11.02 2.89 2.39
10.96 3.11 2.39
10.90 3.33 2.39
10.83 3.55 2.39
10.76 3.76 2.39
10.68 3.98 2.39
10.60 4.20 2.39
10.52 4.41 2.39
10.43 4.62 2.39
10.34 4.83 2.39
10.24 5.04 2.39
10.14 5.24 2.39
2.34 1.27 0.56
2.29 1.30 0.55
2.27 1.35 0.55
9.69 6.04 2.39
9.57 6.23 2.39
9.44 6.43 2.39
9.31 6.62 2.39
9.18 6.80 2.39
9.04 6.99 2.39
8.90 7.17 2.39
8.76 7.35 2.39
8.61 7.52 2.39
8.46 7.69 2.39
8.30 7.86 2.39
8.15 8.03 2.39
7.98 8.19 2.39
7.82 8.35 2.39
7.65 8.51 2.39
7.48 8.66 2.39
7.30 8.81 2.39
7.13 8.95 2.39
6.95 9.10 2.39
6.76 9.23 2.39
6.58 9.37 2.39
6.39 9.50 2.39
6.20 9.63 2.39
6.00 9.75 2.39
5.80 9.85 2.39
5.60 9.97 2.39
5.40 10.08 2.39
5.20 10.19 2.39
4.99 10.29 2.39
4.78 10.39 2.39
4.57 10.48 2.39
4.36 10.57 2.39
4.15 10.66 2.39
3.94 10.74 2.39
3.72 10.82 2.39
3.50 10.89 2.39
3.28 10.96 2.39
3.06 11.02 2.39
2.84 11.08 2.39
2.62 11.13 2.39
2.39 11.18 2.39
2.17 11.23 2.39
1.94 11.28 2.39
1.79 11.80 2.49
1.55 11.83 2.49
1.32 11.86 2.49
1.08 11.88 2.49
0.84 11.90 2.49
0.60 11.91 2.49
0.36 11.92 2.49
0.12 11.93 2.49
-0.12 11.93 2.49
-0.36 11.92 2.49
-0.60 11.91 2.49
-0.84 11.89 2.49
-1.07 11.87 2.49
-1.31 11.85 2.49
-1.55 11.82 2.49
-1.79 11.79 2.49
-2.02 11.75 2.49
-2.26 11.70 2.49
-2.49 11.65 2.49
-2.72 11.60 2.49
-2.96 11.54 2.49
-3.19 11.48 2.49
-3.42 11.41 2.49
-3.64 11.34 2.49
-3.87 11.26 2.49
-4.09 11.18 2.49
-4.32 11.09 2.49
-4.54 11.00 2.49
-4.76 10.91 2.49
-4.97 10.81 2.49
-5.19 10.71 2.49
-5.40 10.60 2.49
-5.61 10.49 2.49
-5.82 10.37 2.49
-6.03 10.25 2.49
-6.10 9.92 2.44
-6.17 9.58 2.39
-6.36 9.45 2.39
-6.54 9.32 2.39
-6.73 9.19 2.39
-6.91 9.05 2.39
-7.09 8.91 2.39
-7.26 8.76 2.39
-7.44 8.61 2.39
-7.61 8.46 2.39
-7.77 8.30 2.39
-7.94 8.15 2.39
-8.10 7.98 2.39
-8.25 7.82 2.39
-8.41 7.65 2.39
-8.56 7.48 2.39
-8.70 7.30 2.39
-8.85 7.12 2.39
-8.99 6.94 2.39
-9.12 6.76 2.39
-9.25 6.57 2.39
-9.38 6.39 2.39
-9.51 6.20 2.39
-9.57 5.97 2.38
-9.60 5.72 2.36
-9.63 5.48 2.34
-9.66 5.24 2.32
-9.75 5.04 2.31
-9.85 4.85 2.32
-9.96 4.65 2.32
-9.99 4.42 2.31
-10.01 4.20 2.29
-10.03 3.97 2.28
-10.05 3.75 2.26
-10.08 3.53 2.26
-10.16 3.33 2.26
-10.23 3.13 2.26
-10.30 2.92 2.26
-10.37 2.72 2.27
-10.42 2.51 2.27
-10.44 2.29 2.26
-10.46 2.08 2.26
-10.48 1.87 2.25
-10.51 1.65 2.25
-10.53 1.44 2.25
-10.55 1.23 2.25
-10.57 1.02 2.25
-10.59 0.80 2.25
-10.61 0.59 2.25
-10.63 0.38 2.25
-10.65 0.17 2.26
-10.65 -0.05 2.26
-10.64 -0.26 2.26
-10.63 -0.48 2.26
-10.61 -0.69 2.26
-10.59 -0.90 2.26
-10.58 -1.11 2.26
-10.55 -1.33 2.26
-10.54 -1.54 2.26
-10.55 -1.76 2.27
-10.55 -1.98 2.28
-10.56 -2.20 2.29
-10.56 -2.42 2.30
-10.57 -2.65 2.32
-10.57 -2.88 2.33
-10.57 -3.10 2.34
-10.57 -3.34 2.36
-10.57 -3.57 2.37
-10.56 -3.80 2.39
-10.55 -4.04 2.40
-10.60 -4.31 2.43
-10.64 -4.57 2.47
-10.68 -4.85 2.50
-10.71 -5.13 2.53
-10.02 -5.05 2.39
-9.92 -5.25 2.39
-9.81 -5.44 2.39
-9.70 -5.64 2.39
-9.58 -5.83 2.39
-9.46 -6.02 2.39
-9.34 -6.21 2.39
-9.21 -6.39 2.39
-9.08 -6.58 2.39
-8.94 -6.76 2.39
-8.80 -6.93 2.39
-8.66 -7.11 2.39
-8.52 -7.28 2.39
-8.37 -7.45 2.39
-8.21 -7.61 2.39
-8.06 -7.78 2.39
-7.90 -7.94 2.39
-7.74 -8.09 2.39
-7.57 -8.25 2.39
-7.41 -8.40 2.39
-7.24 -8.54 2.39
-7.06 -8.68 2.39
-6.89 -8.82 2.39
-6.71 -8.96 2.39
-6.52 -9.09 2.39
-6.34 -9.22 2.39
-6.15 -9.34 2.39
-6.00 -9.52 2.40
-5.98 -9.93 2.48
-5.82 -10.12 2.49
-5.61 -10.23 2.49
-5.41 -10.34 2.49
-5.20 -10.45 2.49
-4.99 -10.55 2.49
-4.77 -10.65 2.49
-4.56 -10.74 2.49
-4.34 -10.83 2.49
-4.12 -10.91 2.49
-3.90 -10.99 2.49
-3.68 -11.07 2.49
-3.46 -11.14 2.49
-3.24 -11.21 2.49
-3.01 -11.27 2.49
-2.78 -11.33 2.49
-2.55 -11.38 2.49
-2.33 -11.43 2.49
-2.10 -11.48 2.49
-1.86 -11.52 2.49
-1.63 -11.55 2.49
-1.40 -11.58 2.49
-1.17 -11.61 2.49
-0.93 -11.63 2.49
-0.70 -11.65 2.49
-0.47 -11.66 2.49
-0.23 -11.67 2.49
0.00 -10.51 2.49
0.21 -10.51 2.49
0.42 -10.50 2.49
0.63 -10.49 2.49
0.84 -10.48 2.49
1.06 -10.46 2.49
1.27 -10.43 2.49
1.47 -10.41 2.49
1.68 -10.38 2.49
1.89 -10.34 2.49
2.06 -10.13 2.45
2.21 -9.84 2.39
2.41 -9.79 2.39
2.60 -9.74 2.39
2.80 -9.69 2.39
2.99 -9.63 2.39
3.19 -9.57 2.39
3.38 -9.50 2.39
3.57 -9.44 2.39
3.76 -9.36 2.39
3.95 -9.29 2.39
4.13 -9.21 2.39
4.32 -9.12 2.39
4.50 -9.04 2.39
4.68 -8.95 2.39
4.86 -8.85 2.39
5.04 -8.75 2.39
5.21 -8.65 2.39
5.39 -8.55 2.39
5.56 -8.44 2.39
5.73 -8.33 2.39
5.89 -8.21 2.39
6.06 -8.09 2.39
6.23 -7.98 2.39
6.39 -7.85 2.39
6.55 -7.73 2.39
6.70 -7.59 2.39
6.85 -7.46 2.39
7.00 -7.32 2.39
7.15 -7.18 2.39
7.30 -7.04 2.39
7.44 -6.89 2.39
7.57 -6.74 2.39
7.71 -6.59 2.39
7.84 -6.43 2.39
7.97 -6.28 2.39
8.10 -6.12 2.39
8.22 -5.95 2.39
8.34 -5.79 2.39
8.46 -5.62 2.39
8.57 -5.45 2.39
8.68 -5.28 2.39
8.78 -5.10 2.39
8.89 -4.93 2.39
8.99 -4.75 2.39
9.08 -4.57 2.39
9.17 -4.39 2.39
9.26 -4.20 2.39
9.34 -4.02 2.39
9.43 -3.83 2.39
9.50 -3.64 2.39
9.58 -3.45 2.39
9.64 -3.26 2.39
9.71 -3.06 2.39
9.77 -2.87 2.39
9.83 -2.67 2.39
9.88 -2.47 2.39
9.93 -2.28 2.39
9.98 -2.08 2.39
10.02 -1.88 2.39
10.06 -1.68 2.39
10.09 -1.47 2.39
10.12 -1.27 2.39
10.15 -1.07 2.39
10.17 -0.86 2.39
10.19 -0.66 2.39
10.20 -0.46 2.39
10.21 -0.25 2.39
10.21 -0.05 2.39
10.21 0.16 2.39
10.21 0.36 2.39
10.20 0.57 2.39
10.19 0.77 2.39
10.18 0.98 2.39
10.16 1.18 2.39
10.13 1.39 2.39
10.10 1.59 2.39
10.07 1.79 2.39
10.04 1.99 2.39
10.00 2.20 2.39
9.95 2.40 2.39
9.90 2.60 2.39
9.85 2.80 2.39
9.79 2.99 2.39
9.73 3.19 2.39
9.67 3.38 2.39
9.60 3.58 2.39
9.53 3.77 2.39
9.45 3.96 2.39
9.37 4.15 2.39
9.29 4.34 2.39
9.20 4.53 2.39
9.11 4.71 2.39
2.34 1.27 0.62
2.29 1.30 0.61
2.27 1.35 0.62
8.71 5.43 2.39
8.60 5.60 2.39
8.49 5.78 2.39
8.37 5.95 2.39
8.25 6.11 2.39
8.13 6.28 2.39
8.00 6.44 2.39
7.87 6.60 2.39
7.74 6.76 2.39
7.60 6.91 2.39
7.46 7.06 2.39
7.32 7.21 2.39
7.17 7.36 2.39
7.03 7.50 2.39
6.87 7.64 2.39
6.72 7.78 2.39
6.56 7.91 2.39
6.40 8.04 2.39
6.24 8.17 2.39
6.08 8.30 2.39
5.90 8.41 2.39
5.73 8.52 2.39
5.56 8.64 2.39
5.39 8.75 2.39
5.21 8.85 2.39
5.03 8.96 2.39
4.85 9.06 2.39
4.67 9.15 2.39
4.48 9.25 2.39
4.30 9.33 2.39
4.11 9.42 2.39
3.92 9.50 2.39
3.73 9.58 2.39
3.54 9.65 2.39
3.34 9.72 2.39
3.15 9.78 2.39
2.95 9.84 2.39
2.75 9.90 2.39
2.55 9.96 2.39
2.35 10.00 2.39
2.15 10.05 2.39
1.95 10.10 2.39
1.82 10.56 2.49
1.61 10.60 2.49
1.40 10.63 2.49
1.18 10.65 2.49
0.97 10.67 2.49
0.75 10.69 2.49
0.54 10.70 2.49
0.32 10.71 2.49
0.11 10.72 2.49
-0.11 10.72 2.49
-0.32 10.71 2.49
-0.54 10.70 2.49
-0.75 10.69 2.49
-0.96 10.67 2.49
-1.18 10.65 2.49
-1.39 10.62 2.49
-1.60 10.59 2.49
-1.82 10.55 2.49
-2.03 10.51 2.49
-2.24 10.47 2.49
-2.45 10.42 2.49
-2.66 10.37 2.49
-2.86 10.31 2.49
-3.07 10.25 2.49
-3.27 10.19 2.49
-3.48 10.12 2.49
-3.68 10.05 2.49
-3.88 9.97 2.49
-4.08 9.89 2.49
-4.27 9.80 2.49
-4.47 9.71 2.49
-4.66 9.62 2.49
-4.85 9.53 2.49
-5.04 9.42 2.49
-5.23 9.32 2.49
-5.42 9.21 2.49
-5.60 9.10 2.49
-5.78 8.98 2.49
-5.96 8.87 2.49
-6.10 8.69 2.48
-6.10 8.34 2.41
-6.21 8.14 2.39
-6.37 8.01 2.39
-6.53 7.88 2.39
-6.68 7.74 2.39
-6.84 7.61 2.39
-6.99 7.47 2.39
-7.13 7.32 2.39
-7.28 7.18 2.39
-7.42 7.03 2.39
-7.56 6.88 2.39
-7.69 6.72 2.39
-7.83 6.57 2.39
-7.95 6.41 2.39
-8.08 6.24 2.39
-8.20 6.08 2.39
-8.32 5.91 2.39
-8.44 5.74 2.39
-8.55 5.57 2.39
-8.66 5.40 2.39
-8.76 5.22 2.39
-8.86 5.04 2.39
-8.96 4.86 2.39
-9.05 4.68 2.39
-9.14 4.50 2.39
-9.23 4.31 2.39
-9.31 4.13 2.39
-9.39 3.94 2.39
-9.47 3.75 2.39
-9.54 3.56 2.39
-9.59 3.36 2.39
-9.61 3.15 2.37
-9.67 2.96 2.38
-9.74 2.76 2.38
-9.80 2.57 2.38
-9.82 2.37 2.37
-9.84 2.16 2.37
-9.86 1.96 2.36
-9.87 1.76 2.36
-9.89 1.56 2.35
-9.90 1.36 2.35
-9.92 1.16 2.35
-9.94 0.96 2.35
-9.96 0.76 2.35
-9.97 0.56 2.35
-9.99 0.36 2.36
-10.02 0.16 2.36
-10.03 -0.05 2.36
-10.05 -0.25 2.37
-10.06 -0.45 2.38
-10.05 -0.65 2.38
-10.04 -0.85 2.38
-10.02 -1.05 2.38
-10.00 -1.26 2.38
-9.97 -1.46 2.38
-9.98 -1.66 2.39
-9.95 -1.86 2.39
-9.91 -2.06 2.39
-9.87 -2.26 2.39
-9.82 -2.46 2.39
-9.76 -2.66 2.39
-9.71 -2.85 2.39
-9.65 -3.04 2.39
-9.58 -3.24 2.39
-9.51 -3.43 2.39
-9.44 -3.62 2.39
-9.36 -3.81 2.39
-9.28 -3.99 2.39
-9.20 -4.18 2.39
-9.11 -4.36 2.39
-9.02 -4.54 2.39
-8.93 -4.72 2.39
-8.83 -4.90 2.39
-8.73 -5.07 2.39
-8.62 -5.25 2.39
-8.52 -5.42 2.39
-8.40 -5.59 2.39
-8.29 -5.76 2.39
-8.17 -5.92 2.39
-8.05 -6.08 2.39
-7.92 -6.24 2.39
-7.80 -6.40 2.39
-7.67 -6.55 2.39
-7.53 -6.71 2.39
-7.40 -6.85 2.39
-7.26 -7.00 2.39
-7.11 -7.14 2.39
-6.97 -7.29 2.39
-6.82 -7.42 2.39
-6.67 -7.56 2.39
-6.51 -7.69 2.39
-6.36 -7.82 2.39
-6.21 -7.96 2.39
-6.04 -8.07 2.39
-5.99 -8.35 2.44
-5.95 -8.66 2.49
-5.78 -8.78 2.49
-5.60 -8.89 2.49
-5.42 -9.00 2.49
-5.24 -9.11 2.49
-5.05 -9.21 2.49
-4.87 -9.31 2.49
-4.68 -9.40 2.49
-4.49 -9.50 2.49
-4.30 -9.58 2.49
-4.11 -9.67 2.49
-3.91 -9.75 2.49
-3.71 -9.82 2.49
-3.52 -9.90 2.49
-3.32 -9.97 2.49
-3.12 -10.03 2.49
-2.91 -10.09 2.49
-2.71 -10.15 2.49
-2.51 -10.20 2.49
-2.30 -10.25 2.49
-2.09 -10.29 2.49
-1.89 -10.33 2.49
-1.68 -10.37 2.49
-1.47 -10.40 2.49
-1.26 -10.43 2.49
-1.05 -10.45 2.49
-0.84 -10.47 2.49
-0.63 -10.49 2.49
-0.42 -10.50 2.49
-0.21 -10.50 2.49
0.00 -9.54 2.49
0.19 -9.54 2.49
0.38 -9.54 2.49
0.58 -9.53 2.49
0.77 -9.52 2.49
0.96 -9.50 2.49
1.15 -9.48 2.49
1.34 -9.45 2.49
1.53 -9.43 2.49
1.72 -9.39 2.49
1.91 -9.36 2.49
2.06 -9.16 2.45
2.19 -8.89 2.39
2.37 -8.85 2.39
2.54 -8.80 2.39
2.72 -8.75 2.39
2.90 -8.69 2.39
3.07 -8.63 2.39
3.24 -8.57 2.39
3.41 -8.50 2.39
3.58 -8.44 2.39
3.75 -8.36 2.39
3.92 -8.29 2.39
4.09 -8.21 2.39
4.25 -8.12 2.39
4.42 -8.04 2.39
4.58 -7.95 2.39
4.74 -7.86 2.39
4.89 -7.76 2.39
5.05 -7.66 2.39
5.20 -7.56 2.39
5.35 -7.46 2.39
5.50 -7.35 2.39
5.65 -7.24 2.39
5.80 -7.12 2.39
5.94 -7.01 2.39
6.09 -6.90 2.39
6.23 -6.77 2.39
6.36 -6.65 2.39
6.49 -6.52 2.39
6.63 -6.39 2.39
6.75 -6.26 2.39
6.88 -6.12 2.39
7.00 -5.98 2.39
7.12 -5.84 2.39
7.24 -5.70 2.39
7.35 -5.55 2.39
7.46 -5.40 2.39
7.57 -5.25 2.39
7.68 -5.10 2.39
7.78 -4.95 2.39
7.88 -4.79 2.39
7.98 -4.63 2.39
8.07 -4.47 2.39
8.16 -4.31 2.39
8.24 -4.15 2.39
8.33 -3.98 2.39
8.41 -3.81 2.39
8.48 -3.65 2.39
8.56 -3.48 2.39
8.63 -3.30 2.39
8.69 -3.13 2.39
8.76 -2.96 2.39
8.81 -2.78 2.39
8.87 -2.60 2.39
8.92 -2.43 2.39
8.97 -2.25 2.39
9.02 -2.07 2.39
9.06 -1.88 2.39
9.09 -1.70 2.39
9.13 -1.52 2.39
9.16 -1.34 2.39
9.19 -1.15 2.39
9.21 -0.97 2.39
9.23 -0.78 2.39
9.24 -0.60 2.39
9.26 -0.41 2.39
9.26 -0.23 2.39
9.27 -0.04 2.39
9.27 0.14 2.39
9.27 0.33 2.39
9.26 0.52 2.39
9.25 0.70 2.39
9.23 0.89 2.39
9.22 1.07 2.39
9.19 1.26 2.39
9.17 1.44 2.39
9.14 1.63 2.39
9.11 1.81 2.39
9.07 1.99 2.39
9.03 2.18 2.39
8.99 2.36 2.39
8.94 2.54 2.39
8.89 2.72 2.39
8.83 2.89 2.39
8.77 3.07 2.39
8.71 3.25 2.39
8.65 3.42 2.39
8.58 3.60 2.39
8.50 3.77 2.39
8.43 3.94 2.39
8.35 4.11 2.39
8.27 4.27 2.39
2.34 1.27 0.68
2.29 1.30 0.68
2.27 1.35 0.68
7.90 4.93 2.39
7.80 5.08 2.39
7.70 5.24 2.39
7.59 5.39 2.39
7.48 5.55 2.39
7.37 5.70 2.39
7.26 5.84 2.39
7.14 5.99 2.39
7.02 6.13 2.39
6.89 6.27 2.39
6.77 6.41 2.39
6.64 6.54 2.39
6.51 6.68 2.39
6.37 6.81 2.39
6.23 6.93 2.39
6.09 7.06 2.39
5.94 7.17 2.39
5.80 7.29 2.39
5.65 7.40 2.39
5.50 7.52 2.39
5.35 7.62 2.39
5.20 7.73 2.39
5.04 7.83 2.39
4.88 7.93 2.39
4.72 8.03 2.39
4.56 8.12 2.39
4.40 8.21 2.39
4.23 8.30 2.39
4.07 8.39 2.39
3.90 8.47 2.39
3.73 8.54 2.39
3.56 8.62 2.39
3.38 8.69 2.39
3.21 8.75 2.39
3.03 8.81 2.39
2.85 8.87 2.39
2.67 8.93 2.39
2.50 8.98 2.39
2.31 9.03 2.39
2.14 9.09 2.40
1.96 9.14 2.40
1.84 9.55 2.49
1.65 9.58 2.49
1.46 9.61 2.49
1.27 9.64 2.49
1.07 9.66 2.49
0.88 9.68 2.49
0.68 9.70 2.49
0.49 9.71 2.49
0.29 9.72 2.49
0.10 9.72 2.49
-0.10 9.72 2.49
-0.29 9.71 2.49
-0.49 9.71 2.49
-0.68 9.69 2.49
-0.87 9.68 2.49
-1.07 9.66 2.49
-1.26 9.63 2.49
-1.45 9.60 2.49
-1.65 9.57 2.49
-1.84 9.54 2.49
-2.03 9.50 2.49
-2.22 9.45 2.49
-2.41 9.41 2.49
-2.60 9.36 2.49
-2.78 9.30 2.49
-2.97 9.24 2.49
-3.15 9.18 2.49
-3.34 9.11 2.49
-3.52 9.04 2.49
-3.70 8.97 2.49
-3.88 8.89 2.49
-4.05 8.81 2.49
-4.23 8.73 2.49
-4.40 8.64 2.49
-4.58 8.55 2.49
-4.75 8.45 2.49
-4.91 8.36 2.49
-5.08 8.26 2.49
-5.24 8.15 2.49
-5.41 8.04 2.49
-5.56 7.93 2.49
-5.72 7.82 2.49
-5.88 7.70 2.49
-6.03 7.58 2.49
-6.09 7.35 2.46
-6.10 7.06 2.40
-6.20 6.90 2.39
-6.34 6.77 2.39
-6.47 6.64 2.39
-6.60 6.51 2.39
-6.73 6.38 2.39
-6.86 6.24 2.39
-6.98 6.10 2.39
-7.10 5.96 2.39
-7.22 5.81 2.39
-7.33 5.67 2.39
-7.44 5.52 2.39
-7.55 5.37 2.39
-7.65 5.21 2.39
-7.76 5.06 2.39
-7.85 4.90 2.39
-7.95 4.74 2.39
-8.04 4.58 2.39
-8.13 4.41 2.39
-8.22 4.25 2.39
-8.30 4.08 2.39
-8.38 3.92 2.39
-8.45 3.75 2.39
-8.52 3.57 2.39
-8.59 3.40 2.39
-8.66 3.23 2.39
-8.72 3.05 2.39
-8.78 2.88 2.39
-8.83 2.70 2.39
-8.88 2.52 2.39
-8.93 2.34 2.39
-8.97 2.16 2.39
-9.01 1.98 2.39
-9.05 1.80 2.39
-9.08 1.62 2.39
-9.11 1.43 2.39
-9.14 1.25 2.39
-9.16 1.07 2.39
-9.17 0.88 2.39
-9.19 0.70 2.39
-9.20 0.51 2.39
-9.21 0.33 2.39
-9.21 0.14 2.39
-9.21 -0.04 2.39
-9.20 -0.23 2.39
-9.20 -0.41 2.39
-9.18 -0.59 2.39
-9.17 -0.78 2.39
-9.15 -0.96 2.39
-9.13 -1.15 2.39
-9.10 -1.33 2.39
-9.07 -1.51 2.39
-9.04 -1.69 2.39
-9.00 -1.87 2.39
-8.96 -2.05 2.39
-8.91 -2.23 2.39
-8.87 -2.41 2.39
-8.81 -2.59 2.39
-8.76 -2.76 2.39
-8.70 -2.94 2.39
-8.64 -3.11 2.39
-8.57 -3.28 2.39
-8.50 -3.46 2.39
-8.43 -3.63 2.39
-8.36 -3.79 2.39
-8.28 -3.96 2.39
-8.19 -4.12 2.39
-8.11 -4.29 2.39
-8.02 -4.45 2.39
-7.93 -4.61 2.39
-7.83 -4.77 2.39
-7.74 -4.92 2.39
-7.63 -5.08 2.39
-7.53 -5.23 2.39
-7.42 -5.38 2.39
-7.31 -5.52 2.39
-7.20 -5.67 2.39
-7.08 -5.81 2.39
-6.96 -5.95 2.39
-6.84 -6.09 2.39
-6.72 -6.23 2.39
-6.59 -6.36 2.39
-6.46 -6.49 2.39
-6.33 -6.62 2.39
-6.21 -6.76 2.40
-6.06 -6.87 2.39
-6.00 -7.09 2.43
-6.00 -7.38 2.48
-5.87 -7.53 2.49
-5.72 -7.64 2.49
-5.57 -7.76 2.49
-5.41 -7.87 2.49
-5.25 -7.97 2.49
-5.09 -8.08 2.49
-4.92 -8.18 2.49
-4.76 -8.27 2.49
-4.59 -8.37 2.49
-4.42 -8.46 2.49
-4.25 -8.54 2.49
-4.08 -8.63 2.49
-3.91 -8.71 2.49
-3.73 -8.78 2.49
-3.55 -8.86 2.49
-3.37 -8.93 2.49
-3.19 -8.99 2.49
-3.01 -9.05 2.49
-2.83 -9.11 2.49
-2.65 -9.17 2.49
-2.46 -9.22 2.49
-2.28 -9.27 2.49
-2.09 -9.31 2.49
-1.90 -9.35 2.49
-1.71 -9.39 2.49
-1.53 -9.42 2.49
-1.34 -9.45 2.49
-1.15 -9.47 2.49
-0.96 -9.49 2.49
-0.76 -9.51 2.49
-0.57 -9.53 2.49
-0.38 -9.54 2.49
-0.19 -9.54 2.49
0.00 -8.74 2.49
0.18 -8.73 2.49
0.35 -8.73 2.49
0.53 -8.72 2.49
0.70 -8.71 2.49
0.88 -8.69 2.49
1.05 -8.67 2.49
1.23 -8.65 2.49
1.40 -8.63 2.49
1.57 -8.60 2.49
1.75 -8.56 2.49
1.92 -8.53 2.49
2.05 -8.35 2.45
2.17 -8.10 2.39
2.33 -8.05 2.39
2.49 -8.01 2.39
2.65 -7.95 2.39
2.81 -7.90 2.39
2.97 -7.84 2.39
3.12 -7.78 2.39
3.28 -7.72 2.39
3.44 -7.65 2.39
3.59 -7.58 2.39
3.74 -7.51 2.39
3.89 -7.43 2.39
4.04 -7.36 2.39
4.19 -7.27 2.39
4.33 -7.19 2.39
4.48 -7.10 2.39
4.62 -7.01 2.39
4.76 -6.92 2.39
4.90 -6.82 2.39
5.04 -6.72 2.39
5.17 -6.62 2.39
5.30 -6.52 2.39
5.43 -6.41 2.39
5.56 -6.30 2.39
5.69 -6.19 2.39
5.81 -6.07 2.39
5.93 -5.96 2.39
6.05 -5.84 2.39
6.18 -5.72 2.39
6.29 -5.60 2.39
6.41 -5.47 2.39
6.52 -5.34 2.39
6.62 -5.21 2.39
6.73 -5.08 2.39
6.83 -4.94 2.39
6.93 -4.81 2.39
7.02 -4.67 2.39
7.12 -4.53 2.39
7.21 -4.38 2.39
7.30 -4.24 2.39
7.38 -4.09 2.39
7.46 -3.94 2.39
7.54 -3.79 2.39
7.62 -3.64 2.39
7.69 -3.49 2.39
7.76 -3.33 2.39
7.83 -3.18 2.39
7.89 -3.02 2.39
7.95 -2.86 2.39
8.01 -2.70 2.39
8.06 -2.54 2.39
8.11 -2.38 2.39
8.16 -2.22 2.39
8.20 -2.05 2.39
8.25 -1.89 2.39
8.28 -1.72 2.39
8.32 -1.56 2.39
8.35 -1.39 2.39
8.38 -1.22 2.39
8.40 -1.05 2.39
8.42 -0.89 2.39
8.44 -0.72 2.39
8.45 -0.55 2.39
8.46 -0.38 2.39
8.47 -0.21 2.39
8.48 -0.04 2.39
8.48 0.13 2.39
8.47 0.30 2.39
8.47 0.47 2.39
8.46 0.64 2.39
8.44 0.81 2.39
8.43 0.98 2.39
8.41 1.15 2.39
8.38 1.32 2.39
8.36 1.49 2.39
8.33 1.66 2.39
8.29 1.82 2.39
8.26 1.99 2.39
8.22 2.15 2.39
8.17 2.32 2.39
8.12 2.48 2.39
8.07 2.65 2.39
8.02 2.81 2.39
7.96 2.97 2.39
7.90 3.13 2.39
7.84 3.29 2.39
7.77 3.44 2.39
7.70 3.60 2.39
7.63 3.75 2.39
7.56 3.91 2.39
2.34 1.27 0.75
2.29 1.30 0.74
2.27 1.35 0.74
7.22 4.50 2.39
7.13 4.65 2.39
7.04 4.79 2.39
6.94 4.93 2.39
6.84 5.07 2.39
6.74 5.21 2.39
6.63 5.34 2.39
6.53 5.47 2.39
6.41 5.60 2.39
6.30 5.73 2.39
6.19 5.86 2.39
6.07 5.98 2.39
5.94 6.09 2.39
5.82 6.21 2.39
5.69 6.33 2.39
5.56 6.44 2.39
5.43 6.55 2.39
5.30 6.66 2.39
5.17 6.77 2.39
5.03 6.87 2.39
4.89 6.97 2.39
4.75 7.07 2.39
4.61 7.16 2.39
4.46 7.25 2.39
4.32 7.34 2.39
4.17 7.43 2.39
4.02 7.51 2.39
3.87 7.59 2.39
3.72 7.66 2.39
3.56 7.74 2.39
3.41 7.81 2.39
3.25 7.87 2.39
3.09 7.94 2.39
2.93 8.00 2.39
2.77 8.06 2.39
2.61 8.11 2.39
2.44 8.16 2.39
2.28 8.21 2.39
2.12 8.25 2.39
1.96 8.34 2.40
1.86 8.69 2.49
1.68 8.72 2.49
1.51 8.76 2.49
1.33 8.78 2.49
1.16 8.81 2.49
0.98 8.83 2.49
0.80 8.85 2.49
0.62 8.86 2.49
0.45 8.87 2.49
0.27 8.88 2.49
0.09 8.88 2.49
-0.09 8.88 2.49
-0.27 8.88 2.49
-0.44 8.87 2.49
-0.62 8.86 2.49
-0.80 8.84 2.49
-0.98 8.83 2.49
-1.15 8.80 2.49
-1.33 8.78 2.49
-1.51 8.75 2.49
-1.68 8.72 2.49
-1.85 8.68 2.49
-2.03 8.64 2.49
-2.20 8.60 2.49
-2.37 8.55 2.49
-2.54 8.50 2.49
-2.71 8.45 2.49
-2.88 8.39 2.49
-3.05 8.33 2.49
-3.22 8.27 2.49
-3.38 8.20 2.49
-3.54 8.13 2.49
-3.71 8.06 2.49
-3.87 7.98 2.49
-4.03 7.90 2.49
-4.18 7.82 2.49
-4.34 7.73 2.49
-4.49 7.64 2.49
-4.64 7.55 2.49
-4.79 7.45 2.49
-4.94 7.35 2.49
-5.09 7.25 2.49
-5.23 7.15 2.49
-5.37 7.04 2.49
-5.51 6.93 2.49
-5.65 6.82 2.49
-5.78 6.70 2.49
-5.92 6.58 2.49
-6.05 6.46 2.49
-6.08 6.24 2.46
-6.09 6.00 2.41
-6.16 5.83 2.39
-6.29 5.72 2.40
-6.38 5.58 2.39
-6.49 5.45 2.39
-6.60 5.32 2.39
-6.70 5.18 2.39
-6.80 5.04 2.39
-6.90 4.91 2.39
-7.00 4.77 2.39
-7.09 4.62 2.39
-7.18 4.48 2.39
-7.27 4.33 2.39
-7.35 4.19 2.39
-7.44 4.04 2.39
-7.51 3.89 2.39
-7.59 3.73 2.39
-7.66 3.58 2.39
-7.73 3.43 2.39
-7.80 3.27 2.39
-7.86 3.11 2.39
-7.92 2.95 2.39
-7.97 2.79 2.39
-8.03 2.63 2.39
-8.08 2.47 2.39
-8.12 2.31 2.39
-8.17 2.14 2.39
-8.21 1.98 2.39
-8.24 1.81 2.39
-8.28 1.65 2.39
-8.31 1.48 2.39
-8.33 1.31 2.39
-8.36 1.14 2.39
-8.38 0.98 2.39
-8.39 0.81 2.39
-8.41 0.64 2.39
-8.42 0.47 2.39
-8.42 0.30 2.39
-8.42 0.13 2.39
-8.42 -0.04 2.39
-8.42 -0.21 2.39
-8.41 -0.38 2.39
-8.40 -0.54 2.39
-8.39 -0.71 2.39
-8.37 -0.88 2.39
-8.35 -1.05 2.39
-8.33 -1.22 2.39
-8.30 -1.38 2.39
-8.27 -1.55 2.39
-8.23 -1.71 2.39
-8.20 -1.88 2.39
-8.16 -2.04 2.39
-8.11 -2.21 2.39
-8.07 -2.37 2.39
-8.01 -2.53 2.39
-7.96 -2.69 2.39
-7.90 -2.85 2.39
-7.84 -3.01 2.39
-7.78 -3.16 2.39
-7.72 -3.32 2.39
-7.65 -3.47 2.39
-7.57 -3.62 2.39
-7.50 -3.77 2.39
-7.42 -3.92 2.39
-7.34 -4.07 2.39
-7.26 -4.22 2.39
-7.17 -4.36 2.39
-7.08 -4.50 2.39
-6.99 -4.64 2.39
-6.89 -4.78 2.39
-6.79 -4.92 2.39
-6.69 -5.05 2.39
-6.59 -5.19 2.39
-6.48 -5.32 2.39
-6.37 -5.45 2.39
-6.26 -5.57 2.39
-6.15 -5.70 2.39
-6.03 -5.82 2.39
-6.01 -6.04 2.43
-6.01 -6.28 2.48
-5.91 -6.44 2.49
-5.78 -6.55 2.49
-5.65 -6.67 2.49
-5.51 -6.78 2.49
-5.38 -6.89 2.49
-5.24 -6.99 2.49
-5.09 -7.10 2.49
-4.95 -7.20 2.49
-4.80 -7.30 2.49
-4.66 -7.39 2.49
-4.51 -7.48 2.49
-4.36 -7.57 2.49
-4.20 -7.66 2.49
-4.05 -7.74 2.49
-3.89 -7.82 2.49
-3.73 -7.90 2.49
-3.57 -7.97 2.49
-3.41 -8.04 2.49
-3.25 -8.11 2.49
-3.09 -8.17 2.49
-2.92 -8.23 2.49
-2.76 -8.29 2.49
-2.59 -8.34 2.49
-2.42 -8.39 2.49
-2.25 -8.44 2.49
-2.08 -8.48 2.49
-1.91 -8.52 2.49
-1.74 -8.56 2.49
-1.57 -8.59 2.49
-1.40 -8.62 2.49
-1.22 -8.65 2.49
-1.05 -8.67 2.49
-0.87 -8.69 2.49
-0.70 -8.71 2.49
-0.52 -8.72 2.49
-0.35 -8.73 2.49
-0.17 -8.73 2.49
0.00 -8.04 2.49
0.16 -8.04 2.49
0.32 -8.04 2.49
0.49 -8.03 2.49
0.65 -8.02 2.49
0.81 -8.01 2.49
0.97 -7.99 2.49
1.13 -7.97 2.49
1.29 -7.94 2.49
1.45 -7.92 2.49
1.61 -7.89 2.49
1.77 -7.85 2.49
1.92 -7.82 2.49
2.05 -7.66 2.46
2.14 -7.42 2.39
2.29 -7.37 2.39
2.44 -7.32 2.39
2.59 -7.27 2.39
2.73 -7.22 2.39
2.88 -7.17 2.39
3.02 -7.11 2.39
3.16 -7.05 2.39
3.30 -6.98 2.39
3.44 -6.92 2.39
3.58 -6.85 2.39
3.72 -6.77 2.39
3.86 -6.70 2.39
3.99 -6.62 2.39
4.12 -6.54 2.39
4.25 -6.46 2.39
4.38 -6.37 2.39
4.51 -6.28 2.39
4.64 -6.19 2.39
4.76 -6.10 2.39
4.88 -6.00 2.39
5.00 -5.90 2.39
5.12 -5.80 2.39
5.24 -5.70 2.39
5.35 -5.59 2.39
5.46 -5.48 2.39
5.57 -5.37 2.39
5.68 -5.26 2.39
5.79 -5.15 2.39
5.89 -5.03 2.39
5.99 -4.91 2.39
6.10 -4.80 2.39
6.19 -4.68 2.39
6.29 -4.55 2.39
6.38 -4.42 2.39
6.47 -4.30 2.39
6.55 -4.17 2.39
6.64 -4.03 2.39
6.72 -3.90 2.39
6.79 -3.77 2.39
6.87 -3.63 2.39
6.94 -3.49 2.39
7.01 -3.35 2.39
7.08 -3.21 2.39
7.14 -3.07 2.39
7.20 -2.93 2.39
7.26 -2.78 2.39
7.32 -2.63 2.39
7.37 -2.49 2.39
7.42 -2.34 2.39
7.47 -2.19 2.39
7.51 -2.04 2.39
7.55 -1.89 2.39
7.59 -1.74 2.39
7.62 -1.59 2.39
7.66 -1.43 2.39
7.68 -1.28 2.39
7.71 -1.12 2.39
7.73 -0.97 2.39
7.75 -0.81 2.39
7.77 -0.66 2.39
7.78 -0.50 2.39
7.79 -0.35 2.39
7.80 -0.19 2.39
7.80 -0.03 2.39
7.80 0.12 2.39
7.80 0.28 2.39
7.79 0.44 2.39
7.78 0.59 2.39
7.77 0.75 2.39
7.75 0.90 2.39
7.74 1.06 2.39
7.71 1.21 2.39
7.69 1.37 2.39
7.66 1.52 2.39
7.63 1.68 2.39
7.60 1.83 2.39
7.56 1.98 2.39
7.52 2.13 2.39
7.48 2.29 2.39
7.43 2.44 2.39
7.38 2.58 2.39
7.33 2.73 2.39
7.27 2.88 2.39
7.21 3.02 2.39
7.15 3.17 2.39
7.09 3.31 2.39
7.02 3.45 2.39
6.95 3.59 2.39
2.34 1.27 0.81
2.29 1.30 0.80
2.27 1.35 0.81
6.64 4.14 2.39
6.56 4.28 2.39
6.47 4.41 2.39
6.38 4.54 2.39
6.29 4.66 2.39
6.20 4.79 2.39
6.10 4.91 2.39
6.00 5.04 2.39
5.89 5.15 2.39
5.79 5.27 2.39
5.68 5.38 2.39
5.57 5.49 2.39
5.46 5.61 2.39
5.35 5.72 2.39
5.24 5.82 2.39
5.12 5.93 2.39
5.00 6.03 2.39
4.88 6.13 2.39
4.75 6.22 2.39
4.63 6.32 2.39
4.50 6.41 2.39
4.37 6.50 2.39
4.24 6.59 2.39
4.11 6.67 2.39
3.97 6.75 2.39
3.84 6.83 2.39
3.70 6.91 2.39
3.56 6.98 2.39
3.42 7.05 2.39
3.28 7.12 2.39
3.13 7.18 2.39
2.99 7.24 2.39
2.84 7.30 2.39
2.70 7.36 2.39
2.55 7.41 2.39
2.40 7.46 2.39
2.25 7.51 2.39
2.10 7.55 2.39
1.96 7.65 2.41
1.87 7.96 2.49
1.71 7.99 2.49
1.55 8.03 2.49
1.39 8.05 2.49
1.23 8.08 2.49
1.06 8.10 2.49
0.90 8.12 2.49
0.74 8.14 2.49
0.57 8.15 2.49
0.41 8.16 2.49
0.25 8.17 2.49
0.08 8.17 2.49
-0.08 8.17 2.49
-0.24 8.17 2.49
-0.41 8.16 2.49
-0.57 8.15 2.49
-0.73 8.14 2.49
-0.90 8.12 2.49
-1.06 8.10 2.49
-1.22 8.08 2.49
-1.38 8.05 2.49
-1.55 8.02 2.49
-1.71 7.99 2.49
-1.87 7.95 2.49
-2.02 7.91 2.49
-2.18 7.87 2.49
-2.34 7.82 2.49
-2.50 7.77 2.49
-2.65 7.72 2.49
-2.81 7.66 2.49
-2.96 7.61 2.49
-3.11 7.54 2.49
-3.26 7.48 2.49
-3.41 7.41 2.49
-3.56 7.34 2.49
-3.70 7.27 2.49
-3.85 7.19 2.49
-3.99 7.11 2.49
-4.13 7.03 2.49
-4.27 6.94 2.49
-4.41 6.86 2.49
-4.55 6.77 2.49
-4.68 6.67 2.49
-4.81 6.58 2.49
-4.94 6.48 2.49
-5.07 6.38 2.49
-5.20 6.27 2.49
-5.32 6.17 2.49
-5.44 6.06 2.49
-5.56 5.95 2.49
-5.68 5.83 2.49
-5.80 5.72 2.49
-5.91 5.60 2.49
-6.02 5.48 2.49
-6.08 5.31 2.47
-6.08 5.10 2.43
-6.09 4.90 2.40
-6.17 4.77 2.39
-6.28 4.66 2.40
-6.35 4.52 2.39
-6.44 4.39 2.39
-6.53 4.26 2.39
-6.61 4.12 2.39
-6.69 3.99 2.39
-6.77 3.85 2.39
-6.84 3.72 2.39
-6.91 3.58 2.39
-6.98 3.44 2.39
-7.05 3.30 2.39
-7.11 3.15 2.39
-7.17 3.01 2.39
-7.23 2.86 2.39
