ply
format ascii 1.0
element vertex 2917
property float32 x
property float32 y
property float32 z
end_header
7.20 18.48 2.35
6.56 17.88 2.25
6.41 18.62 2.33
6.19 19.21 2.39
5.80 19.32 2.39
5.40 19.42 2.39
5.01 19.52 2.39
4.62 19.60 2.39
4.22 19.68 2.39
3.82 19.75 2.39
3.42 19.81 2.39
3.02 19.86 2.39
2.62 19.91 2.39
2.31 20.81 2.49
1.90 20.84 2.49
1.48 20.86 2.49
1.06 20.87 2.49
0.64 20.88 2.49
0.22 20.88 2.49
-0.20 20.86 2.49
-0.62 20.84 2.49
-1.04 20.82 2.49
-1.45 20.78 2.49
-1.87 20.74 2.49
-2.29 20.68 2.49
-2.70 20.62 2.49
-3.11 20.55 2.49
-3.52 20.48 2.49
-3.93 20.39 2.49
-4.33 20.30 2.49
-4.74 20.20 2.49
-5.14 20.09 2.49
-5.54 19.97 2.49
-5.69 19.02 2.39
-6.07 18.90 2.39
-6.44 18.76 2.39
-6.82 18.62 2.39
-7.19 18.47 2.39
-7.55 18.31 2.39
-7.91 18.15 2.39
-8.27 17.98 2.39
-8.63 17.80 2.39
-8.98 17.62 2.39
-9.33 17.43 2.39
-9.67 17.23 2.39
-9.71 16.51 2.32
-9.75 15.85 2.25
-13.16 20.44 2.95
-13.69 20.37 2.97
-14.24 20.28 3.00
-9.82 13.41 2.02
-15.19 19.89 3.04
-15.59 19.58 3.04
-9.87 11.91 1.88
-16.36 18.94 3.04
-16.75 18.62 3.04
-17.15 18.32 3.05
-17.56 18.02 3.06
-17.97 17.71 3.07
-18.38 17.40 3.08
-18.78 17.07 3.09
-9.99 8.73 1.62
-20.93 17.55 3.33
-10.01 8.06 1.57
-10.02 7.74 1.54
-10.57 -7.04 1.54
-10.56 -7.34 1.56
-10.58 -7.67 1.58
-20.20 -19.51 3.39
-19.95 -20.07 3.41
-8.85 -9.27 1.55
-8.55 -9.32 1.52
-8.22 -9.33 1.50
-7.91 -9.34 1.47
-8.98 -11.06 1.71
-8.95 -11.48 1.75
-8.96 -11.99 1.80
-8.97 -12.51 1.85
-8.58 -12.49 1.82
-8.22 -12.50 1.80
-10.62 -16.87 2.39
-10.28 -17.09 2.39
-9.94 -17.30 2.39
-9.60 -17.51 2.39
-9.25 -17.71 2.39
-8.90 -17.90 2.39
-8.54 -18.09 2.39
-8.18 -18.26 2.39
-7.79 -18.38 2.38
-7.37 -18.39 2.36
-7.08 -18.75 2.39
-6.97 -19.64 2.48
-6.60 -19.87 2.49
-6.20 -20.01 2.49
-5.80 -20.14 2.49
-5.40 -20.26 2.49
-5.00 -20.38 2.49
-4.59 -20.49 2.49
-4.18 -20.58 2.49
-3.77 -20.68 2.49
-3.35 -20.76 2.49
-2.94 -20.83 2.49
-2.52 -20.90 2.49
-2.10 -20.96 2.49
-1.68 -21.01 2.49
-1.26 -21.05 2.49
-0.84 -21.08 2.49
-0.42 -21.11 2.49
0.01 -17.69 2.49
0.36 -17.70 2.49
0.72 -17.69 2.49
1.07 -17.68 2.49
1.38 -17.10 2.41
1.71 -16.91 2.39
2.05 -16.88 2.39
2.39 -16.85 2.39
2.73 -16.80 2.39
3.07 -16.75 2.39
3.40 -16.69 2.39
3.74 -16.63 2.39
4.08 -16.56 2.39
4.15 -15.53 2.25
4.29 -14.84 2.16
4.57 -14.68 2.15
5.45 -16.37 2.41
5.72 -16.10 2.39
5.99 -15.83 2.37
6.25 -15.56 2.34
6.57 -15.45 2.35
6.90 -15.36 2.35
7.23 -15.27 2.36
7.56 -15.17 2.37
7.89 -15.07 2.37
8.21 -14.95 2.38
8.51 -14.79 2.38
8.79 -14.59 2.37
8.48 -13.45 2.21
8.74 -13.27 2.21
9.00 -13.09 2.21
9.26 -12.90 2.21
9.51 -12.71 2.21
9.77 -12.51 2.21
10.02 -12.32 2.21
10.27 -12.12 2.21
10.51 -11.91 2.21
10.75 -11.71 2.21
10.99 -11.49 2.21
11.22 -11.27 2.21
11.45 -11.05 2.21
11.89 -11.02 2.25
12.11 -10.78 2.25
12.32 -10.53 2.25
12.53 -10.29 2.25
12.75 -10.05 2.25
12.97 -9.80 2.25
13.18 -9.55 2.26
13.39 -9.30 2.26
13.60 -9.04 2.26
13.80 -8.78 2.27
13.97 -8.51 2.27
14.14 -8.22 2.26
14.29 -7.93 2.26
14.44 -7.64 2.26
14.59 -7.35 2.26
14.73 -7.05 2.26
14.86 -6.75 2.26
14.97 -6.44 2.26
14.98 -6.10 2.24
15.00 -5.75 2.22
15.01 -5.41 2.21
15.02 -5.08 2.19
15.03 -4.75 2.18
15.04 -4.42 2.17
15.05 -4.10 2.16
15.07 -3.78 2.15
15.08 -3.46 2.14
15.09 -3.15 2.13
15.10 -2.84 2.12
15.11 -2.53 2.12
15.12 -2.22 2.11
15.13 -1.91 2.11
15.14 -1.60 2.11
15.15 -1.30 2.10
15.17 -0.99 2.10
15.18 -0.69 2.10
15.19 -0.38 2.10
15.20 -0.08 2.10
15.21 0.23 2.11
15.22 0.53 2.11
15.23 0.84 2.11
15.41 1.16 2.14
15.95 1.52 2.22
15.29 1.77 2.13
15.88 2.16 2.22
15.83 2.48 2.22
15.77 2.80 2.22
15.88 3.14 2.24
15.81 3.46 2.24
15.73 3.78 2.24
15.65 4.09 2.24
15.56 4.40 2.24
14.88 4.54 2.16
1.97 0.64 0.29
1.93 0.67 0.28
1.91 0.71 0.28
1.93 0.76 0.29
11.16 4.67 1.68
10.60 4.69 1.61
10.09 4.71 1.55
9.62 4.72 1.49
9.18 4.74 1.44
8.78 4.76 1.39
8.43 4.79 1.35
8.11 4.82 1.31
7.80 4.85 1.28
7.49 4.87 1.24
6.10 4.14 1.03
6.01 4.26 1.03
5.95 4.40 1.03
12.80 9.88 2.26
12.59 10.12 2.25
12.37 10.36 2.25
12.14 10.59 2.25
11.92 10.83 2.25
11.65 11.02 2.24
11.21 11.04 2.20
10.97 11.24 2.20
10.77 11.49 2.20
10.56 11.73 2.21
10.37 11.99 2.22
10.16 12.24 2.23
9.95 12.48 2.24
9.73 12.72 2.25
9.51 12.96 2.26
9.76 13.89 2.38
9.55 14.19 2.40
9.32 14.46 2.42
9.02 14.63 2.42
8.72 14.80 2.42
8.42 14.96 2.42
8.11 15.12 2.41
7.80 15.27 2.41
7.48 15.41 2.41
7.17 15.55 2.41
6.85 15.68 2.41
6.53 15.80 2.41
6.15 15.78 2.39
5.83 15.89 2.39
5.51 16.00 2.39
5.19 16.10 2.39
4.86 16.19 2.39
4.53 16.28 2.39
4.20 16.36 2.39
3.87 16.43 2.39
3.54 16.50 2.39
3.20 16.56 2.39
2.87 16.61 2.39
2.53 16.66 2.39
2.29 17.42 2.49
1.94 17.45 2.49
1.59 17.48 2.49
1.24 17.50 2.49
0.89 17.51 2.49
0.54 17.52 2.49
0.18 17.52 2.49
-0.17 17.51 2.49
-0.52 17.49 2.49
-0.87 17.47 2.49
-1.22 17.44 2.49
-1.57 17.41 2.49
-1.92 17.36 2.49
-2.26 17.31 2.49
-2.61 17.26 2.49
-2.95 17.19 2.49
-3.30 17.12 2.49
-3.64 17.05 2.49
-3.98 16.96 2.49
-4.32 16.87 2.49
-4.65 16.78 2.49
-4.99 16.67 2.49
-5.32 16.56 2.49
-5.65 16.44 2.49
-5.73 15.65 2.39
-6.04 15.52 2.39
-6.35 15.39 2.39
-6.65 15.26 2.39
-6.95 15.11 2.39
-7.25 14.96 2.39
-7.55 14.81 2.39
-7.84 14.65 2.39
-8.13 14.49 2.39
-8.42 14.31 2.39
-8.70 14.14 2.39
-8.98 13.96 2.39
-9.26 13.77 2.39
-9.53 13.57 2.39
-9.79 13.38 2.39
-12.54 16.42 2.98
-13.19 16.57 3.06
-9.87 11.91 2.23
-13.86 16.05 3.06
-14.19 15.78 3.07
-14.52 15.51 3.07
-14.84 15.22 3.07
-15.14 14.92 3.07
-9.97 9.44 1.98
-15.74 14.31 3.08
-16.04 14.01 3.08
-16.35 13.71 3.09
-16.65 13.40 3.09
-16.94 13.08 3.10
-17.28 12.80 3.11
-17.61 12.50 3.13
-10.06 6.84 1.76
-18.20 11.86 3.15
-18.49 11.52 3.16
-18.77 11.18 3.17
-10.10 5.74 1.68
-19.15 10.38 3.16
-10.15 4.25 1.60
-10.16 3.78 1.57
-10.17 3.56 1.56
-10.18 3.33 1.55
-10.19 3.11 1.54
-10.20 2.89 1.54
-10.40 -2.17 1.54
-10.38 -2.39 1.54
-10.39 -2.61 1.55
-10.40 -2.84 1.56
-10.41 -3.06 1.57
-17.44 -5.52 2.65
-10.43 -3.77 1.60
-10.45 -4.01 1.62
-10.51 -5.84 1.73
-10.53 -6.42 1.78
-22.71 -14.47 3.88
-10.56 -7.03 1.83
-21.14 -14.70 3.71
-21.00 -15.24 3.73
-20.78 -15.73 3.75
-20.42 -16.11 3.74
-20.01 -16.44 3.72
-10.63 -9.10 2.01
-18.78 -16.74 3.62
-18.11 -16.81 3.55
-17.09 -16.51 3.41
-16.27 -16.36 3.31
-8.85 -9.27 1.84
-8.55 -9.32 1.81
-8.22 -9.33 1.78
-7.91 -9.34 1.75
-8.61 -10.60 1.96
-8.56 -10.99 1.99
-10.00 -13.38 2.39
-8.97 -12.52 2.20
-8.58 -12.49 2.17
-8.22 -12.50 2.14
-8.91 -14.17 2.39
-8.63 -14.35 2.39
-8.35 -14.53 2.39
-8.06 -14.70 2.39
-7.76 -14.86 2.39
-7.47 -15.02 2.39
-7.17 -15.18 2.39
-6.86 -15.33 2.39
-6.84 -16.13 2.49
-6.52 -16.28 2.49
-6.19 -16.41 2.49
-5.87 -16.54 2.49
-5.54 -16.66 2.49
-5.20 -16.78 2.49
-4.87 -16.89 2.49
-4.53 -16.99 2.49
-4.19 -17.09 2.49
-3.85 -17.17 2.49
-3.50 -17.26 2.49
-3.16 -17.33 2.49
-2.81 -17.40 2.49
-2.46 -17.46 2.49
-2.11 -17.52 2.49
-1.76 -17.56 2.49
-1.41 -17.60 2.49
-1.06 -17.64 2.49
-0.70 -17.66 2.49
-0.35 -17.68 2.49
0.01 -15.21 2.49
0.31 -15.21 2.49
0.62 -15.21 2.49
0.92 -15.20 2.49
1.23 -15.18 2.49
1.48 -14.59 2.40
1.76 -14.51 2.39
2.05 -14.47 2.39
2.35 -14.43 2.39
2.64 -14.39 2.39
2.93 -14.34 2.39
3.21 -14.28 2.39
3.50 -14.22 2.39
3.79 -14.15 2.39
4.07 -14.08 2.39
4.36 -14.00 2.39
4.64 -13.92 2.39
4.92 -13.82 2.39
5.20 -13.73 2.39
5.41 -13.48 2.36
5.64 -13.27 2.35
5.86 -13.06 2.33
6.08 -12.84 2.31
6.29 -12.64 2.30
6.50 -12.43 2.28
6.71 -12.22 2.27
6.92 -12.02 2.25
7.12 -11.81 2.24
7.33 -11.63 2.23
7.53 -11.43 2.22
7.75 -11.26 2.22
8.01 -11.16 2.23
8.31 -11.10 2.25
8.62 -11.04 2.27
8.84 -10.86 2.27
9.05 -10.68 2.27
9.27 -10.51 2.27
9.49 -10.33 2.27
9.70 -10.14 2.27
9.91 -9.96 2.27
10.12 -9.76 2.28
10.32 -9.57 2.28
10.52 -9.37 2.28
10.71 -9.16 2.28
10.89 -8.94 2.28
11.07 -8.72 2.28
11.25 -8.50 2.28
11.43 -8.28 2.28
11.61 -8.06 2.28
11.78 -7.83 2.29
11.95 -7.61 2.29
12.11 -7.37 2.29
12.27 -7.14 2.29
12.43 -6.90 2.30
12.57 -6.65 2.30
12.67 -6.38 2.29
12.77 -6.11 2.29
12.86 -5.84 2.28
12.94 -5.57 2.27
13.01 -5.29 2.27
13.08 -5.02 2.26
13.14 -4.74 2.25
13.22 -4.47 2.25
13.30 -4.20 2.25
13.38 -3.94 2.25
13.46 -3.67 2.25
13.53 -3.40 2.25
13.60 -3.12 2.25
13.66 -2.85 2.25
13.71 -2.58 2.25
13.76 -2.30 2.25
13.80 -2.02 2.25
13.84 -1.75 2.25
13.87 -1.47 2.25
13.89 -1.19 2.25
13.90 -0.91 2.25
13.91 -0.63 2.25
13.80 -0.35 2.23
13.81 -0.07 2.23
13.81 0.21 2.23
13.80 0.48 2.23
13.79 0.76 2.23
13.77 1.04 2.23
13.74 1.31 2.23
13.71 1.59 2.23
13.68 1.86 2.23
13.63 2.14 2.23
13.58 2.41 2.23
13.61 2.70 2.24
13.55 2.97 2.24
13.49 3.24 2.24
13.42 3.51 2.24
13.34 3.78 2.24
13.26 4.04 2.24
1.97 0.64 0.34
1.93 0.67 0.33
1.91 0.71 0.33
1.93 0.76 0.34
5.85 2.45 1.03
5.80 2.56 1.03
5.84 2.72 1.04
5.78 2.84 1.04
5.72 2.95 1.04
5.65 3.06 1.04
5.65 3.21 1.05
5.67 3.37 1.07
5.68 3.53 1.09
5.69 3.70 1.10
5.73 3.90 1.13
5.81 4.12 1.16
5.97 4.42 1.21
11.01 8.49 2.26
10.87 8.73 2.27
10.72 8.98 2.27
10.59 9.23 2.29
10.48 9.52 2.30
10.35 9.79 2.32
10.20 10.04 2.33
10.05 10.30 2.34
9.89 10.55 2.36
9.73 10.80 2.37
9.56 11.05 2.38
9.23 11.11 2.36
8.87 11.13 2.32
8.53 11.15 2.29
8.32 11.35 2.30
8.12 11.55 2.31
7.91 11.75 2.32
7.70 11.94 2.32
7.48 12.13 2.33
7.26 12.32 2.34
7.04 12.51 2.35
6.81 12.69 2.36
6.57 12.87 2.37
6.34 13.05 2.38
6.10 13.22 2.39
5.84 13.35 2.39
5.56 13.46 2.39
5.29 13.56 2.39
5.02 13.66 2.39
4.74 13.75 2.39
4.46 13.84 2.39
4.18 13.92 2.39
3.90 14.00 2.39
3.61 14.07 2.39
3.33 14.13 2.39
3.04 14.19 2.39
2.76 14.24 2.39
2.47 14.29 2.39
2.28 14.95 2.49
1.97 14.98 2.49
1.67 15.01 2.49
1.37 15.04 2.49
1.07 15.06 2.49
0.77 15.07 2.49
0.46 15.08 2.49
0.16 15.08 2.49
-0.14 15.07 2.49
-0.45 15.06 2.49
-0.75 15.04 2.49
-1.05 15.02 2.49
-1.35 14.99 2.49
-1.65 14.95 2.49
-1.95 14.91 2.49
-2.25 14.86 2.49
-2.54 14.81 2.49
-2.84 14.75 2.49
-3.13 14.68 2.49
-3.43 14.61 2.49
-3.72 14.53 2.49
-4.01 14.45 2.49
-4.29 14.36 2.49
-4.58 14.27 2.49
-4.86 14.17 2.49
-5.15 14.06 2.49
-5.43 13.95 2.49
-5.70 13.83 2.49
-5.80 13.30 2.42
-5.99 13.03 2.39
-6.25 12.90 2.39
-6.50 12.76 2.39
-6.76 12.63 2.39
-7.01 12.49 2.39
-7.25 12.34 2.39
-7.50 12.19 2.39
-7.74 12.03 2.39
-7.98 11.87 2.39
-8.21 11.70 2.39
-8.44 11.53 2.39
-8.67 11.36 2.39
-8.89 11.18 2.39
-9.12 10.99 2.39
-9.33 10.81 2.39
-9.54 10.61 2.39
-9.75 10.42 2.39
-10.98 11.26 2.64
-11.59 11.42 2.73
-13.22 12.51 3.05
-9.98 9.08 2.26
-10.00 8.73 2.23
-14.10 11.82 3.09
-14.39 11.58 3.10
-14.67 11.33 3.11
-14.95 11.08 3.12
-15.20 10.80 3.13
-10.06 6.84 2.04
-15.65 10.19 3.14
-15.87 9.89 3.14
-16.06 9.57 3.14
-10.10 5.74 1.95
-16.44 8.92 3.14
-16.63 8.59 3.15
-16.86 8.29 3.16
-17.09 7.98 3.17
-17.31 7.66 3.18
-10.15 4.25 1.85
-17.67 6.98 3.19
-17.84 6.64 3.20
-18.03 6.30 3.21
-18.22 5.96 3.22
-18.27 5.58 3.21
-17.05 4.83 2.98
-10.20 2.67 1.77
-17.34 4.17 3.00
-10.22 2.24 1.76
-17.71 3.51 3.04
-17.92 3.18 3.06
-10.25 1.61 1.74
-18.26 2.49 3.10
-10.26 1.19 1.74
-17.86 1.71 3.02
-10.28 0.77 1.73
-17.05 0.94 2.87
-17.14 0.60 2.88
-17.03 0.25 2.86
-16.86 -0.09 2.83
-16.70 -0.42 2.81
-16.57 -0.75 2.79
-16.48 -1.08 2.77
-16.39 -1.40 2.76
-16.42 -1.74 2.77
-16.54 -2.09 2.80
-10.36 -1.52 1.76
-16.50 -2.76 2.81
-10.37 -1.95 1.77
-15.62 -3.26 2.68
-15.48 -3.56 2.67
-10.40 -2.61 1.80
-15.43 -4.21 2.68
-10.41 -3.07 1.82
-15.37 -4.86 2.70
-15.34 -5.19 2.71
-10.43 -3.77 1.86
-15.36 -5.90 2.76
-15.45 -6.29 2.80
-15.54 -6.70 2.83
-15.63 -7.11 2.88
-15.72 -7.53 2.92
-15.73 -7.93 2.95
-15.74 -8.34 2.98
-10.51 -5.84 2.01
-15.73 -9.16 3.04
-15.70 -9.57 3.08
-15.62 -9.96 3.10
-15.58 -10.38 3.13
-15.54 -10.80 3.16
-15.48 -11.23 3.19
-15.18 -11.49 3.18
-10.60 -8.36 2.25
-14.68 -12.06 3.17
-14.50 -12.42 3.18
-11.74 -10.46 2.62
-10.51 -9.76 2.39
-10.32 -9.97 2.39
-10.12 -10.18 2.39
-8.86 -9.28 2.14
-9.71 -10.59 2.39
-9.50 -10.78 2.39
-9.28 -10.97 2.39
-9.06 -11.16 2.39
-8.84 -11.35 2.39
-8.62 -11.53 2.39
-8.39 -11.70 2.39
-8.15 -11.87 2.39
-7.92 -12.04 2.39
-7.67 -12.20 2.39
-7.43 -12.36 2.39
-7.18 -12.51 2.39
-6.93 -12.65 2.39
-6.73 -12.89 2.41
-6.70 -13.49 2.49
-6.43 -13.63 2.49
-6.16 -13.76 2.49
-5.89 -13.89 2.49
-5.61 -14.01 2.49
-5.33 -14.12 2.49
-5.05 -14.23 2.49
-4.76 -14.34 2.49
-4.47 -14.44 2.49
-4.19 -14.53 2.49
-3.89 -14.62 2.49
-3.60 -14.70 2.49
-3.31 -14.77 2.49
-3.01 -14.84 2.49
-2.71 -14.91 2.49
-2.42 -14.96 2.49
-2.12 -15.01 2.49
-1.81 -15.06 2.49
-1.51 -15.10 2.49
-1.21 -15.13 2.49
-0.91 -15.16 2.49
-0.60 -15.18 2.49
-0.30 -15.20 2.49
0.01 -13.32 2.49
0.28 -13.32 2.49
0.54 -13.32 2.49
0.81 -13.31 2.49
1.08 -13.30 2.49
1.32 -13.04 2.45
1.55 -12.71 2.39
1.80 -12.67 2.39
2.05 -12.64 2.39
2.31 -12.60 2.39
2.56 -12.56 2.39
2.81 -12.51 2.39
3.07 -12.45 2.39
3.32 -12.39 2.39
3.57 -12.33 2.39
3.81 -12.26 2.39
4.06 -12.18 2.39
4.30 -12.10 2.39
4.55 -12.02 2.39
4.79 -11.93 2.39
5.03 -11.83 2.39
5.26 -11.71 2.39
5.46 -11.54 2.37
5.66 -11.36 2.36
5.89 -11.25 2.36
6.19 -11.27 2.39
6.44 -11.19 2.40
6.63 -10.99 2.38
6.81 -10.80 2.37
6.98 -10.60 2.35
7.17 -10.42 2.35
7.37 -10.26 2.34
7.56 -10.10 2.34
7.76 -9.93 2.34
7.94 -9.77 2.33
8.13 -9.60 2.33
2.32 -2.63 0.65
2.33 -2.54 0.64
2.37 -2.47 0.63
2.42 -2.43 0.64
2.50 -2.41 0.64
9.23 -8.56 2.33
9.38 -8.35 2.32
9.53 -8.14 2.32
9.67 -7.93 2.31
9.80 -7.72 2.31
9.94 -7.51 2.30
10.06 -7.29 2.30
10.19 -7.08 2.29
10.31 -6.86 2.29
10.42 -6.64 2.28
10.54 -6.42 2.28
10.66 -6.20 2.28
10.77 -5.98 2.28
10.89 -5.76 2.27
11.00 -5.54 2.27
11.10 -5.32 2.27
11.21 -5.09 2.27
11.31 -4.87 2.27
11.40 -4.64 2.27
11.49 -4.41 2.27
11.57 -4.17 2.27
11.64 -3.94 2.27
11.72 -3.70 2.27
11.78 -3.46 2.27
11.84 -3.23 2.26
11.90 -2.99 2.26
11.95 -2.74 2.26
11.99 -2.50 2.26
12.03 -2.26 2.26
11.94 -2.00 2.23
11.97 -1.76 2.23
12.00 -1.51 2.23
12.02 -1.27 2.23
12.04 -1.03 2.23
12.05 -0.79 2.23
12.06 -0.55 2.23
12.07 -0.30 2.23
12.07 -0.06 2.23
5.65 0.08 1.04
5.65 0.20 1.04
5.62 0.31 1.04
5.62 0.42 1.04
5.63 0.54 1.04
5.64 0.65 1.05
5.65 0.77 1.05
5.65 0.88 1.06
5.64 1.00 1.06
5.66 1.12 1.07
5.66 1.24 1.07
5.67 1.36 1.08
5.67 1.48 1.08
5.68 1.61 1.09
5.68 1.73 1.10
1.97 0.64 0.38
1.93 0.67 0.38
1.91 0.71 0.38
1.93 0.76 0.38
5.69 2.38 1.14
5.68 2.51 1.15
5.68 2.65 1.16
5.67 2.79 1.17
5.67 2.93 1.18
5.66 3.07 1.19
5.67 3.22 1.21
5.67 3.37 1.22
5.68 3.53 1.24
5.69 3.70 1.26
5.73 3.90 1.29
5.81 4.12 1.32
5.97 4.42 1.38
9.38 7.24 2.20
9.26 7.44 2.21
9.12 7.64 2.21
8.99 7.84 2.22
9.37 8.51 2.35
9.26 8.75 2.37
9.14 8.99 2.39
9.00 9.22 2.40
8.85 9.43 2.41
8.65 9.60 2.41
8.45 9.77 2.41
8.25 9.93 2.41
8.05 10.09 2.41
7.84 10.25 2.41
7.64 10.41 2.41
7.43 10.57 2.41
7.22 10.72 2.41
7.01 10.87 2.42
6.79 11.01 2.42
6.57 11.15 2.42
6.33 11.26 2.41
6.04 11.27 2.39
5.81 11.38 2.39
5.58 11.49 2.39
5.35 11.60 2.39
5.11 11.70 2.39
4.88 11.79 2.39
4.64 11.88 2.39
4.40 11.97 2.39
4.15 12.05 2.39
3.91 12.13 2.39
3.66 12.20 2.39
3.42 12.27 2.39
3.17 12.33 2.39
2.92 12.38 2.39
2.67 12.44 2.39
2.42 12.48 2.39
2.25 13.00 2.48
2.00 13.10 2.49
1.73 13.14 2.49
1.47 13.16 2.49
1.20 13.18 2.49
0.94 13.20 2.49
0.67 13.21 2.49
0.41 13.22 2.49
0.14 13.22 2.49
-0.12 13.22 2.49
-0.39 13.21 2.49
-0.65 13.19 2.49
-0.92 13.17 2.49
-1.18 13.14 2.49
-1.45 13.11 2.49
-1.71 13.08 2.49
-1.97 13.04 2.49
-2.23 12.99 2.49
-2.49 12.94 2.49
-2.75 12.88 2.49
-3.01 12.82 2.49
-3.26 12.75 2.49
-3.52 12.68 2.49
-3.77 12.60 2.49
-4.02 12.52 2.49
-4.27 12.43 2.49
-4.52 12.34 2.49
-4.76 12.24 2.49
-5.00 12.14 2.49
-5.25 12.04 2.49
-5.48 11.92 2.49
-5.72 11.81 2.49
-5.86 11.49 2.45
-5.93 11.08 2.39
-6.15 10.96 2.39
-6.37 10.83 2.39
-6.58 10.70 2.39
-6.79 10.56 2.39
-6.65 9.89 2.27
-6.86 9.78 2.28
-7.41 10.13 2.39
-7.61 9.97 2.39
-7.81 9.82 2.39
-8.00 9.65 2.39
-8.19 9.49 2.39
-8.38 9.32 2.39
-8.56 9.15 2.39
-8.74 8.97 2.39
-8.92 8.79 2.39
-9.09 8.61 2.39
-9.26 8.43 2.39
-9.43 8.24 2.39
-9.59 8.04 2.39
-9.75 7.85 2.39
-9.90 7.65 2.39
-11.02 8.16 2.62
-11.10 7.88 2.60
-11.18 7.60 2.58
-12.10 7.88 2.76
-10.08 6.28 2.27
-13.30 7.92 2.96
-10.10 5.74 2.22
-13.60 7.38 2.96
-13.73 7.10 2.96
-13.86 6.81 2.96
-13.99 6.53 2.95
-14.22 6.29 2.97
-10.15 4.25 2.10
-14.69 5.81 3.02
-14.93 5.56 3.05
-15.16 5.30 3.07
-15.38 5.03 3.10
-15.52 4.74 3.11
-15.66 4.44 3.12
-10.20 2.67 2.02
-15.55 3.74 3.06
-15.30 3.35 3.00
-15.01 2.98 2.93
-15.05 2.67 2.93
-15.15 2.37 2.93
-15.25 2.08 2.95
-10.26 1.19 1.98
-15.45 1.48 2.97
-15.54 1.17 2.98
-10.28 0.57 1.97
-15.69 0.55 3.00
-15.63 0.23 2.99
-15.56 -0.08 2.98
-15.44 -0.39 2.96
-15.30 -0.69 2.93
-15.16 -0.99 2.90
-15.06 -1.29 2.89
-14.99 -1.59 2.88
-14.84 -1.87 2.86
-14.68 -2.16 2.84
-14.52 -2.43 2.81
-10.37 -1.95 2.02
-14.41 -3.01 2.81
-14.36 -3.30 2.82
-14.31 -3.60 2.82
-14.28 -3.89 2.83
-14.25 -4.20 2.84
-14.23 -4.50 2.85
-14.20 -4.81 2.86
-10.43 -3.77 2.12
-14.14 -5.43 2.89
-14.12 -5.75 2.91
-14.19 -6.11 2.95
-14.20 -6.46 2.98
-14.20 -6.81 3.00
-14.20 -7.16 3.03
-10.50 -5.56 2.27
-10.51 -5.84 2.29
-14.11 -8.22 3.11
-13.97 -8.52 3.12
-11.66 -7.43 2.63
-10.45 -6.96 2.39
-10.32 -7.17 2.39
-10.17 -7.38 2.39
-10.02 -7.59 2.39
-9.87 -7.79 2.39
-9.72 -7.99 2.39
-9.56 -8.18 2.39
-9.39 -8.38 2.39
-9.23 -8.57 2.39
-9.06 -8.75 2.39
-8.88 -8.93 2.39
-8.70 -9.11 2.39
-8.52 -9.29 2.39
-8.33 -9.46 2.39
-8.15 -9.63 2.39
-7.95 -9.80 2.39
-7.76 -9.96 2.39
-7.56 -10.11 2.39
-7.36 -10.27 2.39
-7.15 -10.42 2.39
-6.94 -10.56 2.39
-6.73 -10.70 2.39
-6.66 -11.08 2.44
-6.57 -11.44 2.49
-6.34 -11.58 2.49
-6.11 -11.71 2.49
-5.88 -11.83 2.49
-5.64 -11.95 2.49
-5.40 -12.07 2.49
-5.16 -12.18 2.49
-4.92 -12.28 2.49
-4.67 -12.38 2.49
-4.42 -12.48 2.49
-4.17 -12.57 2.49
-3.92 -12.65 2.49
-3.67 -12.74 2.49
-3.41 -12.81 2.49
-3.16 -12.88 2.49
-2.90 -12.95 2.49
-2.64 -13.01 2.49
-2.38 -13.06 2.49
-2.12 -13.11 2.49
-1.85 -13.16 2.49
-1.59 -13.20 2.49
-1.32 -13.23 2.49
-1.06 -13.26 2.49
-0.79 -13.28 2.49
-0.53 -13.30 2.49
-0.26 -13.31 2.49
0.01 -11.84 2.49
0.25 -11.84 2.49
0.48 -11.84 2.49
0.72 -11.83 2.49
0.96 -11.82 2.49
1.20 -11.80 2.49
1.39 -11.39 2.41
1.60 -11.26 2.39
1.83 -11.23 2.39
2.05 -11.20 2.39
2.28 -11.16 2.39
2.50 -11.11 2.39
2.72 -11.06 2.39
2.95 -11.01 2.39
3.17 -10.95 2.39
3.39 -10.89 2.39
3.61 -10.82 2.39
3.82 -10.75 2.39
4.04 -10.67 2.39
4.26 -10.59 2.39
4.31 -10.13 2.30
4.44 -9.89 2.27
4.81 -10.16 2.35
4.90 -9.84 2.30
5.03 -9.61 2.27
5.53 -10.07 2.40
5.73 -9.95 2.40
5.93 -9.83 2.40
6.12 -9.71 2.40
6.31 -9.58 2.40
6.50 -9.45 2.40
6.68 -9.31 2.39
6.86 -9.16 2.39
7.04 -9.01 2.39
7.21 -8.86 2.38
2.22 -2.62 0.72
2.23 -2.53 0.70
2.26 -2.46 0.70
2.30 -2.40 0.69
2.35 -2.36 0.69
2.41 -2.33 0.70
2.50 -2.32 0.71
8.43 -7.51 2.35
8.57 -7.33 2.35
8.70 -7.14 2.34
8.82 -6.95 2.34
8.94 -6.76 2.33
9.06 -6.57 2.33
9.18 -6.37 2.33
9.29 -6.18 2.32
9.41 -5.99 2.32
9.51 -5.79 2.32
9.62 -5.59 2.32
9.73 -5.40 2.32
9.84 -5.21 2.32
9.95 -5.01 2.32
10.06 -4.81 2.32
10.16 -4.61 2.32
10.24 -4.41 2.32
10.30 -4.19 2.31
10.37 -3.98 2.31
10.42 -3.76 2.30
10.48 -3.54 2.30
10.53 -3.33 2.30
10.58 -3.11 2.29
10.62 -2.89 2.29
10.51 -2.64 2.25
10.55 -2.42 2.25
10.59 -2.21 2.25
10.63 -2.00 2.25
10.66 -1.78 2.25
10.68 -1.57 2.24
10.70 -1.35 2.24
10.72 -1.13 2.24
10.73 -0.92 2.24
10.74 -0.70 2.24
10.75 -0.49 2.24
10.75 -0.27 2.24
10.75 -0.06 2.24
5.62 0.08 1.17
5.63 0.20 1.17
5.63 0.31 1.17
5.63 0.42 1.18
5.64 0.54 1.18
5.64 0.65 1.18
5.65 0.77 1.19
5.65 0.88 1.19
5.65 1.00 1.20
5.66 1.12 1.20
5.66 1.24 1.21
5.67 1.36 1.21
5.67 1.48 1.22
5.68 1.61 1.23
5.68 1.73 1.24
1.97 0.64 0.43
1.93 0.67 0.43
1.91 0.71 0.42
1.93 0.76 0.43
5.69 2.38 1.29
5.68 2.51 1.30
5.68 2.65 1.31
5.67 2.78 1.32
5.67 2.92 1.33
5.66 3.07 1.34
5.67 3.22 1.36
5.67 3.37 1.38
5.68 3.53 1.40
5.69 3.70 1.42
5.73 3.89 1.45
5.81 4.12 1.49
5.97 4.41 1.55
8.46 6.53 2.23
8.28 6.65 2.22
8.17 6.84 2.23
8.06 7.02 2.24
7.94 7.21 2.25
7.82 7.39 2.25
7.70 7.58 2.26
7.57 7.76 2.27
7.44 7.94 2.28
7.70 8.55 2.41
7.52 8.69 2.41
7.34 8.84 2.41
7.16 8.98 2.41
6.97 9.11 2.41
6.78 9.25 2.41
6.59 9.38 2.41
6.41 9.51 2.41
6.21 9.64 2.41
5.97 9.68 2.39
5.77 9.79 2.39
5.57 9.90 2.39
5.37 10.01 2.39
5.17 10.11 2.39
4.96 10.21 2.39
4.76 10.31 2.39
4.55 10.40 2.39
4.34 10.48 2.39
4.12 10.56 2.39
3.91 10.64 2.39
3.69 10.71 2.39
3.48 10.78 2.39
3.26 10.85 2.39
3.04 10.91 2.39
2.82 10.96 2.39
2.60 11.01 2.39
2.39 11.14 2.41
2.19 11.30 2.43
2.01 11.62 2.49
1.78 11.65 2.49
1.54 11.68 2.49
1.31 11.71 2.49
1.07 11.73 2.49
0.83 11.74 2.49
0.60 11.75 2.49
0.36 11.76 2.49
0.13 11.76 2.49
-0.11 11.76 2.49
-0.35 11.75 2.49
-0.58 11.73 2.49
-0.82 11.72 2.49
-1.05 11.69 2.49
-1.29 11.67 2.49
-1.52 11.64 2.49
-1.75 11.60 2.49
-1.98 11.56 2.49
-2.21 11.51 2.49
-2.44 11.46 2.49
-2.67 11.41 2.49
-2.90 11.35 2.49
-3.13 11.28 2.49
-3.35 11.22 2.49
-3.58 11.14 2.49
-3.80 11.07 2.49
-4.02 10.98 2.49
-4.24 10.90 2.49
-4.45 10.81 2.49
-4.67 10.71 2.49
-4.88 10.62 2.49
-5.09 10.51 2.49
-5.30 10.41 2.49
-5.51 10.29 2.49
-5.71 10.18 2.49
-5.91 10.05 2.49
-5.93 9.63 2.42
-6.05 9.40 2.39
-6.24 9.28 2.39
-6.30 8.98 2.35
-6.32 8.63 2.29
-6.43 8.43 2.27
-6.84 8.60 2.35
-6.91 8.34 2.32
-6.93 8.03 2.27
-7.46 8.30 2.39
-7.63 8.15 2.39
-7.79 7.99 2.39
-7.95 7.83 2.39
-8.10 7.67 2.39
-8.25 7.50 2.39
-8.40 7.34 2.39
-8.54 7.16 2.39
-8.68 6.99 2.39
-8.82 6.81 2.39
-8.95 6.63 2.39
-9.09 6.45 2.39
-9.21 6.27 2.39
-9.33 6.08 2.39
-9.45 5.89 2.39
-9.57 5.70 2.39
-9.68 5.51 2.39
-9.79 5.31 2.39
-9.89 5.11 2.39
-9.99 4.91 2.39
-10.09 4.71 2.39
-11.00 4.87 2.58
-10.15 4.25 2.36
-11.11 4.39 2.57
-11.16 4.16 2.56
-11.22 3.92 2.55
-11.27 3.69 2.55
-11.32 3.45 2.54
-10.20 2.89 2.28
-10.20 2.67 2.27
-10.22 2.46 2.26
-13.56 2.97 2.98
-13.64 2.70 2.99
-13.72 2.43 2.99
-13.82 2.17 3.00
-13.89 1.89 3.01
-10.26 1.19 2.22
-13.96 1.33 3.01
-13.98 1.05 3.01
-14.00 0.77 3.01
-14.02 0.49 3.01
-13.95 0.21 3.00
-13.87 -0.07 2.98
-10.31 -0.26 2.22
-10.32 -0.47 2.22
-13.74 -0.90 2.96
-13.68 -1.17 2.95
-13.63 -1.44 2.94
-13.57 -1.71 2.94
-13.35 -1.96 2.90
-10.37 -1.74 2.26
-10.37 -1.95 2.26
-10.38 -2.17 2.28
-12.37 -2.85 2.72
-12.29 -3.09 2.72
-12.19 -3.33 2.71
-12.08 -3.56 2.70
-11.96 -3.79 2.69
-11.82 -4.00 2.67
-10.43 -3.77 2.38
-10.42 -4.00 2.39
-10.34 -4.21 2.39
-10.25 -4.42 2.39
-10.16 -4.62 2.39
-10.07 -4.83 2.39
-9.97 -5.03 2.39
-9.87 -5.23 2.39
-9.77 -5.43 2.39
-9.66 -5.63 2.39
-9.54 -5.82 2.39
-9.43 -6.01 2.39
-9.31 -6.20 2.39
-9.18 -6.39 2.39
-9.06 -6.57 2.39
-8.92 -6.75 2.39
-8.79 -6.93 2.39
-8.65 -7.11 2.39
-8.51 -7.29 2.39
-8.36 -7.46 2.39
-8.21 -7.63 2.39
-8.06 -7.79 2.39
-7.90 -7.95 2.39
-7.74 -8.11 2.39
-7.58 -8.27 2.39
-7.42 -8.42 2.39
-7.25 -8.57 2.39
-7.08 -8.72 2.39
-6.90 -8.86 2.39
-6.73 -9.00 2.39
-6.60 -9.21 2.41
-6.61 -9.63 2.48
-6.44 -9.80 2.49
-6.25 -9.93 2.49
-6.05 -10.06 2.49
-5.85 -10.18 2.49
-5.64 -10.30 2.49
-5.44 -10.41 2.49
-5.23 -10.53 2.49
-5.02 -10.63 2.49
-4.80 -10.73 2.49
-4.59 -10.83 2.49
-4.37 -10.92 2.49
-4.15 -11.01 2.49
-3.93 -11.10 2.49
-3.71 -11.18 2.49
-3.49 -11.25 2.49
-3.26 -11.33 2.49
-3.03 -11.39 2.49
-2.81 -11.46 2.49
-2.58 -11.51 2.49
-2.35 -11.57 2.49
-2.11 -11.62 2.49
-1.88 -11.66 2.49
-1.65 -11.70 2.49
-1.41 -11.73 2.49
-1.18 -11.76 2.49
-0.94 -11.79 2.49
-0.70 -11.81 2.49
-0.47 -11.82 2.49
-0.23 -11.83 2.49
0.01 -10.65 2.49
0.22 -10.65 2.49
0.44 -10.64 2.49
0.65 -10.64 2.49
0.86 -10.62 2.49
1.08 -10.61 2.49
1.29 -10.59 2.49
1.44 -10.12 2.39
1.64 -10.10 2.39
1.85 -10.06 2.39
2.05 -10.03 2.39
2.25 -9.99 2.39
2.45 -9.94 2.39
2.65 -9.89 2.39
2.85 -9.84 2.39
3.05 -9.78 2.39
3.24 -9.72 2.39
3.44 -9.66 2.39
3.63 -9.59 2.39
3.82 -9.52 2.39
4.02 -9.44 2.39
4.21 -9.36 2.39
4.34 -9.17 2.36
4.36 -8.75 2.28
4.69 -8.95 2.35
4.87 -8.86 2.35
4.95 -8.59 2.31
5.04 -8.35 2.27
5.48 -8.70 2.39
5.71 -8.66 2.41
5.88 -8.55 2.41
6.05 -8.42 2.41
6.22 -8.30 2.41
6.38 -8.18 2.41
2.18 -2.69 0.80
2.17 -2.56 0.78
2.19 -2.48 0.77
2.22 -2.41 0.76
2.26 -2.36 0.76
2.31 -2.32 0.76
2.37 -2.29 0.76
2.44 -2.26 0.77
2.55 -2.27 0.79
7.79 -6.65 2.38
7.91 -6.49 2.37
8.04 -6.33 2.37
8.18 -6.18 2.38
8.31 -6.02 2.38
8.43 -5.86 2.38
8.56 -5.69 2.38
8.68 -5.53 2.39
8.79 -5.35 2.39
8.90 -5.18 2.39
9.00 -5.00 2.39
9.11 -4.82 2.39
9.21 -4.64 2.39
9.30 -4.45 2.39
9.37 -4.25 2.38
9.43 -4.06 2.38
9.49 -3.86 2.37
9.55 -3.66 2.37
9.60 -3.46 2.36
9.64 -3.26 2.36
9.37 -2.96 2.28
9.42 -2.77 2.27
9.47 -2.58 2.27
9.51 -2.39 2.27
9.55 -2.19 2.27
9.58 -2.00 2.27
9.61 -1.81 2.26
9.64 -1.61 2.26
9.66 -1.42 2.26
9.68 -1.22 2.26
9.70 -1.03 2.26
9.71 -0.83 2.26
9.71 -0.64 2.25
9.94 -0.45 2.30
9.99 -0.25 2.31
9.99 -0.05 2.31
5.62 0.08 1.30
5.63 0.20 1.30
5.63 0.31 1.31
5.63 0.42 1.31
5.64 0.54 1.31
5.64 0.65 1.32
5.65 0.77 1.32
5.65 0.88 1.33
5.65 1.00 1.33
5.66 1.12 1.34
5.66 1.24 1.34
5.67 1.36 1.35
5.67 1.48 1.36
5.68 1.61 1.37
5.68 1.73 1.38
1.97 0.64 0.48
1.93 0.67 0.47
1.91 0.71 0.47
1.93 0.76 0.48
5.69 2.38 1.43
5.68 2.51 1.44
5.68 2.65 1.46
5.67 2.78 1.47
5.67 2.92 1.48
5.66 3.07 1.50
5.67 3.22 1.51
5.67 3.37 1.53
5.68 3.53 1.55
5.69 3.70 1.58
5.73 3.89 1.61
5.81 4.12 1.66
5.97 4.41 1.73
7.69 5.93 2.26
7.58 6.09 2.27
7.48 6.26 2.27
7.38 6.43 2.28
7.27 6.60 2.29
7.16 6.77 2.30
7.05 6.93 2.30
6.93 7.10 2.31
6.82 7.27 2.32
6.70 7.43 2.33
6.58 7.60 2.35
6.45 7.77 2.36
6.33 7.93 2.37
6.27 8.20 2.41
6.05 8.25 2.39
5.89 8.37 2.39
5.72 8.48 2.39
5.54 8.59 2.39
5.37 8.70 2.39
5.19 8.80 2.39
5.01 8.90 2.39
4.83 9.00 2.39
4.65 9.09 2.39
4.46 9.18 2.39
4.28 9.27 2.39
4.09 9.35 2.39
3.90 9.43 2.39
3.71 9.50 2.39
3.52 9.57 2.39
3.32 9.63 2.39
3.13 9.70 2.39
2.93 9.75 2.39
2.73 9.81 2.39
2.53 9.86 2.39
2.35 9.97 2.41
2.15 10.02 2.41
2.02 10.41 2.49
1.81 10.45 2.49
1.60 10.48 2.49
1.39 10.51 2.49
1.18 10.53 2.49
0.96 10.55 2.49
0.75 10.56 2.49
0.54 10.57 2.49
0.33 10.58 2.49
0.11 10.58 2.49
-0.10 10.58 2.49
-0.31 10.57 2.49
-0.52 10.56 2.49
-0.73 10.54 2.49
-0.95 10.52 2.49
-1.16 10.50 2.49
-1.37 10.47 2.49
-1.58 10.44 2.49
-1.78 10.40 2.49
-1.99 10.36 2.49
-2.20 10.32 2.49
-2.41 10.27 2.49
-2.61 10.21 2.49
-2.81 10.16 2.49
-3.02 10.10 2.49
-3.22 10.03 2.49
-3.42 9.96 2.49
-3.62 9.89 2.49
-3.81 9.81 2.49
-4.01 9.73 2.49
-4.20 9.64 2.49
-4.39 9.56 2.49
-4.58 9.46 2.49
-4.77 9.37 2.49
-4.96 9.27 2.49
-5.14 9.16 2.49
-5.32 9.06 2.49
-5.50 8.95 2.49
-5.68 8.83 2.49
-5.86 8.71 2.49
-5.96 8.50 2.47
-5.98 8.17 2.41
-6.10 8.00 2.39
-6.26 7.87 2.39
-6.35 7.66 2.37
-6.36 7.37 2.31
-6.38 7.10 2.27
-6.75 7.22 2.35
-6.90 7.08 2.35
-6.97 6.87 2.33
-6.98 6.61 2.29
-7.05 6.41 2.27
-7.56 6.61 2.39
-7.69 6.45 2.39
-7.82 6.30 2.39
-7.94 6.14 2.39
-8.06 5.98 2.39
-8.18 5.81 2.39
-8.30 5.65 2.39
-8.41 5.48 2.39
-8.51 5.31 2.39
-8.62 5.13 2.39
-8.72 4.96 2.39
-8.82 4.78 2.39
-8.91 4.60 2.39
-9.00 4.42 2.39
-9.09 4.24 2.39
-9.17 4.06 2.39
-9.25 3.87 2.39
-9.32 3.69 2.39
-9.40 3.50 2.39
-9.46 3.31 2.39
-9.53 3.12 2.39
-9.59 2.93 2.39
-9.64 2.73 2.39
-9.70 2.54 2.39
-9.75 2.34 2.39
-9.79 2.15 2.39
-9.83 1.95 2.39
-9.87 1.75 2.39
-9.90 1.55 2.39
-9.93 1.35 2.39
-9.96 1.15 2.39
-9.98 0.95 2.39
-10.00 0.75 2.39
-10.01 0.55 2.39
-10.02 0.35 2.39
-10.03 0.15 2.39
-10.03 -0.05 2.39
-10.03 -0.25 2.39
-10.02 -0.45 2.39
-10.01 -0.66 2.39
-9.99 -0.86 2.39
-9.98 -1.06 2.39
-9.95 -1.26 2.39
-9.93 -1.46 2.39
-9.90 -1.66 2.39
-9.86 -1.86 2.39
-9.82 -2.05 2.39
-9.78 -2.25 2.39
-9.74 -2.45 2.39
-9.69 -2.64 2.39
-9.63 -2.84 2.39
-9.58 -3.03 2.39
-9.51 -3.22 2.39
-9.45 -3.41 2.39
-9.38 -3.60 2.39
-9.31 -3.79 2.39
-9.23 -3.98 2.39
-9.15 -4.16 2.39
-9.07 -4.35 2.39
-8.98 -4.53 2.39
-8.89 -4.71 2.39
-8.79 -4.89 2.39
-8.70 -5.07 2.39
-8.59 -5.24 2.39
-8.49 -5.41 2.39
-8.38 -5.58 2.39
-8.27 -5.75 2.39
-8.15 -5.92 2.39
-8.03 -6.08 2.39
-7.91 -6.24 2.39
-7.79 -6.40 2.39
-7.66 -6.56 2.39
-7.53 -6.71 2.39
-7.39 -6.86 2.39
-7.25 -7.01 2.39
-7.11 -7.16 2.39
-6.97 -7.30 2.39
-6.82 -7.44 2.39
-6.68 -7.58 2.39
-6.55 -7.75 2.40
-6.55 -8.07 2.46
-6.48 -8.32 2.49
-6.31 -8.45 2.49
-6.14 -8.58 2.49
-5.97 -8.70 2.49
-5.80 -8.82 2.49
-5.62 -8.94 2.49
-5.44 -9.05 2.49
-5.26 -9.16 2.49
-5.08 -9.27 2.49
-4.89 -9.37 2.49
-4.70 -9.47 2.49
-4.51 -9.57 2.49
-4.32 -9.66 2.49
-4.13 -9.74 2.49
-3.93 -9.83 2.49
-3.74 -9.91 2.49
-3.54 -9.98 2.49
-3.34 -10.06 2.49
-3.14 -10.12 2.49
-2.93 -10.19 2.49
-2.73 -10.25 2.49
-2.52 -10.30 2.49
-2.32 -10.36 2.49
-2.11 -10.40 2.49
-1.90 -10.45 2.49
-1.69 -10.49 2.49
-1.48 -10.52 2.49
-1.27 -10.55 2.49
-1.06 -10.58 2.49
-0.84 -10.60 2.49
-0.63 -10.62 2.49
-0.42 -10.63 2.49
-0.21 -10.64 2.49
0.01 -9.66 2.49
0.20 -9.66 2.49
0.40 -9.66 2.49
0.59 -9.65 2.49
0.78 -9.64 2.49
0.98 -9.62 2.49
1.17 -9.61 2.49
1.36 -9.58 2.49
1.49 -9.16 2.39
1.68 -9.13 2.39
1.86 -9.10 2.39
2.04 -9.06 2.39
2.22 -9.02 2.39
2.40 -8.98 2.39
2.58 -8.93 2.39
2.76 -8.88 2.39
2.94 -8.82 2.39
3.12 -8.76 2.39
3.30 -8.70 2.39
3.47 -8.63 2.39
3.64 -8.56 2.39
3.82 -8.49 2.39
3.99 -8.42 2.39
4.15 -8.34 2.39
4.32 -8.25 2.39
4.38 -7.98 2.34
4.41 -7.67 2.27
4.73 -7.85 2.35
4.89 -7.76 2.35
4.99 -7.56 2.32
5.02 -7.29 2.27
5.44 -7.58 2.39
5.66 -7.56 2.42
5.81 -7.45 2.42
2.14 -2.63 0.87
2.14 -2.52 0.85
2.16 -2.45 0.84
2.19 -2.39 0.83
2.23 -2.34 0.83
2.28 -2.29 0.83
2.34 -2.26 0.83
2.41 -2.24 0.84
2.51 -2.23 0.86
7.18 -6.13 2.41
7.30 -5.99 2.42
7.43 -5.85 2.42
7.55 -5.70 2.42
7.67 -5.56 2.42
7.79 -5.41 2.42
7.90 -5.26 2.43
8.01 -5.10 2.43
8.12 -4.94 2.43
8.22 -4.78 2.43
8.31 -4.61 2.43
8.40 -4.44 2.43
8.48 -4.27 2.43
8.56 -4.10 2.42
8.63 -3.92 2.42
8.70 -3.74 2.42
8.76 -3.56 2.42
8.81 -3.38 2.41
8.47 -3.05 2.30
8.52 -2.88 2.30
8.57 -2.71 2.30
8.62 -2.53 2.29
8.66 -2.36 2.29
8.70 -2.18 2.29
8.73 -2.01 2.29
8.77 -1.83 2.29
8.79 -1.65 2.29
8.82 -1.47 2.28
8.84 -1.30 2.28
8.86 -1.12 2.28
8.88 -0.94 2.28
8.91 -0.76 2.28
9.20 -0.60 2.35
9.20 -0.42 2.35
9.20 -0.23 2.35
5.24 -0.03 1.34
5.27 0.08 1.35
5.26 0.18 1.35
5.26 0.29 1.35
5.25 0.39 1.35
5.64 0.54 1.45
5.64 0.65 1.45
5.65 0.77 1.46
5.65 0.88 1.46
5.65 1.00 1.47
5.66 1.12 1.47
5.66 1.24 1.48
5.67 1.36 1.49
5.67 1.48 1.50
5.68 1.61 1.51
5.68 1.73 1.52
1.97 0.64 0.53
1.93 0.67 0.52
1.91 0.71 0.52
1.93 0.76 0.53
5.69 2.38 1.58
5.68 2.51 1.59
5.68 2.65 1.60
5.67 2.78 1.62
5.67 2.92 1.63
5.66 3.07 1.65
5.67 3.22 1.67
5.67 3.37 1.69
5.68 3.53 1.71
5.69 3.70 1.74
5.73 3.89 1.78
5.81 4.12 1.83
5.97 4.41 1.90
7.35 5.67 2.38
7.27 5.84 2.39
7.11 5.95 2.38
6.84 5.96 2.33
6.71 6.09 2.33
6.61 6.25 2.34
6.51 6.40 2.35
6.40 6.56 2.36
6.30 6.71 2.37
6.18 6.86 2.38
6.07 7.01 2.39
5.94 7.15 2.39
5.79 7.26 2.39
5.64 7.38 2.39
5.49 7.49 2.39
5.34 7.59 2.39
5.19 7.70 2.39
5.03 7.80 2.39
4.87 7.89 2.39
4.71 7.99 2.39
4.55 8.08 2.39
4.38 8.17 2.39
4.22 8.25 2.39
4.05 8.33 2.39
3.88 8.41 2.39
3.71 8.48 2.39
3.54 8.55 2.39
3.37 8.62 2.39
3.19 8.68 2.39
3.02 8.74 2.39
2.84 8.80 2.39
2.66 8.85 2.39
2.48 8.90 2.39
2.32 9.00 2.41
2.12 8.99 2.39
2.02 9.42 2.49
1.83 9.45 2.49
1.64 9.49 2.49
1.45 9.51 2.49
1.26 9.54 2.49
1.07 9.56 2.49
0.88 9.58 2.49
0.68 9.59 2.49
0.49 9.60 2.49
0.30 9.60 2.49
0.10 9.61 2.49
-0.09 9.60 2.49
-0.28 9.60 2.49
-0.47 9.59 2.49
-0.67 9.57 2.49
-0.86 9.56 2.49
-1.05 9.53 2.49
-1.24 9.51 2.49
-1.43 9.48 2.49
-1.62 9.45 2.49
-1.81 9.41 2.49
-2.00 9.37 2.49
-2.18 9.32 2.49
-2.37 9.28 2.49
-2.56 9.22 2.49
-2.74 9.17 2.49
-2.92 9.11 2.49
-3.10 9.05 2.49
-3.28 8.98 2.49
-3.46 8.91 2.49
-3.64 8.84 2.49
-3.82 8.76 2.49
-3.99 8.68 2.49
-4.16 8.60 2.49
-4.33 8.51 2.49
-4.50 8.42 2.49
-4.67 8.33 2.49
-4.84 8.23 2.49
-5.00 8.13 2.49
-5.16 8.02 2.49
-5.32 7.92 2.49
-5.48 7.81 2.49
-5.63 7.69 2.49
-5.78 7.58 2.49
-5.93 7.46 2.49
-6.01 7.25 2.46
-6.02 6.98 2.41
-6.11 6.79 2.39
-6.24 6.67 2.39
-6.37 6.54 2.39
-6.40 6.31 2.35
-6.41 6.07 2.31
-6.42 5.84 2.27
-6.52 5.70 2.27
-6.88 5.77 2.35
-6.99 5.63 2.35
-6.85 5.29 2.27
-6.96 5.15 2.27
-7.15 5.08 2.30
-7.54 5.13 2.39
-7.64 4.98 2.39
-7.74 4.82 2.39
-7.83 4.67 2.39
-7.92 4.51 2.39
-8.01 4.35 2.39
-8.10 4.18 2.39
-8.18 4.02 2.39
-8.26 3.86 2.39
-8.33 3.69 2.39
-8.40 3.52 2.39
-8.47 3.35 2.39
-8.54 3.18 2.39
-8.60 3.01 2.39
-8.66 2.83 2.39
-8.71 2.66 2.39
-8.77 2.48 2.39
-8.81 2.31 2.39
-8.86 2.13 2.39
-8.90 1.95 2.39
-8.94 1.77 2.39
-8.97 1.59 2.39
-9.00 1.41 2.39
-9.03 1.23 2.39
-9.05 1.05 2.39
-9.07 0.87 2.39
-9.09 0.68 2.39
-9.10 0.50 2.39
-9.11 0.32 2.39
-9.11 0.14 2.39
-9.11 -0.05 2.39
-9.11 -0.23 2.39
-9.10 -0.41 2.39
-9.10 -0.60 2.39
-9.08 -0.78 2.39
-9.07 -0.96 2.39
-9.05 -1.14 2.39
-9.02 -1.33 2.39
-8.99 -1.51 2.39
-8.96 -1.69 2.39
-8.93 -1.87 2.39
-8.89 -2.05 2.39
-8.85 -2.22 2.39
-8.80 -2.40 2.39
-8.75 -2.58 2.39
-8.70 -2.75 2.39
-8.65 -2.93 2.39
-8.59 -3.10 2.39
-8.52 -3.27 2.39
-8.46 -3.45 2.39
-8.39 -3.62 2.39
-8.31 -3.78 2.39
-8.24 -3.95 2.39
-8.16 -4.12 2.39
-8.08 -4.28 2.39
-7.99 -4.44 2.39
-7.90 -4.60 2.39
-7.81 -4.76 2.39
-7.71 -4.92 2.39
-7.61 -5.07 2.39
-7.51 -5.23 2.39
-7.41 -5.38 2.39
-7.30 -5.53 2.39
-7.19 -5.67 2.39
-7.07 -5.82 2.39
-6.96 -5.96 2.39
-6.84 -6.10 2.39
-6.71 -6.24 2.39
-6.59 -6.37 2.39
-6.51 -6.55 2.41
-6.51 -6.82 2.46
-6.46 -7.05 2.49
-6.32 -7.18 2.49
-6.18 -7.31 2.49
-6.03 -7.43 2.49
-5.88 -7.56 2.49
-5.73 -7.67 2.49
-5.58 -7.79 2.49
-5.42 -7.90 2.49
-5.26 -8.01 2.49
-5.10 -8.12 2.49
-4.94 -8.22 2.49
-4.78 -8.32 2.49
-4.61 -8.42 2.49
-4.44 -8.51 2.49
-4.27 -8.60 2.49
-4.10 -8.69 2.49
-3.92 -8.77 2.49
-3.75 -8.85 2.49
-3.57 -8.92 2.49
-3.39 -9.00 2.49
-3.21 -9.06 2.49
-3.03 -9.13 2.49
-2.85 -9.19 2.49
-2.66 -9.25 2.49
-2.48 -9.30 2.49
-2.29 -9.35 2.49
-2.10 -9.40 2.49
-1.91 -9.44 2.49
-1.72 -9.48 2.49
-1.53 -9.52 2.49
-1.34 -9.55 2.49
-1.15 -9.58 2.49
-0.96 -9.60 2.49
-0.77 -9.62 2.49
-0.57 -9.64 2.49
-0.38 -9.65 2.49
-0.19 -9.66 2.49
0.01 -8.83 2.49
0.19 -8.83 2.49
0.36 -8.83 2.49
0.54 -8.82 2.49
0.72 -8.81 2.49
0.89 -8.80 2.49
1.07 -8.78 2.49
1.25 -8.76 2.49
1.42 -8.74 2.49
1.53 -8.35 2.39
1.70 -8.33 2.39
1.87 -8.28 2.39
2.03 -8.25 2.39
2.20 -8.21 2.39
2.36 -8.16 2.39
2.53 -8.11 2.39
2.69 -8.06 2.39
2.85 -8.01 2.39
3.01 -7.95 2.39
3.17 -7.89 2.39
3.33 -7.83 2.39
3.49 -7.76 2.39
3.64 -7.69 2.39
3.80 -7.62 2.39
3.95 -7.54 2.39
4.10 -7.46 2.39
4.25 -7.38 2.39
4.40 -7.30 2.39
4.42 -7.00 2.32
4.45 -6.75 2.27
4.75 -6.91 2.35
4.89 -6.81 2.35
5.01 -6.69 2.34
5.03 -6.44 2.29
2.13 -2.62 0.95
2.13 -2.51 0.92
2.15 -2.43 0.91
2.18 -2.37 0.90
2.22 -2.32 0.90
2.27 -2.28 0.90
2.33 -2.25 0.91
2.40 -2.22 0.92
2.49 -2.22 0.93
6.58 -5.62 2.42
6.69 -5.49 2.42
6.80 -5.36 2.42
6.91 -5.22 2.42
7.02 -5.08 2.42
7.12 -4.94 2.42
7.22 -4.80 2.42
7.31 -4.65 2.43
7.41 -4.51 2.43
7.49 -4.36 2.42
7.57 -4.20 2.42
7.65 -4.05 2.42
7.72 -3.89 2.42
7.79 -3.73 2.42
7.86 -3.57 2.41
7.92 -3.41 2.41
7.69 -3.13 2.32
7.75 -2.97 2.32
7.80 -2.81 2.32
7.85 -2.65 2.32
7.90 -2.49 2.31
7.94 -2.33 2.31
7.98 -2.17 2.31
8.02 -2.01 2.31
8.05 -1.85 2.31
8.08 -1.69 2.31
8.11 -1.52 2.31
8.13 -1.36 2.31
8.16 -1.20 2.30
8.17 -1.03 2.30
8.19 -0.87 2.30
8.47 -0.72 2.38
8.48 -0.56 2.38
8.49 -0.38 2.37
8.47 -0.21 2.37
4.96 -0.03 1.39
4.91 0.07 1.37
4.92 0.17 1.38
4.92 0.27 1.38
4.93 0.37 1.38
4.93 0.47 1.39
5.64 0.65 1.59
5.65 0.77 1.59
5.65 0.88 1.60
5.65 1.00 1.61
5.66 1.12 1.61
5.66 1.24 1.62
5.67 1.36 1.63
5.67 1.48 1.64
5.68 1.60 1.65
5.68 1.73 1.66
1.97 0.64 0.58
1.93 0.67 0.57
1.91 0.71 0.57
1.93 0.76 0.58
5.69 2.38 1.73
5.68 2.51 1.74
5.68 2.65 1.76
5.67 2.78 1.77
5.67 2.92 1.79
5.66 3.07 1.81
5.67 3.22 1.83
5.67 3.37 1.85
5.68 3.53 1.88
5.69 3.70 1.91
5.73 3.89 1.94
5.81 4.12 2.00
5.97 4.41 2.08
6.79 5.23 2.41
6.68 5.37 2.41
6.57 5.50 2.41
6.46 5.63 2.41
6.34 5.76 2.41
6.23 5.88 2.41
6.10 6.00 2.41
5.94 6.08 2.39
5.82 6.20 2.39
5.69 6.31 2.39
5.56 6.42 2.39
5.43 6.53 2.39
5.30 6.64 2.39
5.16 6.74 2.39
5.02 6.84 2.39
4.88 6.94 2.39
4.74 7.04 2.39
4.60 7.13 2.39
4.45 7.22 2.39
4.31 7.30 2.39
4.16 7.39 2.39
4.01 7.47 2.39
3.86 7.54 2.39
3.70 7.62 2.39
3.55 7.69 2.39
3.39 7.76 2.39
3.24 7.82 2.39
3.08 7.88 2.39
2.92 7.94 2.39
2.76 8.00 2.39
2.60 8.05 2.39
2.43 8.10 2.39
2.29 8.20 2.41
2.11 8.18 2.39
2.02 8.58 2.49
1.85 8.61 2.49
1.68 8.65 2.49
1.50 8.68 2.49
1.33 8.70 2.49
1.15 8.73 2.49
0.98 8.74 2.49
0.80 8.76 2.49
0.63 8.77 2.49
0.45 8.78 2.49
0.27 8.79 2.49
0.10 8.79 2.49
-0.08 8.79 2.49
-0.26 8.78 2.49
-0.43 8.77 2.49
-0.61 8.76 2.49
-0.78 8.74 2.49
-0.96 8.72 2.49
-1.13 8.70 2.49
-1.31 8.67 2.49
-1.48 8.64 2.49
-1.65 8.61 2.49
-1.83 8.57 2.49
-2.00 8.53 2.49
-2.17 8.49 2.49
-2.34 8.44 2.49
-2.51 8.39 2.49
-2.67 8.34 2.49
-2.84 8.28 2.49
-3.00 8.22 2.49
-3.17 8.16 2.49
-3.33 8.09 2.49
-3.49 8.02 2.49
-3.65 7.94 2.49
-3.81 7.87 2.49
-3.97 7.79 2.49
-4.12 7.71 2.49
-4.27 7.62 2.49
-4.43 7.53 2.49
-4.58 7.44 2.49
-4.72 7.34 2.49
-4.87 7.25 2.49
-5.01 7.15 2.49
-5.15 7.04 2.49
-5.29 6.94 2.49
-5.43 6.83 2.49
-5.57 6.72 2.49
-5.70 6.60 2.49
-5.83 6.49 2.49
-5.96 6.37 2.49
-6.04 6.20 2.48
-6.05 5.97 2.43
-6.07 5.75 2.39
-6.18 5.62 2.39
-6.29 5.50 2.39
-6.40 5.37 2.39
-6.44 5.18 2.37
-6.54 5.06 2.37
-6.71 4.97 2.39
-6.81 4.83 2.39
-6.90 4.70 2.39
-6.99 4.56 2.39
-7.08 4.41 2.39
-7.17 4.27 2.39
-7.25 4.13 2.39
-7.33 3.98 2.39
-7.41 3.83 2.39
-7.49 3.68 2.39
-7.56 3.53 2.39
-7.63 3.38 2.39
-7.69 3.22 2.39
-7.76 3.07 2.39
-7.82 2.91 2.39
-7.87 2.75 2.39
-7.93 2.59 2.39
-7.98 2.43 2.39
-8.02 2.27 2.39
-8.07 2.11 2.39
-8.11 1.95 2.39
-8.15 1.79 2.39
-8.18 1.62 2.39
-8.21 1.46 2.39
-8.24 1.29 2.39
-8.26 1.13 2.39
-8.29 0.96 2.39
-8.30 0.79 2.39
-8.32 0.63 2.39
-8.33 0.46 2.39
-8.34 0.29 2.39
-8.34 0.12 2.39
-8.34 -0.04 2.39
-8.34 -0.21 2.39
-8.34 -0.38 2.39
-8.33 -0.55 2.39
-8.31 -0.71 2.39
-8.30 -0.88 2.39
-8.28 -1.05 2.39
-8.26 -1.21 2.39
-8.23 -1.38 2.39
-8.20 -1.54 2.39
-8.17 -1.71 2.39
-8.14 -1.87 2.39
-8.10 -2.04 2.39
-8.06 -2.20 2.39
-8.01 -2.36 2.39
-7.96 -2.52 2.39
-7.91 -2.68 2.39
-7.86 -2.84 2.39
-7.80 -3.00 2.39
-7.74 -3.15 2.39
-7.68 -3.31 2.39
-7.61 -3.46 2.39
-7.54 -3.62 2.39
-7.47 -3.77 2.39
-7.39 -3.92 2.39
-7.31 -4.07 2.39
-7.23 -4.21 2.39
-7.15 -4.36 2.39
-7.06 -4.50 2.39
-6.97 -4.64 2.39
-6.87 -4.78 2.39
-6.78 -4.92 2.39
-6.68 -5.06 2.39
-6.58 -5.19 2.39
-6.47 -5.32 2.39
-6.47 -5.54 2.43
-6.47 -5.77 2.47
-6.41 -5.95 2.49
-6.29 -6.08 2.49
-6.17 -6.21 2.49
-6.04 -6.33 2.49
-5.92 -6.45 2.49
-5.79 -6.57 2.49
-5.65 -6.69 2.49
-5.52 -6.80 2.49
-5.38 -6.91 2.49
-5.24 -7.02 2.49
-5.10 -7.13 2.49
-4.96 -7.23 2.49
-4.82 -7.33 2.49
-4.67 -7.43 2.49
-4.52 -7.52 2.49
-4.37 -7.61 2.49
-4.22 -7.70 2.49
-4.06 -7.79 2.49
-3.91 -7.87 2.49
-3.75 -7.95 2.49
-3.59 -8.02 2.49
-3.43 -8.09 2.49
-3.26 -8.16 2.49
-3.10 -8.23 2.49
-2.94 -8.29 2.49
-2.77 -8.35 2.49
-2.60 -8.41 2.49
-2.43 -8.46 2.49
-2.26 -8.51 2.49
-2.09 -8.55 2.49
-1.92 -8.60 2.49
-1.75 -8.64 2.49
-1.58 -8.67 2.49
-1.40 -8.70 2.49
-1.23 -8.73 2.49
-1.05 -8.76 2.49
-0.88 -8.78 2.49
-0.70 -8.80 2.49
-0.52 -8.81 2.49
-0.35 -8.82 2.49
-0.17 -8.83 2.49
0.01 -8.13 2.49
0.17 -8.13 2.49
0.33 -8.13 2.49
0.50 -8.12 2.49
0.66 -8.11 2.49
0.82 -8.10 2.49
0.99 -8.08 2.49
1.15 -8.06 2.49
1.31 -8.04 2.49
1.47 -8.01 2.49
1.56 -7.65 2.39
1.72 -7.65 2.40
1.87 -7.59 2.39
2.02 -7.55 2.39
2.17 -7.51 2.39
2.33 -7.46 2.39
2.48 -7.42 2.39
2.62 -7.37 2.39
2.77 -7.32 2.39
2.92 -7.26 2.39
3.06 -7.20 2.39
3.21 -7.14 2.39
3.35 -7.08 2.39
3.49 -7.01 2.39
3.63 -6.94 2.39
3.77 -6.86 2.39
3.91 -6.79 2.39
4.05 -6.71 2.39
4.18 -6.63 2.39
4.31 -6.54 2.39
4.45 -6.46 2.39
4.45 -6.19 2.32
4.47 -5.96 2.27
4.58 -5.87 2.27
2.13 -2.62 1.03
2.13 -2.51 1.00
2.15 -2.43 0.99
2.18 -2.37 0.98
2.22 -2.32 0.98
2.27 -2.28 0.98
2.33 -2.24 0.98
2.40 -2.22 1.00
2.49 -2.22 1.01
6.05 -5.17 2.42
6.15 -5.05 2.42
6.25 -4.92 2.42
6.35 -4.80 2.42
6.45 -4.67 2.42
6.54 -4.54 2.42
6.63 -4.41 2.42
6.72 -4.27 2.42
6.80 -4.14 2.42
6.88 -4.00 2.42
6.95 -3.86 2.42
7.02 -3.71 2.42
7.09 -3.57 2.41
7.16 -3.43 2.41
7.01 -3.18 2.34
7.06 -3.04 2.34
7.12 -2.89 2.34
7.17 -2.75 2.33
7.22 -2.60 2.33
7.27 -2.46 2.33
7.31 -2.31 2.33
7.35 -2.16 2.33
7.39 -2.01 2.33
7.43 -1.86 2.33
7.46 -1.71 2.33
7.49 -1.56 2.33
7.51 -1.41 2.32
7.54 -1.26 2.32
7.56 -1.11 2.32
7.58 -0.96 2.32
7.81 -0.83 2.39
7.83 -0.67 2.39
7.84 -0.51 2.39
7.84 -0.36 2.39
7.83 -0.20 2.38
7.82 -0.04 2.38
4.90 0.07 1.49
4.89 0.17 1.49
4.90 0.27 1.49
4.91 0.37 1.50
5.64 0.54 1.72
5.64 0.65 1.73
5.65 0.77 1.73
5.65 0.88 1.74
5.65 1.00 1.75
5.66 1.12 1.75
5.66 1.24 1.76
5.67 1.36 1.77
5.67 1.48 1.78
5.68 1.60 1.80
5.68 1.73 1.81
1.97 0.64 0.63
1.93 0.67 0.62
1.91 0.71 0.62
1.93 0.76 0.63
5.69 2.38 1.88
5.68 2.51 1.89
5.68 2.65 1.91
5.67 2.78 1.93
5.67 2.92 1.94
5.66 3.07 1.96
5.67 3.22 1.99
5.67 3.37 2.01
5.68 3.53 2.04
5.69 3.70 2.07
5.73 3.89 2.11
5.81 4.11 2.17
5.97 4.41 2.26
6.25 4.81 2.41
6.15 4.94 2.41
6.05 5.06 2.41
5.90 5.14 2.39
5.80 5.26 2.39
5.69 5.37 2.39
5.58 5.49 2.39
5.47 5.60 2.39
5.35 5.70 2.39
5.24 5.81 2.39
5.12 5.91 2.39
5.00 6.01 2.39
4.87 6.11 2.39
4.75 6.20 2.39
4.62 6.30 2.39
4.49 6.39 2.39
4.36 6.47 2.39
4.23 6.56 2.39
4.10 6.64 2.39
3.96 6.72 2.39
3.83 6.80 2.39
3.69 6.87 2.39
3.55 6.94 2.39
3.41 7.01 2.39
3.27 7.08 2.39
3.12 7.14 2.39
2.98 7.20 2.39
2.83 7.25 2.39
2.69 7.31 2.39
2.54 7.36 2.39
2.39 7.41 2.39
2.26 7.52 2.41
2.09 7.49 2.39
2.02 7.86 2.49
1.86 7.89 2.49
1.70 7.93 2.49
1.54 7.96 2.49
1.38 7.99 2.49
1.22 8.01 2.49
1.06 8.03 2.49
0.90 8.05 2.49
0.74 8.06 2.49
0.58 8.07 2.49
0.41 8.08 2.49
0.25 8.09 2.49
0.09 8.09 2.49
-0.07 8.09 2.49
-0.24 8.08 2.49
-0.40 8.07 2.49
-0.56 8.06 2.49
-0.72 8.05 2.49
-0.88 8.03 2.49
-1.04 8.01 2.49
-1.20 7.98 2.49
-1.36 7.96 2.49
-1.52 7.93 2.49
-1.68 7.89 2.49
-1.84 7.86 2.49
-2.00 7.82 2.49
-2.15 7.77 2.49
-2.31 7.73 2.49
-2.46 7.68 2.49
-2.61 7.62 2.49
-2.77 7.57 2.49
-2.92 7.51 2.49
-3.07 7.45 2.49
-3.22 7.38 2.49
-3.36 7.32 2.49
-3.51 7.25 2.49
-3.65 7.17 2.49
-3.79 7.10 2.49
-3.94 7.02 2.49
-4.08 6.94 2.49
-4.21 6.85 2.49
-4.35 6.76 2.49
-4.48 6.67 2.49
-4.62 6.58 2.49
-4.75 6.49 2.49
-4.87 6.39 2.49
-5.00 6.29 2.49
-5.13 6.19 2.49
-5.25 6.08 2.49
-5.37 5.97 2.49
-5.49 5.86 2.49
-5.60 5.75 2.49
-5.72 5.64 2.49
-5.83 5.52 2.49
-5.94 5.40 2.49
-6.04 5.28 2.49
-6.08 5.10 2.47
-6.09 4.91 2.43
-6.11 4.72 2.40
-6.18 4.58 2.39
-6.27 4.45 2.39
-6.36 4.33 2.39
-6.44 4.20 2.39
-6.52 4.07 2.39
-6.60 3.93 2.39
-6.68 3.80 2.39
-6.76 3.67 2.39
-6.83 3.53 2.39
-6.90 3.39 2.39
-6.96 3.25 2.39
-7.03 3.11 2.39
-7.09 2.97 2.39
-6.78 2.68 2.27
-6.89 2.57 2.29
-7.12 2.49 2.35
-7.13 2.33 2.33
-7.13 2.18 2.32
-7.14 2.02 2.31
-7.14 1.87 2.30
-7.15 1.72 2.29
-7.15 1.57 2.28
-7.17 1.42 2.27
-7.18 1.27 2.27
-7.20 1.13 2.27
-7.23 0.98 2.27
-7.24 0.84 2.27
-7.26 0.69 2.27
-7.27 0.55 2.27
-7.28 0.40 2.27
-7.29 0.25 2.27
-7.29 0.11 2.27
-7.29 -0.04 2.27
-7.29 -0.18 2.27
-7.29 -0.33 2.27
-7.28 -0.48 2.27
-7.27 -0.62 2.27
-7.26 -0.77 2.27
-7.25 -0.92 2.27
-7.25 -1.07 2.28
-7.25 -1.22 2.29
-7.26 -1.37 2.30
-7.26 -1.52 2.31
-7.27 -1.67 2.32
-7.28 -1.83 2.33
-7.04 -1.92 2.27
-7.00 -2.06 2.27
-7.34 -2.32 2.39
-7.29 -2.47 2.39
-7.24 -2.62 2.39
-7.19 -2.76 2.39
-7.13 -2.91 2.39
-7.07 -3.05 2.39
-7.01 -3.19 2.39
-6.94 -3.33 2.39
-6.88 -3.47 2.39
-6.81 -3.61 2.39
-6.73 -3.75 2.39
-6.66 -3.88 2.39
-6.60 -4.03 2.40
-6.50 -4.15 2.39
-6.43 -4.28 2.40
-6.43 -4.47 2.43
-6.43 -4.67 2.46
-6.42 -4.86 2.49
-6.32 -4.99 2.49
-6.22 -5.11 2.49
-6.11 -5.24 2.49
-6.01 -5.36 2.49
-5.90 -5.48 2.49
-5.79 -5.60 2.49
-5.68 -5.72 2.49
-5.56 -5.83 2.49
-5.45 -5.94 2.49
-5.33 -6.05 2.49
-5.21 -6.16 2.49
-5.08 -6.26 2.49
-4.96 -6.37 2.49
-4.83 -6.47 2.49
-4.70 -6.56 2.49
-4.57 -6.66 2.49
-4.43 -6.75 2.49
-4.30 -6.84 2.49
-4.16 -6.92 2.49
-4.02 -7.01 2.49
-3.88 -7.09 2.49
-3.74 -7.17 2.49
-3.59 -7.24 2.49
-3.45 -7.31 2.49
-3.30 -7.38 2.49
-3.15 -7.45 2.49
-3.00 -7.51 2.49
-2.85 -7.58 2.49
-2.70 -7.63 2.49
-2.55 -7.69 2.49
-2.39 -7.74 2.49
-2.24 -7.79 2.49
-2.08 -7.83 2.49
-1.93 -7.87 2.49
-1.77 -7.91 2.49
-1.61 -7.95 2.49
-1.45 -7.98 2.49
-1.29 -8.01 2.49
-1.13 -8.04 2.49
-0.97 -8.06 2.49
-0.81 -8.08 2.49
-0.64 -8.10 2.49
-0.48 -8.11 2.49
-0.32 -8.12 2.49
-0.16 -8.13 2.49
0.01 -7.52 2.49
0.16 -7.52 2.49
0.31 -7.52 2.49
0.46 -7.51 2.49
0.61 -7.50 2.49
0.76 -7.49 2.49
0.91 -7.48 2.49
1.06 -7.46 2.49
1.21 -7.44 2.49
1.36 -7.41 2.49
1.51 -7.38 2.49
1.59 -7.05 2.39
1.74 -7.07 2.41
1.87 -6.98 2.39
2.01 -6.95 2.39
2.15 -6.90 2.39
2.29 -6.86 2.39
2.43 -6.82 2.39
2.56 -6.77 2.39
2.70 -6.72 2.39
2.83 -6.66 2.39
2.97 -6.60 2.39
3.10 -6.54 2.39
3.23 -6.48 2.39
3.36 -6.42 2.39
3.49 -6.35 2.39
3.62 -6.28 2.39
3.74 -6.21 2.39
3.87 -6.13 2.39
3.99 -6.05 2.39
4.11 -5.97 2.39
4.23 -5.89 2.39
4.35 -5.80 2.39
4.47 -5.72 2.39
2.13 -2.62 1.11
2.13 -2.51 1.08
2.15 -2.43 1.07
2.18 -2.37 1.06
2.22 -2.32 1.06
2.27 -2.28 1.06
2.33 -2.24 1.06
2.40 -2.22 1.08
2.49 -2.22 1.10
5.52 -4.72 2.39
5.62 -4.61 2.39
5.78 -4.55 2.42
5.87 -4.44 2.42
5.96 -4.32 2.42
6.05 -4.20 2.42
6.13 -4.07 2.42
6.20 -3.95 2.42
6.28 -3.82 2.42
6.35 -3.69 2.42
6.42 -3.56 2.42
6.49 -3.43 2.42
6.40 -3.22 2.36
6.46 -3.09 2.35
6.51 -2.96 2.35
6.57 -2.83 2.35
6.62 -2.69 2.35
6.67 -2.56 2.35
6.72 -2.42 2.35
6.76 -2.29 2.35
6.80 -2.15 2.34
6.84 -2.01 2.34
6.88 -1.87 2.34
6.91 -1.73 2.34
6.94 -1.59 2.34
6.97 -1.45 2.34
6.99 -1.31 2.34
7.02 -1.17 2.34
7.04 -1.03 2.34
7.21 -0.91 2.39
7.25 -0.77 2.40
7.27 -0.62 2.40
7.28 -0.48 2.40
7.28 -0.33 2.40
7.28 -0.18 2.39
7.27 -0.04 2.39
4.91 0.07 1.61
4.90 0.17 1.61
4.90 0.27 1.61
4.92 0.37 1.62
5.64 0.54 1.86
5.64 0.65 1.87
5.65 0.77 1.87
5.65 0.88 1.88
5.65 1.00 1.89
5.66 1.12 1.90
5.66 1.24 1.91
5.67 1.36 1.92
5.67 1.48 1.93
5.68 1.60 1.94
5.68 1.73 1.95
1.97 0.64 0.68
1.93 0.67 0.67
1.91 0.71 0.67
1.93 0.76 0.68
5.69 2.38 2.03
5.68 2.51 2.05
5.68 2.65 2.06
5.67 2.78 2.08
5.67 2.92 2.10
5.66 3.07 2.12
5.67 3.22 2.15
5.67 3.37 2.17
5.68 3.53 2.20
5.69 3.70 2.24
5.73 3.89 2.29
5.81 4.11 2.35
5.83 4.31 2.39
5.74 4.42 2.39
5.65 4.54 2.39
5.55 4.65 2.39
5.46 4.76 2.39
5.36 4.86 2.39
5.26 4.97 2.39
5.16 5.07 2.39
5.06 5.18 2.39
4.95 5.27 2.39
4.84 5.37 2.39
4.73 5.47 2.39
4.62 5.56 2.39
4.51 5.65 2.39
4.39 5.74 2.39
4.28 5.82 2.39
4.16 5.91 2.39
4.04 5.99 2.39
3.92 6.07 2.39
3.79 6.14 2.39
3.67 6.22 2.39
3.54 6.29 2.39
3.41 6.36 2.39
3.28 6.42 2.39
3.15 6.48 2.39
3.02 6.55 2.39
2.89 6.60 2.39
2.76 6.66 2.39
2.62 6.71 2.39
2.49 6.76 2.39
2.35 6.81 2.39
2.21 6.85 2.39
2.07 6.89 2.39
2.02 7.23 2.49
1.87 7.27 2.49
1.73 7.30 2.49
1.58 7.34 2.49
1.43 7.36 2.49
1.28 7.39 2.49
1.13 7.41 2.49
0.98 7.43 2.49
0.83 7.45 2.49
0.68 7.46 2.49
0.53 7.47 2.49
0.38 7.48 2.49
0.23 7.48 2.49
0.08 7.49 2.49
-0.07 7.48 2.49
-0.22 7.48 2.49
-0.37 7.47 2.49
-0.52 7.46 2.49
-0.67 7.45 2.49
-0.82 7.43 2.49
-0.96 7.41 2.49
-1.11 7.39 2.49
-1.26 7.36 2.49
-1.41 7.34 2.49
-1.56 7.31 2.49
-1.70 7.27 2.49
-1.85 7.23 2.49
-1.99 7.19 2.49
-2.13 7.15 2.49
-2.28 7.11 2.49
-2.42 7.06 2.49
-2.56 7.01 2.49
-2.70 6.95 2.49
-2.84 6.89 2.49
-2.98 6.84 2.49
-3.11 6.77 2.49
-3.25 6.71 2.49
-3.38 6.64 2.49
-3.51 6.57 2.49
-3.64 6.50 2.49
-3.77 6.42 2.49
-3.90 6.34 2.49
-4.03 6.26 2.49
-4.15 6.18 2.49
-4.27 6.09 2.49
-4.39 6.01 2.49
-4.51 5.92 2.49
-4.63 5.82 2.49
-4.75 5.73 2.49
-4.86 5.63 2.49
-4.97 5.53 2.49
-5.08 5.43 2.49
-5.19 5.33 2.49
-5.29 5.22 2.49
-5.40 5.11 2.49
-5.50 5.00 2.49
-5.60 4.89 2.49
-5.69 4.78 2.49
-5.79 4.66 2.49
-5.88 4.54 2.49
-5.97 4.42 2.49
-6.05 4.30 2.49
-6.12 4.16 2.48
-6.12 3.99 2.45
-6.13 3.82 2.43
-6.14 3.66 2.40
-6.19 3.52 2.39
-6.26 3.39 2.39
-6.34 3.28 2.40
-6.39 3.14 2.39
-6.45 3.01 2.39
-6.51 2.88 2.39
-6.53 2.73 2.38
-6.53 2.58 2.36
-6.54 2.43 2.34
-6.54 2.29 2.33
-6.55 2.14 2.31
-6.55 2.00 2.30
-6.56 1.86 2.29
-6.56 1.72 2.28
-6.57 1.58 2.27
-6.60 1.45 2.27
-6.62 1.31 2.27
-6.65 1.18 2.27
-6.67 1.05 2.27
-6.69 0.91 2.27
-6.71 0.78 2.27
-6.72 0.64 2.27
-6.73 0.51 2.27
-6.74 0.37 2.27
-6.75 0.24 2.27
-6.75 0.10 2.27
-6.75 -0.04 2.27
-6.75 -0.17 2.27
-6.75 -0.31 2.27
-6.74 -0.44 2.27
-6.73 -0.58 2.27
-6.72 -0.71 2.27
-6.70 -0.85 2.27
-6.69 -0.98 2.27
-6.67 -1.12 2.27
-6.67 -1.26 2.28
-6.67 -1.40 2.29
-6.68 -1.54 2.30
-6.68 -1.68 2.31
-6.69 -1.83 2.33
-6.69 -1.97 2.34
-6.70 -2.12 2.36
-6.75 -2.29 2.39
-6.70 -2.42 2.39
-6.65 -2.56 2.39
-6.60 -2.69 2.39
-6.56 -2.83 2.40
-6.49 -2.95 2.39
-6.43 -3.08 2.39
-6.39 -3.23 2.40
-6.39 -3.39 2.42
-6.39 -3.56 2.45
-6.40 -3.73 2.48
-6.35 -3.88 2.49
-6.28 -4.00 2.49
-6.20 -4.13 2.49
-6.11 -4.25 2.49
-6.03 -4.38 2.49
-5.94 -4.50 2.49
-5.85 -4.62 2.49
-5.75 -4.73 2.49
-5.66 -4.85 2.49
-5.56 -4.96 2.49
-5.46 -5.08 2.49
-5.36 -5.18 2.49
-5.26 -5.29 2.49
-5.15 -5.40 2.49
-5.04 -5.50 2.49
-4.93 -5.60 2.49
-4.82 -5.70 2.49
-4.70 -5.80 2.49
-4.59 -5.89 2.49
-4.47 -5.98 2.49
-4.35 -6.07 2.49
-4.23 -6.16 2.49
-4.10 -6.25 2.49
-3.98 -6.33 2.49
-3.85 -6.41 2.49
-3.72 -6.49 2.49
-3.59 -6.56 2.49
-3.46 -6.63 2.49
-3.33 -6.70 2.49
-3.19 -6.77 2.49
-3.06 -6.83 2.49
-2.92 -6.90 2.49
-2.78 -6.95 2.49
-2.64 -7.01 2.49
-2.50 -7.06 2.49
-2.36 -7.11 2.49
-2.22 -7.16 2.49
-2.07 -7.21 2.49
-1.93 -7.25 2.49
-1.78 -7.29 2.49
-1.64 -7.32 2.49
-1.49 -7.36 2.49
-1.34 -7.39 2.49
-1.19 -7.41 2.49
-1.04 -7.44 2.49
-0.89 -7.46 2.49
-0.74 -7.48 2.49
-0.59 -7.49 2.49
-0.44 -7.50 2.49
-0.29 -7.51 2.49
-0.14 -7.52 2.49
0.01 -6.99 2.49
0.15 -6.99 2.49
0.29 -6.99 2.49
0.43 -6.98 2.49
0.57 -6.97 2.49
0.71 -6.96 2.49
0.85 -6.95 2.49
0.99 -6.93 2.49
1.13 -6.91 2.49
1.27 -6.89 2.49
1.40 -6.86 2.49
1.54 -6.83 2.49
1.61 -6.52 2.39
1.74 -6.49 2.39
1.87 -6.45 2.39
2.00 -6.42 2.39
2.13 -6.38 2.39
2.26 -6.33 2.39
2.38 -6.29 2.39
2.51 -6.24 2.39
2.63 -6.19 2.39
2.76 -6.14 2.39
2.88 -6.08 2.39
3.00 -6.02 2.39
3.12 -5.96 2.39
3.24 -5.90 2.39
3.36 -5.83 2.39
3.48 -5.77 2.39
