ply
format ascii 1.0
element vertex 2894
property float32 x
property float32 y
property float32 z
end_header
18.44 13.66 -0.06
18.45 14.24 -0.06
18.46 14.85 -0.06
8.84 7.41 -0.03
8.79 7.67 -0.03
8.52 7.74 -0.03
8.31 7.86 -0.02
8.19 8.06 -0.02
7.97 8.18 -0.02
7.96 8.50 -0.02
7.99 8.88 -0.02
17.12 19.82 -0.04
16.75 20.19 -0.04
16.48 20.70 -0.04
18.48 24.18 -0.04
17.73 24.19 -0.04
16.99 24.19 -0.04
17.00 25.27 -0.03
8.92 13.86 -0.02
8.62 13.99 -0.01
8.38 14.23 -0.01
8.11 14.44 -0.01
8.09 15.09 -0.01
8.65 16.96 -0.01
8.37 17.24 -0.01
8.04 17.46 -0.00
8.70 19.94 -0.00
8.38 20.31 0.00
7.98 20.49 0.00
14.23 38.83 0.01
13.53 39.35 0.02
13.55 42.12 0.03
13.43 44.81 0.04
11.15 40.12 0.04
12.38 48.31 0.05
-5.88 17.10 0.11
-37.21 -3.18 0.52
6.62 -46.75 1.40
5.93 -36.58 1.09
6.69 -36.59 1.09
7.46 -36.59 1.09
8.23 -36.60 1.08
8.99 -36.57 1.08
6.00 -22.43 0.66
10.58 -36.62 1.08
11.39 -36.63 1.08
8.10 -24.34 0.72
7.81 -21.97 0.65
8.27 -21.88 0.65
8.96 -22.33 0.66
10.35 -24.36 0.72
7.51 -16.74 0.50
7.89 -16.67 0.50
8.22 -16.50 0.49
8.59 -16.42 0.49
12.53 -22.82 0.69
13.55 -23.55 0.72
13.92 -23.11 0.71
14.89 -23.63 0.73
7.69 -11.67 0.36
7.88 -11.46 0.36
8.03 -11.19 0.35
8.27 -11.05 0.35
8.45 -10.83 0.35
20.01 -24.61 0.79
19.85 -23.43 0.76
20.14 -22.83 0.75
21.65 -23.57 0.79
22.05 -23.06 0.78
23.64 -23.75 0.81
23.75 -22.92 0.79
7.84 -7.27 0.26
7.91 -7.04 0.25
7.80 -6.67 0.24
7.91 -6.50 0.24
8.15 -6.42 0.24
8.33 -6.30 0.24
8.52 -6.18 0.24
31.77 -22.07 0.89
30.99 -19.73 0.83
31.61 -18.39 0.82
33.07 -18.36 0.84
30.97 -16.38 0.78
31.35 -15.79 0.77
2.54 -1.21 0.06
2.55 -1.16 0.06
32.00 -13.77 0.75
31.59 -12.85 0.73
31.61 -12.12 0.73
31.02 -11.19 0.70
30.86 -10.44 0.69
31.76 -10.04 0.70
31.62 -9.30 0.69
26.59 -7.24 0.58
25.64 -6.43 0.55
8.14 -1.87 0.17
7.91 -1.65 0.17
8.00 -1.50 0.17
7.99 -1.33 0.17
7.89 -1.16 0.16
8.06 -1.02 0.17
7.98 -0.84 0.16
8.19 -0.70 0.17
8.29 -0.54 0.17
8.37 -0.38 0.17
31.76 -0.80 0.64
18.25 -0.09 0.36
18.32 0.28 0.36
18.32 0.64 0.36
18.32 1.01 0.36
18.33 1.38 0.36
18.33 1.75 0.36
18.33 2.13 0.36
18.27 2.49 0.36
18.34 2.88 0.36
18.34 3.26 0.37
18.35 3.64 0.37
8.77 1.92 0.18
8.19 1.97 0.16
8.23 2.15 0.17
8.09 2.29 0.16
8.08 2.46 0.17
8.05 2.63 0.17
8.00 2.80 0.17
7.94 2.96 0.17
8.22 3.25 0.17
18.36 7.69 0.39
18.36 8.12 0.39
18.37 8.57 0.40
8.74 4.29 0.19
8.78 4.53 0.19
8.56 4.64 0.19
8.32 4.73 0.19
8.01 4.77 0.18
7.92 4.93 0.18
7.91 5.15 0.19
7.98 5.43 0.19
7.68 5.45 0.19
8.36 6.19 0.21
18.45 14.24 0.47
18.46 14.85 0.48
9.14 7.66 0.24
8.80 7.68 0.24
8.59 7.81 0.24
8.19 7.75 0.23
8.03 7.91 0.23
7.89 8.09 0.23
8.04 8.58 0.24
7.71 8.57 0.24
17.24 19.94 0.55
16.63 20.04 0.54
16.31 20.48 0.55
18.48 24.18 0.64
17.73 24.19 0.64
17.00 24.20 0.63
17.00 25.26 0.65
9.08 14.09 0.36
8.70 14.12 0.36
8.34 14.16 0.36
8.10 14.42 0.36
7.80 14.55 0.36
8.73 17.11 0.42
8.31 17.12 0.42
8.05 17.46 0.43
8.79 20.12 0.49
8.31 20.13 0.49
7.99 20.52 0.50
14.25 38.87 0.95
13.42 39.01 0.95
13.45 41.78 1.02
13.46 44.89 1.09
11.16 40.12 0.98
6.71 44.13 1.09
-5.88 17.11 0.51
-37.17 -3.18 1.36
-43.85 -7.33 1.63
-39.35 -7.39 1.47
0.02 -46.75 2.49
0.96 -46.88 2.49
1.84 -45.45 2.41
2.74 -45.15 2.39
3.66 -45.23 2.39
4.58 -45.29 2.39
5.51 -45.34 2.39
5.27 -37.13 1.96
5.94 -36.58 1.93
6.70 -36.59 1.93
6.27 -30.75 1.62
6.92 -30.76 1.62
5.97 -24.25 1.28
5.99 -22.40 1.19
5.94 -20.53 1.09
7.56 -24.31 1.29
6.06 -18.20 0.97
6.08 -17.09 0.91
6.09 -16.09 0.87
6.09 -15.18 0.82
6.10 -14.35 0.78
7.56 -16.84 0.92
6.00 -12.68 0.70
6.19 -12.43 0.69
8.80 -16.82 0.93
12.62 -22.97 1.29
14.04 -24.39 1.38
14.71 -24.40 1.39
15.39 -24.41 1.40
7.93 -12.04 0.70
7.82 -11.37 0.67
7.95 -11.07 0.66
8.23 -10.99 0.66
8.48 -10.87 0.66
19.89 -24.45 1.50
20.72 -24.46 1.52
21.59 -24.46 1.54
22.49 -24.47 1.57
20.96 -21.91 1.42
15.81 -15.88 1.05
23.89 -23.05 1.55
26.45 -24.51 1.68
7.99 -7.12 0.50
7.95 -6.80 0.48
8.00 -6.56 0.48
8.15 -6.42 0.48
8.27 -6.25 0.47
8.36 -6.06 0.47
9.05 -6.28 0.50
32.92 -21.89 1.79
31.12 -19.81 1.67
32.94 -20.05 1.74
32.95 -19.16 1.71
32.96 -18.29 1.69
31.04 -16.42 1.57
32.97 -16.60 1.64
2.54 -1.21 0.12
2.55 -1.16 0.12
33.00 -14.19 1.59
33.00 -13.42 1.57
33.01 -12.66 1.56
33.02 -11.91 1.54
31.25 -10.56 1.44
33.03 -10.43 1.51
27.17 -7.98 1.23
26.96 -7.34 1.21
26.01 -6.52 1.16
8.68 -1.99 0.39
8.23 -1.72 0.36
8.03 -1.51 0.35
8.02 -1.34 0.35
7.99 -1.17 0.35
7.66 -0.97 0.33
7.93 -0.84 0.34
7.86 -0.67 0.34
8.37 -0.55 0.36
8.38 -0.38 0.36
33.13 -0.83 1.41
18.25 -0.09 0.78
18.32 0.28 0.78
18.32 0.65 0.78
18.32 1.01 0.78
18.33 1.38 0.78
18.33 1.75 0.78
18.33 2.13 0.78
18.27 2.49 0.78
18.34 2.88 0.78
18.34 3.26 0.79
18.35 3.64 0.79
18.35 4.02 0.79
8.72 2.10 0.38
8.27 2.16 0.36
8.03 2.27 0.35
7.94 2.42 0.35
7.95 2.60 0.35
8.08 2.83 0.36
8.01 2.98 0.36
18.32 7.24 0.83
18.36 7.69 0.84
18.36 8.12 0.85
18.37 8.57 0.85
14.78 7.26 0.69
8.70 4.49 0.41
8.35 4.52 0.40
8.36 4.75 0.41
8.05 4.79 0.40
8.02 4.99 0.40
7.82 5.09 0.40
7.95 5.40 0.41
7.78 5.52 0.41
8.30 6.14 0.44
18.45 14.24 0.99
18.46 14.84 1.01
18.46 15.47 1.03
8.70 7.59 0.49
8.64 7.85 0.50
8.42 7.96 0.50
8.11 7.98 0.49
7.96 8.16 0.49
7.77 8.29 0.49
7.88 8.76 0.51
17.31 20.02 1.15
16.82 20.27 1.14
16.69 20.95 1.17
17.09 22.35 1.23
16.39 22.36 1.21
15.72 22.37 1.20
15.08 22.40 1.19
9.22 14.30 0.75
8.73 14.16 0.73
8.48 14.39 0.74
8.16 14.52 0.74
8.01 14.94 0.75
8.70 17.05 0.85
8.43 17.36 0.86
6.25 13.57 0.67
7.95 18.20 0.89
6.31 15.27 0.75
6.40 16.41 0.80
6.34 17.27 0.84
6.42 18.65 0.90
6.43 19.97 0.96
6.38 21.27 1.02
6.26 22.52 1.07
9.15 35.63 1.70
8.40 35.67 1.70
7.65 35.68 1.69
6.90 35.69 1.69
6.71 38.88 1.84
6.73 44.26 2.10
5.89 44.77 2.12
1.71 24.11 1.15
-5.35 48.49 2.39
-6.03 46.10 2.29
-7.25 47.90 2.39
-8.18 47.58 2.39
-9.10 47.24 2.39
-8.01 37.51 1.91
-9.40 36.75 1.90
-9.45 34.07 1.78
-9.47 29.50 1.57
-5.88 17.11 0.92
-27.43 0.97 1.62
-38.26 0.58 2.25
-38.23 -0.19 2.25
-38.18 -0.95 2.25
-38.13 -1.72 2.25
-38.06 -2.48 2.25
-34.72 -2.97 2.06
-31.78 -3.36 1.89
-37.77 -4.76 2.25
-37.64 -5.51 2.25
-37.51 -6.27 2.25
-37.36 -7.02 2.25
-35.42 -7.39 2.15
-32.30 -7.42 1.97
-29.67 -7.44 1.81
-27.41 -7.47 1.69
-23.84 -7.54 1.48
-21.17 -7.64 1.34
-10.06 -26.64 1.60
-10.08 -28.42 1.69
-10.13 -32.67 1.90
-10.16 -35.25 2.04
-11.09 -45.24 2.57
-9.49 -42.35 2.39
-8.66 -42.65 2.39
-7.82 -42.93 2.39
-6.63 -41.00 2.27
-6.20 -43.95 2.42
-5.50 -45.58 2.49
-4.60 -45.82 2.49
-3.69 -46.03 2.49
-2.77 -46.24 2.49
-1.85 -46.42 2.49
-0.92 -46.59 2.49
0.02 -32.83 2.49
0.68 -32.89 2.49
1.34 -32.95 2.49
1.96 -32.25 2.44
2.57 -31.65 2.39
3.21 -31.66 2.39
3.85 -31.66 2.39
4.50 -31.65 2.39
5.14 -31.62 2.39
5.79 -31.59 2.39
6.28 -30.75 2.33
6.92 -30.76 2.34
5.97 -24.22 1.84
5.92 -22.11 1.69
5.94 -20.51 1.57
5.95 -19.11 1.47
5.96 -17.88 1.38
5.97 -16.78 1.30
5.98 -15.80 1.23
6.08 -15.14 1.19
6.11 -14.37 1.13
10.40 -23.15 1.84
6.01 -12.69 1.01
6.12 -12.29 0.99
11.40 -21.77 1.77
6.14 -11.17 0.91
6.03 -10.47 0.86
6.15 -10.19 0.85
15.39 -24.41 2.05
6.15 -9.34 0.79
6.15 -8.94 0.77
6.05 -8.43 0.73
8.29 -11.07 0.97
8.56 -10.97 0.98
19.90 -24.45 2.21
20.71 -24.43 2.24
21.25 -24.07 2.24
20.19 -21.97 2.08
22.30 -23.30 2.24
15.74 -15.81 1.55
23.32 -22.49 2.24
23.82 -22.06 2.24
7.76 -6.91 0.72
7.77 -6.64 0.70
7.85 -6.44 0.70
8.07 -6.36 0.70
8.34 -6.30 0.71
8.55 -6.19 0.72
27.07 -18.79 2.24
27.49 -18.28 2.24
27.91 -17.76 2.24
28.32 -17.23 2.24
28.71 -16.69 2.24
29.09 -16.14 2.24
29.47 -15.58 2.24
29.83 -15.01 2.24
2.54 -1.21 0.19
2.55 -1.16 0.19
30.84 -13.26 2.24
31.15 -12.66 2.24
31.45 -12.05 2.24
31.74 -11.44 2.24
32.01 -10.82 2.24
32.27 -10.19 2.24
27.24 -8.00 1.88
25.32 -6.89 1.73
25.69 -6.44 1.75
33.06 -7.59 2.23
8.00 -1.67 0.54
8.03 -1.51 0.54
8.03 -1.34 0.53
8.00 -1.17 0.53
7.82 -0.98 0.52
8.00 -0.84 0.53
8.10 -0.69 0.53
8.43 -0.55 0.55
8.31 -0.37 0.54
33.13 -0.83 2.16
18.25 -0.09 1.19
18.32 0.28 1.19
18.32 0.65 1.19
18.32 1.02 1.19
18.33 1.38 1.19
18.33 1.76 1.19
18.33 2.13 1.20
18.27 2.49 1.19
18.34 2.88 1.20
18.34 3.26 1.21
18.35 3.64 1.21
8.71 1.91 0.58
8.55 2.06 0.57
8.30 2.17 0.56
8.09 2.29 0.54
8.07 2.46 0.55
8.05 2.63 0.55
8.11 2.83 0.56
8.07 3.00 0.56
18.32 7.24 1.27
18.36 7.69 1.29
18.36 8.12 1.30
18.37 8.57 1.31
14.77 7.26 1.07
8.90 4.60 0.65
8.66 4.69 0.64
8.50 4.83 0.63
8.11 4.83 0.61
8.11 5.05 0.62
7.88 5.13 0.61
7.85 5.34 0.62
7.87 5.59 0.63
7.88 5.83 0.64
18.31 14.13 1.51
18.31 14.73 1.53
18.32 15.35 1.56
8.89 7.76 0.77
8.65 7.86 0.77
8.48 8.02 0.76
8.19 8.06 0.75
8.06 8.26 0.76
7.90 8.43 0.76
8.01 8.90 0.79
19.31 22.33 1.95
17.02 20.50 1.76
16.61 20.84 1.76
17.09 22.35 1.86
16.40 22.36 1.84
15.72 22.37 1.82
6.48 9.63 0.77
6.26 9.71 0.77
8.81 14.28 1.12
8.54 14.49 1.12
8.23 14.63 1.12
8.10 15.11 1.15
8.81 17.26 1.30
6.45 13.27 0.99
8.16 17.69 1.31
8.89 20.35 1.50
6.31 15.27 1.12
6.35 16.29 1.19
6.30 17.15 1.24
6.31 18.31 1.32
6.32 19.62 1.41
6.33 21.10 1.51
6.24 22.41 1.60
8.55 33.28 2.36
7.39 31.35 2.22
7.31 34.09 2.41
6.57 33.93 2.39
5.87 33.98 2.39
5.18 34.01 2.39
4.49 34.03 2.39
3.79 34.04 2.39
3.10 34.03 2.39
1.71 24.11 1.69
1.80 35.44 2.49
1.09 35.39 2.49
0.38 35.32 2.49
-0.33 35.24 2.49
-1.04 35.14 2.49
-1.74 35.03 2.49
-2.43 34.91 2.49
-3.13 34.77 2.49
-3.82 34.61 2.49
-4.50 34.45 2.49
-5.18 34.27 2.49
-5.61 32.67 2.39
-6.25 32.47 2.39
-6.88 32.26 2.39
-7.51 32.04 2.39
-7.92 30.98 2.33
-8.75 31.56 2.39
-9.36 31.31 2.39
-9.48 29.54 2.27
-5.87 17.10 1.33
-9.55 20.78 1.70
-9.57 18.80 1.58
-16.75 0.93 1.37
-26.97 0.95 2.20
-27.64 0.42 2.25
-27.62 -0.13 2.25
-27.60 -0.69 2.25
-27.56 -1.24 2.25
-27.52 -1.79 2.25
-27.46 -2.34 2.25
-27.40 -2.89 2.25
-25.98 -3.27 2.14
-19.99 -2.93 1.65
-20.53 -3.43 1.70
-27.04 -5.08 2.25
-26.92 -5.62 2.25
-26.80 -6.16 2.25
-26.67 -6.69 2.25
-26.52 -7.23 2.25
-25.45 -7.49 2.17
-23.74 -7.50 2.04
-22.22 -7.52 1.92
-20.87 -7.53 1.82
-19.65 -7.54 1.73
-18.56 -7.55 1.64
-18.03 -7.76 1.61
-15.87 -7.60 1.44
-15.40 -7.76 1.41
-13.29 -7.74 1.26
-9.96 -16.56 1.54
-9.98 -17.36 1.60
-18.97 -34.61 3.14
-18.14 -34.73 3.11
-17.33 -34.88 3.09
-10.02 -21.22 1.86
-15.91 -35.53 3.08
-15.17 -35.77 3.07
-10.04 -25.08 2.13
-10.06 -26.66 2.24
-11.17 -31.50 2.63
-9.61 -28.93 2.39
-9.04 -29.17 2.39
-8.47 -29.40 2.39
-7.89 -29.62 2.39
-7.31 -29.82 2.39
-6.72 -30.02 2.39
-6.13 -30.21 2.39
-5.77 -31.70 2.49
-5.14 -31.87 2.49
-4.51 -32.03 2.49
-3.88 -32.18 2.49
-3.24 -32.32 2.49
-2.59 -32.45 2.49
-1.94 -32.56 2.49
-1.29 -32.66 2.49
-0.64 -32.75 2.49
0.02 -25.28 2.49
0.53 -25.31 2.49
1.04 -25.34 2.49
1.55 -25.36 2.49
2.03 -25.02 2.46
2.47 -24.31 2.39
2.96 -24.30 2.39
3.45 -24.28 2.39
3.95 -24.25 2.39
4.44 -24.21 2.39
4.94 -24.16 2.39
5.43 -24.10 2.39
5.92 -24.03 2.39
5.92 -22.10 2.21
5.94 -20.50 2.05
5.95 -19.10 1.92
5.96 -17.87 1.81
5.97 -16.77 1.70
5.98 -15.79 1.61
5.99 -14.90 1.53
6.00 -14.09 1.46
6.00 -13.36 1.39
6.01 -12.69 1.33
6.02 -12.07 1.28
6.02 -11.50 1.23
6.06 -11.02 1.19
6.03 -10.47 1.14
6.15 -10.19 1.12
12.75 -20.21 2.24
6.15 -9.33 1.05
8.00 -11.61 1.32
6.06 -8.43 0.97
8.22 -10.97 1.28
8.83 -11.30 1.33
6.17 -7.58 0.91
15.65 -18.45 2.24
16.04 -18.17 2.24
6.07 -6.60 0.83
6.15 -6.43 0.82
6.18 -6.20 0.81
15.26 -14.72 1.95
6.18 -5.72 0.77
8.07 -7.18 0.99
7.85 -6.70 0.94
7.93 -6.51 0.94
8.15 -6.41 0.95
6.08 -4.59 0.69
6.12 -4.43 0.69
20.31 -14.09 2.24
20.62 -13.70 2.24
20.92 -13.30 2.24
21.21 -12.90 2.24
21.50 -12.49 2.24
21.78 -12.07 2.24
22.04 -11.65 2.24
22.30 -11.22 2.24
2.54 -1.21 0.25
2.55 -1.16 0.25
23.03 -9.90 2.24
23.25 -9.45 2.24
23.47 -8.99 2.24
23.67 -8.53 2.24
23.87 -8.06 2.24
24.05 -7.59 2.24
24.22 -7.11 2.24
24.39 -6.63 2.24
24.54 -6.15 2.24
24.69 -5.66 2.24
8.05 -1.68 0.73
8.07 -1.51 0.73
7.96 -1.33 0.71
7.84 -1.15 0.70
7.93 -1.00 0.70
8.08 -0.85 0.72
8.15 -0.69 0.72
8.35 -0.54 0.74
25.50 -1.15 2.24
25.53 -0.63 2.24
18.25 -0.09 1.60
18.18 0.28 1.59
18.18 0.64 1.59
18.18 1.01 1.60
18.19 1.37 1.60
18.19 1.74 1.60
18.19 2.11 1.60
18.20 2.48 1.61
18.20 2.86 1.61
18.20 3.23 1.62
18.21 3.61 1.62
18.21 3.99 1.63
8.65 2.08 0.78
8.24 2.16 0.74
8.10 2.29 0.74
8.01 2.44 0.73
8.08 2.64 0.74
8.12 2.84 0.75
7.95 2.96 0.74
8.37 3.31 0.79
18.36 7.68 1.74
18.36 8.12 1.75
14.74 6.88 1.42
14.66 7.20 1.43
8.83 4.56 0.87
8.58 4.65 0.85
8.38 4.76 0.84
8.17 4.86 0.83
8.18 5.09 0.84
7.95 5.17 0.83
8.02 5.45 0.85
8.06 5.72 0.87
7.83 5.80 0.86
18.38 14.18 2.04
18.39 14.79 2.07
18.39 15.41 2.11
18.40 16.05 2.15
6.22 5.65 0.74
6.22 5.88 0.76
8.27 8.15 1.02
6.33 6.49 0.80
6.34 6.76 0.82
7.97 8.85 1.05
6.35 7.34 0.86
6.34 7.63 0.88
6.24 7.83 0.89
15.44 20.18 2.26
6.36 8.67 0.96
14.71 20.93 2.28
14.20 21.08 2.27
6.26 9.71 1.03
8.92 14.46 1.52
8.44 14.31 1.49
8.28 14.73 1.51
6.24 11.64 1.19
6.25 12.23 1.23
6.26 12.88 1.29
6.27 13.59 1.35
6.27 14.34 1.41
6.28 15.18 1.49
6.29 16.11 1.57
6.30 17.15 1.66
6.31 18.30 1.76
6.32 19.61 1.87
6.33 21.09 2.01
6.24 22.41 2.12
6.51 25.33 2.39
5.99 25.42 2.39
5.47 25.49 2.39
4.95 25.55 2.39
4.43 25.60 2.39
3.91 25.65 2.39
3.39 25.67 2.39
2.87 25.69 2.39
2.45 26.81 2.49
1.72 24.13 2.24
1.37 26.79 2.49
0.83 26.77 2.49
0.29 26.73 2.49
-0.25 26.69 2.49
-0.78 26.63 2.49
-1.31 26.56 2.49
-1.84 26.48 2.49
-2.37 26.39 2.49
-2.89 26.29 2.49
-3.41 26.18 2.49
-3.93 26.06 2.49
-4.45 25.93 2.49
-4.96 25.79 2.49
-5.46 25.63 2.49
-5.73 24.47 2.40
-5.91 23.13 2.28
-6.49 23.45 2.33
-7.14 23.90 2.39
-7.60 23.71 2.39
-5.86 17.08 1.74
-8.52 23.30 2.39
-8.97 23.08 2.39
-9.41 22.86 2.39
-14.62 33.57 3.55
-9.55 20.79 2.22
-9.57 18.80 2.06
-9.60 17.95 1.99
-9.62 14.33 1.70
-9.63 12.63 1.57
-9.66 12.15 1.54
-15.68 0.87 1.64
-21.62 0.77 2.25
-21.62 0.33 2.25
-21.61 -0.10 2.25
-21.59 -0.54 2.25
-21.56 -0.97 2.25
-21.53 -1.40 2.25
-21.49 -1.83 2.25
-21.44 -2.26 2.25
-21.39 -2.69 2.25
-21.32 -3.12 2.25
-18.65 -3.12 1.98
-17.76 -3.33 1.89
-21.08 -4.40 2.25
-20.98 -4.82 2.25
-20.88 -5.24 2.25
-20.77 -5.66 2.25
-20.65 -6.07 2.25
-20.52 -6.49 2.25
-20.39 -6.90 2.25
-20.25 -7.31 2.25
-19.65 -7.54 2.20
-18.56 -7.55 2.10
-17.56 -7.56 2.00
-16.65 -7.57 1.91
-15.82 -7.58 1.83
-15.05 -7.58 1.76
-14.34 -7.59 1.70
-13.68 -7.60 1.64
-13.09 -7.62 1.58
-12.74 -7.76 1.56
-10.55 -7.65 1.36
-10.18 -7.70 1.33
-9.91 -11.25 1.55
-9.96 -13.90 1.76
-21.97 -31.99 3.99
-20.82 -31.67 3.90
-9.97 -15.85 1.92
-19.03 -31.65 3.79
-9.99 -17.39 2.05
-17.29 -31.56 3.68
-16.43 -31.47 3.63
-15.59 -31.38 3.58
-14.69 -31.12 3.51
-9.59 -21.43 2.39
-9.17 -21.65 2.39
-8.75 -21.86 2.39
-8.32 -22.06 2.39
-7.89 -22.25 2.39
-7.45 -22.43 2.39
-7.01 -22.61 2.39
-6.56 -22.78 2.39
-6.11 -22.94 2.39
-5.90 -24.09 2.49
-5.42 -24.24 2.49
-4.94 -24.38 2.49
-4.46 -24.51 2.49
-3.97 -24.63 2.49
-3.48 -24.75 2.49
-2.99 -24.85 2.49
-2.49 -24.95 2.49
-1.99 -25.03 2.49
-1.49 -25.11 2.49
-0.99 -25.17 2.49
-0.49 -25.23 2.49
0.02 -20.53 2.49
0.43 -20.56 2.49
0.85 -20.57 2.49
1.26 -20.58 2.49
1.68 -20.58 2.49
2.08 -20.42 2.48
2.40 -19.70 2.39
2.80 -19.68 2.39
3.20 -19.65 2.39
3.60 -19.61 2.39
4.00 -19.56 2.39
4.40 -19.50 2.39
4.80 -19.44 2.39
5.19 -19.37 2.39
5.59 -19.29 2.39
5.98 -19.20 2.39
5.96 -17.86 2.23
5.97 -16.76 2.11
5.98 -15.78 2.00
5.99 -14.89 1.90
6.00 -14.09 1.81
6.00 -13.35 1.72
6.01 -12.68 1.65
6.02 -12.06 1.58
6.02 -11.49 1.52
6.03 -10.96 1.46
6.03 -10.46 1.41
6.04 -10.00 1.36
6.04 -9.57 1.32
6.04 -9.16 1.28
6.05 -8.78 1.24
6.06 -8.43 1.21
6.14 -8.19 1.19
12.16 -15.56 2.29
6.17 -7.58 1.13
12.74 -15.02 2.27
12.98 -14.69 2.26
6.07 -6.60 1.03
6.16 -6.43 1.02
6.18 -6.20 1.00
14.08 -13.57 2.24
14.37 -13.30 2.24
6.19 -5.50 0.95
7.93 -6.77 1.19
8.02 -6.57 1.18
8.20 -6.45 1.19
6.09 -4.60 0.87
6.12 -4.43 0.86
6.20 -4.30 0.86
16.48 -10.95 2.24
6.20 -3.95 0.83
6.20 -3.77 0.82
17.17 -9.97 2.24
17.39 -9.64 2.24
17.59 -9.30 2.24
6.21 -3.13 0.78
2.54 -1.21 0.32
2.55 -1.16 0.31
6.11 -2.62 0.75
6.11 -2.48 0.74
18.70 -7.16 2.24
18.86 -6.79 2.24
19.01 -6.42 2.24
19.15 -6.04 2.24
19.29 -5.66 2.24
19.41 -5.28 2.24
19.53 -4.89 2.24
19.64 -4.50 2.24
8.10 -1.69 0.92
8.12 -1.52 0.92
8.15 -1.36 0.92
7.92 -1.16 0.89
8.00 -1.01 0.89
6.12 -0.64 0.68
6.12 -0.52 0.68
8.21 -0.53 0.91
20.25 -0.91 2.24
20.28 -0.50 2.24
18.25 -0.09 2.02
18.25 0.28 2.02
18.25 0.65 2.02
18.26 1.01 2.02
18.26 1.38 2.02
18.26 1.75 2.02
18.27 2.12 2.03
18.27 2.49 2.03
18.27 2.87 2.04
18.28 3.25 2.04
18.28 3.63 2.05
18.29 4.01 2.06
8.60 2.07 0.97
6.17 1.62 0.70
6.17 1.75 0.71
6.18 1.88 0.71
8.14 2.66 0.94
8.01 2.80 0.93
8.24 3.06 0.97
15.50 6.12 1.83
15.24 6.38 1.82
14.99 6.63 1.80
14.74 6.88 1.79
14.66 7.20 1.80
14.60 7.54 1.81
6.31 3.42 0.79
6.30 3.58 0.80
6.20 3.69 0.80
6.20 3.86 0.81
8.01 5.22 1.06
8.04 5.47 1.07
8.01 5.68 1.08
6.32 4.68 0.87
16.06 12.39 2.24
6.33 5.09 0.90
15.54 13.02 2.24
6.33 5.52 0.93
6.22 5.65 0.93
6.22 5.88 0.95
6.34 6.24 0.99
6.34 6.50 1.01
6.34 6.76 1.03
14.40 15.99 2.39
6.35 7.34 1.08
6.34 7.63 1.11
6.24 7.83 1.12
13.34 17.44 2.45
6.36 8.67 1.20
6.25 8.89 1.22
6.26 9.29 1.25
6.26 9.71 1.29
8.87 14.38 1.90
8.58 14.56 1.90
8.34 14.83 1.91
6.24 11.63 1.49
6.25 12.23 1.55
6.26 12.87 1.61
6.26 13.57 1.69
6.27 14.34 1.77
6.28 15.18 1.86
6.29 16.10 1.96
6.30 17.14 2.07
6.31 18.29 2.20
6.32 19.60 2.34
6.04 20.11 2.39
5.63 20.20 2.39
5.22 20.28 2.39
4.80 20.36 2.39
4.39 20.42 2.39
3.97 20.48 2.39
3.56 20.53 2.39
3.14 20.56 2.39
2.72 20.60 2.39
2.40 21.51 2.49
1.97 21.52 2.49
1.54 21.53 2.49
1.10 21.52 2.49
0.67 21.51 2.49
0.24 21.49 2.49
-0.19 21.46 2.49
-0.62 21.42 2.49
-1.05 21.37 2.49
-1.48 21.31 2.49
-1.90 21.25 2.49
-2.33 21.18 2.49
-2.75 21.09 2.49
-3.16 21.00 2.49
-3.58 20.91 2.49
-3.99 20.80 2.49
-4.40 20.68 2.49
-4.81 20.56 2.49
-5.21 20.43 2.49
-5.58 20.17 2.48
-5.78 19.36 2.40
-6.06 18.90 2.36
-5.85 17.08 2.15
-6.88 18.85 2.39
-7.25 18.68 2.39
-7.61 18.50 2.39
-7.97 18.32 2.39
-8.33 18.13 2.39
-8.68 17.93 2.39
-9.02 17.73 2.39
-9.36 17.52 2.39
-17.32 30.90 4.27
-19.00 32.35 4.53
-9.65 10.75 1.77
-9.67 8.80 1.61
-9.68 8.12 1.56
-9.68 7.81 1.54
-11.38 0.86 1.45
-15.10 0.84 1.92
-17.73 0.63 2.25
-17.73 0.27 2.25
-17.73 -0.08 2.25
-17.72 -0.44 2.25
-17.70 -0.79 2.25
-17.67 -1.15 2.25
-17.64 -1.50 2.25
-17.60 -1.86 2.25
-17.55 -2.21 2.25
-17.50 -2.56 2.25
-17.44 -2.91 2.25
-17.38 -3.26 2.25
-15.10 -3.15 1.97
-14.46 -3.32 1.89
-14.38 -3.61 1.89
-17.05 -4.64 2.25
-16.95 -4.99 2.25
-16.85 -5.33 2.25
-16.74 -5.66 2.25
-16.62 -6.00 2.25
-16.50 -6.33 2.25
-16.37 -6.66 2.25
-16.24 -6.99 2.25
-16.09 -7.32 2.25
-15.82 -7.58 2.24
-15.05 -7.58 2.15
-14.34 -7.59 2.07
-13.68 -7.60 1.99
-13.06 -7.60 1.92
-12.49 -7.61 1.86
-11.95 -7.61 1.80
-11.44 -7.62 1.75
-10.97 -7.62 1.70
-10.51 -7.63 1.65
-10.10 -7.64 1.61
-9.95 -7.84 1.61
-9.91 -10.38 1.81
-9.94 -11.28 1.90
-9.94 -12.24 1.99
-23.77 -30.50 4.87
-22.44 -30.03 4.72
-21.29 -29.72 4.60
-9.95 -14.49 2.21
-9.96 -15.15 2.28
-9.97 -15.85 2.35
-9.83 -16.34 2.39
-9.50 -16.55 2.39
-9.18 -16.76 2.39
-8.85 -16.95 2.39
-8.52 -17.15 2.39
-8.18 -17.33 2.39
-7.84 -17.51 2.39
-7.49 -17.68 2.39
-6.88 -17.20 2.30
-6.68 -17.71 2.35
-6.30 -17.79 2.34
-6.07 -18.31 2.39
-5.96 -19.24 2.49
-5.58 -19.38 2.49
-5.19 -19.51 2.49
-4.81 -19.64 2.49
-4.42 -19.75 2.49
-4.02 -19.86 2.49
-3.63 -19.96 2.49
-3.23 -20.06 2.49
-2.83 -20.14 2.49
-2.43 -20.22 2.49
-2.02 -20.29 2.49
-1.62 -20.36 2.49
-1.21 -20.41 2.49
-0.80 -20.46 2.49
-0.39 -20.50 2.49
0.02 -17.27 2.49
0.37 -17.29 2.49
0.72 -17.30 2.49
1.06 -17.30 2.49
1.41 -17.30 2.49
1.76 -17.29 2.49
2.11 -17.24 2.49
2.36 -16.53 2.39
2.69 -16.50 2.39
3.03 -16.46 2.39
3.36 -16.42 2.39
3.69 -16.37 2.39
4.03 -16.31 2.39
4.36 -16.25 2.39
4.69 -16.17 2.39
5.02 -16.10 2.39
5.35 -16.01 2.39
5.68 -15.92 2.39
6.00 -15.83 2.39
5.99 -14.88 2.26
6.00 -14.08 2.16
6.00 -13.35 2.06
6.01 -12.67 1.97
6.02 -12.06 1.89
6.02 -11.48 1.82
6.03 -10.95 1.75
6.03 -10.46 1.69
6.04 -10.00 1.63
6.04 -9.57 1.58
6.04 -9.16 1.53
6.05 -8.78 1.48
6.06 -8.43 1.44
6.05 -8.07 1.40
6.06 -7.75 1.36
6.06 -7.44 1.33
6.06 -7.15 1.30
6.07 -6.86 1.27
6.07 -6.60 1.24
6.07 -6.34 1.21
6.09 -6.10 1.19
6.21 -5.99 1.19
12.49 -11.56 2.34
6.19 -5.50 1.14
8.19 -6.99 1.48
8.04 -6.59 1.42
8.26 -6.50 1.44
6.09 -4.59 1.04
6.12 -4.43 1.03
6.20 -4.30 1.03
14.21 -9.44 2.32
6.20 -3.94 1.00
6.20 -3.77 0.99
6.21 -3.61 0.98
14.82 -8.21 2.30
14.93 -7.89 2.29
15.03 -7.56 2.28
2.54 -1.21 0.38
2.55 -1.15 0.38
6.11 -2.62 0.90
6.11 -2.48 0.89
6.20 -2.37 0.89
15.66 -5.64 2.24
6.21 -2.09 0.88
15.90 -5.01 2.24
16.01 -4.70 2.24
6.22 -1.69 0.87
16.20 -4.06 2.24
6.22 -1.42 0.86
16.38 -3.41 2.24
6.22 -1.17 0.85
8.20 -1.37 1.11
6.23 -0.91 0.84
8.07 -1.01 1.09
6.12 -0.64 0.82
6.13 -0.52 0.82
8.26 -0.54 1.11
16.78 -0.75 2.24
6.25 -0.15 0.83
6.26 -0.03 0.83
16.82 0.26 2.24
16.82 0.60 2.24
6.26 0.35 0.84
16.79 1.27 2.24
16.77 1.61 2.24
16.74 1.94 2.24
6.27 0.86 0.84
16.65 2.61 2.24
16.60 2.95 2.24
6.28 1.25 0.85
16.47 3.61 2.24
8.74 2.10 1.20
6.18 1.62 0.85
6.18 1.75 0.85
6.18 1.89 0.86
6.30 2.06 0.88
8.05 2.81 1.13
6.30 2.34 0.89
15.18 6.00 2.17
14.93 6.25 2.15
14.68 6.49 2.13
6.31 2.94 0.93
6.30 3.10 0.93
6.31 3.26 0.94
6.31 3.42 0.96
6.31 3.59 0.97
6.20 3.69 0.96
6.20 3.86 0.97
8.08 5.26 1.28
8.19 5.57 1.32
7.96 5.65 1.30
6.32 4.67 1.05
13.85 10.68 2.33
6.33 5.09 1.08
12.60 10.55 2.19
6.33 5.52 1.12
6.22 5.65 1.12
6.22 5.88 1.15
6.34 6.24 1.19
6.32 6.47 1.21
6.23 6.64 1.22
6.23 6.92 1.25
6.24 7.21 1.28
6.24 7.51 1.31
6.24 7.83 1.35
6.25 8.16 1.38
6.25 8.52 1.42
5.87 8.34 1.37
5.62 8.35 1.36
5.54 8.59 1.38
7.55 12.23 1.94
8.65 14.67 2.30
8.74 15.53 2.41
6.24 11.63 1.79
6.25 12.22 1.86
6.26 12.87 1.94
6.26 13.56 2.03
6.27 14.33 2.13
6.28 15.17 2.23
6.29 16.10 2.35
6.05 16.46 2.39
5.71 16.56 2.39
5.37 16.66 2.39
5.03 16.74 2.39
4.69 16.82 2.39
4.35 16.89 2.39
4.00 16.96 2.39
3.66 17.02 2.39
3.31 17.07 2.39
2.97 17.11 2.39
2.62 17.15 2.39
2.37 17.92 2.49
2.01 17.94 2.49
1.65 17.96 2.49
1.28 17.97 2.49
0.92 17.97 2.49
0.56 17.96 2.49
0.20 17.95 2.49
-0.16 17.93 2.49
-0.52 17.90 2.49
-0.88 17.86 2.49
-1.23 17.82 2.49
-1.59 17.77 2.49
-1.94 17.71 2.49
-2.29 17.65 2.49
-2.64 17.58 2.49
-2.99 17.50 2.49
-3.34 17.41 2.49
-3.68 17.32 2.49
-4.03 17.22 2.49
-4.37 17.12 2.49
-4.70 17.00 2.49
-5.04 16.89 2.49
-5.37 16.76 2.49
-5.62 16.40 2.46
-5.77 15.81 2.39
-6.08 15.67 2.39
-6.06 14.74 2.27
-6.37 14.65 2.28
-6.63 14.44 2.27
-7.28 15.06 2.39
-7.57 14.89 2.39
-7.86 14.72 2.39
-8.15 14.54 2.39
-8.43 14.35 2.39
-8.70 14.17 2.39
-8.97 13.97 2.39
-9.24 13.77 2.39
-9.50 13.57 2.39
-9.65 10.75 2.10
-9.67 9.55 1.98
-9.67 8.81 1.91
-9.69 7.50 1.80
-9.70 6.33 1.71
-9.71 4.78 1.60
-9.71 4.31 1.58
-9.71 4.08 1.56
-9.72 3.85 1.55
-9.72 3.63 1.54
-10.89 0.83 1.64
-15.08 0.84 2.26
-15.02 0.53 2.25
-15.02 0.23 2.25
-15.02 -0.07 2.25
-15.01 -0.37 2.25
-14.99 -0.67 2.25
-14.97 -0.97 2.25
-14.94 -1.27 2.25
-14.91 -1.57 2.25
-14.87 -1.87 2.25
-14.83 -2.17 2.25
-14.78 -2.47 2.25
-14.73 -2.76 2.25
-14.67 -3.06 2.25
-14.37 -3.30 2.22
-14.53 -3.64 2.25
-12.36 -3.37 1.93
-14.37 -4.23 2.25
-14.28 -4.51 2.25
-14.19 -4.80 2.25
-14.09 -5.08 2.25
-13.98 -5.37 2.25
-13.87 -5.65 2.25
-13.76 -5.92 2.25
-13.64 -6.20 2.25
-13.51 -6.47 2.25
-13.38 -6.75 2.25
-13.25 -7.01 2.25
-13.11 -7.28 2.25
-12.96 -7.55 2.25
-12.49 -7.61 2.20
-11.95 -7.61 2.13
-11.44 -7.62 2.06
-10.96 -7.62 2.00
-10.51 -7.63 1.95
-10.09 -7.63 1.90
-9.82 -7.74 1.87
-9.92 -11.26 2.24
-24.36 -28.80 5.63
-22.82 -28.11 5.40
-9.86 -12.66 2.39
-9.61 -12.87 2.39
-9.36 -13.07 2.39
-9.10 -13.26 2.39
-8.84 -13.45 2.39
-8.57 -13.64 2.39
-8.30 -13.82 2.39
-8.03 -13.99 2.39
-7.75 -14.16 2.39
-7.47 -14.33 2.39
-6.85 -13.80 2.28
-6.79 -14.40 2.35
-6.28 -14.04 2.27
-6.27 -14.81 2.37
-6.03 -15.07 2.39
-5.92 -15.72 2.47
-5.66 -15.99 2.49
-5.34 -16.12 2.49
-5.02 -16.24 2.49
-4.70 -16.35 2.49
-4.38 -16.46 2.49
-4.05 -16.56 2.49
-3.72 -16.65 2.49
-3.39 -16.74 2.49
-3.05 -16.83 2.49
-2.72 -16.90 2.49
-2.38 -16.97 2.49
-2.04 -17.03 2.49
-1.70 -17.09 2.49
-1.36 -17.14 2.49
-1.02 -17.18 2.49
-0.67 -17.22 2.49
-0.33 -17.25 2.49
0.02 -14.89 2.49
0.32 -14.91 2.49
0.62 -14.91 2.49
0.92 -14.91 2.49
1.22 -14.90 2.49
1.52 -14.89 2.49
1.82 -14.87 2.49
2.12 -14.85 2.49
2.32 -14.21 2.39
2.61 -14.17 2.39
2.90 -14.13 2.39
3.18 -14.09 2.39
3.47 -14.03 2.39
3.75 -13.98 2.39
4.04 -13.91 2.39
4.32 -13.85 2.39
4.60 -13.77 2.39
4.88 -13.69 2.39
5.16 -13.60 2.39
5.44 -13.51 2.39
5.72 -13.41 2.39
5.99 -13.31 2.39
6.01 -12.67 2.29
6.02 -12.05 2.20
6.02 -11.48 2.12
6.03 -10.95 2.04
6.03 -10.46 1.97
6.04 -9.99 1.90
6.04 -9.56 1.84
6.04 -9.16 1.78
6.05 -8.77 1.73
6.05 -8.41 1.68
6.05 -8.07 1.63
6.06 -7.75 1.59
6.06 -7.44 1.55
6.06 -7.14 1.51
6.07 -6.86 1.48
6.07 -6.59 1.44
6.07 -6.34 1.41
6.07 -6.09 1.38
6.08 -5.85 1.35
6.08 -5.62 1.33
6.08 -5.40 1.30
6.08 -5.19 1.28
6.08 -4.98 1.26
6.09 -4.79 1.24
6.09 -4.59 1.22
6.09 -4.40 1.20
6.12 -4.24 1.19
6.21 -4.12 1.19
6.20 -3.94 1.17
6.20 -3.77 1.15
6.21 -3.60 1.14
6.21 -3.44 1.13
13.54 -7.15 2.43
13.63 -6.85 2.42
2.53 -1.21 0.44
2.55 -1.15 0.44
6.11 -2.62 1.05
6.11 -2.48 1.04
6.20 -2.37 1.05
13.97 -5.03 2.34
6.21 -2.09 1.03
14.12 -4.45 2.33
14.16 -4.15 2.32
6.22 -1.69 1.01
14.06 -3.52 2.28
6.22 -1.42 1.00
13.98 -2.91 2.24
6.22 -1.17 0.99
8.25 -1.37 1.31
6.23 -0.91 0.99
8.15 -1.02 1.29
6.12 -0.64 0.96
6.13 -0.52 0.96
14.30 -0.93 2.24
14.32 -0.64 2.24
6.25 -0.15 0.98
6.26 -0.03 0.98
14.35 0.22 2.24
14.34 0.51 2.24
6.26 0.35 0.98
14.32 1.08 2.24
14.30 1.37 2.24
14.27 1.66 2.24
6.27 0.86 0.99
14.20 2.23 2.24
14.15 2.51 2.24
6.28 1.25 1.00
14.05 3.08 2.24
13.98 3.36 2.24
6.18 1.62 1.00
6.18 1.75 1.00
6.18 1.89 1.01
6.30 2.06 1.03
8.29 2.90 1.37
6.30 2.34 1.05
13.42 5.30 2.25
13.36 5.59 2.26
13.31 5.89 2.27
6.31 2.94 1.09
6.30 3.10 1.10
6.31 3.26 1.11
6.31 3.42 1.12
6.31 3.59 1.13
6.20 3.69 1.13
6.20 3.86 1.14
8.15 5.30 1.52
6.41 4.36 1.21
6.32 4.48 1.21
6.23 4.61 1.21
6.21 4.79 1.23
6.21 4.99 1.25
6.22 5.21 1.27
6.22 5.42 1.29
6.22 5.65 1.32
6.22 5.88 1.34
6.23 6.12 1.37
6.23 6.38 1.40
6.23 6.64 1.43
6.23 6.92 1.46
6.24 7.21 1.50
6.24 7.51 1.54
6.24 7.83 1.58
6.25 8.16 1.62
6.25 8.51 1.66
5.87 8.35 1.61
5.62 8.34 1.59
5.52 8.55 1.61
7.31 11.85 2.20
6.99 11.85 2.18
6.89 12.24 2.22
6.24 11.63 2.09
6.25 12.22 2.18
6.26 12.86 2.27
5.39 11.66 2.04
5.11 11.67 2.02
5.02 12.13 2.09
5.47 13.99 2.39
5.18 14.08 2.39
4.89 14.17 2.39
4.60 14.25 2.39
4.31 14.33 2.39
4.02 14.40 2.39
3.73 14.46 2.39
3.43 14.52 2.39
3.14 14.57 2.39
2.84 14.62 2.39
2.54 14.66 2.39
2.35 15.33 2.49
2.04 15.36 2.49
1.73 15.38 2.49
1.41 15.40 2.49
1.10 15.41 2.49
0.79 15.41 2.49
0.48 15.41 2.49
0.18 15.40 2.49
-0.13 15.38 2.49
-0.44 15.36 2.49
-0.75 15.33 2.49
-1.06 15.30 2.49
-1.36 15.26 2.49
-1.66 15.21 2.49
-1.97 15.16 2.49
-2.27 15.10 2.49
-2.57 15.03 2.49
-2.87 14.96 2.49
-3.16 14.89 2.49
-3.46 14.80 2.49
-3.75 14.72 2.49
-4.04 14.62 2.49
-4.33 14.52 2.49
-4.61 14.42 2.49
-4.90 14.31 2.49
-5.18 14.19 2.49
-5.46 14.07 2.49
-5.64 13.73 2.46
-5.75 13.24 2.39
-6.01 13.10 2.39
-6.01 12.44 2.29
-6.41 12.61 2.35
-6.60 12.36 2.33
-6.66 11.89 2.27
-7.26 12.37 2.39
-7.50 12.21 2.39
-7.73 12.04 2.39
-7.96 11.87 2.39
-8.19 11.70 2.39
-8.42 11.52 2.39
-8.64 11.34 2.39
-8.86 11.15 2.39
-9.07 10.96 2.39
-9.28 10.77 2.39
-9.48 10.57 2.39
-9.68 10.36 2.39
-26.04 26.77 6.30
-26.54 26.21 6.30
-9.67 9.18 2.25
-9.67 8.81 2.21
-9.71 4.78 1.85
-9.72 4.08 1.81
-9.73 3.41 1.77
-9.73 2.76 1.74
-9.73 0.94 1.69
-10.48 0.80 1.82
-13.01 0.73 2.25
-13.01 0.46 2.25
-13.02 0.20 2.25
-13.01 -0.06 2.25
-13.00 -0.32 2.25
-12.99 -0.58 2.25
-12.97 -0.84 2.25
-12.95 -1.10 2.25
-12.92 -1.36 2.25
-12.89 -1.62 2.25
-12.85 -1.88 2.25
-12.81 -2.14 2.25
-12.76 -2.40 2.25
-12.71 -2.65 2.25
-12.66 -2.91 2.25
-12.59 -3.16 2.25
-12.34 -3.36 2.22
-12.45 -3.66 2.25
-12.38 -3.91 2.25
-12.30 -4.16 2.25
-12.21 -4.41 2.25
-12.12 -4.65 2.25
-12.03 -4.89 2.25
-11.93 -5.14 2.25
-11.82 -5.38 2.25
-11.71 -5.61 2.25
-11.60 -5.85 2.25
-11.48 -6.08 2.25
-11.36 -6.31 2.25
-11.23 -6.54 2.25
-11.10 -6.77 2.25
-10.97 -6.99 2.25
-10.83 -7.21 2.25
-10.68 -7.43 2.25
-10.51 -7.63 2.25
-10.08 -7.63 2.19
-9.82 -7.74 2.16
-9.90 -8.48 2.25
-9.76 -9.82 2.39
-9.57 -10.02 2.39
-9.37 -10.22 2.39
-9.17 -10.41 2.39
-8.96 -10.60 2.39
-8.75 -10.78 2.39
-8.54 -10.96 2.39
-8.32 -11.14 2.39
-8.10 -11.31 2.39
-7.88 -11.48 2.39
-7.65 -11.64 2.39
-7.42 -11.80 2.39
-6.83 -11.37 2.27
-6.82 -11.89 2.35
-6.37 -11.63 2.27
-6.25 -11.97 2.31
-6.22 -12.53 2.39
-5.97 -12.66 2.39
-5.90 -13.19 2.47
-5.70 -13.47 2.49
-5.43 -13.59 2.49
-5.16 -13.71 2.49
-4.89 -13.82 2.49
-4.62 -13.93 2.49
-4.34 -14.03 2.49
-4.06 -14.13 2.49
-3.78 -14.22 2.49
-3.50 -14.30 2.49
-3.21 -14.38 2.49
-2.92 -14.46 2.49
-2.63 -14.53 2.49
-2.34 -14.59 2.49
-2.05 -14.65 2.49
-1.76 -14.70 2.49
-1.47 -14.75 2.49
-1.17 -14.79 2.49
-0.87 -14.82 2.49
-0.58 -14.85 2.49
-0.28 -14.88 2.49
0.02 -13.08 2.49
0.28 -13.09 2.49
0.55 -13.09 2.49
0.81 -13.09 2.49
1.07 -13.08 2.49
1.34 -13.07 2.49
1.60 -13.05 2.49
1.86 -13.03 2.49
2.13 -13.00 2.49
2.29 -12.43 2.39
2.54 -12.39 2.39
2.79 -12.35 2.39
3.04 -12.31 2.39
3.29 -12.25 2.39
3.54 -12.20 2.39
3.79 -12.13 2.39
4.04 -12.07 2.39
4.28 -12.00 2.39
4.53 -11.92 2.39
4.77 -11.84 2.39
5.01 -11.75 2.39
5.25 -11.66 2.39
5.49 -11.56 2.39
5.72 -11.46 2.39
5.96 -11.35 2.39
6.03 -10.94 2.33
6.03 -10.45 2.25
6.04 -9.99 2.17
6.04 -9.56 2.10
6.04 -9.15 2.04
6.05 -8.77 1.97
6.05 -8.41 1.92
6.05 -8.07 1.87
6.06 -7.74 1.82
6.06 -7.43 1.77
6.06 -7.14 1.73
6.07 -6.86 1.69
6.07 -6.59 1.65
6.07 -6.33 1.61
6.07 -6.09 1.58
6.08 -5.85 1.55
6.08 -5.62 1.52
6.08 -5.40 1.49
6.08 -5.19 1.47
6.08 -4.98 1.44
6.09 -4.78 1.42
6.09 -4.59 1.39
6.09 -4.40 1.37
6.09 -4.22 1.35
6.09 -4.04 1.33
6.10 -3.87 1.32
6.10 -3.70 1.30
6.10 -3.54 1.28
6.10 -3.38 1.27
6.10 -3.22 1.25
6.10 -3.07 1.24
2.53 -1.21 0.51
2.55 -1.15 0.51
6.11 -2.62 1.20
6.11 -2.48 1.19
6.09 -2.33 1.18
6.13 -2.20 1.18
6.18 -2.08 1.18
6.23 -1.96 1.18
6.27 -1.84 1.18
6.22 -1.69 1.16
12.47 -3.12 2.32
6.22 -1.42 1.15
12.53 -2.60 2.31
6.23 -1.16 1.14
8.23 -1.37 1.50
6.23 -0.91 1.13
8.22 -1.03 1.49
6.12 -0.64 1.11
6.13 -0.52 1.11
12.69 -0.82 2.28
12.70 -0.57 2.28
6.25 -0.15 1.12
6.26 -0.03 1.12
12.72 0.20 2.28
12.71 0.45 2.28
6.26 0.35 1.13
12.67 0.96 2.28
12.65 1.21 2.28
12.63 1.47 2.28
6.27 0.86 1.13
12.58 1.98 2.28
12.55 2.23 2.28
6.28 1.25 1.15
12.47 2.74 2.29
12.43 2.99 2.29
6.18 1.62 1.14
6.18 1.75 1.15
6.18 1.89 1.16
6.30 2.06 1.19
6.39 2.23 1.21
6.30 2.34 1.20
6.29 2.49 1.21
6.24 2.61 1.21
6.19 2.74 1.21
6.19 2.89 1.22
6.20 3.04 1.24
6.20 3.20 1.25
6.20 3.36 1.26
6.20 3.52 1.28
6.20 3.69 1.29
6.20 3.86 1.31
6.21 4.04 1.33
6.21 4.22 1.35
6.21 4.40 1.37
6.21 4.59 1.39
6.21 4.79 1.41
6.21 4.99 1.43
6.22 5.20 1.46
6.22 5.42 1.48
6.22 5.65 1.51
6.22 5.88 1.54
6.23 6.12 1.57
6.23 6.38 1.61
6.23 6.64 1.64
6.23 6.92 1.68
6.24 7.20 1.72
6.24 7.51 1.76
6.24 7.82 1.81
6.25 8.16 1.86
6.25 8.51 1.91
5.88 8.36 1.85
5.63 8.36 1.82
5.53 8.57 1.85
6.86 11.11 2.37
6.66 11.29 2.38
5.30 9.40 1.96
5.05 9.41 1.94
5.00 9.77 1.99
5.75 11.82 2.39
5.42 11.73 2.35
5.13 11.72 2.33
5.02 12.12 2.39
2.93 7.50 1.47
2.80 7.61 1.48
2.60 7.54 1.46
4.02 12.44 2.39
3.77 12.51 2.39
3.51 12.58 2.39
3.26 12.63 2.39
3.00 12.69 2.39
2.74 12.73 2.39
2.48 12.77 2.39
2.32 13.36 2.49
2.05 13.40 2.49
1.78 13.42 2.49
1.51 13.44 2.49
1.24 13.46 2.49
0.97 13.47 2.49
0.70 13.47 2.49
0.43 13.47 2.49
0.16 13.47 2.49
-0.11 13.45 2.49
-0.38 13.44 2.49
-0.65 13.41 2.49
-0.92 13.39 2.49
-1.19 13.35 2.49
-1.45 13.31 2.49
-1.72 13.27 2.49
-1.98 13.22 2.49
-2.25 13.16 2.49
-2.51 13.10 2.49
-2.77 13.04 2.49
-3.03 12.97 2.49
-3.28 12.89 2.49
-3.54 12.81 2.49
-3.79 12.73 2.49
-4.04 12.64 2.49
-4.29 12.54 2.49
-4.54 12.44 2.49
-4.78 12.33 2.49
-5.02 12.22 2.49
-5.26 12.11 2.49
-5.50 11.99 2.49
-5.66 11.72 2.46
-5.72 11.25 2.39
-5.94 11.13 2.39
-6.03 10.77 2.34
-6.04 10.31 2.27
-6.47 10.54 2.35
-6.44 10.04 2.27
-6.66 9.93 2.28
-7.19 10.27 2.39
-7.39 10.12 2.39
-7.58 9.96 2.39
-7.77 9.79 2.39
-7.96 9.63 2.39
-8.15 9.46 2.39
-8.33 9.29 2.39
-8.51 9.11 2.39
-8.68 8.93 2.39
-8.85 8.75 2.39
-9.02 8.56 2.39
-9.18 8.37 2.39
-9.34 8.18 2.39
-9.50 7.98 2.39
-9.65 7.78 2.39
-9.70 6.61 2.27
-9.71 4.78 2.10
-9.73 2.76 1.98
-9.74 1.94 1.94
-9.74 1.74 1.94
-12.48 1.71 2.47
-12.51 1.46 2.47
-9.73 0.94 1.92
-10.47 0.80 2.06
-11.46 0.64 2.25
-11.47 0.41 2.25
-11.47 0.18 2.25
-11.47 -0.05 2.25
-11.46 -0.28 2.25
-11.45 -0.51 2.25
-11.44 -0.74 2.25
-11.42 -0.97 2.25
-11.39 -1.20 2.25
-11.37 -1.43 2.25
-11.33 -1.66 2.25
-11.30 -1.89 2.25
-11.25 -2.11 2.25
-11.21 -2.34 2.25
-11.16 -2.56 2.25
-11.10 -2.79 2.25
-11.04 -3.01 2.25
-10.98 -3.23 2.25
-10.91 -3.45 2.25
-10.84 -3.67 2.25
-10.77 -3.89 2.25
-10.69 -4.10 2.25
-10.60 -4.32 2.25
-10.51 -4.53 2.25
-10.42 -4.74 2.25
-10.33 -4.95 2.25
-10.23 -5.16 2.25
-10.12 -5.36 2.25
-10.01 -5.56 2.25
-9.90 -5.77 2.25
-9.87 -6.01 2.27
-9.87 -6.29 2.30
-9.87 -6.58 2.33
-9.87 -6.87 2.36
-9.85 -7.15 2.39
-9.71 -7.35 2.39
-9.56 -7.54 2.39
-9.41 -7.74 2.39
-9.25 -7.93 2.39
-9.10 -8.11 2.39
-8.93 -8.30 2.39
-8.77 -8.48 2.39
-8.60 -8.66 2.39
-8.43 -8.83 2.39
-8.25 -9.00 2.39
-8.07 -9.17 2.39
-7.89 -9.34 2.39
-7.71 -9.50 2.39
-7.52 -9.66 2.39
-7.33 -9.81 2.39
-6.81 -9.51 2.28
-6.81 -9.92 2.35
-6.62 -10.08 2.35
-6.23 -9.91 2.28
-6.23 -10.37 2.36
-6.11 -10.66 2.39
-5.90 -10.79 2.39
-5.88 -11.28 2.47
-5.71 -11.50 2.49
-5.48 -11.62 2.49
-5.25 -11.74 2.49
-5.01 -11.85 2.49
-4.78 -11.96 2.49
-4.54 -12.06 2.49
-4.30 -12.16 2.49
-4.06 -12.25 2.49
-3.81 -12.34 2.49
-3.57 -12.42 2.49
-3.32 -12.50 2.49
-3.07 -12.58 2.49
-2.82 -12.65 2.49
-2.57 -12.71 2.49
-2.31 -12.77 2.49
-2.06 -12.82 2.49
-1.80 -12.87 2.49
-1.54 -12.92 2.49
-1.29 -12.96 2.49
-1.03 -12.99 2.49
-0.77 -13.02 2.49
-0.50 -13.05 2.49
-0.24 -13.06 2.49
0.02 -11.65 2.49
0.25 -11.65 2.49
0.49 -11.65 2.49
0.72 -11.65 2.49
0.96 -11.64 2.49
1.19 -11.63 2.49
1.43 -11.62 2.49
1.66 -11.59 2.49
1.90 -11.57 2.49
2.13 -11.54 2.49
2.26 -11.03 2.39
2.49 -10.99 2.39
2.71 -10.95 2.39
2.93 -10.90 2.39
3.15 -10.85 2.39
3.37 -10.79 2.39
3.59 -10.73 2.39
3.81 -10.66 2.39
4.03 -10.59 2.39
4.24 -10.52 2.39
4.46 -10.44 2.39
4.67 -10.36 2.39
4.88 -10.27 2.39
5.09 -10.18 2.39
5.30 -10.09 2.39
5.50 -9.99 2.39
5.71 -9.88 2.39
5.91 -9.77 2.39
6.04 -9.55 2.36
6.04 -9.15 2.29
6.05 -8.77 2.22
6.05 -8.41 2.16
6.05 -8.06 2.10
6.06 -7.74 2.05
6.06 -7.43 2.00
6.06 -7.14 1.95
6.07 -6.86 1.90
6.07 -6.59 1.86
6.07 -6.33 1.82
6.07 -6.09 1.78
6.08 -5.85 1.75
6.08 -5.62 1.71
6.08 -5.40 1.68
6.08 -5.19 1.65
6.08 -4.98 1.62
6.09 -4.78 1.60
6.09 -4.59 1.57
6.09 -4.40 1.55
6.09 -4.22 1.53
6.09 -4.04 1.50
6.10 -3.87 1.48
6.10 -3.70 1.47
6.10 -3.54 1.45
6.10 -3.38 1.43
6.10 -3.22 1.41
6.10 -3.07 1.40
2.53 -1.21 0.58
2.55 -1.15 0.57
6.11 -2.62 1.36
6.11 -2.48 1.35
6.09 -2.33 1.33
6.09 -2.19 1.32
6.10 -2.06 1.31
6.10 -1.92 1.30
6.10 -1.79 1.30
6.11 -1.66 1.29
6.11 -1.53 1.28
6.11 -1.40 1.28
6.11 -1.27 1.27
6.11 -1.14 1.27
6.12 -1.02 1.26
6.12 -0.89 1.26
6.12 -0.77 1.25
6.12 -0.64 1.25
6.13 -0.52 1.25
6.14 -0.40 1.25
6.14 -0.27 1.25
6.15 -0.15 1.25
6.15 -0.03 1.25
6.15 0.10 1.25
6.15 0.22 1.25
6.16 0.34 1.25
6.16 0.47 1.25
6.16 0.59 1.25
6.16 0.72 1.26
6.17 0.84 1.26
6.17 0.97 1.26
6.17 1.10 1.27
6.17 1.23 1.27
6.17 1.35 1.28
6.18 1.49 1.29
6.18 1.62 1.29
6.18 1.75 1.30
6.18 1.89 1.31
6.19 2.02 1.32
6.19 2.16 1.33
6.19 2.30 1.34
6.19 2.45 1.35
6.19 2.59 1.36
6.19 2.74 1.37
6.19 2.89 1.38
6.20 3.04 1.40
6.20 3.20 1.41
6.20 3.36 1.43
6.20 3.52 1.44
6.20 3.69 1.46
6.20 3.86 1.48
6.21 4.04 1.50
6.21 4.22 1.52
6.21 4.40 1.54
6.21 4.59 1.57
6.21 4.79 1.59
6.21 4.99 1.62
6.22 5.20 1.65
6.22 5.42 1.68
6.22 5.65 1.71
6.22 5.88 1.74
6.23 6.12 1.78
6.23 6.38 1.81
6.23 6.64 1.85
6.23 6.91 1.90
6.24 7.20 1.94
6.24 7.51 1.99
6.24 7.82 2.04
6.25 8.16 2.10
6.25 8.51 2.15
5.89 8.37 2.09
5.64 8.37 2.06
5.54 8.58 2.09
6.14 9.94 2.39
5.94 10.06 2.39
5.30 9.40 2.21
5.05 9.41 2.19
5.01 9.79 2.25
5.10 10.48 2.39
4.88 10.57 2.39
4.67 10.66 2.39
4.45 10.74 2.39
2.85 7.30 1.61
2.68 7.27 1.59
2.56 7.41 1.61
3.57 11.03 2.39
3.34 11.09 2.39
3.12 11.15 2.39
2.89 11.20 2.39
2.66 11.25 2.39
2.43 11.29 2.39
2.30 11.82 2.49
2.06 11.86 2.49
1.82 11.89 2.49
1.58 11.91 2.49
1.34 11.93 2.49
1.10 11.95 2.49
0.86 11.96 2.49
0.62 11.96 2.49
0.38 11.96 2.49
0.14 11.96 2.49
-0.10 11.95 2.49
-0.34 11.93 2.49
-0.58 11.91 2.49
-0.82 11.89 2.49
-1.05 11.86 2.49
-1.29 11.83 2.49
-1.53 11.79 2.49
-1.76 11.75 2.49
-1.99 11.70 2.49
-2.23 11.65 2.49
-2.46 11.59 2.49
-2.69 11.53 2.49
-2.92 11.46 2.49
-3.14 11.39 2.49
-3.37 11.32 2.49
-3.59 11.24 2.49
-3.81 11.15 2.49
-4.03 11.06 2.49
-4.25 10.97 2.49
-4.47 10.88 2.49
-4.68 10.77 2.49
-4.89 10.67 2.49
-5.10 10.56 2.49
-5.31 10.45 2.49
-5.51 10.33 2.49
-5.68 10.15 2.48
-5.69 9.71 2.40
-5.87 9.57 2.40
-6.04 9.42 2.39
-6.22 9.28 2.39
-6.40 9.15 2.39
-6.58 9.01 2.39
-6.75 8.87 2.39
-6.93 8.73 2.39
-7.09 8.58 2.39
-7.26 8.43 2.39
-7.42 8.28 2.39
-7.58 8.12 2.39
-7.74 7.96 2.39
-7.89 7.80 2.39
-8.04 7.63 2.39
-8.18 7.46 2.39
-8.32 7.29 2.39
-8.46 7.12 2.39
-8.60 6.94 2.39
-8.73 6.76 2.39
-8.86 6.58 2.39
-8.98 6.40 2.39
-9.10 6.21 2.39
-9.22 6.02 2.39
-9.33 5.83 2.39
-9.44 5.64 2.39
-9.55 5.45 2.39
-9.65 5.25 2.39
-10.08 5.23 2.47
-9.71 4.79 2.36
-10.27 4.81 2.47
-10.36 4.60 2.47
-10.44 4.39 2.47
-10.52 4.17 2.47
-9.73 3.63 2.27
-9.73 3.41 2.25
-10.74 3.53 2.47
-10.83 3.32 2.48
-9.73 2.77 2.21
-10.92 2.87 2.47
-10.96 2.64 2.47
-11.00 2.42 2.47
-11.04 2.20 2.47
-11.08 1.98 2.47
-11.11 1.75 2.47
-11.14 1.53 2.47
-9.75 1.14 2.16
-9.73 0.94 2.15
-10.23 0.78 2.25
-10.24 0.57 2.25
-10.24 0.37 2.25
-10.25 0.16 2.25
-10.24 -0.05 2.25
-10.24 -0.25 2.25
-10.23 -0.46 2.25
-10.22 -0.66 2.25
-10.20 -0.87 2.25
-10.18 -1.07 2.25
-10.15 -1.28 2.25
-10.12 -1.48 2.25
-10.09 -1.68 2.25
-10.05 -1.89 2.25
-10.01 -2.09 2.25
-9.97 -2.29 2.25
-9.92 -2.49 2.25
-9.87 -2.69 2.25
-9.84 -2.89 2.26
-9.84 -3.11 2.27
-9.84 -3.33 2.29
-9.84 -3.55 2.31
-9.84 -3.78 2.32
-9.85 -4.01 2.34
-9.85 -4.24 2.36
-9.85 -4.48 2.38
-9.79 -4.69 2.39
-9.69 -4.89 2.39
-9.59 -5.08 2.39
-9.49 -5.27 2.39
-9.38 -5.46 2.39
-9.27 -5.65 2.39
-9.16 -5.84 2.39
-9.04 -6.02 2.39
-8.92 -6.21 2.39
-8.80 -6.38 2.39
-8.67 -6.56 2.39
-8.54 -6.74 2.39
-8.40 -6.91 2.39
-8.26 -7.08 2.39
-8.12 -7.25 2.39
-7.98 -7.41 2.39
-7.83 -7.57 2.39
-7.68 -7.73 2.39
-7.53 -7.89 2.39
-7.37 -8.04 2.39
-6.92 -7.86 2.29
-6.69 -7.91 2.27
-6.53 -8.05 2.27
-6.60 -8.48 2.35
-6.22 -8.33 2.27
-6.21 -8.68 2.33
-6.19 -9.02 2.39
-6.01 -9.15 2.39
-5.87 -9.34 2.41
-5.87 -9.77 2.49
-5.69 -9.92 2.49
-5.49 -10.04 2.49
-5.29 -10.15 2.49
-5.09 -10.26 2.49
-4.89 -10.37 2.49
-4.68 -10.47 2.49
-4.47 -10.57 2.49
-4.26 -10.67 2.49
-4.05 -10.76 2.49
-3.83 -10.84 2.49
-3.62 -10.92 2.49
-3.40 -11.00 2.49
-3.18 -11.08 2.49
-2.96 -11.15 2.49
-2.74 -11.21 2.49
-2.51 -11.27 2.49
-2.29 -11.33 2.49
-2.06 -11.38 2.49
-1.83 -11.43 2.49
-1.60 -11.47 2.49
-1.37 -11.51 2.49
-1.14 -11.54 2.49
-0.91 -11.57 2.49
-0.68 -11.60 2.49
-0.45 -11.62 2.49
-0.21 -11.63 2.49
0.02 -10.49 2.49
0.23 -10.49 2.49
0.44 -10.49 2.49
0.65 -10.49 2.49
0.86 -10.48 2.49
1.08 -10.47 2.49
1.29 -10.45 2.49
1.50 -10.43 2.49
1.71 -10.41 2.49
1.92 -10.38 2.49
2.13 -10.35 2.49
2.24 -9.89 2.39
2.44 -9.85 2.39
2.64 -9.80 2.39
2.84 -9.76 2.39
3.04 -9.70 2.39
3.23 -9.65 2.39
3.43 -9.59 2.39
3.62 -9.53 2.39
3.82 -9.46 2.39
4.01 -9.39 2.39
4.20 -9.31 2.39
4.39 -9.23 2.39
4.58 -9.15 2.39
4.76 -9.06 2.39
4.95 -8.97 2.39
5.13 -8.88 2.39
5.31 -8.78 2.39
5.49 -8.68 2.39
5.67 -8.57 2.39
5.84 -8.47 2.39
6.02 -8.35 2.39
6.05 -8.06 2.34
6.06 -7.74 2.28
6.06 -7.43 2.22
6.06 -7.13 2.17
6.07 -6.85 2.12
6.07 -6.59 2.07
6.07 -6.33 2.03
6.07 -6.08 1.98
6.08 -5.85 1.95
6.08 -5.62 1.91
6.08 -5.40 1.87
6.08 -5.19 1.84
6.08 -4.98 1.81
6.09 -4.78 1.78
6.09 -4.59 1.75
6.09 -4.40 1.73
6.09 -4.22 1.70
6.09 -4.04 1.68
6.10 -3.87 1.65
6.10 -3.70 1.63
6.10 -3.54 1.61
6.10 -3.38 1.60
6.10 -3.22 1.58
6.10 -3.06 1.56
2.53 -1.21 0.64
2.55 -1.15 0.64
6.11 -2.62 1.52
6.11 -2.48 1.50
6.09 -2.33 1.49
6.09 -2.19 1.48
6.10 -2.05 1.47
6.10 -1.92 1.46
6.10 -1.79 1.45
6.11 -1.66 1.44
6.11 -1.53 1.43
6.11 -1.40 1.42
6.11 -1.27 1.42
6.11 -1.14 1.41
6.12 -1.02 1.41
6.12 -0.89 1.40
6.12 -0.77 1.40
6.12 -0.64 1.40
6.13 -0.52 1.39
6.14 -0.40 1.39
6.14 -0.27 1.39
6.15 -0.15 1.39
6.15 -0.03 1.39
6.15 0.10 1.39
6.15 0.22 1.39
6.16 0.34 1.39
6.16 0.47 1.40
6.16 0.59 1.40
6.16 0.72 1.40
6.17 0.84 1.41
6.17 0.97 1.41
6.17 1.10 1.42
6.17 1.23 1.42
6.17 1.35 1.43
6.18 1.49 1.44
6.18 1.62 1.44
6.18 1.75 1.45
6.18 1.89 1.46
6.19 2.02 1.47
6.19 2.16 1.48
6.19 2.30 1.49
6.19 2.45 1.50
6.19 2.59 1.52
6.19 2.74 1.53
6.19 2.89 1.54
6.20 3.04 1.56
6.20 3.20 1.58
6.20 3.36 1.59
6.20 3.52 1.61
6.20 3.69 1.63
6.20 3.86 1.65
6.21 4.04 1.68
6.21 4.22 1.70
6.21 4.40 1.72
6.21 4.59 1.75
6.21 4.79 1.78
6.21 4.99 1.81
6.22 5.20 1.84
6.22 5.42 1.87
6.22 5.65 1.91
6.22 5.88 1.94
6.23 6.12 1.98
6.23 6.37 2.02
6.23 6.64 2.07
6.23 6.91 2.11
6.24 7.20 2.17
6.24 7.50 2.22
6.24 7.82 2.28
6.25 8.15 2.34
6.21 8.46 2.39
5.90 8.38 2.34
5.65 8.38 2.30
5.55 8.60 2.33
5.51 8.91 2.39
5.32 9.02 2.39
5.14 9.12 2.39
4.95 9.21 2.39
4.76 9.31 2.39
4.57 9.39 2.39
4.38 9.48 2.39
4.19 9.56 2.39
3.99 9.64 2.39
2.87 7.32 1.80
2.67 7.26 1.77
2.55 7.37 1.79
3.20 9.90 2.39
3.00 9.96 2.39
2.80 10.01 2.39
2.60 10.05 2.39
2.39 10.10 2.39
2.28 10.57 2.49
2.07 10.61 2.49
1.85 10.64 2.49
1.64 10.67 2.49
1.42 10.69 2.49
1.21 10.71 2.49
0.99 10.73 2.49
0.78 10.74 2.49
0.56 10.74 2.49
0.34 10.74 2.49
0.13 10.74 2.49
-0.09 10.73 2.49
-0.30 10.72 2.49
-0.52 10.70 2.49
-0.73 10.68 2.49
-0.94 10.66 2.49
-1.16 10.63 2.49
-1.37 10.60 2.49
-1.58 10.56 2.49
-1.79 10.52 2.49
-2.00 10.47 2.49
-2.21 10.42 2.49
-2.41 10.37 2.49
-2.62 10.31 2.49
-2.82 10.24 2.49
-3.03 10.18 2.49
-3.23 10.11 2.49
-3.43 10.03 2.49
-3.63 9.95 2.49
-3.82 9.87 2.49
-4.02 9.79 2.49
-4.21 9.70 2.49
-4.40 9.60 2.49
-4.59 9.50 2.49
-4.77 9.40 2.49
-4.96 9.30 2.49
-5.14 9.19 2.49
-5.32 9.08 2.49
-5.50 8.96 2.49
-5.67 8.84 2.49
-5.69 8.50 2.43
-5.76 8.24 2.39
-5.92 8.12 2.39
-6.08 7.99 2.39
-6.06 7.64 2.32
-6.07 7.34 2.27
-6.43 7.47 2.35
-6.57 7.33 2.35
-6.65 7.12 2.33
-6.65 6.85 2.28
-6.74 6.67 2.27
-7.24 6.88 2.39
-7.37 6.72 2.39
-7.50 6.57 2.39
-7.63 6.41 2.39
-7.75 6.26 2.39
-7.87 6.10 2.39
-7.98 5.93 2.39
-8.10 5.77 2.39
-8.21 5.60 2.39
-8.31 5.43 2.39
-8.41 5.26 2.39
-8.51 5.09 2.39
-8.61 4.91 2.39
-8.70 4.73 2.39
-8.79 4.56 2.39
-8.88 4.38 2.39
-8.96 4.20 2.39
-9.03 4.01 2.39
-9.11 3.83 2.39
-9.18 3.64 2.39
-9.25 3.46 2.39
-9.31 3.27 2.39
-9.37 3.08 2.39
-9.43 2.89 2.39
-9.48 2.70 2.39
-9.53 2.50 2.39
-9.57 2.31 2.39
-9.61 2.12 2.39
-9.65 1.92 2.39
-9.68 1.73 2.39
-9.71 1.53 2.39
-9.74 1.34 2.39
-9.76 1.14 2.39
-9.73 0.94 2.38
-9.80 0.75 2.39
-9.80 0.55 2.39
-9.81 0.35 2.39
-9.81 0.15 2.39
-9.81 -0.04 2.39
-9.81 -0.24 2.39
-9.80 -0.44 2.39
-9.78 -0.63 2.39
-9.77 -0.83 2.39
-9.75 -1.03 2.39
-9.72 -1.22 2.39
-9.69 -1.42 2.39
-9.66 -1.61 2.39
-9.63 -1.81 2.39
-9.59 -2.00 2.39
-9.55 -2.19 2.39
-9.50 -2.38 2.39
-9.45 -2.57 2.39
-9.39 -2.76 2.39
-9.34 -2.95 2.39
-9.28 -3.14 2.39
-9.21 -3.32 2.39
-9.14 -3.51 2.39
-9.07 -3.69 2.39
-9.00 -3.87 2.39
-8.92 -4.05 2.39
-8.83 -4.23 2.39
-8.75 -4.41 2.39
-8.66 -4.59 2.39
-8.57 -4.76 2.39
-8.47 -4.93 2.39
-8.37 -5.10 2.39
-8.27 -5.27 2.39
-8.16 -5.44 2.39
-8.05 -5.60 2.39
-7.94 -5.76 2.39
-7.82 -5.92 2.39
-7.70 -6.08 2.39
-7.58 -6.24 2.39
-7.46 -6.39 2.39
-7.33 -6.54 2.39
-7.20 -6.69 2.39
-7.07 -6.83 2.39
-6.93 -6.98 2.39
-6.79 -7.12 2.39
-6.65 -7.26 2.39
-6.50 -7.39 2.39
-6.36 -7.52 2.39
-6.21 -7.65 2.39
-6.05 -7.78 2.39
-5.90 -7.90 2.39
-5.85 -8.18 2.44
-5.82 -8.49 2.49
-5.65 -8.61 2.49
-5.48 -8.73 2.49
-5.31 -8.84 2.49
-5.13 -8.95 2.49
-4.95 -9.05 2.49
-4.77 -9.16 2.49
-4.59 -9.26 2.49
-4.40 -9.35 2.49
-4.22 -9.44 2.49
-4.03 -9.53 2.49
-3.84 -9.62 2.49
-3.65 -9.70 2.49
-3.45 -9.77 2.49
-3.26 -9.85 2.49
-3.06 -9.92 2.49
-2.86 -9.98 2.49
-2.66 -10.05 2.49
-2.46 -10.10 2.49
-2.26 -10.16 2.49
-2.06 -10.21 2.49
-1.85 -10.25 2.49
-1.65 -10.30 2.49
-1.44 -10.33 2.49
-1.24 -10.37 2.49
-1.03 -10.40 2.49
-0.82 -10.42 2.49
-0.61 -10.45 2.49
-0.40 -10.46 2.49
-0.19 -10.48 2.49
0.02 -9.53 2.49
0.21 -9.53 2.49
0.40 -9.53 2.49
0.60 -9.53 2.49
0.79 -9.52 2.49
0.98 -9.51 2.49
1.17 -9.50 2.49
1.36 -9.48 2.49
1.55 -9.45 2.49
1.74 -9.43 2.49
1.93 -9.40 2.49
2.12 -9.36 2.49
2.22 -8.94 2.39
2.40 -8.91 2.39
2.58 -8.86 2.39
2.76 -8.81 2.39
2.94 -8.76 2.39
3.11 -8.70 2.39
3.29 -8.64 2.39
3.46 -8.58 2.39
3.64 -8.52 2.39
3.81 -8.45 2.39
3.98 -8.38 2.39
4.15 -8.30 2.39
4.32 -8.22 2.39
4.49 -8.14 2.39
4.65 -8.05 2.39
4.82 -7.96 2.39
4.98 -7.87 2.39
5.14 -7.78 2.39
5.30 -7.68 2.39
5.46 -7.57 2.39
5.61 -7.47 2.39
5.76 -7.36 2.39
5.91 -7.25 2.39
6.06 -7.13 2.39
6.07 -6.85 2.34
6.07 -6.58 2.28
6.07 -6.33 2.24
6.07 -6.08 2.19
6.08 -5.84 2.15
6.08 -5.62 2.11
6.08 -5.40 2.07
6.08 -5.18 2.03
6.08 -4.98 2.00
6.09 -4.78 1.96
6.09 -4.59 1.93
6.09 -4.40 1.90
6.09 -4.22 1.88
6.09 -4.04 1.85
6.10 -3.87 1.83
6.10 -3.70 1.80
6.10 -3.53 1.78
6.10 -3.37 1.76
6.10 -3.22 1.74
6.10 -3.06 1.72
2.53 -1.21 0.71
2.55 -1.15 0.70
6.11 -2.62 1.67
6.11 -2.48 1.66
6.09 -2.33 1.64
6.10 -2.19 1.63
6.10 -2.05 1.62
6.10 -1.92 1.61
6.10 -1.79 1.60
6.11 -1.66 1.59
6.11 -1.53 1.58
6.11 -1.40 1.57
6.11 -1.27 1.57
6.11 -1.14 1.56
6.12 -1.02 1.55
6.12 -0.89 1.55
6.12 -0.77 1.55
6.12 -0.64 1.54
6.13 -0.52 1.54
6.14 -0.40 1.54
6.14 -0.27 1.54
6.15 -0.15 1.54
6.15 -0.03 1.54
6.15 0.10 1.54
6.15 0.22 1.54
6.16 0.34 1.54
6.16 0.47 1.54
6.16 0.59 1.55
6.16 0.72 1.55
6.17 0.84 1.55
6.17 0.97 1.56
6.17 1.10 1.57
6.17 1.23 1.57
6.17 1.35 1.58
6.18 1.49 1.59
6.18 1.62 1.60
6.18 1.75 1.60
6.18 1.89 1.61
6.19 2.02 1.63
6.19 2.16 1.64
6.19 2.30 1.65
6.19 2.45 1.66
6.19 2.59 1.68
6.19 2.74 1.69
6.19 2.89 1.71
6.20 3.04 1.72
6.20 3.20 1.74
6.20 3.36 1.76
6.20 3.52 1.78
6.20 3.69 1.80
6.20 3.86 1.83
6.21 4.04 1.85
6.21 4.22 1.88
6.21 4.40 1.90
6.21 4.59 1.93
6.21 4.79 1.96
6.21 4.99 2.00
6.22 5.20 2.03
6.22 5.42 2.07
6.22 5.64 2.10
6.22 5.88 2.15
6.23 6.12 2.19
6.23 6.37 2.24
6.23 6.64 2.28
6.23 6.91 2.34
6.23 7.20 2.39
6.08 7.32 2.39
5.93 7.43 2.39
5.78 7.55 2.39
5.63 7.66 2.39
5.47 7.77 2.39
5.31 7.87 2.39
5.15 7.97 2.39
4.99 8.07 2.39
4.82 8.17 2.39
4.66 8.26 2.39
4.49 8.34 2.39
4.32 8.43 2.39
4.14 8.51 2.39
3.97 8.58 2.39
3.80 8.66 2.39
3.62 8.73 2.39
3.44 8.79 2.39
2.68 7.26 1.96
2.53 7.33 1.97
2.90 8.97 2.39
2.72 9.02 2.39
2.54 9.07 2.39
2.37 9.17 2.41
2.26 9.55 2.49
2.07 9.58 2.49
1.88 9.62 2.49
1.68 9.65 2.49
1.49 9.67 2.49
1.29 9.69 2.49
1.10 9.71 2.49
0.90 9.72 2.49
0.71 9.73 2.49
0.51 9.74 2.49
0.31 9.74 2.49
0.12 9.74 2.49
-0.08 9.73 2.49
-0.27 9.72 2.49
-0.47 9.71 2.49
-0.66 9.69 2.49
-0.85 9.67 2.49
-1.05 9.64 2.49
-1.24 9.61 2.49
-1.43 9.58 2.49
-1.62 9.54 2.49
-1.81 9.50 2.49
-2.00 9.46 2.49
-2.19 9.41 2.49
-2.38 9.35 2.49
-2.56 9.30 2.49
-2.75 9.24 2.49
-2.93 9.17 2.49
-3.11 9.11 2.49
-3.29 9.04 2.49
-3.47 8.96 2.49
-3.64 8.89 2.49
-3.82 8.80 2.49
-3.99 8.72 2.49
-4.16 8.63 2.49
-4.33 8.54 2.49
-4.50 8.45 2.49
-4.67 8.35 2.49
-4.83 8.25 2.49
-4.99 8.14 2.49
-5.15 8.03 2.49
-5.31 7.92 2.49
-5.46 7.81 2.49
-5.61 7.69 2.49
-5.70 7.50 2.47
-5.71 7.20 2.41
-5.80 7.03 2.39
-5.94 6.90 2.39
-6.07 6.78 2.39
-6.07 6.50 2.34
-6.07 6.25 2.29
-6.13 6.06 2.27
-6.47 6.15 2.35
-6.59 6.01 2.35
-6.66 5.84 2.34
-6.66 5.61 2.30
-6.69 5.40 2.27
-6.79 5.26 2.27
-7.26 5.40 2.39
-7.36 5.25 2.39
-7.46 5.09 2.39
-7.56 4.94 2.39
-7.65 4.78 2.39
-7.74 4.63 2.39
-7.83 4.47 2.39
-7.91 4.31 2.39
-8.00 4.15 2.39
-8.07 3.98 2.39
-8.15 3.82 2.39
-8.22 3.65 2.39
-8.29 3.48 2.39
-8.35 3.31 2.39
-8.41 3.14 2.39
-8.47 2.97 2.39
-8.53 2.80 2.39
-8.58 2.63 2.39
-8.62 2.45 2.39
-8.67 2.28 2.39
-8.71 2.10 2.39
-8.75 1.93 2.39
-8.78 1.75 2.39
-8.81 1.57 2.39
-8.84 1.40 2.39
-8.86 1.22 2.39
-8.88 1.04 2.39
-8.90 0.86 2.39
-8.91 0.68 2.39
-8.92 0.50 2.39
-8.93 0.32 2.39
-8.93 0.14 2.39
-8.93 -0.04 2.39
-8.93 -0.22 2.39
-8.92 -0.40 2.39
-8.91 -0.58 2.39
-8.89 -0.76 2.39
-8.87 -0.93 2.39
-8.85 -1.11 2.39
-8.83 -1.29 2.39
-8.80 -1.47 2.39
-8.77 -1.64 2.39
-8.73 -1.82 2.39
-8.69 -1.99 2.39
-8.65 -2.17 2.39
-8.60 -2.34 2.39
-8.55 -2.52 2.39
-8.50 -2.69 2.39
-8.45 -2.86 2.39
-8.39 -3.03 2.39
-8.32 -3.19 2.39
-8.26 -3.36 2.39
-8.19 -3.53 2.39
-8.12 -3.69 2.39
-8.04 -3.85 2.39
-7.96 -4.02 2.39
-7.88 -4.18 2.39
-7.80 -4.33 2.39
-7.71 -4.49 2.39
-7.62 -4.65 2.39
-7.53 -4.80 2.39
-7.43 -4.95 2.39
-7.33 -5.10 2.39
-7.23 -5.25 2.39
-7.12 -5.39 2.39
-7.01 -5.54 2.39
-6.90 -5.68 2.39
-6.79 -5.82 2.39
-6.67 -5.95 2.39
-6.55 -6.09 2.39
-6.43 -6.22 2.39
-6.31 -6.35 2.39
-6.18 -6.48 2.39
-6.05 -6.60 2.39
-5.92 -6.73 2.39
-5.85 -6.92 2.42
-5.84 -7.21 2.47
-5.75 -7.38 2.49
-5.60 -7.50 2.49
-5.45 -7.62 2.49
-5.30 -7.73 2.49
-5.14 -7.84 2.49
-4.99 -7.94 2.49
-4.83 -8.04 2.49
-4.67 -8.14 2.49
-4.50 -8.24 2.49
-4.34 -8.33 2.49
-4.17 -8.42 2.49
-4.01 -8.51 2.49
-3.84 -8.59 2.49
-3.66 -8.67 2.49
-3.49 -8.75 2.49
-3.32 -8.82 2.49
-3.14 -8.89 2.49
-2.96 -8.96 2.49
-2.78 -9.02 2.49
-2.60 -9.08 2.49
-2.42 -9.13 2.49
-2.24 -9.19 2.49
-2.05 -9.24 2.49
-1.87 -9.28 2.49
-1.68 -9.32 2.49
-1.50 -9.36 2.49
-1.31 -9.39 2.49
-1.12 -9.42 2.49
