ply
format ascii 1.0
element vertex 2783
property float32 x
property float32 y
property float32 z
end_header
38.38 -29.00 -4.40
8.40 -5.59 -0.92
16.46 0.92 -1.46
15.94 1.21 -1.41
15.56 1.50 -1.38
15.29 1.78 -1.35
15.05 2.06 -1.33
14.92 2.35 -1.33
14.84 2.64 -1.32
14.59 2.90 -1.30
14.35 3.16 -1.28
12.76 3.07 -1.14
12.53 3.29 -1.13
12.30 3.49 -1.11
12.08 3.69 -1.10
11.86 3.89 -1.08
11.74 4.11 -1.08
11.98 4.47 -1.10
12.39 4.91 -1.15
12.42 5.21 -1.16
12.22 5.42 -1.15
12.03 5.62 -1.14
11.84 5.83 -1.13
11.41 5.90 -1.10
11.23 6.10 -1.09
11.05 6.29 -1.08
10.87 6.48 -1.08
10.69 6.67 -1.07
10.51 6.86 -1.06
10.47 7.13 -1.07
10.38 7.38 -1.08
10.20 7.56 -1.07
10.02 7.75 -1.07
12.24 9.86 -1.32
16.75 17.90 -2.04
2.58 2.87 -0.32
2.61 3.03 -0.33
2.51 3.03 -0.33
2.50 3.14 -0.33
13.75 18.02 -1.87
13.17 18.00 -1.83
12.85 18.33 -1.84
12.91 19.22 -1.90
12.91 20.07 -1.95
12.93 21.03 -2.02
12.93 22.00 -2.08
12.98 23.13 -2.16
13.03 24.36 -2.24
17.41 34.16 -3.11
16.74 34.56 -3.11
15.91 34.58 -3.08
15.08 34.61 -3.05
14.27 34.63 -3.02
13.33 34.28 -2.96
13.72 37.49 -3.21
14.90 43.40 -3.68
-6.34 9.42 -0.88
-9.83 2.16 -0.80
1.66 -20.67 -1.42
11.42 -30.22 -2.23
11.30 -28.18 -2.10
11.20 -26.38 -1.98
11.11 -24.77 -1.88
11.03 -23.33 -1.79
10.96 -22.02 -1.70
11.03 -21.10 -1.65
11.78 -21.46 -1.70
12.35 -21.48 -1.72
12.95 -21.50 -1.74
13.55 -21.52 -1.76
14.18 -21.54 -1.79
14.82 -21.55 -1.81
15.48 -21.57 -1.84
16.16 -21.59 -1.87
16.86 -21.62 -1.90
17.59 -21.64 -1.93
18.34 -21.66 -1.96
18.56 -21.04 -1.94
31.33 -34.11 -3.20
31.93 -33.40 -3.20
31.97 -32.12 -3.13
31.91 -30.80 -3.06
33.38 -30.95 -3.14
33.97 -30.25 -3.14
34.00 -29.08 -3.09
35.54 -29.18 -3.17
37.09 -29.23 -3.25
38.57 -29.15 -3.33
8.40 -5.59 -0.69
16.46 0.92 -1.08
15.94 1.21 -1.05
15.56 1.50 -1.02
15.29 1.78 -1.01
15.05 2.06 -0.99
14.92 2.35 -0.98
14.84 2.64 -0.98
12.78 2.54 -0.84
12.41 2.73 -0.82
12.19 2.93 -0.81
11.97 3.14 -0.80
11.76 3.34 -0.79
11.55 3.53 -0.77
11.41 3.74 -0.77
11.33 3.97 -0.77
11.37 4.24 -0.77
11.57 4.58 -0.79
12.11 5.08 -0.83
12.22 5.41 -0.85
12.03 5.62 -0.84
11.84 5.82 -0.83
11.65 6.02 -0.82
11.46 6.22 -0.82
11.28 6.42 -0.81
11.10 6.61 -0.81
10.91 6.80 -0.80
10.73 7.00 -0.80
10.56 7.19 -0.79
10.38 7.37 -0.79
10.20 7.56 -0.78
10.03 7.75 -0.78
12.21 9.83 -0.96
16.75 17.90 -1.48
2.58 2.86 -0.23
2.61 3.03 -0.24
2.51 3.03 -0.24
2.50 3.14 -0.24
13.73 17.99 -1.35
13.18 18.00 -1.33
12.85 18.32 -1.33
12.88 19.16 -1.37
12.91 20.06 -1.41
12.93 21.02 -1.46
12.94 22.00 -1.50
12.98 23.13 -1.56
13.03 24.35 -1.62
17.60 34.53 -2.27
16.75 34.56 -2.24
15.91 34.58 -2.22
15.09 34.61 -2.19
14.28 34.63 -2.17
13.48 34.65 -2.15
12.69 34.68 -2.13
12.04 35.04 -2.14
11.40 35.48 -2.14
12.18 40.71 -2.44
-6.34 9.42 -0.62
-9.55 10.19 -0.77
-9.63 9.11 -0.73
-9.62 8.74 -0.71
-9.61 8.39 -0.70
-9.62 8.06 -0.69
-9.63 7.75 -0.68
-9.63 7.44 -0.67
-9.64 7.14 -0.66
-9.65 6.85 -0.65
-9.66 6.57 -0.65
-9.67 6.30 -0.64
-9.70 6.04 -0.63
-9.72 5.79 -0.63
-9.74 5.54 -0.62
-9.76 5.29 -0.62
-9.76 5.04 -0.61
-9.77 4.80 -0.61
-9.78 4.56 -0.60
-9.78 4.33 -0.60
-9.79 4.10 -0.59
-9.80 3.87 -0.59
-9.80 3.65 -0.59
-9.81 3.43 -0.58
-9.82 3.21 -0.58
-9.82 3.00 -0.58
-9.83 2.79 -0.58
-9.84 2.58 -0.58
-9.84 2.37 -0.57
-9.83 2.16 -0.57
-9.85 1.96 -0.57
-9.86 1.75 -0.57
-9.87 1.55 -0.57
-9.87 1.35 -0.57
-9.88 1.15 -0.57
-9.88 0.95 -0.57
-9.89 0.75 -0.57
-9.90 0.55 -0.57
-9.90 0.35 -0.57
-9.91 0.15 -0.57
-9.91 -0.05 -0.57
-9.92 -0.25 -0.58
-9.93 -0.45 -0.58
-9.93 -0.65 -0.58
-9.94 -0.85 -0.58
-9.94 -1.05 -0.59
-9.95 -1.25 -0.59
-9.95 -1.46 -0.59
-9.97 -1.87 -0.60
-9.97 -2.08 -0.60
-9.98 -2.29 -0.61
-9.99 -2.50 -0.61
-9.99 -2.72 -0.62
-9.98 -2.93 -0.62
-9.98 -3.15 -0.63
-9.98 -3.37 -0.63
-9.98 -3.60 -0.64
-9.97 -3.82 -0.64
-9.98 -4.05 -0.65
-9.98 -4.29 -0.66
-9.99 -4.53 -0.67
-10.00 -4.78 -0.68
-10.00 -5.04 -0.68
-10.01 -5.29 -0.69
-10.02 -5.56 -0.70
-10.05 -5.84 -0.72
-10.08 -6.13 -0.73
1.66 -20.66 -0.95
12.02 -36.13 -1.77
10.40 -29.28 -1.44
10.34 -27.37 -1.36
10.30 -25.68 -1.29
10.25 -24.16 -1.22
10.22 -22.79 -1.16
10.18 -21.54 -1.11
10.69 -21.48 -1.12
11.24 -21.50 -1.13
11.78 -21.46 -1.14
12.35 -21.48 -1.16
12.95 -21.50 -1.17
13.55 -21.52 -1.19
14.18 -21.54 -1.20
10.07 -14.65 -0.83
15.48 -21.57 -1.24
16.16 -21.59 -1.26
16.86 -21.62 -1.28
17.59 -21.64 -1.30
18.34 -21.66 -1.32
26.94 -30.54 -1.90
28.14 -30.64 -1.94
29.39 -30.75 -1.98
30.71 -30.86 -2.03
32.00 -30.89 -2.07
31.70 -29.39 -2.01
33.12 -29.50 -2.06
34.00 -29.08 -2.08
35.48 -29.13 -2.13
36.93 -29.10 -2.18
38.57 -29.15 -2.24
8.40 -5.59 -0.47
16.47 0.91 -0.71
15.95 1.21 -0.69
15.56 1.49 -0.67
15.30 1.78 -0.66
15.05 2.06 -0.65
14.92 2.34 -0.64
12.44 2.21 -0.54
12.10 2.40 -0.52
11.90 2.61 -0.51
11.71 2.82 -0.51
11.52 3.02 -0.50
11.34 3.21 -0.49
11.17 3.41 -0.49
11.09 3.63 -0.48
11.02 3.85 -0.48
10.98 4.09 -0.48
11.15 4.41 -0.49
11.32 4.74 -0.50
11.73 5.20 -0.52
12.03 5.62 -0.54
11.84 5.82 -0.53
11.65 6.02 -0.53
11.46 6.22 -0.52
11.28 6.42 -0.52
11.10 6.61 -0.51
10.92 6.80 -0.51
10.74 6.99 -0.51
10.56 7.18 -0.50
10.38 7.37 -0.50
10.20 7.56 -0.50
10.03 7.75 -0.49
12.19 9.81 -0.61
16.76 17.90 -0.93
2.58 2.86 -0.15
2.61 3.03 -0.15
2.51 3.03 -0.15
2.50 3.14 -0.15
2.51 3.29 -0.15
13.18 18.00 -0.83
12.85 18.31 -0.82
12.88 19.15 -0.85
12.90 20.05 -0.87
12.93 21.01 -0.90
12.96 22.04 -0.93
13.00 23.15 -0.96
13.03 24.34 -1.00
17.63 34.57 -1.39
16.77 34.60 -1.38
15.92 34.58 -1.36
15.09 34.61 -1.34
14.28 34.63 -1.33
13.50 34.69 -1.31
12.70 34.68 -1.30
12.04 35.02 -1.30
11.93 37.14 -1.36
12.21 40.77 -1.48
12.06 43.45 -1.57
-9.18 22.25 -0.78
-9.28 20.16 -0.72
-9.29 19.14 -0.69
-9.30 18.23 -0.66
-9.35 17.46 -0.64
-9.42 16.76 -0.62
-9.44 16.03 -0.60
-9.46 15.35 -0.58
-9.48 14.72 -0.56
-6.34 9.42 -0.37
-9.51 13.54 -0.53
-9.53 13.00 -0.52
-9.54 12.49 -0.51
-9.56 12.00 -0.49
-9.57 11.54 -0.48
-9.58 11.09 -0.47
-9.60 10.67 -0.46
-9.55 10.19 -0.45
-9.62 9.87 -0.45
-9.63 9.49 -0.44
-9.64 9.12 -0.43
-9.65 8.77 -0.42
-9.66 8.44 -0.42
-9.67 8.11 -0.41
-9.68 7.79 -0.40
-9.69 7.48 -0.40
-9.70 7.18 -0.39
-9.71 6.89 -0.39
-9.72 6.61 -0.38
-9.67 6.30 -0.38
-9.73 6.06 -0.38
-9.74 5.80 -0.37
-9.75 5.54 -0.37
-9.76 5.29 -0.37
-9.76 5.04 -0.36
-9.77 4.80 -0.36
-9.78 4.56 -0.36
-9.78 4.33 -0.36
-9.79 4.10 -0.35
-9.80 3.87 -0.35
-9.80 3.65 -0.35
-9.81 3.43 -0.35
-9.82 3.21 -0.35
-9.82 3.00 -0.35
-9.83 2.79 -0.35
-9.84 2.58 -0.35
-9.84 2.37 -0.35
-9.83 2.16 -0.34
-9.85 1.96 -0.34
-9.86 1.75 -0.34
-9.87 1.55 -0.34
-9.87 1.35 -0.34
-9.88 1.15 -0.35
-9.88 0.95 -0.35
-9.89 0.75 -0.35
-9.90 0.55 -0.35
-9.90 0.35 -0.35
-9.91 0.15 -0.35
-9.91 -0.05 -0.35
-9.92 -0.25 -0.35
-9.93 -0.45 -0.35
-9.93 -0.65 -0.36
-9.94 -0.85 -0.36
-9.94 -1.05 -0.36
-9.95 -1.25 -0.36
-9.96 -1.46 -0.37
-9.97 -1.87 -0.37
-9.97 -2.08 -0.37
-9.98 -2.29 -0.38
-9.99 -2.50 -0.38
-9.99 -2.72 -0.38
-10.00 -2.94 -0.39
-10.01 -3.16 -0.39
-10.01 -3.38 -0.40
-10.02 -3.61 -0.40
-10.03 -3.84 -0.41
-10.03 -4.08 -0.41
-10.04 -4.32 -0.42
-10.05 -4.56 -0.42
-10.05 -4.81 -0.43
-10.06 -5.07 -0.43
-10.07 -5.33 -0.44
-10.08 -5.59 -0.45
-10.09 -5.86 -0.45
-10.09 -6.14 -0.46
-10.10 -6.43 -0.47
-10.11 -6.72 -0.48
-10.12 -7.03 -0.49
-10.13 -7.34 -0.50
-10.14 -7.66 -0.51
-10.15 -7.99 -0.52
-10.16 -8.34 -0.53
-10.17 -8.69 -0.54
-10.18 -9.06 -0.55
-10.19 -9.45 -0.56
-10.13 -9.78 -0.57
-10.22 -10.26 -0.59
-10.23 -10.70 -0.61
-10.23 -11.13 -0.62
-10.22 -11.58 -0.64
-10.21 -12.05 -0.65
-10.23 -12.57 -0.67
-10.24 -13.13 -0.69
-10.26 -13.70 -0.72
1.66 -20.66 -0.48
5.15 -36.39 -0.86
10.11 -30.40 -0.76
10.15 -28.57 -0.72
11.03 -29.19 -0.75
11.08 -27.63 -0.71
11.12 -26.20 -0.68
11.16 -24.89 -0.65
11.20 -23.68 -0.63
11.32 -22.74 -0.61
11.29 -21.59 -0.59
11.78 -21.46 -0.59
12.35 -21.48 -0.60
12.95 -21.50 -0.61
13.55 -21.52 -0.61
14.18 -21.54 -0.62
10.07 -14.65 -0.43
15.48 -21.57 -0.64
16.16 -21.59 -0.65
16.86 -21.62 -0.66
17.59 -21.64 -0.67
18.34 -21.66 -0.68
26.55 -30.11 -0.97
27.68 -30.14 -0.98
28.85 -30.18 -1.00
30.06 -30.21 -1.02
31.33 -30.25 -1.04
32.04 -29.71 -1.05
32.11 -28.60 -1.03
32.89 -28.13 -1.03
34.35 -28.21 -1.06
35.90 -28.29 -1.09
37.54 -28.38 -1.12
39.28 -28.47 -1.15
8.40 -5.59 -0.24
16.47 0.91 -0.34
15.91 1.20 -0.33
15.48 1.48 -0.32
15.49 1.80 -0.32
15.35 2.10 -0.31
15.09 2.37 -0.30
12.51 2.22 -0.25
12.16 2.41 -0.24
11.96 2.62 -0.24
11.76 2.83 -0.23
11.57 3.03 -0.23
11.39 3.23 -0.23
11.22 3.42 -0.22
11.14 3.65 -0.22
11.06 3.87 -0.22
11.03 4.11 -0.22
11.21 4.43 -0.22
11.39 4.77 -0.23
11.87 5.25 -0.24
12.03 5.62 -0.24
11.84 5.82 -0.24
11.65 6.02 -0.23
11.47 6.22 -0.23
11.28 6.42 -0.23
11.10 6.61 -0.22
10.92 6.80 -0.22
10.74 6.99 -0.22
10.56 7.18 -0.22
10.38 7.37 -0.21
10.20 7.56 -0.21
10.03 7.74 -0.21
12.16 9.79 -0.25
16.76 17.90 -0.37
2.58 2.86 -0.06
2.61 3.03 -0.06
2.51 3.03 -0.06
2.50 3.14 -0.06
13.74 17.99 -0.33
13.19 18.00 -0.32
12.85 18.31 -0.32
12.88 19.15 -0.33
12.90 20.05 -0.33
12.93 21.00 -0.34
12.96 22.03 -0.35
13.00 23.14 -0.36
13.03 24.33 -0.37
12.77 25.03 -0.38
12.04 24.83 -0.37
15.92 34.58 -0.50
15.10 34.61 -0.49
14.29 34.63 -0.48
13.49 34.65 -0.48
12.71 34.68 -0.47
12.04 35.01 -0.46
11.94 37.14 -0.48
11.36 37.92 -0.49
10.59 38.14 -0.48
10.05 39.20 -0.49
-8.46 49.08 -0.51
-8.59 44.51 -0.46
-8.71 40.69 -0.42
-8.80 37.45 -0.39
-8.89 34.66 -0.36
-8.96 32.24 -0.34
-9.02 30.11 -0.31
-9.08 28.22 -0.30
-9.13 26.54 -0.28
-9.17 25.02 -0.26
-9.21 23.65 -0.25
-9.18 22.25 -0.24
-9.28 21.27 -0.23
-9.31 20.22 -0.22
-9.34 19.26 -0.21
-9.30 18.23 -0.20
-9.39 17.53 -0.19
-9.42 16.76 -0.19
-9.44 16.03 -0.18
-9.46 15.35 -0.17
-9.48 14.72 -0.17
-6.34 9.42 -0.11
-9.51 13.54 -0.16
-9.53 13.00 -0.16
-9.54 12.49 -0.15
-9.56 12.00 -0.15
-9.57 11.54 -0.15
-9.58 11.09 -0.14
-9.60 10.67 -0.14
-9.55 10.19 -0.14
-9.62 9.86 -0.13
-9.63 9.49 -0.13
-9.64 9.12 -0.13
-9.65 8.77 -0.13
-9.66 8.43 -0.13
-9.67 8.11 -0.13
-9.68 7.79 -0.12
-9.69 7.48 -0.12
-9.70 7.18 -0.12
-9.71 6.89 -0.12
-9.72 6.61 -0.12
-9.67 6.29 -0.12
-9.73 6.06 -0.12
-9.74 5.80 -0.12
-9.75 5.54 -0.12
-9.76 5.29 -0.12
-9.76 5.04 -0.12
-9.77 4.80 -0.12
-9.78 4.56 -0.12
-9.78 4.33 -0.12
-9.79 4.10 -0.12
-9.80 3.87 -0.12
-9.80 3.65 -0.12
-9.81 3.43 -0.12
-9.82 3.21 -0.12
-9.82 3.00 -0.12
-9.83 2.78 -0.12
-9.84 2.57 -0.12
-9.84 2.37 -0.12
-9.83 2.16 -0.12
-9.85 1.95 -0.12
-9.86 1.75 -0.12
-9.87 1.55 -0.12
-9.87 1.35 -0.12
-9.88 1.15 -0.12
-9.88 0.95 -0.12
-9.89 0.75 -0.12
-9.90 0.55 -0.12
-9.90 0.35 -0.13
-9.91 0.15 -0.13
-9.91 -0.05 -0.13
-9.92 -0.25 -0.13
-9.93 -0.45 -0.13
-9.93 -0.65 -0.13
-9.94 -0.85 -0.13
-9.94 -1.05 -0.14
-9.95 -1.25 -0.14
-9.96 -1.46 -0.14
-9.97 -1.87 -0.14
-9.97 -2.08 -0.14
-9.98 -2.29 -0.15
-9.99 -2.51 -0.15
-9.99 -2.72 -0.15
-10.00 -2.94 -0.15
-10.01 -3.16 -0.16
-10.01 -3.39 -0.16
-10.02 -3.61 -0.16
-10.03 -3.85 -0.16
-10.03 -4.08 -0.17
-10.04 -4.32 -0.17
-10.05 -4.56 -0.17
-10.05 -4.81 -0.18
-10.06 -5.07 -0.18
-10.07 -5.33 -0.18
-10.08 -5.59 -0.19
-10.09 -5.87 -0.19
-10.09 -6.15 -0.20
-10.10 -6.43 -0.20
-10.11 -6.73 -0.20
-10.12 -7.03 -0.21
-10.13 -7.34 -0.21
-10.14 -7.66 -0.22
-10.15 -8.00 -0.23
-10.16 -8.34 -0.23
-10.17 -8.70 -0.24
-10.18 -9.07 -0.24
-10.19 -9.45 -0.25
-10.14 -9.78 -0.26
-10.22 -10.26 -0.26
-10.23 -10.70 -0.27
-10.24 -11.15 -0.28
-10.26 -11.63 -0.29
-10.27 -12.13 -0.30
-10.29 -12.65 -0.31
-10.30 -13.21 -0.32
-10.26 -13.71 -0.33
-10.34 -14.41 -0.34
-10.36 -15.06 -0.36
-10.38 -15.76 -0.37
-10.40 -16.51 -0.39
-10.42 -17.31 -0.40
-10.45 -18.16 -0.42
-10.48 -19.09 -0.44
-10.51 -20.09 -0.46
-10.54 -21.17 -0.48
-10.57 -22.36 -0.51
-10.61 -23.66 -0.54
-10.65 -25.09 -0.57
-10.70 -26.68 -0.60
-10.71 -28.33 -0.64
-10.75 -30.26 -0.68
1.66 -20.66 -0.01
4.35 -35.97 -0.03
6.05 -37.34 -0.04
10.18 -30.60 -0.04
12.33 -34.73 -0.05
11.24 -29.75 -0.04
11.08 -27.62 -0.04
11.23 -26.46 -0.04
11.16 -24.89 -0.04
11.20 -23.68 -0.04
11.50 -23.11 -0.04
11.29 -21.59 -0.04
11.78 -21.46 -0.04
12.36 -21.48 -0.04
12.95 -21.50 -0.04
13.55 -21.52 -0.04
14.18 -21.54 -0.04
10.07 -14.65 -0.03
15.48 -21.57 -0.04
16.16 -21.59 -0.04
16.86 -21.62 -0.04
17.59 -21.64 -0.04
18.34 -21.66 -0.04
26.67 -30.24 -0.06
27.80 -30.28 -0.06
28.97 -30.31 -0.06
30.20 -30.35 -0.06
31.21 -30.13 -0.06
32.04 -29.71 -0.06
32.50 -28.95 -0.06
34.03 -29.11 -0.06
34.47 -28.30 -0.06
37.05 -29.20 -0.06
38.53 -29.13 -0.06
39.09 -28.34 -0.06
8.40 -5.59 -0.01
36.04 1.27 0.07
16.47 0.91 0.03
16.18 1.22 0.03
15.90 1.52 0.03
15.62 1.81 0.04
15.35 2.09 0.04
15.10 2.37 0.04
14.84 2.63 0.04
12.89 2.55 0.04
14.36 3.15 0.04
14.13 3.40 0.05
13.83 3.62 0.05
13.58 3.85 0.05
13.35 4.07 0.05
13.13 4.30 0.05
12.93 4.52 0.05
12.76 4.75 0.05
12.63 4.99 0.06
12.43 5.20 0.06
12.23 5.41 0.06
12.03 5.62 0.06
11.84 5.82 0.06
11.65 6.02 0.06
11.47 6.22 0.06
11.28 6.41 0.07
11.10 6.61 0.07
10.92 6.80 0.07
10.74 6.99 0.07
10.56 7.18 0.07
10.38 7.37 0.07
10.21 7.56 0.08
10.03 7.74 0.08
12.14 9.77 0.10
16.77 17.90 0.18
2.58 2.86 0.03
2.62 3.03 0.03
2.51 3.03 0.03
2.50 3.14 0.03
13.77 18.02 0.18
13.19 18.00 0.18
12.85 18.30 0.18
12.88 19.15 0.19
12.90 20.04 0.20
12.93 21.00 0.21
12.95 22.00 0.22
13.00 23.13 0.24
13.03 24.32 0.25
17.62 34.53 0.35
12.04 24.82 0.26
11.99 26.04 0.27
15.10 34.61 0.36
14.29 34.63 0.36
13.50 34.65 0.36
12.71 34.68 0.36
12.03 34.99 0.37
12.11 37.66 0.40
12.13 40.50 0.43
10.70 38.52 0.41
-8.46 49.10 0.61
-8.59 44.52 0.56
-8.71 40.70 0.51
-8.80 37.46 0.48
-8.89 34.67 0.44
-8.96 32.24 0.42
-9.02 30.11 0.39
-9.08 28.22 0.37
-9.13 26.54 0.35
-9.17 25.02 0.34
-9.21 23.65 0.32
-9.19 22.26 0.31
-9.28 21.27 0.30
-9.31 20.22 0.28
-9.34 19.26 0.27
-9.30 18.23 0.26
-9.39 17.53 0.25
-9.42 16.76 0.25
-9.44 16.03 0.24
-9.46 15.36 0.23
-9.48 14.72 0.22
-6.34 9.42 0.15
-9.51 13.54 0.21
-9.53 13.00 0.21
-9.54 12.49 0.20
-9.56 12.00 0.20
-9.57 11.54 0.19
-9.58 11.09 0.19
-9.60 10.66 0.18
-9.55 10.19 0.18
-9.62 9.86 0.18
-9.63 9.49 0.17
-9.64 9.12 0.17
-9.65 8.77 0.16
-9.66 8.43 0.16
-9.67 8.11 0.16
-9.68 7.79 0.16
-9.69 7.48 0.15
-9.70 7.18 0.15
-9.71 6.89 0.15
-9.72 6.61 0.14
-9.67 6.29 0.14
-9.73 6.06 0.14
-9.74 5.80 0.14
-9.75 5.54 0.14
-9.76 5.29 0.13
-9.76 5.04 0.13
-9.77 4.80 0.13
-9.78 4.56 0.13
-9.78 4.33 0.13
-9.79 4.10 0.12
-9.80 3.87 0.12
-9.80 3.65 0.12
-9.81 3.43 0.12
-9.82 3.21 0.12
-9.82 3.00 0.12
-9.83 2.78 0.11
-9.84 2.57 0.11
-9.84 2.36 0.11
-9.83 2.15 0.11
-9.85 1.95 0.11
-9.86 1.75 0.11
-9.87 1.55 0.11
-9.87 1.35 0.10
-9.88 1.14 0.10
-9.88 0.94 0.10
-9.89 0.75 0.10
-9.90 0.55 0.10
-9.90 0.35 0.10
-9.91 0.15 0.10
-9.91 -0.05 0.10
-9.92 -0.25 0.09
-9.93 -0.45 0.09
-9.93 -0.65 0.09
-9.94 -0.85 0.09
-9.94 -1.05 0.09
-9.95 -1.26 0.09
-9.96 -1.46 0.09
-9.95 -1.66 0.09
-9.97 -1.87 0.09
-9.97 -2.08 0.09
-9.98 -2.29 0.08
-9.99 -2.51 0.08
-9.99 -2.72 0.08
-10.00 -2.94 0.08
-10.01 -3.16 0.08
-10.01 -3.39 0.08
-10.02 -3.62 0.08
-10.03 -3.85 0.08
-10.03 -4.08 0.08
-10.04 -4.32 0.08
-10.05 -4.57 0.08
-10.05 -4.82 0.07
-10.06 -5.07 0.07
-10.07 -5.33 0.07
-10.08 -5.60 0.07
-10.09 -5.87 0.07
-10.09 -6.15 0.07
-10.10 -6.43 0.07
-10.11 -6.73 0.07
-10.12 -7.03 0.07
-10.13 -7.34 0.07
-10.14 -7.67 0.07
-10.15 -8.00 0.07
-10.16 -8.34 0.07
-10.17 -8.70 0.06
-10.18 -9.07 0.06
-10.19 -9.45 0.06
-10.14 -9.79 0.06
-10.22 -10.27 0.06
-10.23 -10.70 0.06
-10.24 -11.16 0.06
-10.26 -11.63 0.06
-10.27 -12.13 0.06
-10.29 -12.66 0.06
-10.30 -13.21 0.06
-10.26 -13.71 0.06
-10.34 -14.41 0.06
-10.36 -15.07 0.05
-10.38 -15.77 0.05
-10.40 -16.51 0.05
-10.42 -17.31 0.05
-10.45 -18.17 0.05
-10.48 -19.10 0.05
-10.51 -20.10 0.05
-10.54 -21.18 0.05
-10.57 -22.37 0.05
-10.61 -23.67 0.05
-10.65 -25.10 0.05
-10.70 -26.69 0.05
-10.75 -28.46 0.04
-10.81 -30.45 0.04
-10.88 -32.70 0.04
-10.96 -35.28 0.04
-11.04 -38.26 0.04
-11.12 -41.65 0.04
-11.22 -45.67 0.04
2.45 -40.49 0.89
1.66 -20.66 0.45
4.60 -45.61 1.00
4.49 -37.05 0.81
6.11 -43.20 0.95
7.04 -43.42 0.95
7.90 -43.24 0.95
5.77 -28.32 0.62
5.82 -25.90 0.57
5.90 -23.99 0.53
5.77 -21.59 0.48
6.12 -21.19 0.47
13.44 -43.26 0.96
10.17 -30.57 0.68
12.33 -34.73 0.78
11.25 -29.75 0.67
7.23 -18.04 0.41
11.23 -26.45 0.61
11.16 -24.88 0.57
11.20 -23.68 0.55
9.08 -18.25 0.43
11.29 -21.59 0.51
11.78 -21.46 0.51
12.36 -21.48 0.52
12.95 -21.50 0.53
13.55 -21.52 0.53
12.38 -18.80 0.47
10.07 -14.65 0.37
15.48 -21.57 0.56
16.16 -21.59 0.56
14.50 -18.59 0.49
14.63 -18.00 0.49
18.34 -21.66 0.60
16.63 -18.86 0.53
16.85 -18.35 0.52
18.35 -19.20 0.56
18.31 -18.40 0.55
18.59 -17.95 0.54
20.37 -18.89 0.59
20.49 -18.25 0.58
22.24 -19.02 0.62
22.36 -18.37 0.61
24.14 -19.03 0.65
24.35 -18.41 0.65
28.05 -20.34 0.74
8.40 -5.59 0.22
40.05 -20.18 0.98
40.45 -19.38 0.98
42.65 -19.39 1.03
45.33 -19.52 1.09
36.54 1.28 0.89
16.47 0.91 0.40
16.18 1.22 0.40
15.90 1.52 0.39
15.62 1.81 0.39
15.36 2.09 0.39
15.10 2.37 0.38
14.85 2.63 0.38
12.89 2.55 0.33
14.36 3.15 0.37
14.13 3.39 0.37
13.83 3.62 0.37
13.58 3.84 0.37
13.35 4.07 0.36
13.14 4.29 0.36
12.93 4.52 0.36
12.76 4.75 0.36
12.63 4.99 0.36
12.43 5.20 0.36
12.23 5.41 0.36
12.04 5.61 0.36
11.85 5.82 0.36
11.66 6.02 0.36
11.47 6.22 0.36
11.28 6.41 0.36
11.10 6.61 0.36
10.92 6.80 0.36
10.74 6.99 0.36
10.56 7.18 0.36
10.38 7.37 0.36
10.21 7.55 0.36
10.03 7.74 0.36
12.12 9.75 0.45
34.23 28.68 1.29
16.77 17.90 0.73
2.58 2.86 0.12
2.62 3.03 0.12
2.51 3.03 0.12
2.50 3.14 0.12
2.51 3.28 0.13
13.20 18.00 0.68
12.67 18.03 0.68
12.15 18.05 0.67
11.85 18.40 0.68
11.88 19.28 0.71
11.91 20.22 0.73
13.00 23.12 0.83
11.99 22.36 0.80
14.34 28.10 1.00
12.04 24.81 0.88
14.54 31.55 1.11
13.77 31.54 1.10
13.03 31.56 1.10
12.32 31.62 1.10
11.60 31.64 1.09
10.88 31.63 1.09
10.19 31.68 1.09
9.50 31.70 1.08
8.81 31.69 1.08
-2.46 49.12 1.69
-3.45 49.15 1.70
-8.46 49.11 1.73
-8.59 44.54 1.58
-8.71 40.71 1.45
-8.80 37.47 1.34
-8.89 34.68 1.25
-8.96 32.25 1.17
-9.02 30.12 1.10
-9.08 28.23 1.04
-9.13 26.54 0.99
-9.17 25.03 0.94
-9.21 23.66 0.89
-9.19 22.26 0.85
-9.28 21.27 0.82
-9.31 20.22 0.79
-9.34 19.26 0.76
-9.30 18.23 0.72
-9.39 17.53 0.70
-9.42 16.76 0.68
-9.44 16.03 0.66
-9.46 15.36 0.64
-9.48 14.72 0.62
-6.34 9.42 0.40
-9.51 13.54 0.59
-9.53 13.00 0.57
-9.54 12.49 0.56
-9.56 12.00 0.54
-9.57 11.54 0.53
-9.58 11.09 0.52
-9.60 10.66 0.51
-9.55 10.19 0.49
-9.62 9.86 0.49
-9.63 9.49 0.48
-9.64 9.12 0.47
-9.65 8.77 0.46
-9.66 8.43 0.45
-9.67 8.11 0.44
-9.68 7.79 0.44
-9.69 7.48 0.43
-9.70 7.18 0.42
-9.71 6.89 0.42
-9.72 6.61 0.41
-9.67 6.29 0.40
-9.73 6.06 0.40
-9.74 5.80 0.39
-9.75 5.54 0.39
-9.76 5.29 0.38
-9.76 5.04 0.38
-9.77 4.80 0.37
-9.78 4.56 0.37
-9.78 4.33 0.37
-9.79 4.10 0.36
-9.80 3.87 0.36
-9.80 3.65 0.36
-9.81 3.43 0.35
-9.82 3.21 0.35
-9.82 3.00 0.35
-9.83 2.78 0.34
-9.84 2.57 0.34
-9.84 2.36 0.34
-9.83 2.15 0.34
-9.85 1.95 0.33
-9.86 1.75 0.33
-9.87 1.55 0.33
-9.87 1.34 0.33
-9.88 1.14 0.33
-9.88 0.94 0.33
-9.89 0.74 0.32
-9.90 0.54 0.32
-9.90 0.35 0.32
-9.91 0.15 0.32
-9.91 -0.05 0.32
-9.92 -0.25 0.32
-9.93 -0.45 0.32
-9.93 -0.65 0.32
-9.94 -0.85 0.32
-9.94 -1.05 0.32
-9.95 -1.26 0.32
-9.96 -1.46 0.31
-9.95 -1.67 0.31
-9.97 -1.87 0.31
-9.97 -2.08 0.31
-9.98 -2.30 0.31
-9.99 -2.51 0.32
-9.99 -2.72 0.32
-10.00 -2.94 0.32
-10.01 -3.16 0.32
-10.01 -3.39 0.32
-10.02 -3.62 0.32
-10.03 -3.85 0.32
-10.03 -4.08 0.32
-10.04 -4.32 0.32
-10.05 -4.57 0.32
-10.05 -4.82 0.33
-10.06 -5.07 0.33
-10.07 -5.33 0.33
-10.08 -5.60 0.33
-10.09 -5.87 0.33
-10.09 -6.15 0.34
-10.10 -6.44 0.34
-10.11 -6.73 0.34
-10.12 -7.03 0.35
-10.13 -7.35 0.35
-10.14 -7.67 0.35
-10.15 -8.00 0.36
-10.16 -8.35 0.36
-10.17 -8.70 0.37
-10.18 -9.07 0.37
-10.19 -9.46 0.38
-10.14 -9.79 0.38
-10.22 -10.27 0.39
-10.23 -10.71 0.39
-10.24 -11.16 0.40
-10.26 -11.64 0.41
-10.27 -12.14 0.42
-10.29 -12.66 0.43
-10.30 -13.21 0.43
-10.26 -13.71 0.44
-10.34 -14.42 0.45
-10.36 -15.07 0.47
-10.38 -15.77 0.48
-10.40 -16.52 0.49
-10.42 -17.32 0.51
-10.45 -18.18 0.52
-10.48 -19.10 0.54
-10.51 -20.10 0.56
-10.54 -21.19 0.58
-10.57 -22.38 0.61
-10.61 -23.68 0.63
-10.65 -25.11 0.66
-10.70 -26.70 0.69
-10.75 -28.47 0.73
-10.81 -30.46 0.77
-10.88 -32.72 0.82
-10.96 -35.30 0.87
-11.04 -38.28 0.94
-11.12 -41.66 1.01
-11.21 -45.67 1.10
2.45 -40.49 1.80
1.67 -20.66 0.92
4.50 -44.59 1.99
4.45 -36.73 1.64
6.14 -43.32 1.93
7.04 -43.43 1.94
5.62 -30.77 1.38
5.65 -27.74 1.25
5.78 -25.72 1.16
5.80 -23.60 1.07
5.70 -21.32 0.97
6.01 -20.80 0.95
5.97 -19.22 0.88
6.39 -19.20 0.89
12.34 -34.72 1.61
6.84 -18.08 0.84
7.15 -17.81 0.84
11.23 -26.45 1.25
11.16 -24.88 1.19
8.66 -18.32 0.88
8.98 -18.05 0.88
11.29 -21.59 1.06
10.29 -18.75 0.93
10.35 -17.99 0.90
10.76 -17.88 0.91
13.55 -21.52 1.11
12.28 -18.66 0.97
10.07 -14.65 0.77
12.64 -17.62 0.94
16.16 -21.59 1.17
14.44 -18.51 1.02
14.55 -17.90 1.00
15.03 -17.75 1.01
16.53 -18.75 1.09
16.65 -18.13 1.07
18.28 -19.13 1.15
18.31 -18.40 1.13
18.50 -17.87 1.12
20.27 -18.80 1.21
20.39 -18.17 1.19
22.16 -18.96 1.28
22.23 -18.26 1.26
24.06 -18.97 1.34
24.24 -18.33 1.33
27.95 -20.27 1.52
29.18 -20.28 1.56
8.40 -5.59 0.44
40.66 -22.58 2.06
41.15 -21.79 2.06
40.11 -20.22 1.99
40.48 -19.40 2.00
41.36 -18.80 2.02
43.84 -18.88 2.13
33.17 -9.76 1.56
33.19 -9.05 1.56
33.21 -8.34 1.55
36.42 -8.38 1.70
21.06 -2.23 0.98
27.63 -2.37 1.28
33.12 -2.17 1.54
33.18 -1.51 1.54
33.20 -0.84 1.54
33.18 -0.18 1.55
33.24 0.49 1.55
33.26 1.16 1.56
16.47 0.91 0.78
16.18 1.22 0.76
15.90 1.52 0.75
15.62 1.81 0.75
15.36 2.09 0.74
15.10 2.36 0.73
14.85 2.63 0.72
12.89 2.55 0.63
14.36 3.14 0.71
14.13 3.39 0.70
13.83 3.61 0.69
13.59 3.84 0.68
13.35 4.07 0.68
13.14 4.29 0.67
12.93 4.51 0.67
12.76 4.75 0.67
12.63 4.99 0.67
12.43 5.20 0.66
12.23 5.41 0.66
12.04 5.61 0.66
11.85 5.82 0.66
11.66 6.02 0.65
11.47 6.21 0.65
11.29 6.41 0.65
11.10 6.60 0.65
10.92 6.80 0.65
10.74 6.99 0.65
10.56 7.18 0.65
10.39 7.37 0.65
10.21 7.55 0.65
10.03 7.74 0.65
12.09 9.72 0.80
20.40 17.09 1.37
19.62 17.11 1.34
18.90 17.17 1.32
18.18 17.19 1.30
17.45 17.18 1.27
16.81 17.23 1.26
16.17 17.25 1.24
2.58 2.86 0.20
2.62 3.03 0.21
2.52 3.03 0.21
2.50 3.14 0.21
13.25 17.33 1.16
12.72 17.35 1.14
12.20 17.36 1.13
11.70 17.38 1.12
11.21 17.39 1.11
10.73 17.41 1.10
10.26 17.42 1.09
9.80 17.44 1.08
9.34 17.42 1.07
8.89 17.40 1.06
8.46 17.42 1.05
8.03 17.43 1.05
7.62 17.44 1.04
6.81 16.48 0.98
6.79 17.41 1.02
11.61 31.64 1.85
10.89 31.63 1.84
10.20 31.68 1.84
9.51 31.70 1.83
8.81 31.69 1.82
9.94 38.73 2.22
9.24 39.28 2.25
8.58 40.06 2.28
8.18 42.33 2.41
7.32 42.41 2.41
6.41 42.19 2.39
5.55 42.24 2.39
4.70 42.27 2.39
3.84 42.29 2.39
3.11 44.11 2.49
2.22 44.09 2.49
1.34 44.06 2.49
0.45 44.02 2.49
-0.43 43.95 2.49
-1.31 43.87 2.49
-2.19 43.78 2.49
-3.07 43.67 2.49
-2.45 27.10 1.55
-2.71 24.46 1.41
-3.21 24.47 1.41
-3.71 24.49 1.42
-4.22 24.51 1.43
-7.66 39.73 2.32
-7.51 35.12 2.06
-7.59 32.30 1.91
-8.89 34.68 2.06
-8.96 32.25 1.93
-9.02 30.12 1.81
-9.08 28.23 1.71
-9.13 26.55 1.62
-9.17 25.03 1.54
-9.21 23.66 1.47
-9.19 22.27 1.39
-9.28 21.27 1.34
-9.31 20.23 1.29
-9.34 19.26 1.24
-9.30 18.23 1.19
-9.39 17.53 1.15
-9.42 16.76 1.11
-9.44 16.04 1.08
-9.46 15.36 1.05
-9.48 14.72 1.01
-6.34 9.42 0.66
-9.51 13.54 0.96
-9.53 13.00 0.93
-9.54 12.49 0.91
-9.56 12.00 0.89
-9.57 11.53 0.87
-9.58 11.09 0.85
-9.60 10.66 0.83
-9.55 10.19 0.81
-9.62 9.86 0.80
-9.63 9.49 0.78
-9.64 9.12 0.77
-9.65 8.77 0.75
-9.66 8.43 0.74
-9.67 8.10 0.73
-9.68 7.79 0.72
-9.69 7.48 0.70
-9.70 7.18 0.69
-9.71 6.89 0.68
-9.72 6.61 0.67
-9.67 6.29 0.66
-9.73 6.06 0.66
-9.74 5.80 0.65
-9.75 5.54 0.64
-9.76 5.29 0.63
-9.76 5.04 0.63
-9.77 4.80 0.62
-9.78 4.56 0.61
-9.78 4.33 0.61
-9.79 4.10 0.60
-9.80 3.87 0.60
-9.80 3.65 0.59
-9.81 3.43 0.59
-9.82 3.21 0.58
-9.82 2.99 0.58
-9.83 2.78 0.57
-9.84 2.57 0.57
-9.84 2.36 0.57
-9.83 2.15 0.56
-9.85 1.95 0.56
-9.86 1.75 0.56
-9.87 1.54 0.56
-9.87 1.34 0.55
-9.88 1.14 0.55
-9.88 0.94 0.55
-9.89 0.74 0.55
-9.90 0.54 0.55
-9.90 0.34 0.54
-9.91 0.15 0.54
-9.91 -0.05 0.54
-9.92 -0.25 0.54
-9.93 -0.45 0.54
-9.93 -0.65 0.54
-9.94 -0.85 0.54
-9.94 -1.06 0.54
-9.95 -1.26 0.54
-9.96 -1.46 0.54
-9.95 -1.67 0.54
-9.97 -1.88 0.54
-9.97 -2.09 0.54
-9.98 -2.30 0.55
-9.99 -2.51 0.55
-9.99 -2.73 0.55
-10.00 -2.94 0.55
-10.01 -3.17 0.55
-10.01 -3.39 0.56
-10.02 -3.62 0.56
-10.03 -3.85 0.56
-10.03 -4.09 0.57
-10.04 -4.33 0.57
-10.05 -4.57 0.57
-10.05 -4.82 0.58
-10.06 -5.07 0.58
-10.07 -5.33 0.59
-10.08 -5.60 0.59
-10.09 -5.87 0.60
-10.09 -6.15 0.60
-10.10 -6.44 0.61
-10.11 -6.73 0.62
-10.12 -7.04 0.62
-10.13 -7.35 0.63
-10.14 -7.67 0.64
-10.15 -8.00 0.65
-10.16 -8.35 0.66
-10.17 -8.71 0.67
-10.18 -9.08 0.68
-10.19 -9.46 0.69
-10.14 -9.80 0.70
-10.22 -10.27 0.71
-10.23 -10.71 0.73
-10.24 -11.16 0.74
-10.26 -11.64 0.76
-10.27 -12.14 0.78
-10.29 -12.66 0.79
-10.30 -13.22 0.81
-10.25 -13.71 0.83
-10.34 -14.42 0.86
-10.36 -15.08 0.88
-10.38 -15.78 0.91
-10.40 -16.53 0.93
-10.42 -17.33 0.96
-10.45 -18.18 1.00
-10.48 -19.11 1.03
-10.51 -20.11 1.07
-10.54 -21.20 1.12
-10.57 -22.38 1.16
-10.61 -23.69 1.22
-10.66 -25.12 1.28
-10.70 -26.71 1.34
-10.75 -28.48 1.42
-10.81 -30.48 1.50
-10.88 -32.74 1.60
-9.50 -30.61 1.48
-8.79 -30.49 1.46
-11.11 -41.66 1.98
-11.21 -45.68 2.16
-10.61 -47.32 2.22
0.01 -37.07 2.49
0.76 -37.10 2.49
1.44 -35.59 2.39
2.16 -35.59 2.39
1.67 -20.63 1.39
3.59 -35.55 2.39
4.31 -35.51 2.39
4.42 -31.22 2.11
4.90 -30.24 2.04
6.28 -34.33 2.33
5.65 -27.74 1.89
5.75 -25.61 1.75
5.79 -23.56 1.61
5.70 -21.32 1.47
5.99 -20.72 1.43
5.94 -19.11 1.33
6.36 -19.10 1.34
9.87 -27.77 1.95
6.84 -18.10 1.28
7.13 -17.78 1.27
7.60 -17.89 1.29
10.34 -23.05 1.67
8.66 -18.32 1.34
8.96 -18.00 1.33
9.47 -18.12 1.35
10.29 -18.75 1.41
10.31 -17.92 1.37
10.65 -17.69 1.36
13.55 -21.52 1.68
12.30 -18.68 1.48
10.07 -14.65 1.17
12.61 -17.58 1.43
14.50 -19.39 1.60
14.46 -18.54 1.55
14.51 -17.85 1.52
14.98 -17.69 1.53
16.56 -18.78 1.66
16.60 -18.08 1.62
17.33 -18.14 1.66
18.26 -18.35 1.71
18.53 -17.89 1.71
20.28 -18.82 1.83
20.35 -18.13 1.81
22.18 -18.98 1.94
22.22 -18.25 1.91
23.62 -18.62 2.00
24.23 -18.32 2.02
28.18 -20.44 2.31
28.81 -20.03 2.34
8.40 -5.59 0.67
30.08 -19.16 2.38
30.61 -18.65 2.39
30.95 -18.01 2.39
31.27 -17.37 2.39
31.58 -16.73 2.39
31.88 -16.07 2.39
32.16 -15.41 2.39
32.81 -14.92 2.42
34.09 -14.69 2.49
34.34 -13.98 2.49
34.57 -13.27 2.49
34.78 -12.56 2.49
34.98 -11.85 2.49
35.17 -11.13 2.49
33.41 -9.84 2.36
35.49 -9.68 2.49
33.47 -8.41 2.34
35.75 -8.23 2.49
35.85 -7.50 2.49
34.45 -6.48 2.39
34.52 -5.78 2.39
34.58 -5.08 2.39
16.33 -2.07 1.13
16.26 -1.73 1.12
16.25 -1.40 1.12
16.22 -1.07 1.12
16.15 -0.74 1.12
16.17 -0.41 1.12
16.14 -0.09 1.12
16.24 0.24 1.13
16.42 0.57 1.14
16.48 0.90 1.15
16.18 1.21 1.13
15.90 1.51 1.12
15.63 1.80 1.10
15.36 2.09 1.09
15.10 2.36 1.07
14.85 2.63 1.06
12.89 2.55 0.93
14.37 3.14 1.04
14.13 3.39 1.03
13.83 3.61 1.01
13.59 3.84 1.00
13.35 4.07 0.99
13.14 4.29 0.99
12.93 4.51 0.98
12.77 4.74 0.98
12.62 4.98 0.97
12.43 5.20 0.97
12.23 5.41 0.96
12.04 5.61 0.96
11.85 5.81 0.95
11.66 6.01 0.95
11.47 6.21 0.95
11.29 6.41 0.94
11.10 6.60 0.94
10.92 6.80 0.94
10.74 6.99 0.94
10.56 7.18 0.94
10.39 7.36 0.94
10.21 7.55 0.94
10.03 7.74 0.93
12.07 9.70 1.14
20.41 17.09 1.97
19.62 17.11 1.93
18.91 17.17 1.90
18.18 17.19 1.86
17.45 17.18 1.83
16.82 17.23 1.80
16.17 17.25 1.77
2.58 2.86 0.29
2.62 3.03 0.30
2.52 3.03 0.30
2.51 3.15 0.30
13.26 17.33 1.65
12.73 17.35 1.63
12.21 17.36 1.61
11.70 17.38 1.59
7.40 11.48 1.04
7.13 11.56 1.04
7.04 11.95 1.06
7.00 12.44 1.09
6.90 12.87 1.12
6.78 13.27 1.15
6.74 13.88 1.19
6.76 14.67 1.25
6.79 15.54 1.31
6.82 16.49 1.38
6.85 17.57 1.46
10.05 27.39 2.26
9.63 27.97 2.30
9.18 28.52 2.33
8.70 29.00 2.36
8.17 29.35 2.38
7.57 29.50 2.38
6.97 29.61 2.38
6.40 29.84 2.39
5.79 29.93 2.39
5.18 30.00 2.39
4.57 30.06 2.39
3.96 30.11 2.39
3.35 30.14 2.39
2.86 31.47 2.49
2.23 31.48 2.49
1.59 31.49 2.49
0.96 31.48 2.49
0.33 31.46 2.49
-0.31 31.43 2.49
-0.94 31.38 2.49
-1.56 31.33 2.49
-2.19 31.26 2.49
-2.44 27.02 2.16
-2.69 24.29 1.95
-3.21 24.48 1.97
-3.71 24.47 1.98
-4.20 24.43 1.98
-5.66 29.35 2.39
-6.24 29.21 2.39
-6.82 29.06 2.39
-7.40 28.90 2.39
-7.98 28.73 2.39
-8.55 28.55 2.39
-9.11 28.35 2.39
-11.75 34.19 2.90
-9.14 24.94 2.13
-9.21 23.66 2.04
-9.19 22.27 1.94
-9.28 21.27 1.87
-9.31 20.23 1.79
-9.34 19.26 1.72
-9.30 18.23 1.65
-9.39 17.54 1.60
-9.42 16.76 1.55
-9.44 16.04 1.50
-9.46 15.36 1.45
-9.48 14.72 1.41
-6.34 9.42 0.91
-9.51 13.54 1.33
-9.53 13.00 1.30
-9.54 12.49 1.27
-9.56 12.00 1.24
-9.57 11.53 1.21
-9.58 11.09 1.18
-9.60 10.66 1.16
-9.55 10.19 1.12
-9.62 9.86 1.11
-9.63 9.49 1.09
-9.64 9.12 1.07
-9.65 8.77 1.05
-9.66 8.43 1.03
-9.67 8.10 1.01
-9.68 7.79 1.00
-9.69 7.48 0.98
-9.70 7.18 0.97
-9.71 6.89 0.95
-9.72 6.60 0.94
-9.67 6.29 0.92
-9.73 6.06 0.92
-9.74 5.80 0.91
-9.75 5.54 0.90
-9.76 5.29 0.89
-9.76 5.04 0.88
-9.77 4.80 0.87
-9.78 4.56 0.86
-9.78 4.33 0.85
-9.79 4.10 0.84
-9.80 3.87 0.84
-9.80 3.65 0.83
-9.81 3.43 0.82
-9.82 3.21 0.82
-9.82 2.99 0.81
-9.83 2.78 0.81
-9.84 2.57 0.80
-9.84 2.36 0.80
-9.84 2.15 0.79
-9.85 1.95 0.79
-9.86 1.75 0.78
-9.87 1.54 0.78
-9.87 1.34 0.78
-9.88 1.14 0.78
-9.88 0.94 0.77
-9.89 0.74 0.77
-9.90 0.54 0.77
-9.90 0.34 0.77
-9.91 0.14 0.77
-9.91 -0.05 0.77
-9.92 -0.25 0.77
-9.93 -0.45 0.77
-9.93 -0.65 0.77
-9.94 -0.85 0.77
-9.94 -1.06 0.77
-9.95 -1.26 0.77
-9.96 -1.46 0.77
-9.95 -1.67 0.77
-9.97 -1.88 0.77
-9.97 -2.09 0.78
-9.98 -2.30 0.78
-9.99 -2.51 0.78
-9.99 -2.73 0.78
-10.00 -2.95 0.79
-10.01 -3.17 0.79
-10.01 -3.39 0.80
-10.02 -3.62 0.80
-10.03 -3.85 0.81
-10.03 -4.09 0.81
-10.04 -4.33 0.82
-10.05 -4.57 0.82
-10.05 -4.82 0.83
-10.06 -5.08 0.84
-10.07 -5.34 0.84
-10.08 -5.60 0.85
-10.09 -5.88 0.86
-10.09 -6.15 0.87
-10.10 -6.44 0.88
-10.11 -6.74 0.89
-10.12 -7.04 0.90
-10.13 -7.35 0.91
-10.14 -7.67 0.93
-10.15 -8.01 0.94
-10.16 -8.35 0.96
-10.17 -8.71 0.97
-10.18 -9.08 0.99
-10.19 -9.46 1.00
-8.12 -7.85 0.81
-7.95 -8.00 0.81
-10.23 -10.71 1.06
-10.24 -11.17 1.09
-10.26 -11.64 1.11
-10.27 -12.14 1.13
-10.29 -12.67 1.16
-10.30 -13.22 1.19
-10.25 -13.72 1.21
-10.34 -14.43 1.26
-10.36 -15.08 1.29
-10.38 -15.78 1.33
-10.40 -16.53 1.37
-10.42 -17.33 1.42
-10.45 -18.19 1.47
-10.48 -19.12 1.53
-10.51 -20.12 1.59
-10.54 -21.21 1.65
-10.57 -22.39 1.72
-10.61 -23.70 1.80
-10.66 -25.13 1.89
-10.70 -26.72 1.99
-10.76 -28.50 2.11
-10.95 -32.94 2.39
-10.30 -33.21 2.39
-8.82 -30.59 2.19
-8.99 -33.71 2.39
-8.32 -33.93 2.39
-7.65 -34.15 2.39
-7.16 -35.27 2.46
-6.57 -36.02 2.49
-5.85 -36.20 2.49
-5.13 -36.36 2.49
-4.41 -36.51 2.49
-3.68 -36.64 2.49
-2.95 -36.76 2.49
-2.21 -36.86 2.49
-1.47 -36.95 2.49
-0.73 -37.01 2.49
0.01 -27.73 2.49
0.57 -27.75 2.49
1.11 -27.33 2.46
1.61 -26.60 2.39
1.67 -20.63 1.86
2.68 -26.56 2.39
3.22 -26.52 2.39
3.75 -26.47 2.39
4.29 -26.41 2.39
4.82 -26.33 2.39
5.06 -24.85 2.26
3.80 -16.90 1.55
4.15 -16.88 1.55
4.48 -16.75 1.55
6.00 -20.75 1.92
5.95 -19.15 1.79
6.37 -19.14 1.79
9.03 -25.41 2.40
6.84 -18.10 1.72
7.12 -17.74 1.70
7.59 -17.87 1.73
10.34 -23.05 2.24
8.66 -18.32 1.80
8.95 -17.99 1.78
9.49 -18.14 1.82
10.29 -18.74 1.90
10.34 -17.97 1.84
10.62 -17.64 1.83
15.49 -24.58 2.58
12.13 -18.42 1.96
10.07 -14.65 1.58
12.65 -17.63 1.92
13.71 -18.33 2.03
14.31 -18.34 2.06
14.50 -17.84 2.04
14.97 -17.68 2.06
16.22 -18.40 2.18
16.54 -18.02 2.17
17.18 -17.98 2.21
18.26 -18.36 2.30
18.50 -17.86 2.29
19.72 -18.29 2.39
20.07 -17.89 2.39
20.42 -17.47 2.39
20.76 -17.05 2.39
21.09 -16.62 2.39
21.40 -16.19 2.39
21.71 -15.75 2.39
22.01 -15.30 2.39
8.40 -5.59 0.90
22.96 -14.63 2.43
23.83 -14.52 2.49
24.10 -14.03 2.49
24.36 -13.54 2.49
24.61 -13.04 2.49
24.85 -12.53 2.49
25.07 -12.02 2.49
25.29 -11.50 2.49
25.49 -10.98 2.49
25.69 -10.46 2.49
25.87 -9.94 2.49
26.04 -9.41 2.49
26.19 -8.87 2.49
26.34 -8.34 2.49
26.48 -7.80 2.49
26.60 -7.26 2.49
25.61 -6.44 2.39
25.70 -5.92 2.39
25.79 -5.39 2.39
25.86 -4.87 2.39
25.92 -4.35 2.39
25.98 -3.82 2.39
16.33 -2.07 1.50
16.26 -1.73 1.49
16.25 -1.40 1.49
16.22 -1.07 1.49
16.15 -0.74 1.48
16.17 -0.41 1.48
16.14 -0.09 1.48
16.24 0.24 1.49
16.42 0.57 1.51
16.48 0.90 1.52
16.19 1.21 1.50
16.01 1.52 1.49
15.74 1.82 1.47
15.47 2.10 1.45
15.21 2.38 1.43
14.85 2.63 1.40
12.89 2.55 1.22
14.37 3.14 1.37
14.13 3.39 1.36
13.84 3.61 1.34
13.59 3.84 1.32
13.35 4.06 1.31
13.14 4.29 1.30
12.93 4.51 1.29
12.77 4.74 1.28
12.62 4.98 1.28
12.43 5.19 1.27
12.24 5.40 1.27
12.04 5.61 1.26
11.85 5.81 1.25
11.66 6.01 1.25
11.55 6.25 1.25
11.37 6.45 1.25
11.18 6.65 1.24
11.00 6.84 1.24
10.82 7.03 1.24
10.57 7.17 1.23
10.39 7.36 1.22
10.21 7.55 1.22
10.04 7.74 1.22
12.05 9.68 1.49
16.33 13.67 2.06
16.03 13.97 2.06
15.72 14.27 2.06
15.41 14.56 2.06
15.05 14.80 2.05
14.72 15.07 2.05
14.43 15.38 2.06
2.58 2.86 0.38
13.88 16.04 2.08
2.60 3.13 0.40
13.72 17.21 2.16
13.26 17.33 2.15
12.73 17.35 2.12
12.21 17.36 2.09
11.71 17.38 2.07
7.40 11.48 1.35
7.17 11.63 1.35
7.06 11.98 1.38
7.00 12.44 1.42
6.90 12.87 1.45
6.78 13.27 1.48
6.74 13.88 1.54
6.76 14.67 1.61
6.79 15.53 1.69
6.82 16.49 1.78
6.85 17.56 1.89
8.27 22.54 2.41
7.81 22.67 2.41
7.35 22.80 2.41
6.88 22.92 2.41
6.37 22.87 2.39
5.90 22.97 2.39
5.43 23.06 2.39
4.96 23.14 2.39
4.49 23.21 2.39
4.02 23.27 2.39
3.49 22.94 2.35
3.04 23.11 2.37
2.64 23.69 2.42
2.22 24.44 2.49
1.73 24.46 2.49
1.24 24.47 2.49
0.75 24.47 2.49
0.26 24.46 2.49
-0.24 24.44 2.49
-0.73 24.41 2.49
-1.22 24.37 2.49
-1.70 24.32 2.49
-2.19 24.27 2.49
-2.68 24.20 2.49
-3.16 24.13 2.49
-3.64 24.04 2.49
-4.12 23.95 2.49
-4.60 23.85 2.49
-5.07 23.74 2.49
-5.43 23.14 2.44
-5.77 22.52 2.39
-6.22 22.39 2.39
-6.66 22.25 2.39
-7.10 22.10 2.39
-7.54 21.95 2.39
-7.98 21.78 2.39
-8.41 21.61 2.39
-8.84 21.43 2.39
-9.27 21.24 2.39
-19.39 42.11 4.78
-9.29 19.15 2.20
-9.30 18.23 2.11
-9.39 17.54 2.05
-9.42 16.76 1.99
-9.44 16.04 1.92
-9.46 15.36 1.86
-9.48 14.72 1.81
-6.34 9.42 1.17
-9.51 13.54 1.71
-9.53 13.00 1.66
-9.54 12.49 1.62
-9.56 12.00 1.58
-9.57 11.53 1.55
-9.58 11.09 1.51
-9.60 10.66 1.48
-9.55 10.19 1.44
-9.62 9.86 1.42
-9.63 9.48 1.39
-9.64 9.12 1.37
-9.65 8.77 1.34
-9.66 8.43 1.32
-9.67 8.10 1.30
-9.68 7.79 1.28
-9.69 7.48 1.26
-9.70 7.18 1.24
-9.71 6.89 1.22
-9.72 6.60 1.21
-9.67 6.29 1.18
-9.73 6.06 1.18
-9.74 5.79 1.16
-9.75 5.54 1.15
-9.76 5.29 1.14
-9.76 5.04 1.13
-9.77 4.80 1.11
-9.78 4.56 1.10
-9.78 4.32 1.09
-9.79 4.09 1.08
-9.80 3.87 1.07
-9.80 3.64 1.07
-9.81 3.42 1.06
-9.82 3.21 1.05
-9.82 2.99 1.04
-9.83 2.78 1.04
-9.84 2.57 1.03
-9.84 2.36 1.03
-9.84 2.15 1.02
-9.85 1.95 1.02
-9.86 1.74 1.01
-9.87 1.54 1.01
-9.87 1.34 1.00
-9.88 1.14 1.00
-9.88 0.94 1.00
-9.89 0.74 1.00
-9.90 0.54 1.00
-9.90 0.34 0.99
-9.91 0.14 0.99
-9.91 -0.06 0.99
-9.92 -0.25 0.99
-9.93 -0.45 0.99
-9.93 -0.66 0.99
-9.94 -0.86 0.99
-9.94 -1.06 0.99
-9.95 -1.26 1.00
-9.96 -1.47 1.00
-9.94 -1.67 1.00
-9.97 -1.88 1.00
-9.97 -2.09 1.01
-9.98 -2.30 1.01
-9.99 -2.51 1.01
-9.99 -2.73 1.02
-10.00 -2.95 1.02
-10.01 -3.17 1.03
-10.01 -3.39 1.04
-10.02 -3.62 1.04
-10.03 -3.85 1.05
-10.03 -4.09 1.06
-10.04 -4.33 1.06
-10.05 -4.57 1.07
-10.05 -4.82 1.08
-10.06 -5.08 1.09
-10.07 -5.34 1.10
-10.08 -5.61 1.11
-10.09 -5.88 1.13
-10.09 -6.16 1.14
-10.10 -6.44 1.15
-10.11 -6.74 1.17
-10.12 -7.04 1.18
-10.13 -7.35 1.20
-10.14 -7.68 1.22
-10.15 -8.01 1.23
-10.16 -8.35 1.25
-10.17 -8.71 1.27
-10.18 -9.08 1.30
-10.19 -9.47 1.32
-8.10 -7.83 1.07
-7.93 -7.98 1.06
-7.93 -8.30 1.08
-10.24 -11.17 1.43
-10.26 -11.65 1.46
-10.27 -12.15 1.50
-10.29 -12.67 1.53
-10.30 -13.23 1.57
-10.25 -13.72 1.60
-10.34 -14.43 1.66
-10.36 -15.09 1.71
-10.38 -15.79 1.76
-10.40 -16.54 1.82
-10.42 -17.34 1.88
-10.45 -18.20 1.95
-10.48 -19.12 2.02
-10.51 -20.13 2.10
-10.48 -21.09 2.18
-10.60 -23.69 2.39
-10.14 -23.93 2.39
-9.67 -24.16 2.39
-6.85 -18.16 1.78
-6.70 -18.89 1.84
-6.76 -20.35 1.96
-7.74 -24.98 2.39
-7.25 -25.16 2.39
-6.86 -25.75 2.43
-6.52 -26.59 2.49
-5.99 -26.75 2.49
-5.46 -26.90 2.49
-4.92 -27.03 2.49
-4.39 -27.16 2.49
-3.84 -27.27 2.49
-3.30 -27.37 2.49
-2.75 -27.46 2.49
-2.20 -27.54 2.49
-1.65 -27.60 2.49
-1.10 -27.66 2.49
-0.55 -27.70 2.49
0.01 -22.13 2.49
0.45 -22.14 2.49
0.90 -22.15 2.49
1.30 -21.38 2.41
1.67 -20.63 2.33
2.14 -21.18 2.39
2.57 -21.15 2.39
2.99 -21.10 2.39
3.42 -21.05 2.39
3.84 -20.99 2.39
4.26 -20.92 2.39
3.57 -15.88 1.82
3.85 -15.67 1.81
4.18 -15.65 1.81
5.53 -19.13 2.23
5.84 -18.80 2.20
6.17 -18.52 2.18
6.52 -18.34 2.17
6.85 -18.10 2.16
7.12 -17.75 2.14
7.55 -17.78 2.16
8.14 -18.14 2.22
8.59 -18.16 2.24
8.96 -18.00 2.24
9.48 -18.12 2.28
10.00 -18.22 2.32
10.34 -17.98 2.31
10.62 -17.64 2.30
11.24 -17.84 2.35
11.80 -17.92 2.39
10.07 -14.65 1.98
12.51 -17.43 2.39
12.85 -17.18 2.39
13.19 -16.92 2.39
13.53 -16.65 2.39
13.86 -16.37 2.39
14.18 -16.08 2.39
14.50 -15.79 2.39
14.81 -15.50 2.39
15.11 -15.19 2.39
15.41 -14.88 2.39
15.70 -14.57 2.39
16.20 -14.44 2.42
16.89 -14.45 2.48
17.25 -14.17 2.49
17.52 -13.82 2.49
17.79 -13.46 2.49
18.04 -13.09 2.49
18.30 -12.72 2.49
8.40 -5.59 1.13
18.77 -11.96 2.49
19.00 -11.58 2.49
19.22 -11.19 2.49
19.43 -10.80 2.49
19.63 -10.40 2.49
19.82 -10.00 2.49
20.00 -9.59 2.49
20.18 -9.18 2.49
20.34 -8.77 2.49
20.50 -8.35 2.49
20.65 -7.93 2.49
20.79 -7.51 2.49
20.92 -7.09 2.49
20.17 -6.39 2.39
20.28 -5.98 2.39
20.38 -5.56 2.39
20.47 -5.15 2.39
20.55 -4.73 2.39
20.62 -4.32 2.39
20.68 -3.90 2.39
16.72 -2.81 1.93
20.78 -3.06 2.39
16.33 -2.07 1.88
16.26 -1.73 1.87
16.25 -1.40 1.86
16.22 -1.07 1.86
16.15 -0.74 1.85
16.17 -0.42 1.85
16.14 -0.09 1.85
16.23 0.23 1.86
16.42 0.57 1.89
16.48 0.90 1.90
16.19 1.21 1.87
16.02 1.52 1.85
15.74 1.81 1.83
15.47 2.10 1.80
15.21 2.37 1.78
14.85 2.62 1.75
12.89 2.55 1.52
14.37 3.14 1.71
14.14 3.39 1.69
13.84 3.61 1.66
13.59 3.84 1.65
13.36 4.06 1.63
13.14 4.29 1.61
12.93 4.51 1.60
12.77 4.74 1.59
12.61 4.97 1.59
12.43 5.19 1.58
12.24 5.40 1.57
12.04 5.61 1.56
11.85 5.81 1.55
11.66 6.01 1.55
11.56 6.25 1.55
11.37 6.45 1.55
11.19 6.65 1.54
11.00 6.84 1.54
10.82 7.03 1.53
10.57 7.17 1.52
10.39 7.36 1.51
10.21 7.55 1.51
10.04 7.74 1.51
12.02 9.66 1.84
14.18 11.87 2.21
13.56 11.81 2.15
13.33 12.10 2.16
13.11 12.38 2.16
12.88 12.66 2.17
12.64 12.94 2.18
12.40 13.21 2.18
2.58 2.86 0.46
11.87 13.72 2.19
11.60 13.96 2.19
11.33 14.20 2.20
11.12 14.53 2.22
10.81 14.72 2.21
10.62 15.09 2.24
10.42 15.46 2.27
7.41 11.48 1.66
7.17 11.63 1.66
7.06 11.98 1.70
7.00 12.43 1.74
6.90 12.86 1.78
6.78 13.27 1.82
6.74 13.87 1.89
6.76 14.66 1.98
6.79 15.53 2.08
6.82 16.48 2.19
6.85 17.55 2.32
6.74 18.36 2.41
6.33 18.35 2.39
5.95 18.46 2.39
5.57 18.56 2.39
5.19 18.65 2.39
4.81 18.73 2.39
4.43 18.81 2.39
4.05 18.88 2.39
3.49 18.01 2.27
3.23 18.68 2.35
2.90 19.04 2.39
2.51 19.08 2.39
2.22 19.94 2.49
1.82 19.96 2.49
1.42 19.98 2.49
1.01 19.99 2.49
0.61 19.99 2.49
0.21 19.99 2.49
-0.19 19.97 2.49
-0.59 19.95 2.49
-0.99 19.92 2.49
-1.39 19.89 2.49
-1.79 19.85 2.49
-2.19 19.79 2.49
-2.58 19.74 2.49
-2.98 19.67 2.49
-3.37 19.60 2.49
-3.76 19.52 2.49
-4.15 19.43 2.49
-4.54 19.33 2.49
-4.92 19.23 2.49
-5.31 19.12 2.49
-5.57 18.60 2.44
-5.81 18.10 2.39
-6.18 17.97 2.39
-6.53 17.84 2.39
-6.89 17.70 2.39
-7.24 17.55 2.39
-7.59 17.40 2.39
-7.94 17.24 2.39
-8.28 17.07 2.39
-8.62 16.90 2.39
-8.96 16.72 2.39
-9.29 16.54 2.39
-9.62 16.34 2.39
-9.42 14.63 2.20
-6.32 9.39 1.43
-9.51 13.54 2.09
-9.53 13.00 2.03
-9.54 12.49 1.98
-9.56 12.00 1.93
-9.57 11.53 1.89
-9.58 11.09 1.85
-9.60 10.66 1.81
-9.55 10.19 1.76
-9.62 9.86 1.74
-9.63 9.48 1.70
-9.64 9.12 1.67
-9.65 8.77 1.64
-9.66 8.43 1.61
-9.67 8.10 1.59
-9.68 7.78 1.56
-9.69 7.48 1.54
-9.70 7.18 1.52
-9.71 6.89 1.50
-9.72 6.60 1.48
-9.67 6.29 1.45
-9.73 6.06 1.44
-9.74 5.79 1.42
-9.75 5.54 1.41
-9.76 5.28 1.39
-9.76 5.04 1.38
-9.77 4.79 1.36
-9.78 4.56 1.35
-9.78 4.32 1.34
-9.79 4.09 1.33
-9.80 3.87 1.31
-9.80 3.64 1.30
-9.81 3.42 1.30
-9.82 3.21 1.29
-9.82 2.99 1.28
-9.83 2.78 1.27
-9.84 2.57 1.26
-9.84 2.36 1.26
-9.84 2.15 1.25
-9.85 1.95 1.25
-9.86 1.74 1.24
-9.87 1.54 1.24
-9.87 1.34 1.23
-9.88 1.14 1.23
-9.88 0.94 1.23
-9.89 0.74 1.22
-9.90 0.54 1.22
-9.90 0.34 1.22
-9.91 0.14 1.22
-9.91 -0.06 1.22
-9.92 -0.26 1.22
-9.93 -0.46 1.22
-9.93 -0.66 1.22
-9.94 -0.86 1.22
-9.94 -1.06 1.22
-9.95 -1.26 1.22
-9.96 -1.47 1.23
-9.94 -1.67 1.23
-9.97 -1.88 1.23
-9.97 -2.09 1.24
-9.98 -2.30 1.24
-9.99 -2.52 1.25
-9.99 -2.73 1.25
-10.00 -2.95 1.26
-10.01 -3.17 1.27
-10.01 -3.40 1.28
-10.02 -3.62 1.28
-10.03 -3.86 1.29
-10.03 -4.09 1.30
-10.04 -4.33 1.31
-10.05 -4.58 1.32
-10.05 -4.83 1.34
-10.06 -5.08 1.35
-10.07 -5.34 1.36
-10.08 -5.61 1.38
-10.09 -5.88 1.39
-10.09 -6.16 1.41
-10.10 -6.45 1.43
-10.11 -6.74 1.44
-10.12 -7.04 1.46
-10.13 -7.36 1.48
-10.14 -7.68 1.51
-10.15 -8.01 1.53
-10.16 -8.36 1.55
-10.17 -8.71 1.58
-10.18 -9.08 1.61
-10.19 -9.47 1.64
-8.09 -7.83 1.32
-7.93 -7.98 1.32
-7.93 -8.31 1.35
-10.24 -11.17 1.77
-10.26 -11.65 1.82
-10.27 -12.15 1.86
-10.29 -12.68 1.90
-10.30 -13.23 1.95
-10.25 -13.72 1.99
-10.34 -14.44 2.06
-10.34 -15.07 2.12
-10.32 -15.70 2.18
-10.65 -17.72 2.39
-10.30 -17.95 2.39
-9.95 -18.17 2.39
-9.60 -18.39 2.39
-9.24 -18.60 2.39
-6.57 -13.92 1.77
-6.58 -14.70 1.85
-6.63 -15.64 1.95
-6.63 -16.57 2.05
-6.85 -18.17 2.22
-6.98 -19.70 2.39
-6.70 -20.20 2.43
-6.46 -20.87 2.49
-6.05 -21.01 2.49
-5.63 -21.15 2.49
-5.21 -21.28 2.49
-4.79 -21.40 2.49
-4.36 -21.51 2.49
-3.93 -21.62 2.49
-3.50 -21.71 2.49
-3.07 -21.79 2.49
-2.63 -21.87 2.49
-2.20 -21.94 2.49
-1.76 -21.99 2.49
-1.32 -22.04 2.49
-0.88 -22.08 2.49
-0.43 -22.11 2.49
0.01 -18.40 2.49
0.38 -18.41 2.49
0.75 -18.41 2.49
1.12 -18.40 2.49
1.49 -18.38 2.49
1.83 -18.05 2.45
2.13 -17.57 2.39
2.49 -17.53 2.39
2.84 -17.49 2.39
3.19 -17.43 2.39
3.54 -17.37 2.39
3.89 -17.30 2.39
3.90 -15.85 2.20
4.32 -16.15 2.25
4.93 -17.06 2.39
5.27 -16.96 2.39
5.61 -16.86 2.39
5.95 -16.75 2.39
6.29 -16.63 2.39
6.62 -16.50 2.39
6.95 -16.37 2.39
7.28 -16.23 2.39
7.61 -16.08 2.39
7.93 -15.93 2.39
8.25 -15.77 2.39
8.56 -15.60 2.39
8.88 -15.43 2.39
9.18 -15.25 2.39
9.49 -15.06 2.39
9.79 -14.87 2.39
10.07 -14.65 2.39
10.38 -14.48 2.39
10.69 -14.28 2.40
11.14 -14.29 2.43
11.62 -14.30 2.48
12.00 -14.17 2.49
12.28 -13.93 2.49
12.55 -13.67 2.49
12.82 -13.42 2.49
13.08 -13.15 2.49
13.34 -12.89 2.49
13.60 -12.61 2.49
13.84 -12.34 2.49
14.08 -12.05 2.49
14.32 -11.76 2.49
14.55 -11.47 2.49
14.77 -11.17 2.49
14.98 -10.87 2.49
15.19 -10.56 2.49
8.37 -5.58 1.36
15.59 -9.94 2.49
15.78 -9.62 2.49
15.96 -9.30 2.49
16.14 -8.97 2.49
16.31 -8.64 2.49
16.47 -8.31 2.49
16.62 -7.97 2.49
16.77 -7.63 2.49
16.91 -7.29 2.49
17.04 -6.94 2.49
16.46 -6.32 2.39
16.57 -5.99 2.39
16.68 -5.65 2.39
16.77 -5.31 2.39
16.87 -4.97 2.39
16.95 -4.63 2.39
17.03 -4.29 2.39
17.10 -3.94 2.39
17.16 -3.59 2.39
17.22 -3.25 2.39
16.25 -2.73 2.25
17.30 -2.55 2.39
16.33 -2.07 2.25
16.26 -1.73 2.24
16.25 -1.40 2.24
16.22 -1.07 2.23
16.15 -0.74 2.22
16.17 -0.42 2.22
16.14 -0.09 2.22
16.23 0.23 2.23
16.41 0.56 2.26
16.66 0.91 2.30
16.19 1.21 2.24
15.91 1.51 2.21
15.63 1.80 2.18
15.37 2.08 2.15
15.11 2.36 2.12
14.65 2.59 2.06
12.90 2.54 1.83
14.37 3.14 2.04
14.03 3.36 2.01
13.84 3.61 1.99
13.59 3.84 1.97
13.36 4.06 1.95
13.14 4.29 1.93
12.94 4.51 1.92
12.77 4.74 1.91
12.61 4.97 1.90
12.44 5.19 1.89
12.24 5.40 1.88
12.04 5.61 1.87
11.85 5.81 1.86
11.66 6.01 1.85
11.56 6.25 1.85
11.37 6.45 1.84
11.19 6.64 1.84
11.00 6.84 1.83
10.82 7.03 1.83
10.57 7.17 1.81
10.39 7.36 1.81
10.21 7.55 1.80
10.04 7.73 1.80
12.00 9.64 2.19
11.88 9.94 2.21
11.68 10.17 2.21
11.47 10.41 2.21
11.26 10.63 2.21
11.05 10.86 2.22
10.83 11.08 2.22
10.60 11.30 2.22
2.58 2.86 0.55
10.15 11.72 2.23
9.91 11.92 2.23
9.67 12.12 2.23
9.43 12.32 2.23
9.67 13.17 2.36
9.40 13.35 2.36
9.20 13.65 2.38
7.41 11.48 1.98
7.17 11.63 1.98
7.06 11.98 2.01
7.00 12.43 2.07
6.90 12.86 2.12
6.78 13.26 2.16
6.74 13.86 2.24
6.76 14.65 2.35
6.63 15.15 2.41
6.27 15.16 2.39
5.96 15.27 2.39
5.65 15.38 2.39
5.34 15.47 2.39
5.02 15.57 2.39
4.70 15.65 2.39
4.38 15.73 2.39
4.06 15.80 2.39
3.74 15.87 2.39
3.34 15.57 2.34
3.02 15.58 2.33
2.77 16.03 2.39
2.45 16.07 2.39
2.22 16.80 2.49
1.88 16.83 2.49
1.54 16.86 2.49
1.20 16.87 2.49
0.86 16.88 2.49
0.52 16.89 2.49
0.18 16.88 2.49
-0.16 16.87 2.49
-0.50 16.86 2.49
-0.84 16.84 2.49
-1.17 16.81 2.49
-1.51 16.77 2.49
-1.85 16.73 2.49
-2.18 16.68 2.49
-2.52 16.63 2.49
-2.85 16.57 2.49
-3.18 16.50 2.49
-3.51 16.43 2.49
-3.84 16.35 2.49
-4.16 16.26 2.49
-4.49 16.17 2.49
-4.81 16.07 2.49
-5.13 15.97 2.49
-5.45 15.86 2.49
-5.66 15.46 2.45
-5.83 14.97 2.39
-6.12 14.85 2.39
-6.42 14.72 2.39
-6.71 14.58 2.39
-7.00 14.44 2.39
-7.29 14.30 2.39
-7.58 14.15 2.39
-7.86 13.99 2.39
-8.14 13.83 2.39
-8.41 13.66 2.39
-8.69 13.49 2.39
-6.32 9.39 1.69
-9.22 13.13 2.39
-9.48 12.94 2.39
-9.74 12.75 2.39
-9.53 11.02 2.17
-9.57 10.63 2.13
-9.55 10.19 2.08
-9.62 9.86 2.05
-9.63 9.48 2.01
-9.64 9.12 1.98
-9.65 8.77 1.94
-9.66 8.43 1.91
-9.67 8.10 1.88
-9.68 7.78 1.85
-9.69 7.48 1.82
-9.70 7.18 1.79
-9.71 6.89 1.77
-9.72 6.60 1.74
-9.67 6.29 1.71
-9.73 6.06 1.70
-9.74 5.79 1.68
-9.75 5.54 1.66
-9.76 5.28 1.64
-9.76 5.04 1.63
-9.77 4.79 1.61
-9.78 4.56 1.60
-9.78 4.32 1.58
-9.79 4.09 1.57
-9.80 3.87 1.56
-9.80 3.64 1.54
-9.81 3.42 1.53
-9.82 3.20 1.52
-9.82 2.99 1.51
-9.83 2.78 1.50
-9.84 2.57 1.50
-9.84 2.36 1.49
-9.85 2.15 1.48
-9.85 1.95 1.48
-9.86 1.74 1.47
-9.87 1.54 1.46
-9.87 1.34 1.46
-9.88 1.14 1.46
-9.88 0.94 1.45
-9.89 0.74 1.45
-9.90 0.54 1.45
-9.90 0.34 1.45
-9.91 0.14 1.45
-9.91 -0.06 1.45
-9.92 -0.26 1.45
-9.93 -0.46 1.45
-9.93 -0.66 1.45
-9.94 -0.86 1.45
-9.94 -1.06 1.45
-9.95 -1.26 1.45
-9.96 -1.47 1.46
-9.94 -1.67 1.46
-9.97 -1.88 1.47
-9.97 -2.09 1.47
-9.98 -2.30 1.48
-9.99 -2.52 1.49
-9.99 -2.73 1.49
-10.00 -2.95 1.50
-10.01 -3.17 1.51
-10.01 -3.40 1.52
-10.02 -3.63 1.53
-10.03 -3.86 1.54
-10.03 -4.09 1.55
-10.04 -4.33 1.56
-10.05 -4.58 1.58
-10.05 -4.83 1.59
-10.06 -5.08 1.61
-10.07 -5.34 1.62
-10.08 -5.61 1.64
-10.09 -5.88 1.66
-10.09 -6.16 1.68
-10.10 -6.45 1.70
-10.11 -6.74 1.72
-10.12 -7.05 1.75
-10.13 -7.36 1.77
-10.14 -7.68 1.80
-10.15 -8.02 1.83
-10.16 -8.36 1.86
-10.17 -8.72 1.89
-10.18 -9.09 1.92
-10.19 -9.47 1.96
-8.09 -7.83 1.58
-7.92 -7.98 1.58
-7.93 -8.32 1.61
-10.23 -11.16 2.12
-10.20 -11.59 2.16
-10.24 -12.12 2.22
-10.54 -13.54 2.39
-10.26 -13.75 2.39
-10.01 -13.98 2.39
-9.73 -14.19 2.39
-9.46 -14.40 2.39
-9.18 -14.60 2.39
-6.77 -11.27 1.82
-6.47 -11.28 1.80
-6.51 -11.89 1.87
-6.53 -12.52 1.95
-6.53 -13.15 2.03
-6.74 -14.29 2.18
-6.89 -15.39 2.32
-6.79 -16.03 2.40
-6.59 -16.48 2.44
-6.40 -16.99 2.49
-6.07 -17.13 2.49
-5.73 -17.26 2.49
-5.38 -17.39 2.49
-5.04 -17.50 2.49
-4.69 -17.62 2.49
-4.34 -17.72 2.49
-3.99 -17.82 2.49
-3.63 -17.91 2.49
-3.27 -17.99 2.49
-2.91 -18.07 2.49
-2.55 -18.14 2.49
-2.19 -18.20 2.49
-1.83 -18.25 2.49
-1.46 -18.29 2.49
-1.09 -18.33 2.49
-0.73 -18.36 2.49
-0.36 -18.39 2.49
0.01 -15.73 2.49
0.33 -15.74 2.49
0.64 -15.73 2.49
0.96 -15.73 2.49
1.27 -15.71 2.49
1.59 -15.69 2.49
1.90 -15.66 2.49
2.22 -15.63 2.49
2.53 -15.58 2.49
2.85 -15.54 2.49
3.16 -15.48 2.49
3.47 -15.42 2.49
3.78 -15.35 2.49
4.09 -15.28 2.49
4.37 -15.11 2.48
4.65 -14.94 2.47
4.92 -14.78 2.45
5.21 -14.65 2.45
5.51 -14.57 2.45
5.81 -14.49 2.46
6.12 -14.40 2.46
6.42 -14.32 2.47
6.74 -14.25 2.48
7.06 -14.19 2.49
7.35 -14.05 2.49
7.63 -13.90 2.49
7.91 -13.74 2.49
8.18 -13.58 2.49
8.45 -13.42 2.49
8.72 -13.24 2.49
8.98 -13.07 2.49
9.24 -12.88 2.49
9.50 -12.70 2.49
9.75 -12.50 2.49
10.00 -12.30 2.49
10.24 -12.10 2.49
10.48 -11.89 2.49
10.72 -11.68 2.49
10.95 -11.46 2.49
11.17 -11.23 2.49
11.39 -11.01 2.49
11.61 -10.77 2.49
11.82 -10.54 2.49
12.03 -10.29 2.49
12.23 -10.05 2.49
12.42 -9.80 2.49
12.61 -9.54 2.49
12.80 -9.29 2.49
12.98 -9.02 2.49
8.37 -5.58 1.59
13.32 -8.49 2.49
13.48 -8.22 2.49
13.64 -7.94 2.49
13.79 -7.67 2.49
13.93 -7.38 2.49
14.07 -7.10 2.49
14.21 -6.81 2.49
13.74 -6.25 2.39
13.86 -5.97 2.39
13.97 -5.69 2.39
14.07 -5.41 2.39
14.17 -5.12 2.39
14.26 -4.83 2.39
14.35 -4.55 2.39
14.43 -4.25 2.39
14.50 -3.96 2.39
14.57 -3.67 2.39
14.63 -3.37 2.39
14.68 -3.08 2.39
14.73 -2.78 2.39
14.77 -2.48 2.39
15.37 -2.27 2.48
15.12 -1.92 2.44
14.97 -1.60 2.41
14.98 -1.30 2.41
15.00 -0.99 2.41
15.00 -0.69 2.41
15.00 -0.39 2.41
14.99 -0.09 2.41
14.98 0.21 2.41
14.97 0.51 2.41
14.45 0.78 2.33
14.14 1.05 2.28
13.83 1.31 2.24
13.57 1.56 2.20
13.36 1.81 2.18
13.14 2.05 2.15
12.87 2.27 2.11
12.66 2.50 2.09
12.45 2.72 2.06
12.25 2.93 2.04
12.05 3.14 2.02
11.89 3.35 2.01
11.81 3.59 2.01
11.73 3.82 2.01
11.44 3.98 1.97
11.55 4.28 2.01
11.78 4.64 2.07
12.00 5.01 2.12
11.90 5.25 2.13
11.80 5.49 2.13
11.68 5.72 2.13
11.55 5.95 2.13
11.42 6.17 2.13
11.28 6.39 2.13
11.11 6.60 2.12
10.93 6.79 2.12
10.75 6.98 2.11
10.57 7.17 2.10
10.39 7.36 2.10
10.22 7.55 2.10
10.04 7.73 2.09
10.55 8.46 2.24
10.35 8.66 2.23
10.18 8.86 2.24
10.00 9.06 2.24
9.81 9.26 2.24
9.63 9.46 2.24
9.43 9.65 2.24
9.24 9.84 2.25
2.58 2.86 0.64
8.86 10.22 2.25
8.66 10.41 2.26
8.46 10.59 2.26
8.25 10.77 2.27
8.05 10.96 2.27
7.86 11.17 2.29
8.04 11.92 2.41
7.41 11.48 2.29
7.18 11.62 2.29
7.06 11.97 2.33
7.00 12.43 2.40
6.77 12.61 2.41
6.51 12.73 2.41
6.21 12.77 2.39
5.95 12.88 2.39
5.68 12.99 2.39
5.42 13.09 2.39
5.15 13.19 2.39
4.88 13.28 2.39
4.61 13.36 2.39
4.34 13.44 2.39
