ply
format ascii 1.0
element vertex 2817
property float32 x
property float32 y
property float32 z
end_header
25.40 14.44 1.34
25.51 15.19 1.36
24.25 15.10 1.31
23.03 14.99 1.26
22.66 15.41 1.26
22.62 16.06 1.27
22.59 16.72 1.29
22.55 17.41 1.31
22.17 17.84 1.31
21.80 18.27 1.31
24.29 21.20 1.48
24.32 22.10 1.51
24.35 23.04 1.55
24.39 24.02 1.58
24.42 25.04 1.62
24.46 26.10 1.65
24.47 27.18 1.69
24.53 28.38 1.74
24.36 29.36 1.77
23.90 30.01 1.78
21.46 28.08 1.64
20.93 28.55 1.65
20.39 29.03 1.65
21.63 32.15 1.81
19.94 30.96 1.72
19.09 30.99 1.70
18.26 31.01 1.68
17.45 31.04 1.67
16.65 31.07 1.65
15.87 31.09 1.64
15.10 31.12 1.63
14.35 31.15 1.61
13.61 31.17 1.60
13.55 32.81 1.68
13.52 34.71 1.76
13.53 36.90 1.86
12.05 35.03 1.76
13.15 40.87 2.04
12.42 41.43 2.06
12.38 44.53 2.20
11.43 44.56 2.20
11.25 47.81 2.35
9.47 48.98 2.39
8.47 49.08 2.39
7.46 49.10 2.39
6.46 49.15 2.39
5.46 49.18 2.39
4.47 49.19 2.39
-4.37 48.38 2.39
-4.58 41.37 2.05
-6.28 47.98 2.39
-7.23 47.75 2.39
-9.02 46.79 2.37
-9.40 43.98 2.24
-10.02 42.66 2.19
-10.55 41.22 2.13
-11.02 39.69 2.06
-11.43 38.18 2.00
-11.73 36.51 1.93
-11.15 32.46 1.73
-11.07 30.22 1.62
-11.27 28.95 1.57
-11.46 27.77 1.52
-11.60 26.60 1.47
-11.79 25.62 1.43
-11.93 24.62 1.39
-11.97 23.47 1.35
-12.03 22.46 1.30
-12.14 21.62 1.27
-12.24 20.82 1.24
-12.33 20.03 1.21
-12.42 19.29 1.18
-12.52 18.62 1.16
-12.68 18.06 1.14
-12.84 17.53 1.13
-12.96 16.97 1.11
-13.06 16.41 1.09
-13.12 15.82 1.07
-13.21 15.30 1.06
-13.32 14.81 1.04
-13.39 14.30 1.03
-13.41 13.76 1.01
-13.47 13.27 0.99
-13.52 12.80 0.98
-13.58 12.35 0.97
-13.64 11.91 0.96
-13.65 11.45 0.94
-13.66 11.00 0.93
-13.67 10.56 0.92
-13.73 10.17 0.91
-13.78 9.78 0.90
-13.79 9.39 0.89
-13.81 9.00 0.88
-13.83 8.62 0.87
-13.84 8.25 0.86
-13.86 7.89 0.86
-13.91 7.55 0.85
-13.96 7.21 0.85
-14.00 6.88 0.84
-14.05 6.56 0.84
-14.06 6.22 0.83
-14.06 5.89 0.83
-14.07 5.56 0.82
-14.07 5.24 0.81
-14.07 4.92 0.81
-14.07 4.61 0.81
-14.07 4.29 0.80
-14.04 3.98 0.80
-14.00 3.67 0.79
-13.97 3.36 0.79
-13.93 3.06 0.78
-13.90 2.76 0.78
-13.86 2.46 0.77
-13.78 2.16 0.77
-13.67 1.87 0.76
-13.56 1.57 0.75
-13.45 1.29 0.74
-13.37 1.01 0.74
-13.30 0.74 0.73
-13.23 0.47 0.73
-13.15 0.20 0.73
-13.07 -0.06 0.72
-12.98 -0.32 0.72
-12.90 -0.58 0.71
-5.99 -0.39 0.33
-5.99 -0.51 0.33
-12.65 -1.34 0.71
-12.58 -1.59 0.70
-12.53 -1.84 0.70
-12.48 -2.09 0.70
-12.43 -2.33 0.70
-12.38 -2.58 0.70
-12.33 -2.83 0.70
-12.28 -3.08 0.70
-12.23 -3.33 0.70
-12.18 -3.58 0.71
-12.13 -3.83 0.71
-12.11 -4.10 0.71
-12.09 -4.36 0.71
-12.09 -4.64 0.72
-12.09 -4.92 0.73
-12.09 -5.20 0.73
-12.09 -5.50 0.74
-12.09 -5.79 0.75
-12.06 -6.08 0.75
-12.02 -6.36 0.76
-11.98 -6.65 0.76
-11.95 -6.95 0.77
-11.92 -7.26 0.78
-11.88 -7.57 0.78
-11.85 -7.89 0.79
-11.84 -8.23 0.80
-11.82 -8.57 0.81
-11.81 -8.93 0.82
-11.78 -9.29 0.83
-11.75 -9.65 0.84
-11.72 -10.03 0.85
-11.72 -10.44 0.87
-11.72 -10.87 0.88
-11.73 -11.33 0.90
-11.74 -11.81 0.92
-11.75 -12.29 0.94
-11.75 -12.80 0.96
-11.76 -13.34 0.98
-11.80 -13.94 1.01
-11.80 -14.52 1.03
-11.79 -15.12 1.05
-11.78 -15.75 1.08
-11.87 -16.55 1.12
-12.03 -17.51 1.17
-12.14 -18.44 1.21
-12.21 -19.39 1.25
-12.25 -20.35 1.30
-12.25 -21.31 1.34
-12.24 -22.32 1.39
-12.20 -23.35 1.44
-12.22 -24.56 1.49
-12.28 -25.99 1.56
-12.68 -28.30 1.68
-12.87 -30.33 1.79
-12.82 -31.97 1.87
-12.59 -33.33 1.93
-12.40 -34.95 2.00
-12.23 -36.77 2.09
-11.98 -38.62 2.18
-12.39 -42.94 2.40
-12.29 -46.06 2.56
-10.62 -43.27 2.39
-9.76 -43.54 2.39
-8.90 -43.79 2.39
-8.03 -44.03 2.39
-7.16 -44.25 2.39
-6.55 -46.37 2.49
-5.63 -46.57 2.49
-4.70 -46.75 2.49
-3.76 -46.91 2.49
-2.83 -47.06 2.49
-1.88 -47.18 2.49
-0.94 -47.29 2.49
0.01 -33.14 2.49
0.68 -33.17 2.49
1.34 -33.20 2.49
1.93 -31.83 2.39
2.57 -31.82 2.39
2.20 -21.79 1.64
3.86 -31.78 2.39
4.50 -31.73 2.39
5.14 -31.68 2.39
5.79 -31.65 2.39
6.43 -31.57 2.39
7.08 -31.47 2.39
7.72 -31.37 2.39
8.36 -31.25 2.39
8.99 -31.11 2.39
9.63 -30.97 2.39
10.26 -30.81 2.39
10.89 -30.64 2.39
11.52 -30.45 2.39
12.15 -30.26 2.39
12.77 -30.05 2.39
13.39 -29.82 2.39
14.00 -29.59 2.39
14.44 -28.99 2.36
14.52 -27.75 2.28
14.56 -26.51 2.20
14.57 -25.31 2.12
14.55 -24.15 2.05
14.59 -23.14 1.98
14.57 -22.12 1.92
14.54 -21.14 1.86
14.55 -20.27 1.80
14.54 -19.42 1.75
14.65 -18.77 1.72
14.85 -18.26 1.69
15.11 -17.84 1.68
15.37 -17.42 1.67
15.63 -17.01 1.66
15.88 -16.60 1.64
16.13 -16.20 1.63
15.27 -14.73 1.52
15.50 -14.37 1.51
15.73 -14.00 1.50
15.95 -13.64 1.49
16.18 -13.28 1.49
16.40 -12.92 1.48
16.62 -12.56 1.48
16.85 -12.21 1.47
17.07 -11.85 1.47
17.29 -11.50 1.47
17.51 -11.14 1.46
17.73 -10.79 1.46
17.95 -10.44 1.46
18.17 -10.08 1.46
18.39 -9.73 1.46
18.61 -9.37 1.46
18.83 -9.01 1.46
19.06 -8.65 1.47
19.28 -8.29 1.47
19.51 -7.93 1.47
19.73 -7.57 1.47
19.96 -7.20 1.48
20.19 -6.83 1.48
32.80 -10.36 2.39
33.03 -9.71 2.39
33.25 -9.05 2.39
33.45 -8.39 2.39
32.56 -7.47 2.32
33.20 -6.92 2.35
33.45 -6.28 2.36
34.12 -5.70 2.39
34.26 -5.02 2.39
34.38 -4.33 2.39
34.48 -3.64 2.39
34.57 -2.95 2.39
34.65 -2.26 2.39
34.71 -1.56 2.39
34.75 -0.87 2.39
34.78 -0.17 2.39
34.80 0.53 2.39
34.80 1.23 2.39
34.78 1.93 2.39
34.76 2.63 2.39
34.71 3.32 2.39
34.65 4.02 2.39
34.58 4.72 2.39
34.49 5.41 2.39
34.38 6.11 2.39
34.27 6.80 2.39
32.78 7.19 2.30
28.02 6.74 1.97
28.04 7.34 1.98
24.05 6.81 1.71
24.07 7.34 1.72
24.09 7.88 1.73
23.80 8.32 1.72
24.12 8.98 1.76
24.12 9.53 1.77
24.13 10.10 1.79
24.18 10.70 1.81
24.18 11.28 1.83
24.20 11.89 1.84
24.24 12.52 1.87
24.26 13.15 1.89
25.40 14.43 2.00
25.51 15.18 2.03
24.25 15.10 1.96
23.03 14.99 1.88
22.17 15.07 1.84
22.13 15.71 1.86
22.10 16.36 1.88
22.06 17.03 1.91
22.17 17.84 1.95
21.81 18.27 1.95
24.29 21.20 2.21
24.32 22.10 2.26
24.35 23.04 2.30
24.39 24.01 2.35
24.30 24.91 2.39
23.78 25.37 2.39
23.25 25.83 2.39
22.71 26.28 2.39
22.17 26.71 2.39
21.61 27.13 2.39
21.05 27.54 2.39
20.48 27.94 2.39
19.90 28.32 2.39
19.31 28.69 2.39
14.97 23.24 1.91
18.11 29.40 2.39
17.51 29.73 2.39
14.92 26.54 2.11
16.27 30.36 2.39
15.64 30.65 2.39
15.01 30.93 2.39
14.35 31.15 2.39
13.61 31.17 2.37
13.09 31.68 2.39
12.44 31.91 2.39
9.28 25.31 1.89
8.78 25.52 1.89
10.46 32.50 2.39
9.80 32.66 2.39
9.13 32.82 2.39
8.46 32.96 2.39
7.79 33.08 2.39
7.10 33.16 2.39
6.43 33.26 2.39
5.76 33.34 2.39
5.08 33.41 2.39
4.40 33.47 2.39
3.73 33.51 2.39
3.18 34.98 2.49
2.47 34.99 2.49
1.77 34.99 2.49
1.06 34.98 2.49
0.36 34.95 2.49
-0.34 34.90 2.49
-1.04 34.84 2.49
-1.73 34.77 2.49
-2.43 34.69 2.49
-3.12 34.58 2.49
-3.81 34.47 2.49
-4.38 33.47 2.43
-4.96 32.78 2.39
-5.61 32.63 2.39
-6.26 32.47 2.39
-6.90 32.30 2.39
-7.53 32.11 2.39
-8.17 31.91 2.39
-9.40 33.87 2.55
-9.67 32.33 2.46
-9.82 30.56 2.34
-9.93 28.91 2.23
-10.20 27.87 2.17
-10.44 26.83 2.11
-10.61 25.72 2.04
-10.83 24.83 1.99
-10.97 23.83 1.93
-11.04 22.77 1.86
-11.13 21.83 1.80
-11.31 21.13 1.77
-11.46 20.42 1.73
-11.60 19.73 1.69
-11.77 19.12 1.66
-11.93 18.54 1.63
-12.12 18.03 1.61
-12.28 17.50 1.59
-12.44 16.99 1.57
-12.55 16.44 1.54
-12.62 15.86 1.51
-12.68 15.30 1.49
-12.78 14.81 1.46
-12.86 14.31 1.44
-12.90 13.78 1.42
-12.93 13.27 1.39
-12.99 12.80 1.37
-13.05 12.36 1.35
-13.12 11.93 1.34
-13.18 11.51 1.32
-13.21 11.08 1.30
-13.23 10.65 1.28
-13.28 10.26 1.27
-13.34 9.89 1.26
-13.41 9.52 1.25
-13.43 9.14 1.23
-13.45 8.76 1.22
-13.47 8.40 1.21
-13.49 8.03 1.20
-13.50 7.68 1.19
-13.54 7.35 1.18
-13.59 7.02 1.17
-13.64 6.71 1.16
-13.68 6.39 1.16
-13.68 6.06 1.15
-13.68 5.73 1.14
-13.68 5.41 1.13
-13.69 5.10 1.12
-13.69 4.79 1.12
-13.70 4.48 1.11
-13.68 4.18 1.10
-13.66 3.87 1.10
-13.63 3.57 1.09
-13.60 3.27 1.08
-13.57 2.98 1.07
-13.54 2.69 1.07
-13.51 2.40 1.06
-13.41 2.11 1.05
-13.31 1.82 1.04
-13.21 1.53 1.03
-13.11 1.26 1.02
-13.01 0.98 1.01
-12.92 0.72 1.01
-12.84 0.45 1.00
-12.77 0.19 0.99
-12.69 -0.06 0.99
-12.61 -0.31 0.98
-12.54 -0.57 0.98
-5.99 -0.39 0.47
-5.99 -0.51 0.47
-12.34 -1.30 0.97
-12.28 -1.55 0.97
-12.21 -1.79 0.96
-12.19 -2.04 0.97
-12.16 -2.28 0.97
-12.11 -2.53 0.97
-12.06 -2.77 0.97
-12.01 -3.01 0.97
-11.96 -3.26 0.97
-11.91 -3.50 0.97
-11.85 -3.75 0.97
-11.83 -4.00 0.98
-11.81 -4.26 0.98
-11.79 -4.52 0.99
-11.77 -4.79 0.99
-11.77 -5.07 1.00
-11.76 -5.35 1.01
-11.76 -5.63 1.02
-11.75 -5.92 1.03
-11.71 -6.20 1.04
-11.67 -6.48 1.04
-11.63 -6.77 1.05
-11.58 -7.06 1.06
-11.55 -7.36 1.07
-11.51 -7.66 1.08
-11.48 -7.98 1.09
-11.46 -8.31 1.11
-11.44 -8.65 1.12
-11.43 -9.01 1.14
-11.41 -9.37 1.15
-11.37 -9.73 1.17
-11.34 -10.11 1.18
-11.34 -10.52 1.21
-11.33 -10.94 1.23
-11.32 -11.38 1.25
-11.32 -11.85 1.28
-11.32 -12.33 1.30
-11.31 -12.83 1.33
-11.30 -13.35 1.36
-11.30 -13.90 1.39
-11.29 -14.48 1.43
-11.27 -15.07 1.46
-11.25 -15.69 1.50
-11.31 -16.46 1.55
-11.46 -17.42 1.61
-11.56 -18.37 1.68
-11.61 -19.29 1.74
-11.64 -20.25 1.80
-11.62 -21.19 1.87
-11.59 -22.18 1.93
-11.53 -23.18 2.00
-11.47 -24.28 2.07
-11.51 -25.67 2.16
-11.66 -27.48 2.29
-11.70 -29.19 2.41
-11.58 -30.65 2.51
-10.43 -29.39 2.39
-9.85 -29.62 2.39
-9.26 -29.84 2.39
-8.67 -30.05 2.39
-8.07 -30.25 2.39
-7.47 -30.44 2.39
-6.86 -30.62 2.39
-6.52 -32.11 2.49
-5.88 -32.27 2.49
-5.24 -32.42 2.49
-4.59 -32.55 2.49
-3.94 -32.67 2.49
-3.29 -32.78 2.49
-2.64 -32.88 2.49
-1.98 -32.96 2.49
-1.32 -33.04 2.49
-0.65 -33.10 2.49
0.01 -25.46 2.49
0.52 -25.48 2.49
1.04 -25.49 2.49
1.55 -25.49 2.49
1.98 -24.42 2.39
2.20 -21.79 2.13
2.96 -24.37 2.39
3.45 -24.33 2.39
3.94 -24.28 2.39
4.44 -24.22 2.39
4.93 -24.15 2.39
5.42 -24.07 2.39
5.91 -24.01 2.39
6.40 -23.91 2.39
6.88 -23.81 2.39
7.37 -23.69 2.39
7.85 -23.56 2.39
8.33 -23.42 2.39
8.81 -23.27 2.39
9.28 -23.11 2.39
9.75 -22.95 2.39
10.22 -22.77 2.39
10.69 -22.58 2.39
11.15 -22.39 2.39
11.61 -22.18 2.39
12.07 -21.97 2.39
12.52 -21.74 2.39
12.97 -21.51 2.39
13.41 -21.27 2.39
13.85 -21.02 2.39
14.28 -20.75 2.39
14.55 -20.27 2.37
14.54 -19.41 2.30
14.65 -18.77 2.26
14.85 -18.26 2.23
15.12 -17.84 2.21
15.37 -17.42 2.19
15.63 -17.01 2.18
15.88 -16.60 2.17
16.13 -16.20 2.15
15.27 -14.73 2.00
15.50 -14.36 1.99
15.73 -14.00 1.98
15.95 -13.64 1.97
16.18 -13.28 1.96
16.40 -12.92 1.95
16.62 -12.56 1.95
16.85 -12.20 1.94
17.07 -11.85 1.94
17.29 -11.49 1.94
17.51 -11.14 1.93
17.73 -10.79 1.93
17.95 -10.43 1.93
18.17 -10.08 1.93
18.39 -9.73 1.93
18.61 -9.37 1.93
18.83 -9.01 1.94
19.06 -8.65 1.94
19.28 -8.29 1.94
19.51 -7.93 1.95
19.74 -7.56 1.95
19.96 -7.20 1.96
20.20 -6.83 1.97
24.74 -7.81 2.39
24.91 -7.32 2.39
25.07 -6.82 2.39
25.21 -6.32 2.39
25.35 -5.82 2.39
25.48 -5.31 2.39
25.60 -4.80 2.39
25.70 -4.29 2.39
25.80 -3.78 2.39
25.88 -3.26 2.39
25.96 -2.74 2.39
26.02 -2.22 2.39
26.07 -1.70 2.39
26.11 -1.18 2.39
26.14 -0.65 2.39
26.16 -0.13 2.39
26.17 0.40 2.39
26.17 0.92 2.39
26.16 1.45 2.39
26.13 1.97 2.39
26.09 2.50 2.39
26.05 3.02 2.39
25.99 3.55 2.39
25.92 4.07 2.39
25.84 4.59 2.39
25.75 5.11 2.39
25.65 5.62 2.39
25.53 6.14 2.39
25.41 6.65 2.39
24.05 6.81 2.28
24.07 7.34 2.29
24.09 7.88 2.31
23.83 8.33 2.30
24.12 8.98 2.34
24.13 9.54 2.36
24.15 10.11 2.38
24.03 10.63 2.39
23.81 11.11 2.39
23.58 11.59 2.39
23.35 12.06 2.39
23.10 12.52 2.39
22.84 12.98 2.39
22.57 13.44 2.39
22.29 13.88 2.39
22.01 14.32 2.39
21.71 14.76 2.39
21.40 15.19 2.39
21.09 15.61 2.39
20.77 16.03 2.39
20.44 16.44 2.39
20.10 16.84 2.39
19.75 17.23 2.39
19.39 17.62 2.39
19.03 18.00 2.39
18.65 18.37 2.39
18.27 18.73 2.39
14.97 15.97 2.00
14.39 15.99 1.97
14.15 16.37 1.98
16.68 20.10 2.39
16.27 20.42 2.39
14.78 19.33 2.23
14.25 19.44 2.21
14.99 21.33 2.39
14.55 21.61 2.39
14.10 21.89 2.39
13.65 22.15 2.39
13.20 22.41 2.39
12.74 22.65 2.39
12.27 22.89 2.39
11.80 23.11 2.39
11.33 23.33 2.39
10.85 23.54 2.39
10.37 23.73 2.39
9.88 23.92 2.39
9.39 24.09 2.39
8.90 24.26 2.39
6.62 19.22 1.88
6.23 19.34 1.88
5.90 19.68 1.91
6.90 24.78 2.39
6.39 24.90 2.39
5.89 25.00 2.39
5.38 25.09 2.39
3.68 19.02 1.81
4.36 25.24 2.39
3.85 25.30 2.39
3.42 26.00 2.45
2.95 26.48 2.49
2.41 26.51 2.49
1.88 26.53 2.49
1.34 26.54 2.49
0.81 26.53 2.49
0.28 26.52 2.49
-0.25 26.49 2.49
-0.79 26.46 2.49
-1.31 26.41 2.49
-1.84 26.35 2.49
-2.37 26.28 2.49
-2.89 26.21 2.49
-3.42 26.12 2.49
-3.93 26.02 2.49
-4.45 25.91 2.49
-4.76 24.72 2.39
-5.25 24.59 2.39
-5.74 24.46 2.39
-6.22 24.31 2.39
-6.70 24.16 2.39
-7.18 23.99 2.39
-7.65 23.82 2.39
-8.12 23.64 2.39
-8.58 23.44 2.39
-9.63 24.76 2.55
-9.85 23.89 2.48
-9.99 22.91 2.40
-10.11 21.97 2.33
-10.22 21.10 2.26
-10.38 20.37 2.20
-10.47 19.57 2.14
-10.60 18.89 2.09
-10.76 18.30 2.05
-10.89 17.69 2.01
-11.13 17.30 1.99
-11.45 17.04 1.99
-11.77 16.78 1.99
-12.06 16.47 1.98
-12.13 15.90 1.94
-12.21 15.34 1.91
-12.28 14.81 1.87
-12.36 14.31 1.84
-12.40 13.79 1.81
-12.44 13.29 1.78
-12.48 12.80 1.75
-12.54 12.37 1.72
-12.62 11.95 1.70
-12.69 11.54 1.68
-12.75 11.14 1.66
-12.79 10.73 1.64
-12.83 10.33 1.62
-12.91 9.97 1.61
-12.98 9.62 1.59
-13.05 9.27 1.58
-13.08 8.90 1.56
-13.11 8.54 1.54
-13.13 8.18 1.53
-13.15 7.83 1.51
-13.17 7.49 1.50
-13.19 7.16 1.49
-13.24 6.84 1.48
-13.29 6.53 1.47
-13.31 6.22 1.46
-13.31 5.89 1.45
-13.31 5.58 1.44
-13.31 5.27 1.43
-13.32 4.96 1.42
-13.33 4.66 1.41
-13.34 4.37 1.40
-13.32 4.07 1.39
-13.30 3.77 1.38
-13.27 3.48 1.37
-13.25 3.19 1.36
-13.23 2.90 1.35
-13.20 2.62 1.35
-13.17 2.34 1.34
-13.07 2.05 1.33
-12.97 1.77 1.31
-12.88 1.50 1.30
-12.78 1.23 1.29
-12.69 0.96 1.28
-12.60 0.70 1.27
-12.49 0.44 1.26
-12.41 0.19 1.25
-12.36 -0.06 1.24
-12.30 -0.31 1.24
-12.23 -0.55 1.23
-5.99 -0.39 0.60
-5.99 -0.51 0.61
-12.04 -1.27 1.22
-11.98 -1.51 1.22
-11.92 -1.75 1.21
-11.89 -1.99 1.21
-11.86 -2.23 1.22
-11.83 -2.47 1.22
-11.80 -2.71 1.22
-11.75 -2.95 1.22
-11.70 -3.19 1.22
-11.65 -3.42 1.22
-11.59 -3.66 1.23
-11.56 -3.91 1.23
-11.54 -4.16 1.24
-11.51 -4.42 1.24
-11.49 -4.68 1.25
-11.47 -4.94 1.26
-11.45 -5.21 1.27
-11.45 -5.48 1.28
-11.44 -5.77 1.29
-11.41 -6.04 1.30
-11.37 -6.31 1.31
-11.33 -6.59 1.32
-11.28 -6.87 1.33
-11.24 -7.16 1.34
-11.19 -7.45 1.36
-11.15 -7.75 1.37
-11.12 -8.06 1.38
-11.10 -8.39 1.40
-11.08 -8.73 1.42
-11.05 -9.08 1.44
-11.03 -9.43 1.46
-11.00 -9.80 1.48
-10.98 -10.18 1.51
-10.96 -10.59 1.53
-10.95 -11.01 1.56
-10.93 -11.44 1.59
-10.89 -11.87 1.62
-10.85 -12.31 1.65
-10.81 -12.78 1.68
-10.77 -13.26 1.71
-10.73 -13.76 1.75
-10.68 -14.28 1.79
-10.63 -14.82 1.83
-10.57 -15.39 1.87
-10.51 -15.98 1.91
-10.42 -16.55 1.96
-10.62 -17.64 2.06
-10.62 -18.47 2.13
-10.54 -19.21 2.19
-10.52 -20.14 2.27
-10.30 -20.72 2.31
-10.07 -21.31 2.35
-9.81 -21.90 2.39
-9.38 -22.10 2.39
-8.94 -22.30 2.39
-8.49 -22.50 2.39
-8.05 -22.68 2.39
-7.59 -22.85 2.39
-7.14 -23.02 2.39
-6.68 -23.17 2.39
-6.29 -23.59 2.42
-6.00 -24.47 2.49
-5.51 -24.61 2.49
-5.02 -24.73 2.49
-4.53 -24.85 2.49
-4.03 -24.96 2.49
-3.53 -25.06 2.49
-3.03 -25.14 2.49
-2.53 -25.22 2.49
-2.02 -25.29 2.49
-1.52 -25.35 2.49
-1.01 -25.40 2.49
-0.50 -25.43 2.49
0.01 -20.66 2.49
0.43 -20.67 2.49
0.84 -20.67 2.49
1.26 -20.67 2.49
1.67 -20.65 2.49
2.00 -19.78 2.39
2.40 -19.75 2.39
2.80 -19.71 2.39
3.20 -19.67 2.39
3.59 -19.62 2.39
3.99 -19.56 2.39
4.39 -19.49 2.39
4.78 -19.41 2.39
5.17 -19.33 2.39
5.57 -19.24 2.39
5.96 -19.16 2.39
6.35 -19.05 2.39
6.74 -18.94 2.39
7.12 -18.82 2.39
7.51 -18.68 2.39
7.89 -18.55 2.39
8.26 -18.40 2.39
8.64 -18.24 2.39
9.01 -18.08 2.39
9.38 -17.91 2.39
9.75 -17.74 2.39
10.11 -17.55 2.39
10.47 -17.36 2.39
10.82 -17.16 2.39
11.17 -16.95 2.39
11.52 -16.74 2.39
11.86 -16.52 2.39
12.20 -16.29 2.39
12.54 -16.06 2.39
12.87 -15.81 2.39
13.19 -15.57 2.39
13.51 -15.31 2.39
13.83 -15.05 2.39
14.14 -14.78 2.39
14.45 -14.50 2.39
14.75 -14.22 2.39
15.04 -13.93 2.39
15.33 -13.64 2.39
15.61 -13.34 2.39
15.89 -13.03 2.39
16.16 -12.72 2.39
16.42 -12.40 2.39
16.68 -12.08 2.39
16.93 -11.75 2.39
17.18 -11.42 2.39
17.41 -11.08 2.39
17.65 -10.74 2.39
17.87 -10.38 2.39
18.08 -10.03 2.39
18.29 -9.67 2.39
18.50 -9.31 2.39
18.69 -8.94 2.39
18.88 -8.57 2.39
19.06 -8.20 2.39
19.23 -7.82 2.39
19.40 -7.43 2.39
19.55 -7.05 2.39
19.70 -6.66 2.39
19.84 -6.26 2.39
19.98 -5.87 2.39
20.10 -5.47 2.39
20.22 -5.07 2.39
20.32 -4.66 2.39
20.42 -4.26 2.39
20.52 -3.85 2.39
20.60 -3.44 2.39
20.67 -3.02 2.39
20.74 -2.61 2.39
20.80 -2.19 2.39
20.84 -1.78 2.39
20.88 -1.36 2.39
20.91 -0.94 2.39
20.94 -0.52 2.39
20.95 -0.10 2.39
20.96 0.32 2.39
20.95 0.74 2.39
20.94 1.16 2.39
20.92 1.58 2.39
20.89 2.00 2.39
20.85 2.42 2.39
20.80 2.84 2.39
20.74 3.26 2.39
20.68 3.67 2.39
20.60 4.09 2.39
20.52 4.50 2.39
20.43 4.91 2.39
20.33 5.32 2.39
20.22 5.73 2.39
20.11 6.13 2.39
19.98 6.54 2.39
19.85 6.94 2.39
19.70 7.33 2.39
19.55 7.73 2.39
19.39 8.12 2.39
19.23 8.51 2.39
19.05 8.89 2.39
18.87 9.27 2.39
18.68 9.65 2.39
18.48 10.02 2.39
14.93 8.49 1.96
14.91 8.87 1.98
14.29 8.90 1.92
17.61 11.46 2.39
17.37 11.81 2.39
17.13 12.16 2.39
16.88 12.49 2.39
16.62 12.83 2.39
16.36 13.16 2.39
14.70 12.32 2.19
14.14 12.34 2.14
14.03 12.74 2.16
15.23 14.41 2.39
14.94 14.71 2.39
14.63 15.00 2.39
14.32 15.28 2.39
14.01 15.56 2.39
13.69 15.83 2.39
13.36 16.10 2.39
13.03 16.36 2.39
12.70 16.61 2.39
12.36 16.85 2.39
12.01 17.09 2.39
11.66 17.32 2.39
11.30 17.54 2.39
10.94 17.76 2.39
10.58 17.96 2.39
10.21 18.16 2.39
9.84 18.35 2.39
9.47 18.54 2.39
9.09 18.71 2.39
8.70 18.88 2.39
8.32 19.04 2.39
7.93 19.19 2.39
5.94 15.23 1.88
7.14 19.45 2.39
6.74 19.58 2.39
6.34 19.69 2.39
5.94 19.80 2.39
5.54 19.91 2.39
5.14 20.00 2.39
4.73 20.09 2.39
4.32 20.16 2.39
3.92 20.23 2.39
3.51 20.29 2.39
3.23 21.22 2.49
2.80 21.26 2.49
2.37 21.30 2.49
1.94 21.33 2.49
1.51 21.35 2.49
1.08 21.36 2.49
0.65 21.36 2.49
0.23 21.35 2.49
-0.20 21.33 2.49
-0.63 21.31 2.49
-1.06 21.27 2.49
-1.48 21.23 2.49
-1.91 21.18 2.49
-2.33 21.12 2.49
-2.75 21.05 2.49
-3.17 20.98 2.49
-3.59 20.89 2.49
-4.00 20.80 2.49
-4.42 20.70 2.49
-4.81 20.52 2.49
-5.02 19.62 2.39
-5.41 19.50 2.39
-5.79 19.37 2.39
-6.17 19.23 2.39
-6.55 19.09 2.39
-6.93 18.94 2.39
-7.30 18.78 2.39
-7.67 18.61 2.39
-8.04 18.44 2.39
-8.40 18.26 2.39
-8.75 18.07 2.39
-9.19 18.04 2.41
-9.42 17.60 2.38
-9.67 17.24 2.36
-9.92 16.87 2.34
-10.12 16.46 2.31
-10.33 16.06 2.28
-10.53 15.67 2.26
-10.72 15.28 2.24
-10.91 14.91 2.22
-11.10 14.55 2.20
-11.26 14.16 2.17
-11.41 13.77 2.15
-11.52 13.35 2.12
-11.63 12.94 2.09
-11.73 12.53 2.07
-11.92 12.24 2.06
-12.07 11.90 2.05
-12.21 11.56 2.03
-12.28 11.17 2.01
-12.35 10.79 1.98
-12.41 10.41 1.96
-12.48 10.05 1.94
-12.56 9.70 1.92
-12.63 9.36 1.91
-12.70 9.02 1.89
-12.75 8.68 1.87
-12.78 8.33 1.85
-12.80 7.98 1.83
-12.82 7.64 1.82
-12.84 7.31 1.80
-12.86 6.98 1.78
-12.91 6.67 1.77
-12.95 6.37 1.76
-12.96 6.05 1.75
-12.96 5.74 1.73
-12.97 5.44 1.72
-12.97 5.13 1.71
-12.98 4.84 1.69
-12.99 4.54 1.68
-12.99 4.25 1.67
-12.97 3.96 1.66
-12.95 3.67 1.65
-12.93 3.39 1.64
-12.91 3.11 1.63
-12.90 2.83 1.62
-12.87 2.56 1.61
-12.83 2.28 1.60
-12.74 2.00 1.59
-12.65 1.73 1.57
-12.56 1.46 1.56
-12.45 1.19 1.54
-12.34 0.93 1.52
-12.23 0.68 1.51
-12.13 0.43 1.50
-12.05 0.18 1.49
-12.02 -0.06 1.48
-12.00 -0.30 1.48
-11.94 -0.54 1.48
-5.99 -0.39 0.74
-5.99 -0.51 0.74
-11.76 -1.24 1.46
-11.70 -1.47 1.46
-11.64 -1.70 1.45
-11.60 -1.94 1.45
-11.57 -2.17 1.46
-11.54 -2.41 1.46
-11.52 -2.64 1.46
-11.49 -2.88 1.46
-11.45 -3.12 1.47
-11.40 -3.35 1.47
-11.35 -3.59 1.47
-11.29 -3.82 1.48
-11.27 -4.07 1.48
-11.25 -4.32 1.49
-11.23 -4.57 1.50
-11.21 -4.82 1.51
-11.18 -5.08 1.52
-11.16 -5.34 1.53
-11.14 -5.61 1.54
-11.13 -5.89 1.56
-11.09 -6.16 1.57
-11.04 -6.43 1.58
-11.00 -6.70 1.59
-10.95 -6.98 1.61
-10.90 -7.26 1.62
-10.85 -7.54 1.63
-10.80 -7.83 1.65
-10.75 -8.13 1.67
-10.71 -8.45 1.69
-10.67 -8.77 1.71
-10.63 -9.10 1.73
-10.59 -9.44 1.75
-10.54 -9.78 1.78
-10.49 -10.13 1.80
-10.43 -10.49 1.83
-10.40 -10.88 1.86
-10.35 -11.28 1.89
-10.31 -11.70 1.92
-10.26 -12.12 1.96
-10.19 -12.54 1.99
-10.12 -12.98 2.03
-10.06 -13.46 2.07
-10.00 -13.95 2.11
-9.93 -14.46 2.16
-9.86 -14.99 2.21
-9.78 -15.54 2.26
-9.70 -16.12 2.31
-9.59 -16.68 2.36
-9.37 -17.09 2.39
-9.03 -17.28 2.39
-8.68 -17.47 2.39
-8.33 -17.65 2.39
-7.98 -17.82 2.39
-7.63 -17.99 2.39
-7.27 -18.15 2.39
-6.91 -18.30 2.39
-6.54 -18.45 2.39
-6.17 -18.58 2.39
-6.05 -19.52 2.49
-5.66 -19.65 2.49
-5.27 -19.78 2.49
-4.88 -19.89 2.49
-4.48 -20.00 2.49
-4.08 -20.10 2.49
-3.68 -20.19 2.49
-3.27 -20.27 2.49
-2.87 -20.35 2.49
-2.46 -20.42 2.49
-2.05 -20.48 2.49
-1.64 -20.53 2.49
-1.23 -20.57 2.49
-0.82 -20.61 2.49
-0.40 -20.64 2.49
0.01 -17.36 2.49
0.36 -17.37 2.49
0.71 -17.37 2.49
1.06 -17.36 2.49
1.41 -17.35 2.49
1.76 -17.33 2.49
2.02 -16.59 2.39
2.35 -16.55 2.39
2.69 -16.51 2.39
3.02 -16.47 2.39
3.35 -16.42 2.39
3.68 -16.36 2.39
4.01 -16.29 2.39
4.34 -16.22 2.39
4.67 -16.14 2.39
5.00 -16.05 2.39
5.32 -15.96 2.39
5.65 -15.86 2.39
5.97 -15.76 2.39
6.30 -15.67 2.39
6.61 -15.55 2.39
6.93 -15.42 2.39
7.24 -15.29 2.39
7.55 -15.15 2.39
7.86 -15.01 2.39
8.17 -14.86 2.39
8.47 -14.70 2.39
8.77 -14.54 2.39
9.06 -14.37 2.39
9.36 -14.20 2.39
9.65 -14.01 2.39
9.93 -13.83 2.39
10.22 -13.64 2.39
10.50 -13.44 2.39
10.77 -13.23 2.39
11.04 -13.02 2.39
11.31 -12.81 2.39
11.57 -12.59 2.39
11.83 -12.36 2.39
12.08 -12.13 2.39
12.33 -11.89 2.39
12.58 -11.65 2.39
12.82 -11.40 2.39
13.05 -11.15 2.39
13.28 -10.89 2.39
13.50 -10.63 2.39
13.72 -10.36 2.39
13.93 -10.09 2.39
14.14 -9.81 2.39
14.35 -9.53 2.39
14.54 -9.25 2.39
14.73 -8.96 2.39
14.92 -8.67 2.39
15.10 -8.37 2.39
15.27 -8.07 2.39
15.44 -7.77 2.39
15.60 -7.46 2.39
15.76 -7.15 2.39
15.90 -6.84 2.39
16.05 -6.52 2.39
16.18 -6.20 2.39
16.31 -5.88 2.39
16.43 -5.55 2.39
16.55 -5.22 2.39
16.66 -4.89 2.39
16.76 -4.56 2.39
16.86 -4.22 2.39
16.95 -3.89 2.39
17.03 -3.55 2.39
17.10 -3.21 2.39
17.17 -2.86 2.39
17.23 -2.52 2.39
17.28 -2.17 2.39
17.33 -1.83 2.39
17.37 -1.48 2.39
17.40 -1.13 2.39
17.43 -0.78 2.39
17.44 -0.43 2.39
17.46 -0.08 2.39
17.46 0.27 2.39
17.45 0.62 2.39
17.44 0.97 2.39
17.42 1.32 2.39
17.40 1.67 2.39
17.36 2.02 2.39
17.32 2.36 2.39
17.28 2.71 2.39
17.22 3.06 2.39
17.16 3.40 2.39
17.09 3.75 2.39
17.01 4.09 2.39
16.93 4.43 2.39
16.84 4.77 2.39
16.74 5.11 2.39
16.64 5.44 2.39
16.53 5.78 2.39
16.41 6.11 2.39
16.28 6.44 2.39
16.15 6.76 2.39
16.01 7.08 2.39
15.86 7.40 2.39
15.71 7.72 2.39
15.55 8.03 2.39
15.39 8.34 2.39
15.22 8.65 2.39
14.34 8.53 2.28
13.89 8.65 2.24
14.66 9.55 2.39
14.47 9.84 2.39
14.27 10.12 2.39
14.06 10.41 2.39
13.84 10.68 2.39
13.62 10.96 2.39
13.40 11.23 2.39
13.17 11.49 2.39
12.93 11.75 2.39
12.69 12.00 2.39
12.44 12.25 2.39
12.19 12.50 2.39
11.94 12.73 2.39
11.67 12.97 2.39
9.19 10.63 1.93
11.14 13.42 2.39
10.86 13.63 2.39
10.58 13.84 2.39
8.62 11.75 2.00
10.01 14.25 2.39
9.72 14.44 2.39
9.42 14.62 2.39
9.13 14.80 2.39
8.82 14.98 2.39
8.52 15.14 2.39
8.21 15.31 2.39
7.90 15.46 2.39
7.58 15.61 2.39
7.26 15.75 2.39
6.93 15.87 2.39
6.61 15.99 2.39
6.29 16.12 2.39
5.96 16.23 2.39
5.63 16.34 2.39
5.30 16.44 2.39
4.96 16.53 2.39
4.63 16.62 2.39
4.29 16.70 2.39
3.95 16.77 2.39
3.61 16.84 2.39
3.27 16.90 2.39
3.06 17.68 2.49
2.70 17.73 2.49
2.34 17.77 2.49
1.98 17.80 2.49
1.63 17.82 2.49
1.27 17.84 2.49
0.91 17.85 2.49
0.55 17.85 2.49
0.19 17.85 2.49
-0.17 17.84 2.49
-0.53 17.82 2.49
-0.88 17.79 2.49
-1.24 17.76 2.49
-1.59 17.72 2.49
-1.95 17.67 2.49
-2.30 17.62 2.49
-2.65 17.56 2.49
-3.00 17.49 2.49
-3.35 17.41 2.49
-3.70 17.33 2.49
-4.04 17.24 2.49
-4.38 17.14 2.49
-4.72 17.04 2.49
-4.94 16.55 2.44
-5.17 16.12 2.39
-5.49 16.00 2.39
-5.81 15.87 2.39
-6.12 15.74 2.39
-6.43 15.61 2.39
-6.74 15.46 2.39
-7.04 15.31 2.39
-7.34 15.16 2.39
-7.64 15.00 2.39
-7.93 14.83 2.39
-8.22 14.66 2.39
-8.51 14.48 2.39
-8.79 14.30 2.39
-9.23 14.35 2.43
-9.48 14.11 2.42
-9.70 13.83 2.41
-9.87 13.49 2.39
-10.04 13.16 2.37
-10.20 12.82 2.34
-10.34 12.48 2.32
-10.53 12.21 2.31
-10.74 11.95 2.30
-10.95 11.70 2.30
-11.15 11.45 2.29
-11.30 11.15 2.28
-11.44 10.84 2.26
-11.57 10.53 2.25
-11.70 10.22 2.23
-11.83 9.92 2.22
-11.99 9.66 2.22
-12.15 9.39 2.21
-12.30 9.12 2.21
-12.37 8.79 2.19
-12.43 8.46 2.17
-12.46 8.12 2.15
-12.49 7.79 2.13
-12.51 7.46 2.11
-12.53 7.13 2.09
-12.56 6.82 2.07
-12.59 6.51 2.05
-12.61 6.21 2.04
-12.62 5.90 2.02
-12.63 5.60 2.00
-12.64 5.30 1.99
-12.64 5.00 1.98
-12.65 4.72 1.96
-12.66 4.43 1.95
-12.65 4.14 1.94
-12.64 3.86 1.92
-12.62 3.58 1.91
-12.61 3.30 1.90
-12.59 3.03 1.89
-12.57 2.76 1.88
-12.56 2.49 1.87
-12.51 2.23 1.85
-12.40 1.95 1.83
-12.30 1.68 1.81
-12.19 1.42 1.79
-12.09 1.16 1.77
-11.98 0.91 1.76
-11.88 0.66 1.74
-11.78 0.42 1.72
-11.71 0.18 1.71
-11.68 -0.06 1.71
-11.66 -0.29 1.71
-11.63 -0.52 1.70
-5.99 -0.39 0.88
-5.99 -0.51 0.88
-11.49 -1.21 1.69
-11.43 -1.44 1.69
-11.37 -1.66 1.68
-11.33 -1.89 1.68
-11.30 -2.12 1.68
-11.27 -2.35 1.69
-11.24 -2.58 1.69
-11.21 -2.81 1.69
-11.18 -3.04 1.70
-11.15 -3.28 1.70
-11.11 -3.51 1.71
-11.06 -3.74 1.71
-11.02 -3.98 1.72
-11.00 -4.22 1.73
-10.98 -4.47 1.74
-10.95 -4.71 1.75
-10.93 -4.97 1.76
-10.90 -5.22 1.77
-10.87 -5.48 1.79
-10.85 -5.74 1.80
-10.81 -6.01 1.81
-10.77 -6.27 1.83
-10.70 -6.52 1.84
-10.64 -6.78 1.85
-10.57 -7.03 1.86
-10.50 -7.29 1.87
-10.42 -7.56 1.89
-10.35 -7.83 1.90
-10.30 -8.12 1.92
-10.27 -8.43 1.95
-10.22 -8.75 1.97
-10.18 -9.07 2.00
-10.13 -9.40 2.02
-10.08 -9.73 2.05
-10.02 -10.07 2.08
-9.95 -10.42 2.11
-9.88 -10.77 2.14
-9.81 -11.13 2.17
-9.76 -11.53 2.21
-9.70 -11.94 2.25
-9.63 -12.35 2.29
-9.55 -12.77 2.33
-9.46 -13.20 2.37
-9.28 -13.51 2.39
-9.01 -13.69 2.39
-8.73 -13.88 2.39
-8.46 -14.06 2.39
-8.18 -14.23 2.39
-7.89 -14.40 2.39
-7.60 -14.56 2.39
-7.31 -14.71 2.39
-7.02 -14.86 2.39
-6.72 -15.01 2.39
-6.42 -15.15 2.39
-6.12 -15.28 2.39
-6.03 -15.98 2.48
-5.74 -16.20 2.49
-5.42 -16.32 2.49
-5.09 -16.44 2.49
-4.77 -16.54 2.49
-4.44 -16.65 2.49
-4.10 -16.74 2.49
-3.77 -16.83 2.49
-3.43 -16.91 2.49
-3.09 -16.99 2.49
-2.75 -17.05 2.49
-2.41 -17.12 2.49
-2.07 -17.17 2.49
-1.72 -17.22 2.49
-1.38 -17.26 2.49
-1.03 -17.30 2.49
-0.69 -17.33 2.49
-0.34 -17.35 2.49
0.01 -14.96 2.49
0.31 -14.96 2.49
0.61 -14.96 2.49
0.91 -14.96 2.49
1.21 -14.94 2.49
1.51 -14.93 2.49
1.82 -14.90 2.49
2.07 -14.54 2.44
2.31 -14.22 2.39
2.60 -14.18 2.39
2.89 -14.13 2.39
3.17 -14.08 2.39
3.46 -14.02 2.39
3.74 -13.96 2.39
4.02 -13.89 2.39
4.30 -13.81 2.39
4.58 -13.73 2.39
4.86 -13.65 2.39
5.13 -13.55 2.39
5.41 -13.46 2.39
5.68 -13.35 2.39
5.95 -13.24 2.39
6.23 -13.15 2.39
6.50 -13.03 2.39
6.76 -12.90 2.39
7.02 -12.77 2.39
7.28 -12.64 2.39
7.54 -12.50 2.39
7.79 -12.35 2.39
8.04 -12.20 2.39
8.29 -12.04 2.39
8.54 -11.88 2.39
8.78 -11.71 2.39
9.02 -11.54 2.39
9.25 -11.36 2.39
9.48 -11.18 2.39
9.71 -11.00 2.39
9.94 -10.81 2.39
10.16 -10.61 2.39
10.37 -10.41 2.39
10.59 -10.20 2.39
10.79 -10.00 2.39
11.00 -9.78 2.39
11.20 -9.57 2.39
11.39 -9.34 2.39
11.59 -9.12 2.39
11.77 -8.89 2.39
11.96 -8.66 2.39
12.13 -8.42 2.39
12.31 -8.18 2.39
12.47 -7.93 2.39
12.64 -7.69 2.39
12.80 -7.43 2.39
12.95 -7.18 2.39
13.10 -6.92 2.39
13.24 -6.66 2.39
13.38 -6.40 2.39
13.51 -6.13 2.39
13.63 -5.86 2.39
13.76 -5.59 2.39
13.87 -5.31 2.39
13.98 -5.04 2.39
14.08 -4.76 2.39
14.18 -4.47 2.39
14.28 -4.19 2.39
14.36 -3.91 2.39
14.44 -3.62 2.39
14.52 -3.33 2.39
14.59 -3.04 2.39
14.65 -2.75 2.39
14.71 -2.45 2.39
14.76 -2.16 2.39
14.80 -1.86 2.39
14.84 -1.56 2.39
14.88 -1.27 2.39
14.90 -0.97 2.39
14.92 -0.67 2.39
14.94 -0.37 2.39
14.95 -0.07 2.39
14.95 0.23 2.39
14.94 0.53 2.39
14.93 0.83 2.39
14.92 1.13 2.39
14.89 1.43 2.39
14.87 1.73 2.39
14.83 2.02 2.39
14.79 2.32 2.39
14.74 2.62 2.39
14.69 2.91 2.39
14.63 3.21 2.39
14.56 3.50 2.39
14.49 3.79 2.39
14.41 4.08 2.39
14.33 4.37 2.39
14.24 4.66 2.39
14.14 4.94 2.39
14.04 5.23 2.39
13.94 5.51 2.39
13.82 5.79 2.39
13.70 6.06 2.39
13.58 6.34 2.39
13.45 6.61 2.39
13.31 6.87 2.39
13.17 7.14 2.39
13.02 7.40 2.39
12.87 7.66 2.39
12.72 7.92 2.39
12.55 8.17 2.39
12.38 8.42 2.39
12.21 8.66 2.39
12.03 8.91 2.39
11.85 9.14 2.39
11.66 9.38 2.39
11.47 9.61 2.39
11.27 9.84 2.39
11.07 10.06 2.39
10.87 10.28 2.39
10.65 10.49 2.39
10.44 10.70 2.39
10.22 10.90 2.39
10.00 11.10 2.39
9.77 11.30 2.39
9.54 11.49 2.39
9.30 11.67 2.39
9.06 11.85 2.39
8.62 11.75 2.34
8.58 12.20 2.39
6.57 9.76 1.89
6.36 9.86 1.88
6.16 9.99 1.88
5.96 10.11 1.89
5.75 10.22 1.88
5.57 10.39 1.90
5.41 10.60 1.91
6.49 13.36 2.39
6.22 13.48 2.39
5.94 13.60 2.39
5.67 13.71 2.39
5.39 13.81 2.39
5.11 13.91 2.39
4.83 14.01 2.39
4.54 14.09 2.39
4.26 14.17 2.39
3.97 14.25 2.39
3.68 14.32 2.39
3.39 14.38 2.39
3.10 14.44 2.39
2.93 15.12 2.49
2.62 15.17 2.49
2.32 15.21 2.49
2.01 15.24 2.49
1.70 15.27 2.49
1.40 15.30 2.49
1.09 15.31 2.49
0.78 15.32 2.49
0.47 15.33 2.49
0.17 15.32 2.49
-0.14 15.32 2.49
-0.45 15.30 2.49
-0.76 15.28 2.49
-1.06 15.25 2.49
-1.37 15.22 2.49
-1.67 15.18 2.49
-1.97 15.13 2.49
-2.28 15.08 2.49
-2.58 15.02 2.49
-2.88 14.96 2.49
-3.17 14.89 2.49
-3.47 14.82 2.49
-3.76 14.73 2.49
-4.06 14.65 2.49
-4.35 14.55 2.49
-4.64 14.45 2.49
-4.92 14.35 2.49
-5.04 13.79 2.42
-5.26 13.54 2.39
-5.53 13.42 2.39
-5.79 13.30 2.39
-6.05 13.17 2.39
-6.31 13.04 2.39
-6.57 12.90 2.39
-6.82 12.76 2.39
-7.07 12.61 2.39
-7.32 12.46 2.39
-7.57 12.31 2.39
-7.81 12.14 2.39
-8.04 11.98 2.39
-8.28 11.81 2.39
-8.51 11.63 2.39
-8.73 11.45 2.39
-8.96 11.27 2.39
-9.59 11.58 2.50
-9.83 11.39 2.50
-10.06 11.20 2.51
-10.28 10.99 2.51
-10.47 10.76 2.50
-10.62 10.48 2.49
-10.75 10.19 2.47
-10.88 9.90 2.45
-11.00 9.62 2.44
-11.12 9.34 2.43
-11.27 9.08 2.42
-11.42 8.83 2.41
-11.57 8.58 2.41
-11.71 8.32 2.40
-11.81 8.04 2.39
-11.88 7.75 2.38
-11.94 7.45 2.36
-11.99 7.15 2.34
-12.04 6.85 2.32
-12.09 6.56 2.31
-12.14 6.28 2.30
-12.18 5.99 2.28
-12.19 5.70 2.26
-12.20 5.41 2.24
-12.21 5.12 2.23
-12.22 4.84 2.21
-12.23 4.56 2.20
-12.23 4.28 2.18
-12.22 4.01 2.17
-12.19 3.73 2.15
-12.16 3.45 2.13
-12.13 3.18 2.12
-12.10 2.91 2.10
-12.06 2.65 2.09
-12.03 2.39 2.07
-12.01 2.14 2.06
-11.99 1.89 2.05
-11.94 1.63 2.04
-11.84 1.38 2.02
-11.74 1.13 1.99
-11.64 0.88 1.98
-11.55 0.64 1.96
-11.45 0.41 1.94
-11.38 0.18 1.93
-11.36 -0.05 1.92
-11.33 -0.28 1.92
-11.31 -0.51 1.92
-5.99 -0.39 1.02
-5.99 -0.51 1.02
-11.23 -1.18 1.91
-11.17 -1.41 1.91
-11.11 -1.63 1.90
-11.06 -1.85 1.90
-11.03 -2.07 1.90
-11.01 -2.30 1.91
-10.98 -2.52 1.91
-10.95 -2.75 1.92
-10.92 -2.97 1.92
-10.89 -3.20 1.93
-10.85 -3.43 1.93
-10.82 -3.66 1.94
-10.78 -3.89 1.95
-10.76 -4.13 1.96
-10.73 -4.37 1.97
-10.70 -4.61 1.98
-10.65 -4.84 1.99
-10.60 -5.08 2.00
-10.54 -5.31 2.00
-10.49 -5.55 2.01
-10.43 -5.79 2.03
-10.39 -6.05 2.04
-10.35 -6.31 2.06
-10.28 -6.55 2.07
-10.22 -6.80 2.08
-10.14 -7.05 2.10
-10.07 -7.30 2.11
-10.00 -7.56 2.13
-9.92 -7.82 2.14
-9.86 -8.10 2.16
-9.82 -8.41 2.19
-9.78 -8.72 2.22
-9.74 -9.04 2.25
-9.68 -9.36 2.28
-9.63 -9.68 2.31
-9.57 -10.01 2.35
-9.49 -10.35 2.38
-9.34 -10.60 2.39
-9.12 -10.78 2.39
-8.91 -10.97 2.39
-8.69 -11.15 2.39
-8.47 -11.32 2.39
-8.24 -11.49 2.39
-8.01 -11.66 2.39
-7.78 -11.82 2.39
-7.54 -11.98 2.39
-7.30 -12.13 2.39
-7.06 -12.28 2.39
-6.81 -12.43 2.39
-6.56 -12.57 2.39
-6.31 -12.70 2.39
-6.06 -12.83 2.39
-5.94 -13.26 2.45
-5.78 -13.64 2.49
-5.51 -13.76 2.49
-5.23 -13.87 2.49
-4.96 -13.98 2.49
-4.68 -14.08 2.49
-4.39 -14.18 2.49
-4.11 -14.27 2.49
-3.82 -14.36 2.49
-3.54 -14.44 2.49
-3.25 -14.51 2.49
-2.96 -14.58 2.49
-2.67 -14.65 2.49
-2.37 -14.71 2.49
-2.08 -14.76 2.49
-1.78 -14.80 2.49
-1.48 -14.84 2.49
-1.19 -14.88 2.49
-0.89 -14.91 2.49
-0.59 -14.93 2.49
-0.29 -14.95 2.49
0.01 -13.13 2.49
0.27 -13.13 2.49
0.54 -13.13 2.49
0.80 -13.12 2.49
1.07 -13.11 2.49
1.33 -13.09 2.49
1.59 -13.07 2.49
1.86 -13.04 2.49
2.12 -13.01 2.49
2.28 -12.44 2.39
2.53 -12.39 2.39
2.78 -12.35 2.39
3.03 -12.30 2.39
3.28 -12.24 2.39
3.53 -12.18 2.39
3.77 -12.11 2.39
4.02 -12.04 2.39
4.26 -11.96 2.39
4.50 -11.88 2.39
4.74 -11.79 2.39
4.98 -11.70 2.39
5.22 -11.61 2.39
5.45 -11.51 2.39
5.69 -11.40 2.39
5.92 -11.29 2.39
6.15 -11.18 2.39
6.38 -11.07 2.39
6.60 -10.95 2.39
6.83 -10.82 2.39
7.05 -10.68 2.39
7.26 -10.55 2.39
7.48 -10.40 2.39
7.69 -10.25 2.39
7.90 -10.10 2.39
8.10 -9.95 2.39
8.30 -9.79 2.39
8.50 -9.62 2.39
8.70 -9.46 2.39
8.89 -9.29 2.39
9.08 -9.11 2.39
9.27 -8.93 2.39
9.45 -8.75 2.39
9.63 -8.56 2.39
9.80 -8.37 2.39
9.97 -8.17 2.39
10.14 -7.98 2.39
10.30 -7.78 2.39
10.46 -7.57 2.39
10.61 -7.36 2.39
10.77 -7.15 2.39
10.91 -6.94 2.39
11.05 -6.72 2.39
11.19 -6.50 2.39
11.32 -6.28 2.39
11.45 -6.05 2.39
11.58 -5.82 2.39
11.70 -5.59 2.39
11.81 -5.36 2.39
11.92 -5.12 2.39
12.03 -4.88 2.39
12.13 -4.64 2.39
12.22 -4.40 2.39
12.31 -4.16 2.39
12.40 -3.91 2.39
12.48 -3.66 2.39
12.55 -3.41 2.39
12.62 -3.16 2.39
12.69 -2.91 2.39
12.75 -2.65 2.39
12.80 -2.40 2.39
12.85 -2.14 2.39
12.90 -1.88 2.39
12.93 -1.63 2.39
12.97 -1.37 2.39
13.00 -1.11 2.39
13.02 -0.85 2.39
13.04 -0.58 2.39
13.05 -0.32 2.39
13.06 -0.06 2.39
13.06 0.20 2.39
13.05 0.46 2.39
13.04 0.72 2.39
13.03 0.99 2.39
13.01 1.25 2.39
12.98 1.51 2.39
12.95 1.77 2.39
12.92 2.03 2.39
12.87 2.29 2.39
12.83 2.55 2.39
12.78 2.80 2.39
12.72 3.06 2.39
12.65 3.31 2.39
12.59 3.57 2.39
12.51 3.82 2.39
12.44 4.07 2.39
12.35 4.32 2.39
12.26 4.56 2.39
12.17 4.81 2.39
12.07 5.05 2.39
11.97 5.29 2.39
11.86 5.53 2.39
11.74 5.77 2.39
11.63 6.00 2.39
11.50 6.24 2.39
11.37 6.46 2.39
11.24 6.69 2.39
11.10 6.91 2.39
10.96 7.13 2.39
10.82 7.35 2.39
10.67 7.57 2.39
10.51 7.78 2.39
10.35 7.99 2.39
10.19 8.19 2.39
10.02 8.39 2.39
9.85 8.59 2.39
9.67 8.78 2.39
9.49 8.98 2.39
9.31 9.16 2.39
9.12 9.34 2.39
8.93 9.52 2.39
8.73 9.70 2.39
8.54 9.87 2.39
8.33 10.04 2.39
8.13 10.20 2.39
7.92 10.36 2.39
7.71 10.51 2.39
7.49 10.66 2.39
7.28 10.81 2.39
7.06 10.95 2.39
6.83 11.07 2.39
6.60 11.20 2.39
6.37 11.33 2.39
6.14 11.45 2.39
5.91 11.56 2.39
5.67 11.68 2.39
5.44 11.78 2.39
5.20 11.89 2.39
4.96 11.98 2.39
4.71 12.08 2.39
4.47 12.16 2.39
4.22 12.25 2.39
3.97 12.32 2.39
3.72 12.39 2.39
3.47 12.46 2.39
3.22 12.52 2.39
2.99 12.66 2.41
2.83 13.18 2.49
2.56 13.22 2.49
2.30 13.27 2.49
2.03 13.30 2.49
1.76 13.34 2.49
1.49 13.36 2.49
1.22 13.38 2.49
0.95 13.40 2.49
0.68 13.41 2.49
0.42 13.41 2.49
0.15 13.41 2.49
-0.12 13.40 2.49
-0.39 13.39 2.49
-0.66 13.38 2.49
-0.93 13.35 2.49
-1.20 13.32 2.49
-1.46 13.29 2.49
-1.73 13.25 2.49
-1.99 13.21 2.49
-2.26 13.16 2.49
-2.52 13.10 2.49
-2.78 13.04 2.49
-3.04 12.98 2.49
-3.30 12.91 2.49
-3.55 12.83 2.49
-3.81 12.75 2.49
-4.06 12.67 2.49
-4.31 12.57 2.49
-4.56 12.48 2.49
-4.81 12.38 2.49
-5.05 12.27 2.49
-5.11 11.74 2.41
-5.32 11.58 2.40
-5.53 11.43 2.39
-5.76 11.31 2.39
-5.98 11.19 2.39
-6.20 11.06 2.39
-6.42 10.93 2.39
-6.63 10.79 2.39
-6.84 10.65 2.39
-7.05 10.51 2.39
-7.26 10.36 2.39
-7.46 10.20 2.39
-7.66 10.05 2.39
-7.86 9.88 2.39
-8.05 9.72 2.39
-8.24 9.55 2.39
-8.42 9.38 2.39
-8.61 9.20 2.39
-8.79 9.02 2.39
-8.96 8.84 2.39
-9.13 8.66 2.39
-10.26 9.34 2.64
-10.38 9.08 2.62
-10.50 8.81 2.61
-10.63 8.56 2.60
-10.77 8.33 2.59
-10.87 8.06 2.58
-10.97 7.80 2.57
-11.06 7.54 2.55
-11.16 7.28 2.54
-11.22 7.00 2.53
-11.28 6.73 2.51
-11.33 6.45 2.49
-11.39 6.19 2.48
-11.46 5.93 2.47
-11.52 5.67 2.46
-11.57 5.41 2.44
-11.58 5.13 2.43
-11.60 4.86 2.41
-11.61 4.60 2.39
-11.62 4.33 2.38
-11.63 4.07 2.36
-11.63 3.81 2.35
-11.64 3.56 2.33
-11.62 3.30 2.32
-11.59 3.04 2.30
-11.57 2.79 2.28
-11.54 2.54 2.27
-11.51 2.29 2.25
-11.50 2.05 2.24
-11.48 1.81 2.23
-11.46 1.57 2.23
-11.45 1.33 2.22
-11.41 1.10 2.21
-11.32 0.86 2.18
-11.23 0.63 2.16
-11.14 0.40 2.15
-11.07 0.17 2.13
-11.05 -0.05 2.13
-11.03 -0.27 2.12
-11.00 -0.49 2.12
-5.99 -0.39 1.16
-5.99 -0.51 1.16
-10.93 -1.15 2.12
-10.90 -1.37 2.12
-10.86 -1.59 2.12
-10.81 -1.80 2.11
-10.78 -2.02 2.12
-10.75 -2.24 2.12
-10.73 -2.46 2.12
-10.70 -2.68 2.13
-10.67 -2.90 2.13
-10.61 -3.12 2.13
-10.55 -3.33 2.14
-10.49 -3.55 2.14
-10.43 -3.76 2.14
-10.38 -3.98 2.15
-10.35 -4.21 2.16
-10.30 -4.44 2.17
-10.25 -4.66 2.17
-10.20 -4.89 2.18
-10.15 -5.11 2.19
-10.09 -5.34 2.20
-10.03 -5.57 2.22
-9.97 -5.80 2.23
-9.93 -6.05 2.24
-9.89 -6.30 2.26
-9.85 -6.56 2.28
-9.80 -6.81 2.30
-9.74 -7.07 2.32
-9.67 -7.31 2.34
-9.59 -7.56 2.35
-9.51 -7.81 2.37
-9.42 -8.06 2.39
-9.26 -8.25 2.39
-9.09 -8.44 2.39
-8.92 -8.62 2.39
-8.75 -8.80 2.39
-8.57 -8.97 2.39
-8.39 -9.15 2.39
-8.21 -9.32 2.39
-8.02 -9.48 2.39
-7.83 -9.64 2.39
-7.64 -9.80 2.39
-7.44 -9.95 2.39
-7.24 -10.10 2.39
-7.04 -10.25 2.39
-6.83 -10.39 2.39
-6.63 -10.53 2.39
-6.41 -10.67 2.39
-6.20 -10.80 2.39
-5.98 -10.92 2.39
-5.87 -11.25 2.43
-5.78 -11.64 2.49
-5.55 -11.76 2.49
-5.32 -11.87 2.49
-5.08 -11.98 2.49
-4.84 -12.09 2.49
-4.60 -12.19 2.49
-4.35 -12.28 2.49
-4.11 -12.37 2.49
-3.86 -12.46 2.49
-3.61 -12.54 2.49
-3.36 -12.61 2.49
-3.11 -12.68 2.49
-2.85 -12.75 2.49
-2.60 -12.81 2.49
-2.34 -12.86 2.49
-2.08 -12.91 2.49
-1.82 -12.96 2.49
-1.56 -13.00 2.49
-1.30 -13.03 2.49
-1.04 -13.06 2.49
-0.78 -13.09 2.49
-0.52 -13.11 2.49
-0.25 -13.12 2.49
0.01 -11.69 2.49
0.25 -11.69 2.49
0.48 -11.69 2.49
0.72 -11.68 2.49
0.95 -11.67 2.49
1.19 -11.65 2.49
1.42 -11.63 2.49
1.65 -11.61 2.49
1.89 -11.58 2.49
2.12 -11.54 2.49
2.26 -11.03 2.39
2.48 -10.98 2.39
2.70 -10.94 2.39
2.92 -10.89 2.39
3.14 -10.83 2.39
3.36 -10.77 2.39
3.57 -10.71 2.39
3.79 -10.64 2.39
4.01 -10.57 2.39
4.22 -10.49 2.39
4.43 -10.41 2.39
4.64 -10.32 2.39
4.85 -10.23 2.39
5.06 -10.14 2.39
5.26 -10.04 2.39
5.46 -9.93 2.39
5.66 -9.83 2.39
5.86 -9.72 2.39
6.06 -9.60 2.39
6.25 -9.48 2.39
6.45 -9.37 2.39
6.64 -9.24 2.39
6.83 -9.11 2.39
7.02 -8.98 2.39
7.20 -8.84 2.39
7.38 -8.70 2.39
7.55 -8.55 2.39
7.73 -8.40 2.39
7.90 -8.25 2.39
8.07 -8.09 2.39
8.23 -7.93 2.39
8.39 -7.77 2.39
8.55 -7.60 2.39
8.70 -7.43 2.39
8.86 -7.26 2.39
9.00 -7.08 2.39
9.15 -6.90 2.39
9.29 -6.72 2.39
9.43 -6.54 2.39
9.56 -6.35 2.39
9.69 -6.16 2.39
9.81 -5.97 2.39
9.93 -5.77 2.39
10.05 -5.57 2.39
10.17 -5.37 2.39
10.28 -5.17 2.39
10.38 -4.96 2.39
10.48 -4.75 2.39
10.58 -4.55 2.39
10.67 -4.33 2.39
10.76 -4.12 2.39
10.84 -3.90 2.39
10.92 -3.69 2.39
11.00 -3.47 2.39
11.07 -3.25 2.39
11.14 -3.03 2.39
11.20 -2.80 2.39
11.26 -2.58 2.39
11.31 -2.35 2.39
11.36 -2.13 2.39
11.40 -1.90 2.39
11.44 -1.67 2.39
11.47 -1.44 2.39
11.50 -1.21 2.39
11.53 -0.98 2.39
11.55 -0.75 2.39
11.56 -0.52 2.39
11.57 -0.29 2.39
11.58 -0.05 2.39
11.58 0.18 2.39
11.58 0.41 2.39
11.57 0.64 2.39
11.55 0.88 2.39
11.54 1.11 2.39
11.51 1.34 2.39
11.49 1.57 2.39
11.45 1.80 2.39
11.42 2.03 2.39
11.37 2.26 2.39
11.33 2.49 2.39
11.28 2.71 2.39
11.22 2.94 2.39
11.16 3.16 2.39
11.10 3.39 2.39
11.03 3.61 2.39
10.95 3.83 2.39
10.87 4.05 2.39
10.79 4.26 2.39
10.70 4.48 2.39
10.61 4.69 2.39
10.51 4.91 2.39
10.41 5.12 2.39
10.31 5.32 2.39
10.20 5.53 2.39
10.09 5.73 2.39
9.97 5.93 2.39
9.85 6.13 2.39
9.72 6.33 2.39
9.59 6.52 2.39
9.46 6.71 2.39
9.32 6.90 2.39
9.18 7.08 2.39
9.03 7.26 2.39
8.88 7.44 2.39
8.73 7.62 2.39
8.58 7.79 2.39
8.42 7.96 2.39
8.25 8.13 2.39
8.09 8.29 2.39
7.92 8.45 2.39
7.75 8.60 2.39
7.57 8.75 2.39
7.39 8.90 2.39
7.21 9.05 2.39
7.03 9.19 2.39
6.83 9.31 2.39
6.64 9.45 2.39
6.45 9.57 2.39
6.25 9.70 2.39
6.06 9.82 2.39
5.86 9.94 2.39
5.65 10.05 2.39
5.45 10.16 2.39
5.24 10.26 2.39
5.03 10.36 2.39
4.82 10.46 2.39
4.61 10.55 2.39
4.40 10.63 2.39
4.18 10.72 2.39
3.97 10.79 2.39
3.75 10.87 2.39
3.53 10.94 2.39
3.31 11.00 2.39
3.08 11.06 2.39
2.94 11.41 2.45
2.75 11.65 2.49
2.51 11.70 2.49
2.28 11.74 2.49
2.04 11.78 2.49
1.80 11.81 2.49
1.56 11.84 2.49
1.33 11.86 2.49
1.09 11.88 2.49
0.85 11.90 2.49
0.61 11.91 2.49
0.37 11.91 2.49
0.13 11.91 2.49
-0.11 11.91 2.49
-0.35 11.90 2.49
-0.59 11.88 2.49
-0.82 11.86 2.49
-1.06 11.84 2.49
-1.30 11.81 2.49
-1.53 11.78 2.49
-1.77 11.74 2.49
-2.00 11.69 2.49
-2.24 11.64 2.49
-2.47 11.59 2.49
-2.70 11.53 2.49
-2.93 11.47 2.49
-3.16 11.41 2.49
-3.38 11.34 2.49
-3.61 11.26 2.49
-3.83 11.18 2.49
-4.05 11.09 2.49
-4.27 11.01 2.49
-4.49 10.91 2.49
-4.71 10.81 2.49
-4.92 10.71 2.49
-5.13 10.61 2.49
-5.16 10.15 2.41
-5.32 9.95 2.39
-5.51 9.84 2.39
-5.71 9.72 2.39
-5.90 9.60 2.39
-6.09 9.48 2.39
-6.27 9.35 2.39
-6.46 9.21 2.39
-6.64 9.08 2.39
-6.82 8.94 2.39
-6.99 8.80 2.39
-7.16 8.65 2.39
-7.33 8.50 2.39
-7.50 8.35 2.39
-7.66 8.19 2.39
-7.82 8.03 2.39
-7.98 7.87 2.39
-8.13 7.71 2.39
-8.28 7.54 2.39
-8.42 7.37 2.39
-8.57 7.19 2.39
-8.71 7.02 2.39
-8.84 6.84 2.39
-8.97 6.66 2.39
-9.10 6.47 2.39
-9.23 6.29 2.39
-10.49 6.85 2.68
-10.58 6.60 2.67
-10.64 6.35 2.66
-10.71 6.10 2.64
-10.78 5.86 2.63
-10.84 5.61 2.62
-10.91 5.37 2.61
-10.97 5.13 2.60
-11.02 4.89 2.59
-11.04 4.63 2.57
-11.05 4.38 2.56
-11.07 4.13 2.54
-11.08 3.88 2.53
-11.08 3.63 2.51
-11.09 3.39 2.50
-11.10 3.15 2.48
-11.10 2.91 2.47
-11.08 2.67 2.46
-11.05 2.43 2.44
-11.03 2.19 2.43
-11.02 1.96 2.41
-11.01 1.73 2.40
-11.00 1.51 2.40
-10.98 1.28 2.39
-10.96 1.05 2.38
-10.95 0.83 2.37
-10.92 0.61 2.36
-10.84 0.39 2.34
-10.77 0.17 2.33
-10.75 -0.05 2.32
-10.73 -0.27 2.32
-10.71 -0.48 2.32
-5.99 -0.39 1.30
-5.99 -0.51 1.30
-10.64 -1.12 2.31
-10.61 -1.33 2.31
-10.56 -1.54 2.31
-10.51 -1.75 2.30
-10.47 -1.96 2.31
-10.42 -2.17 2.30
-10.37 -2.38 2.30
-10.31 -2.59 2.30
-10.26 -2.79 2.30
-10.20 -3.00 2.30
-10.14 -3.20 2.30
-10.08 -3.41 2.30
-10.02 -3.62 2.31
-9.96 -3.82 2.31
-9.92 -4.04 2.32
-9.89 -4.26 2.33
-9.86 -4.48 2.34
-9.82 -4.71 2.36
-9.78 -4.93 2.37
-9.72 -5.15 2.38
-9.65 -5.36 2.39
-9.54 -5.56 2.39
-9.43 -5.75 2.39
-9.32 -5.93 2.39
-9.19 -6.12 2.39
-9.07 -6.31 2.39
-8.94 -6.49 2.39
-8.81 -6.67 2.39
-8.68 -6.84 2.39
-8.54 -7.02 2.39
-8.40 -7.19 2.39
-8.25 -7.36 2.39
-8.10 -7.52 2.39
-7.95 -7.68 2.39
-7.80 -7.84 2.39
-7.64 -8.00 2.39
-7.48 -8.15 2.39
-7.32 -8.30 2.39
-7.15 -8.45 2.39
-6.98 -8.60 2.39
-6.81 -8.74 2.39
-6.63 -8.87 2.39
-6.45 -9.01 2.39
-6.27 -9.14 2.39
-6.09 -9.26 2.39
-5.90 -9.39 2.39
-5.82 -9.68 2.43
-5.76 -10.04 2.49
-5.56 -10.15 2.49
-5.36 -10.27 2.49
-5.15 -10.37 2.49
-4.95 -10.48 2.49
-4.74 -10.58 2.49
-4.52 -10.68 2.49
-4.31 -10.77 2.49
-4.09 -10.86 2.49
-3.88 -10.94 2.49
-3.66 -11.02 2.49
-3.44 -11.10 2.49
-3.21 -11.17 2.49
-2.99 -11.23 2.49
-2.76 -11.30 2.49
-2.54 -11.35 2.49
-2.31 -11.41 2.49
-2.08 -11.45 2.49
-1.85 -11.50 2.49
-1.62 -11.54 2.49
-1.39 -11.57 2.49
-1.16 -11.60 2.49
-0.93 -11.63 2.49
-0.69 -11.65 2.49
-0.46 -11.67 2.49
-0.22 -11.68 2.49
0.01 -10.52 2.49
0.22 -10.52 2.49
0.43 -10.52 2.49
0.65 -10.51 2.49
0.86 -10.50 2.49
1.07 -10.49 2.49
1.28 -10.47 2.49
1.49 -10.45 2.49
1.70 -10.42 2.49
1.91 -10.39 2.49
2.12 -10.35 2.49
2.23 -9.90 2.39
2.43 -9.84 2.39
2.63 -9.79 2.39
2.82 -9.74 2.39
3.02 -9.69 2.39
3.22 -9.63 2.39
3.41 -9.57 2.39
3.60 -9.50 2.39
3.80 -9.43 2.39
3.99 -9.36 2.39
4.17 -9.28 2.39
4.36 -9.20 2.39
4.55 -9.11 2.39
4.73 -9.02 2.39
4.91 -8.93 2.39
5.09 -8.84 2.39
5.27 -8.74 2.39
5.45 -8.63 2.39
5.62 -8.52 2.39
5.80 -8.41 2.39
5.97 -8.30 2.39
6.14 -8.18 2.39
6.30 -8.06 2.39
6.47 -7.94 2.39
6.63 -7.82 2.39
6.79 -7.68 2.39
6.95 -7.55 2.39
7.10 -7.41 2.39
7.25 -7.27 2.39
7.40 -7.13 2.39
7.54 -6.98 2.39
7.68 -6.83 2.39
7.82 -6.68 2.39
7.96 -6.52 2.39
8.09 -6.36 2.39
8.22 -6.20 2.39
8.34 -6.04 2.39
8.47 -5.87 2.39
8.59 -5.70 2.39
8.70 -5.53 2.39
8.82 -5.36 2.39
8.92 -5.18 2.39
9.03 -5.00 2.39
9.13 -4.82 2.39
9.23 -4.64 2.39
9.32 -4.46 2.39
9.41 -4.27 2.39
9.50 -4.08 2.39
9.58 -3.89 2.39
9.66 -3.70 2.39
9.74 -3.51 2.39
9.81 -3.31 2.39
9.88 -3.11 2.39
9.94 -2.92 2.39
10.00 -2.72 2.39
10.05 -2.52 2.39
10.11 -2.31 2.39
10.15 -2.11 2.39
10.20 -1.91 2.39
10.23 -1.70 2.39
10.27 -1.50 2.39
10.30 -1.29 2.39
10.33 -1.09 2.39
10.35 -0.88 2.39
10.37 -0.67 2.39
10.38 -0.46 2.39
10.39 -0.26 2.39
10.39 -0.05 2.39
10.39 0.16 2.39
10.39 0.37 2.39
10.38 0.58 2.39
10.37 0.79 2.39
10.35 0.99 2.39
10.33 1.20 2.39
10.31 1.41 2.39
10.28 1.61 2.39
10.25 1.82 2.39
10.21 2.03 2.39
10.17 2.23 2.39
10.12 2.43 2.39
10.07 2.64 2.39
10.02 2.84 2.39
9.96 3.04 2.39
9.89 3.24 2.39
9.83 3.44 2.39
9.76 3.63 2.39
9.68 3.83 2.39
9.60 4.02 2.39
9.52 4.21 2.39
9.44 4.40 2.39
9.34 4.59 2.39
9.25 4.78 2.39
9.15 4.96 2.39
9.05 5.14 2.39
8.95 5.32 2.39
8.84 5.50 2.39
8.72 5.68 2.39
8.61 5.85 2.39
8.49 6.02 2.39
8.36 6.19 2.39
8.24 6.36 2.39
8.11 6.52 2.39
7.97 6.68 2.39
7.84 6.84 2.39
7.70 6.99 2.39
7.55 7.14 2.39
7.41 7.29 2.39
7.26 7.44 2.39
7.11 7.58 2.39
6.95 7.72 2.39
6.79 7.85 2.39
6.63 7.98 2.39
6.47 8.11 2.39
6.30 8.24 2.39
6.13 8.36 2.39
5.96 8.48 2.39
5.79 8.59 2.39
5.61 8.71 2.39
5.44 8.82 2.39
5.26 8.92 2.39
5.08 9.02 2.39
4.89 9.12 2.39
4.71 9.21 2.39
4.52 9.30 2.39
4.33 9.39 2.39
4.14 9.47 2.39
3.95 9.55 2.39
3.76 9.62 2.39
3.56 9.69 2.39
3.37 9.76 2.39
3.17 9.82 2.39
2.97 9.88 2.39
2.89 10.36 2.49
2.68 10.41 2.49
2.47 10.46 2.49
2.26 10.51 2.49
2.05 10.55 2.49
1.83 10.58 2.49
1.62 10.61 2.49
1.41 10.64 2.49
1.19 10.66 2.49
0.98 10.68 2.49
0.76 10.69 2.49
0.55 10.70 2.49
0.33 10.70 2.49
0.12 10.70 2.49
-0.10 10.70 2.49
-0.31 10.69 2.49
-0.52 10.68 2.49
-0.74 10.66 2.49
-0.95 10.64 2.49
-1.16 10.61 2.49
-1.38 10.58 2.49
-1.59 10.55 2.49
-1.80 10.51 2.49
-2.01 10.47 2.49
-2.22 10.42 2.49
-2.43 10.37 2.49
-2.63 10.32 2.49
-2.84 10.26 2.49
-3.04 10.19 2.49
-3.24 10.13 2.49
-3.44 10.05 2.49
-3.64 9.98 2.49
-3.84 9.90 2.49
-4.04 9.82 2.49
-4.23 9.73 2.49
-4.42 9.64 2.49
-4.62 9.54 2.49
-4.80 9.44 2.49
-4.99 9.34 2.49
-5.17 9.23 2.49
-5.20 8.87 2.42
-5.31 8.64 2.39
-5.48 8.53 2.39
-5.64 8.41 2.39
-5.81 8.29 2.39
-5.97 8.17 2.39
-6.13 8.05 2.39
-6.29 7.92 2.39
-6.45 7.79 2.39
-6.60 7.65 2.39
-6.75 7.51 2.39
-6.89 7.37 2.39
-7.04 7.23 2.39
-7.18 7.09 2.39
-7.32 6.94 2.39
-7.45 6.79 2.39
-7.58 6.63 2.39
-7.71 6.48 2.39
-7.84 6.32 2.39
-7.96 6.16 2.39
-8.08 5.99 2.39
-8.19 5.83 2.39
-8.31 5.66 2.39
-8.42 5.49 2.39
-8.52 5.32 2.39
-8.62 5.14 2.39
-8.72 4.97 2.39
-8.82 4.79 2.39
-8.91 4.61 2.39
-9.00 4.43 2.39
-9.08 4.25 2.39
-9.16 4.06 2.39
-9.24 3.88 2.39
-9.31 3.69 2.39
-9.38 3.50 2.39
-10.57 3.70 2.68
-10.58 3.47 2.66
-10.59 3.24 2.65
-10.60 3.01 2.63
-10.60 2.78 2.62
-10.61 2.56 2.61
-10.60 2.33 2.60
-10.59 2.11 2.58
-10.58 1.89 2.57
-10.57 1.67 2.56
-10.56 1.45 2.55
-10.55 1.23 2.54
-10.53 1.01 2.54
-10.51 0.80 2.53
-10.48 0.58 2.52
-10.45 0.37 2.51
-10.43 0.16 2.50
-10.40 -0.05 2.49
-10.36 -0.26 2.49
-10.32 -0.46 2.48
-5.95 -0.39 1.43
-5.94 -0.51 1.43
-10.19 -1.07 2.46
-10.14 -1.28 2.45
-10.09 -1.48 2.45
-10.04 -1.68 2.44
-9.99 -1.87 2.44
-9.97 -2.08 2.45
-9.94 -2.28 2.45
-9.92 -2.49 2.45
-9.60 -2.62 2.39
-9.55 -2.81 2.39
-9.49 -3.00 2.39
-9.43 -3.19 2.39
-9.36 -3.38 2.39
-9.29 -3.56 2.39
-9.22 -3.75 2.39
-9.14 -3.94 2.39
-9.06 -4.12 2.39
-8.98 -4.30 2.39
-8.89 -4.48 2.39
-8.80 -4.66 2.39
-8.70 -4.83 2.39
-8.60 -5.01 2.39
-8.50 -5.18 2.39
-8.40 -5.35 2.39
-8.29 -5.52 2.39
-8.18 -5.68 2.39
-8.06 -5.85 2.39
-7.94 -6.01 2.39
-7.82 -6.17 2.39
-7.70 -6.32 2.39
-7.57 -6.48 2.39
-7.44 -6.63 2.39
-7.30 -6.78 2.39
-7.17 -6.93 2.39
-7.03 -7.07 2.39
-6.89 -7.21 2.39
-6.74 -7.35 2.39
-6.59 -7.48 2.39
-6.44 -7.62 2.39
-6.29 -7.75 2.39
-6.13 -7.87 2.39
-5.98 -8.00 2.39
-5.81 -8.12 2.39
-5.78 -8.42 2.44
-5.72 -8.71 2.49
-5.55 -8.82 2.49
-5.37 -8.93 2.49
-5.19 -9.04 2.49
-5.01 -9.15 2.49
-4.83 -9.25 2.49
-4.64 -9.35 2.49
-4.45 -9.44 2.49
-4.27 -9.53 2.49
-4.07 -9.62 2.49
-3.88 -9.70 2.49
-3.69 -9.78 2.49
-3.49 -9.86 2.49
-3.29 -9.93 2.49
-3.09 -9.99 2.49
-2.89 -10.06 2.49
-2.69 -10.12 2.49
-2.49 -10.17 2.49
-2.29 -10.22 2.49
-2.08 -10.27 2.49
-1.87 -10.32 2.49
-1.67 -10.35 2.49
-1.46 -10.39 2.49
-1.25 -10.42 2.49
-1.04 -10.45 2.49
-0.83 -10.47 2.49
-0.62 -10.49 2.49
-0.41 -10.50 2.49
-0.20 -10.51 2.49
0.01 -9.56 2.49
0.20 -9.56 2.49
0.40 -9.56 2.49
0.59 -9.55 2.49
0.78 -9.54 2.49
0.97 -9.52 2.49
1.16 -9.51 2.49
1.35 -9.49 2.49
1.54 -9.46 2.49
1.73 -9.43 2.49
1.92 -9.40 2.49
2.11 -9.36 2.49
2.25 -9.11 2.44
2.39 -8.89 2.39
2.57 -8.85 2.39
2.74 -8.80 2.39
2.92 -8.74 2.39
3.10 -8.69 2.39
3.27 -8.63 2.39
3.45 -8.56 2.39
3.62 -8.49 2.39
3.79 -8.42 2.39
3.96 -8.35 2.39
4.13 -8.27 2.39
4.30 -8.19 2.39
4.46 -8.11 2.39
4.62 -8.02 2.39
4.79 -7.93 2.39
4.95 -7.83 2.39
5.10 -7.73 2.39
5.26 -7.63 2.39
5.42 -7.53 2.39
5.57 -7.42 2.39
5.72 -7.31 2.39
5.87 -7.20 2.39
6.01 -7.08 2.39
6.15 -6.96 2.39
6.30 -6.84 2.39
6.44 -6.72 2.39
6.58 -6.59 2.39
6.71 -6.46 2.39
6.84 -6.33 2.39
6.97 -6.19 2.39
7.09 -6.05 2.39
7.22 -5.91 2.39
7.34 -5.77 2.39
7.45 -5.62 2.39
7.57 -5.47 2.39
7.68 -5.32 2.39
7.79 -5.17 2.39
7.89 -5.01 2.39
7.99 -4.86 2.39
8.09 -4.70 2.39
8.19 -4.54 2.39
8.28 -4.37 2.39
8.37 -4.21 2.39
8.45 -4.04 2.39
8.53 -3.87 2.39
8.61 -3.70 2.39
8.69 -3.53 2.39
8.76 -3.35 2.39
8.83 -3.18 2.39
8.89 -3.00 2.39
8.95 -2.82 2.39
9.01 -2.64 2.39
9.06 -2.46 2.39
9.11 -2.28 2.39
9.16 -2.10 2.39
9.20 -1.91 2.39
9.24 -1.73 2.39
9.28 -1.54 2.39
9.31 -1.36 2.39
9.33 -1.17 2.39
9.36 -0.98 2.39
9.38 -0.80 2.39
9.39 -0.61 2.39
9.41 -0.42 2.39
9.41 -0.23 2.39
9.42 -0.04 2.39
9.42 0.15 2.39
9.41 0.34 2.39
9.41 0.52 2.39
9.40 0.71 2.39
9.38 0.90 2.39
9.36 1.09 2.39
9.34 1.28 2.39
9.31 1.46 2.39
9.28 1.65 2.39
9.25 1.84 2.39
9.21 2.02 2.39
9.17 2.21 2.39
9.12 2.39 2.39
9.07 2.57 2.39
9.02 2.75 2.39
8.96 2.93 2.39
8.90 3.11 2.39
8.84 3.29 2.39
8.77 3.47 2.39
8.70 3.64 2.39
8.63 3.82 2.39
8.55 3.99 2.39
8.47 4.16 2.39
8.38 4.33 2.39
8.29 4.49 2.39
8.20 4.66 2.39
8.11 4.82 2.39
8.01 4.98 2.39
7.90 5.14 2.39
7.80 5.30 2.39
7.69 5.46 2.39
7.58 5.61 2.39
7.46 5.76 2.39
7.35 5.91 2.39
7.23 6.05 2.39
