ply
format ascii 1.0
element vertex 2952
property float32 x
property float32 y
property float32 z
end_header
-11.94 -6.02 2.16
-11.90 -6.30 2.18
-11.88 -6.60 2.20
-11.83 -6.89 2.21
-11.77 -7.18 2.23
-11.71 -7.46 2.24
-11.65 -7.76 2.26
-11.58 -8.05 2.28
-11.51 -8.35 2.29
-11.44 -8.65 2.31
-11.36 -8.95 2.33
-11.21 -9.21 2.34
-11.07 -9.47 2.35
-10.92 -9.73 2.36
-10.76 -9.98 2.37
-10.60 -10.23 2.37
-10.43 -10.48 2.38
-10.26 -10.73 2.39
-10.08 -10.98 2.40
-9.90 -11.23 2.41
-9.59 -11.33 2.39
-9.36 -11.52 2.39
-9.13 -11.71 2.39
-8.90 -11.89 2.39
-8.66 -12.07 2.39
-8.41 -12.24 2.39
-8.17 -12.41 2.39
-7.91 -12.57 2.39
-7.66 -12.72 2.39
-7.40 -12.87 2.39
-7.14 -13.02 2.39
-6.88 -13.16 2.39
-6.62 -13.30 2.39
-6.35 -13.43 2.39
-6.08 -13.55 2.39
-5.80 -13.67 2.39
-5.56 -13.86 2.41
-5.48 -14.49 2.49
-5.18 -14.59 2.49
-4.89 -14.69 2.49
-4.59 -14.79 2.49
-4.30 -14.87 2.49
-4.00 -14.95 2.49
-3.69 -15.03 2.49
-3.39 -15.10 2.49
-3.09 -15.16 2.49
-2.78 -15.22 2.49
-2.48 -15.27 2.49
-2.17 -15.31 2.49
-1.86 -15.35 2.49
-1.55 -15.38 2.49
-1.24 -15.41 2.49
-0.93 -15.43 2.49
-0.62 -15.44 2.49
-0.31 -15.44 2.49
-0.00 -13.50 2.49
0.27 -13.50 2.49
0.54 -13.49 2.49
0.81 -13.47 2.49
1.08 -13.45 2.49
1.35 -13.42 2.49
1.61 -13.39 2.49
1.88 -13.35 2.49
2.15 -13.31 2.49
2.42 -13.26 2.49
2.57 -12.66 2.39
2.82 -12.60 2.39
3.07 -12.54 2.39
3.32 -12.47 2.39
3.57 -12.40 2.39
3.82 -12.32 2.39
4.06 -12.23 2.39
4.31 -12.15 2.39
4.55 -12.05 2.39
4.79 -11.96 2.39
5.02 -11.85 2.39
5.26 -11.75 2.39
5.49 -11.64 2.39
5.72 -11.52 2.39
5.95 -11.40 2.39
2.87 -5.24 1.11
6.40 -11.14 2.39
6.44 -10.71 2.33
6.43 -10.22 2.25
6.42 -9.77 2.18
6.41 -9.34 2.11
6.34 -8.85 2.03
6.33 -8.47 1.97
6.31 -8.10 1.92
6.30 -7.76 1.87
6.29 -7.44 1.82
6.28 -7.13 1.77
6.29 -6.86 1.74
6.29 -6.59 1.70
6.28 -6.32 1.67
6.28 -6.07 1.63
6.27 -5.82 1.60
6.38 -5.69 1.60
6.50 -5.57 1.60
12.50 -10.28 3.03
12.69 -10.02 3.03
12.88 -9.75 3.03
13.06 -9.48 3.03
13.24 -9.21 3.03
13.41 -8.93 3.02
13.12 -8.37 2.92
12.94 -7.89 2.85
12.68 -7.39 2.76
12.44 -6.92 2.68
12.20 -6.47 2.60
12.14 -6.13 2.56
12.09 -5.80 2.53
12.03 -5.48 2.49
11.83 -5.10 2.43
11.63 -4.74 2.37
11.45 -4.40 2.31
11.45 -4.14 2.30
11.46 -3.88 2.28
11.46 -3.63 2.27
11.46 -3.38 2.26
11.46 -3.13 2.24
11.44 -2.88 2.23
11.34 -2.61 2.20
11.24 -2.35 2.17
11.21 -2.11 2.16
11.18 -1.88 2.15
11.15 -1.64 2.13
11.11 -1.41 2.12
11.08 -1.18 2.11
11.05 -0.95 2.10
11.02 -0.73 2.09
10.98 -0.50 2.09
10.95 -0.28 2.08
10.92 -0.06 2.07
10.90 0.16 2.07
10.88 0.38 2.07
10.84 0.59 2.06
10.78 0.81 2.05
10.72 1.02 2.05
10.65 1.23 2.04
10.47 1.42 2.01
9.85 1.54 1.90
9.38 1.66 1.81
8.96 1.77 1.74
8.56 1.87 1.67
8.20 1.97 1.61
8.14 2.13 1.60
8.01 2.27 1.59
10.37 3.16 2.07
10.34 3.38 2.08
10.31 3.60 2.08
10.28 3.82 2.09
7.75 3.06 1.59
7.46 3.12 1.54
7.37 3.26 1.54
7.28 3.40 1.54
7.77 3.81 1.65
7.95 4.10 1.71
7.76 4.20 1.69
7.47 4.24 1.64
7.27 4.33 1.62
7.14 4.44 1.61
7.03 4.57 1.60
6.93 4.71 1.60
6.85 4.86 1.61
6.86 5.08 1.63
7.60 5.87 1.84
7.58 6.10 1.86
7.74 6.48 1.93
8.29 7.23 2.11
10.37 9.42 2.68
10.28 9.72 2.71
10.16 10.01 2.73
6.32 6.48 1.74
6.09 6.50 1.71
5.91 6.57 1.69
5.72 6.62 1.68
5.62 6.77 1.69
5.52 6.93 1.70
7.40 9.68 2.34
6.26 8.54 2.03
5.88 8.37 1.96
5.68 8.45 1.95
5.50 8.53 1.95
5.31 8.61 1.94
5.15 8.75 1.95
5.15 9.17 2.02
4.96 9.25 2.01
4.84 9.48 2.04
4.69 9.68 2.06
4.61 10.02 2.11
4.48 10.26 2.15
4.76 11.53 2.39
4.53 11.62 2.39
4.29 11.71 2.39
4.06 11.80 2.39
3.82 11.88 2.39
3.58 11.95 2.39
3.34 12.02 2.39
3.10 12.09 2.39
2.85 12.15 2.39
2.61 12.21 2.39
2.36 12.26 2.39
2.21 12.84 2.49
1.95 12.88 2.49
1.69 12.92 2.49
1.43 12.95 2.49
1.17 12.98 2.49
0.91 13.00 2.49
0.65 13.02 2.49
0.39 13.03 2.49
0.13 13.04 2.49
-0.14 13.04 2.49
-0.40 13.04 2.49
-0.66 13.03 2.49
-0.92 13.02 2.49
-1.18 13.00 2.49
-1.44 12.98 2.49
-1.71 12.95 2.49
-1.97 12.92 2.49
-2.22 12.88 2.49
-2.48 12.83 2.49
-2.74 12.79 2.49
-3.00 12.73 2.49
-3.25 12.67 2.49
-3.51 12.61 2.49
-3.76 12.54 2.49
-4.02 12.46 2.49
-4.27 12.38 2.49
-4.52 12.30 2.49
-4.76 12.21 2.49
-5.01 12.12 2.49
-5.25 12.02 2.49
-5.49 11.91 2.49
-5.73 11.80 2.49
-5.82 11.39 2.43
-5.95 11.09 2.39
-6.18 10.98 2.39
-6.40 10.85 2.39
-6.62 10.73 2.39
-6.83 10.60 2.39
-7.05 10.46 2.39
-7.26 10.32 2.39
-7.47 10.18 2.39
-7.67 10.03 2.39
-7.87 9.88 2.39
-8.07 9.72 2.39
-8.27 9.56 2.39
-8.46 9.39 2.39
-8.65 9.23 2.39
-8.84 9.05 2.39
-9.02 8.88 2.39
-9.20 8.70 2.39
-9.38 8.52 2.39
-9.55 8.33 2.39
-9.72 8.14 2.39
-10.30 8.28 2.49
-10.39 8.01 2.47
-10.47 7.74 2.45
-10.55 7.48 2.44
-10.64 7.22 2.42
-10.72 6.97 2.41
-10.78 6.70 2.39
-10.80 6.42 2.36
-10.82 6.14 2.34
-10.84 5.87 2.32
-10.86 5.60 2.29
-10.90 5.35 2.28
-10.95 5.10 2.27
-11.03 4.87 2.26
-11.13 4.65 2.26
-11.22 4.43 2.26
-11.31 4.20 2.26
-11.40 3.98 2.26
-11.49 3.75 2.26
-11.53 3.51 2.26
-11.55 3.26 2.25
-11.57 3.02 2.24
-11.59 2.78 2.23
-11.61 2.54 2.22
-11.63 2.30 2.21
-11.64 2.06 2.21
-11.66 1.82 2.20
-11.68 1.58 2.20
-11.71 1.35 2.20
-11.71 1.11 2.19
-11.72 0.88 2.19
-11.72 0.64 2.19
-11.71 0.40 2.18
-11.71 0.17 2.18
-11.71 -0.07 2.18
-11.71 -0.30 2.18
-11.78 -0.54 2.19
-11.79 -0.78 2.20
-11.78 -1.01 2.20
-11.78 -1.25 2.20
-11.77 -1.49 2.20
-11.76 -1.73 2.21
-11.75 -1.97 2.21
-11.74 -2.21 2.22
-11.75 -2.46 2.23
-11.77 -2.71 2.24
-11.75 -2.96 2.25
-11.73 -3.20 2.25
-11.71 -3.45 2.26
-11.68 -3.70 2.27
-11.66 -3.95 2.28
-11.63 -4.20 2.29
-11.60 -4.46 2.30
-11.56 -4.71 2.31
-11.53 -4.97 2.32
-11.49 -5.23 2.33
-11.45 -5.49 2.35
-11.39 -5.75 2.36
-11.30 -5.99 2.36
-11.21 -6.23 2.37
-11.11 -6.47 2.38
-11.01 -6.71 2.38
-10.89 -6.94 2.38
-10.77 -7.17 2.39
-10.64 -7.40 2.39
-10.51 -7.63 2.40
-10.38 -7.85 2.40
-10.25 -8.08 2.41
-10.11 -8.30 2.41
-9.97 -8.53 2.42
-9.82 -8.75 2.42
-9.51 -8.82 2.39
-9.33 -9.01 2.39
-9.15 -9.20 2.39
-8.96 -9.38 2.39
-8.77 -9.56 2.39
-8.58 -9.73 2.39
-8.39 -9.91 2.39
-8.19 -10.07 2.39
-7.98 -10.24 2.39
-7.78 -10.39 2.39
-7.57 -10.55 2.39
-7.35 -10.70 2.39
-7.14 -10.84 2.39
-6.92 -10.98 2.39
-6.70 -11.12 2.39
-6.47 -11.25 2.39
-6.25 -11.38 2.39
-6.02 -11.50 2.39
-5.78 -11.62 2.39
-5.58 -11.80 2.41
-5.54 -12.35 2.49
-5.29 -12.46 2.49
-5.04 -12.57 2.49
-4.79 -12.66 2.49
-4.53 -12.76 2.49
-4.27 -12.84 2.49
-4.02 -12.93 2.49
-3.76 -13.00 2.49
-3.49 -13.07 2.49
-3.23 -13.14 2.49
-2.97 -13.20 2.49
-2.70 -13.25 2.49
-2.43 -13.30 2.49
-2.17 -13.35 2.49
-1.90 -13.39 2.49
-1.63 -13.42 2.49
-1.36 -13.45 2.49
-1.09 -13.47 2.49
-0.82 -13.49 2.49
-0.55 -13.50 2.49
-0.28 -13.50 2.49
-0.00 -11.99 2.49
0.24 -11.98 2.49
0.48 -11.97 2.49
0.72 -11.96 2.49
0.96 -11.94 2.49
1.19 -11.91 2.49
1.43 -11.89 2.49
1.67 -11.85 2.49
1.91 -11.81 2.49
2.14 -11.77 2.49
2.38 -11.72 2.49
2.50 -11.19 2.39
2.73 -11.13 2.39
2.95 -11.07 2.39
3.17 -11.01 2.39
3.39 -10.94 2.39
3.61 -10.86 2.39
3.82 -10.79 2.39
4.04 -10.70 2.39
4.25 -10.62 2.39
4.46 -10.53 2.39
4.67 -10.43 2.39
4.88 -10.33 2.39
5.08 -10.23 2.39
5.29 -10.12 2.39
2.87 -5.24 1.25
5.68 -9.90 2.39
5.88 -9.78 2.39
6.07 -9.66 2.39
6.26 -9.53 2.39
6.41 -9.34 2.38
6.34 -8.85 2.28
6.33 -8.47 2.22
6.31 -8.11 2.16
6.30 -7.76 2.10
6.29 -7.44 2.05
6.28 -7.13 2.00
6.29 -6.86 1.96
6.29 -6.59 1.92
6.28 -6.32 1.88
6.28 -6.07 1.84
6.27 -5.83 1.80
6.27 -5.59 1.77
6.27 -5.37 1.74
6.26 -5.15 1.71
6.26 -4.94 1.68
6.26 -4.74 1.66
6.25 -4.54 1.63
6.26 -4.36 1.61
6.26 -4.17 1.59
6.37 -4.06 1.60
6.48 -3.95 1.60
11.79 -6.87 2.88
11.59 -6.44 2.80
11.55 -6.12 2.76
11.51 -5.81 2.73
11.48 -5.51 2.69
11.44 -5.21 2.66
11.40 -4.92 2.63
11.25 -4.59 2.57
11.15 -4.29 2.53
11.16 -4.04 2.52
11.17 -3.79 2.50
11.17 -3.54 2.49
11.17 -3.30 2.47
11.18 -3.05 2.46
11.18 -2.81 2.45
11.15 -2.57 2.43
11.07 -2.32 2.40
11.04 -2.08 2.39
11.01 -1.85 2.37
10.97 -1.62 2.36
10.94 -1.39 2.35
10.91 -1.16 2.34
10.87 -0.94 2.32
10.78 -0.71 2.30
10.68 -0.49 2.28
10.61 -0.27 2.26
10.60 -0.06 2.26
10.55 0.15 2.25
10.50 0.36 2.24
10.44 0.57 2.23
10.38 0.78 2.22
10.33 0.98 2.22
10.27 1.18 2.21
10.21 1.39 2.20
9.85 1.54 2.13
9.38 1.66 2.04
8.96 1.77 1.95
8.57 1.87 1.88
8.20 1.97 1.81
7.87 2.05 1.74
7.21 2.04 1.60
7.16 2.18 1.60
9.96 3.25 2.24
9.93 3.47 2.25
7.69 2.86 1.76
7.26 2.86 1.67
7.13 2.98 1.66
7.02 3.10 1.65
6.93 3.23 1.64
7.03 3.45 1.68
7.15 3.69 1.73
7.49 4.06 1.83
7.25 4.12 1.79
7.07 4.20 1.77
6.87 4.28 1.74
6.78 4.41 1.74
6.67 4.53 1.73
6.71 4.76 1.77
6.76 5.00 1.81
6.79 5.24 1.84
7.53 6.05 2.08
7.51 6.29 2.11
7.52 6.57 2.15
7.84 7.12 2.28
7.74 7.32 2.29
6.62 6.51 2.00
6.33 6.48 1.95
5.96 6.36 1.87
5.82 6.47 1.87
5.64 6.53 1.86
5.48 6.61 1.85
5.37 6.74 1.85
5.46 7.15 1.94
5.44 7.42 1.98
5.82 8.29 2.18
5.61 8.34 2.16
5.45 8.46 2.17
5.28 8.58 2.17
5.15 8.76 2.19
5.14 9.14 2.26
4.94 9.22 2.25
4.75 9.32 2.25
4.63 9.55 2.28
4.60 10.00 2.37
4.44 10.19 2.39
4.24 10.27 2.39
4.03 10.36 2.39
3.82 10.44 2.39
3.61 10.51 2.39
3.40 10.58 2.39
3.19 10.65 2.39
2.97 10.71 2.39
2.76 10.77 2.39
2.54 10.83 2.39
2.32 10.88 2.39
2.20 11.39 2.49
1.97 11.44 2.49
1.74 11.48 2.49
1.51 11.51 2.49
1.28 11.54 2.49
1.04 11.56 2.49
0.81 11.58 2.49
0.58 11.60 2.49
0.35 11.61 2.49
0.11 11.62 2.49
-0.12 11.62 2.49
-0.35 11.62 2.49
-0.59 11.61 2.49
-0.82 11.60 2.49
-1.05 11.58 2.49
-1.29 11.56 2.49
-1.52 11.53 2.49
-1.75 11.50 2.49
-1.98 11.47 2.49
-2.21 11.43 2.49
-2.44 11.39 2.49
-2.67 11.34 2.49
-2.90 11.28 2.49
-3.13 11.23 2.49
-3.35 11.16 2.49
-3.58 11.10 2.49
-3.80 11.03 2.49
-4.02 10.95 2.49
-4.24 10.87 2.49
-4.46 10.79 2.49
-4.68 10.70 2.49
-4.89 10.61 2.49
-5.11 10.51 2.49
-5.32 10.41 2.49
-5.53 10.30 2.49
-5.73 10.19 2.49
-5.80 9.84 2.44
-5.89 9.55 2.39
-6.08 9.43 2.39
-6.27 9.31 2.39
-6.46 9.18 2.39
-6.64 9.06 2.39
-6.83 8.92 2.39
-7.01 8.79 2.39
-7.19 8.65 2.39
-7.36 8.50 2.39
-7.53 8.36 2.39
-7.70 8.21 2.39
-7.87 8.05 2.39
-8.03 7.90 2.39
-8.19 7.74 2.39
-8.35 7.57 2.39
-8.50 7.41 2.39
-8.65 7.24 2.39
-8.80 7.07 2.39
-8.94 6.89 2.39
-9.08 6.71 2.39
-9.22 6.53 2.39
-9.35 6.35 2.39
-9.48 6.16 2.39
-9.60 5.97 2.39
-9.72 5.78 2.39
-10.10 5.73 2.46
-10.14 5.49 2.43
-10.20 5.26 2.42
-10.25 5.03 2.41
-10.31 4.80 2.40
-10.36 4.57 2.39
-10.41 4.35 2.38
-10.50 4.14 2.38
-10.59 3.93 2.38
-10.67 3.72 2.38
-10.75 3.51 2.38
-10.79 3.28 2.37
-10.82 3.05 2.36
-10.84 2.83 2.36
-10.92 2.62 2.36
-11.00 2.40 2.37
-11.07 2.19 2.37
-11.14 1.97 2.38
-11.21 1.75 2.38
-11.28 1.53 2.39
-11.30 1.30 2.39
-11.32 1.07 2.38
-11.33 0.85 2.38
-11.34 0.62 2.38
-11.34 0.39 2.38
-11.34 0.16 2.38
-11.34 -0.06 2.37
-11.33 -0.29 2.37
-11.32 -0.52 2.37
-11.30 -0.75 2.37
-11.29 -0.97 2.37
-11.28 -1.20 2.37
-11.26 -1.43 2.37
-11.23 -1.65 2.37
-11.21 -1.88 2.37
-11.18 -2.11 2.38
-11.15 -2.33 2.38
-11.11 -2.56 2.38
-11.07 -2.79 2.38
-11.04 -3.01 2.39
-10.99 -3.24 2.39
-10.94 -3.46 2.39
-10.89 -3.69 2.40
-10.83 -3.91 2.40
-10.77 -4.14 2.40
-10.70 -4.36 2.41
-10.63 -4.58 2.41
-10.56 -4.81 2.42
-10.49 -5.03 2.42
-10.42 -5.25 2.43
-10.34 -5.48 2.43
-10.25 -5.70 2.44
-10.16 -5.92 2.45
-10.07 -6.14 2.45
-9.97 -6.35 2.46
-9.57 -6.37 2.39
-9.44 -6.56 2.39
-9.31 -6.75 2.39
-9.17 -6.94 2.39
-9.03 -7.12 2.39
-8.89 -7.30 2.39
-8.74 -7.48 2.39
-8.59 -7.66 2.39
-8.44 -7.83 2.39
-8.28 -8.00 2.39
-8.12 -8.16 2.39
-7.95 -8.32 2.39
-7.79 -8.48 2.39
-7.61 -8.64 2.39
-7.44 -8.79 2.39
-7.26 -8.94 2.39
-7.08 -9.08 2.39
-6.90 -9.22 2.39
-6.71 -9.36 2.39
-6.52 -9.49 2.39
-6.33 -9.62 2.39
-6.14 -9.75 2.39
-5.94 -9.87 2.39
-5.74 -9.99 2.39
-5.60 -10.20 2.41
-5.57 -10.65 2.49
-5.35 -10.76 2.49
-5.14 -10.86 2.49
-4.92 -10.96 2.49
-4.70 -11.06 2.49
-4.47 -11.15 2.49
-4.25 -11.24 2.49
-4.02 -11.32 2.49
-3.79 -11.40 2.49
-3.56 -11.47 2.49
-3.33 -11.54 2.49
-3.10 -11.60 2.49
-2.87 -11.66 2.49
-2.63 -11.71 2.49
-2.40 -11.76 2.49
-2.16 -11.81 2.49
-1.92 -11.85 2.49
-1.68 -11.88 2.49
-1.45 -11.91 2.49
-1.21 -11.94 2.49
-0.97 -11.96 2.49
-0.73 -11.97 2.49
-0.49 -11.98 2.49
-0.25 -11.99 2.49
-0.00 -10.76 2.49
0.21 -10.76 2.49
0.43 -10.75 2.49
0.64 -10.74 2.49
0.86 -10.72 2.49
1.07 -10.70 2.49
1.29 -10.68 2.49
1.50 -10.65 2.49
1.71 -10.61 2.49
1.93 -10.57 2.49
2.14 -10.53 2.49
2.35 -10.48 2.49
2.46 -10.06 2.40
2.66 -10.00 2.40
2.85 -9.89 2.39
3.04 -9.83 2.39
3.24 -9.76 2.39
3.43 -9.69 2.39
3.63 -9.62 2.39
3.82 -9.54 2.39
4.01 -9.46 2.39
4.20 -9.38 2.39
4.38 -9.29 2.39
4.57 -9.19 2.39
4.75 -9.10 2.39
2.85 -5.21 1.38
2.97 -5.17 1.39
5.28 -8.79 2.39
5.46 -8.68 2.39
5.63 -8.56 2.39
5.80 -8.45 2.39
5.96 -8.33 2.39
6.13 -8.20 2.39
6.29 -8.08 2.39
6.30 -7.77 2.34
6.29 -7.44 2.28
6.28 -7.13 2.22
6.29 -6.86 2.18
6.29 -6.59 2.13
6.28 -6.32 2.09
6.28 -6.07 2.04
6.27 -5.83 2.01
6.27 -5.59 1.97
6.27 -5.37 1.93
6.26 -5.15 1.90
6.26 -4.94 1.87
6.26 -4.74 1.84
6.25 -4.54 1.81
6.27 -4.36 1.79
6.27 -4.18 1.77
6.26 -4.00 1.75
6.26 -3.82 1.72
6.26 -3.65 1.70
6.26 -3.48 1.68
6.26 -3.32 1.67
6.26 -3.16 1.65
6.26 -3.00 1.63
6.25 -2.85 1.62
6.25 -2.70 1.60
6.25 -2.55 1.59
6.35 -2.44 1.60
6.40 -2.31 1.60
6.38 -2.16 1.59
6.42 -2.03 1.59
6.52 -1.92 1.60
10.90 -2.98 2.67
6.52 -1.64 1.59
10.91 -2.52 2.64
10.88 -2.28 2.63
10.79 -2.04 2.60
10.71 -1.80 2.57
10.62 -1.57 2.54
10.54 -1.34 2.51
10.45 -1.11 2.49
10.36 -0.89 2.46
10.28 -0.68 2.44
10.19 -0.47 2.42
10.14 -0.26 2.40
10.13 -0.06 2.40
10.12 0.14 2.40
10.11 0.35 2.40
10.07 0.55 2.39
10.02 0.75 2.38
9.96 0.95 2.37
9.91 1.14 2.37
9.85 1.34 2.36
9.80 1.53 2.35
7.65 1.35 1.85
7.58 1.50 1.84
7.53 1.65 1.83
7.49 1.80 1.83
7.59 1.98 1.86
6.43 1.82 1.59
6.39 1.94 1.59
7.39 2.41 1.85
7.46 2.60 1.88
7.53 2.80 1.91
7.08 2.79 1.81
6.95 2.90 1.79
6.83 3.02 1.78
6.72 3.13 1.77
6.66 3.27 1.77
6.63 3.42 1.78
6.72 3.64 1.82
6.68 3.79 1.83
6.63 3.94 1.84
6.55 4.08 1.84
6.56 4.27 1.87
6.61 4.49 1.91
6.63 4.70 1.94
6.65 4.92 1.97
6.72 5.18 2.02
7.61 6.12 2.33
7.55 6.32 2.35
7.48 6.52 2.37
7.77 7.06 2.51
7.71 7.29 2.53
6.44 6.34 2.16
6.11 6.26 2.09
5.87 6.27 2.05
5.75 6.39 2.05
5.60 6.47 2.04
5.38 6.48 2.01
5.13 6.43 1.96
4.98 6.51 1.96
4.91 6.70 1.98
4.90 6.97 2.03
5.16 7.67 2.21
5.42 8.42 2.39
5.25 8.52 2.39
5.08 8.63 2.39
4.90 8.73 2.39
4.73 8.82 2.39
4.55 8.92 2.39
4.37 9.01 2.39
4.19 9.09 2.39
4.00 9.18 2.39
3.82 9.25 2.39
3.63 9.33 2.39
3.44 9.40 2.39
3.25 9.47 2.39
3.06 9.53 2.39
2.87 9.59 2.39
2.68 9.65 2.39
2.48 9.70 2.39
2.29 9.75 2.39
2.18 10.22 2.49
1.98 10.26 2.49
1.77 10.30 2.49
1.56 10.34 2.49
1.36 10.37 2.49
1.15 10.39 2.49
0.94 10.42 2.49
0.73 10.43 2.49
0.52 10.45 2.49
0.31 10.46 2.49
0.10 10.46 2.49
-0.11 10.47 2.49
-0.32 10.46 2.49
-0.53 10.46 2.49
-0.74 10.45 2.49
-0.95 10.43 2.49
-1.16 10.41 2.49
-1.37 10.39 2.49
-1.58 10.36 2.49
-1.79 10.33 2.49
-1.99 10.29 2.49
-2.20 10.25 2.49
-2.41 10.21 2.49
-2.61 10.16 2.49
-2.82 10.11 2.49
-3.02 10.05 2.49
-3.22 9.99 2.49
-3.42 9.93 2.49
-3.62 9.86 2.49
-3.82 9.79 2.49
-4.02 9.71 2.49
-4.21 9.63 2.49
-4.41 9.55 2.49
-4.60 9.46 2.49
-4.79 9.37 2.49
-4.98 9.27 2.49
-5.16 9.17 2.49
-5.35 9.07 2.49
-5.53 8.96 2.49
-5.71 8.85 2.49
-5.79 8.59 2.45
-5.81 8.27 2.39
-5.98 8.15 2.39
-6.15 8.03 2.39
-6.31 7.91 2.39
-6.47 7.78 2.39
-6.62 7.65 2.39
-6.78 7.52 2.39
-6.93 7.39 2.39
-7.08 7.25 2.39
-7.23 7.11 2.39
-7.37 6.96 2.39
-7.51 6.81 2.39
-7.65 6.66 2.39
-7.78 6.51 2.39
-7.91 6.36 2.39
-8.04 6.20 2.39
-8.17 6.04 2.39
-8.29 5.87 2.39
-8.41 5.71 2.39
-8.52 5.54 2.39
-8.64 5.37 2.39
-8.75 5.20 2.39
-8.85 5.02 2.39
-8.95 4.84 2.39
-9.05 4.67 2.39
-9.15 4.48 2.39
-9.24 4.30 2.39
-9.32 4.12 2.39
-9.41 3.93 2.39
-9.49 3.74 2.39
-9.57 3.55 2.39
-9.64 3.36 2.39
-9.71 3.17 2.39
-10.09 3.07 2.47
-10.12 2.86 2.46
-10.14 2.64 2.45
-10.16 2.43 2.44
-10.18 2.22 2.44
-10.24 2.02 2.44
-10.31 1.82 2.45
-10.37 1.62 2.45
-10.41 1.41 2.45
-10.43 1.20 2.45
-10.44 0.99 2.45
-10.45 0.78 2.44
-10.45 0.57 2.44
-10.45 0.36 2.44
-10.45 0.15 2.44
-10.45 -0.06 2.44
-10.44 -0.27 2.43
-10.43 -0.48 2.43
-10.42 -0.69 2.43
-10.40 -0.90 2.43
-10.38 -1.11 2.43
-10.35 -1.31 2.43
-10.33 -1.52 2.43
-10.29 -1.73 2.43
-10.27 -1.94 2.43
-10.24 -2.14 2.43
-10.20 -2.35 2.43
-10.16 -2.56 2.43
-10.13 -2.76 2.44
-10.09 -2.97 2.44
-10.04 -3.18 2.45
-10.00 -3.39 2.45
-9.95 -3.59 2.45
-9.62 -3.70 2.39
-9.55 -3.89 2.39
-9.47 -4.08 2.39
-9.39 -4.27 2.39
-9.30 -4.46 2.39
-9.21 -4.65 2.39
-9.12 -4.83 2.39
-9.02 -5.01 2.39
-8.92 -5.19 2.39
-8.81 -5.37 2.39
-8.71 -5.55 2.39
-8.59 -5.72 2.39
-8.48 -5.90 2.39
-8.36 -6.07 2.39
-8.24 -6.23 2.39
-8.11 -6.40 2.39
-7.98 -6.56 2.39
-7.85 -6.72 2.39
-7.72 -6.88 2.39
-7.58 -7.03 2.39
-7.43 -7.18 2.39
-7.29 -7.33 2.39
-7.14 -7.48 2.39
-6.99 -7.62 2.39
-6.84 -7.76 2.39
-6.68 -7.89 2.39
-6.52 -8.03 2.39
-6.36 -8.16 2.39
-6.20 -8.28 2.39
-6.03 -8.40 2.39
-5.86 -8.52 2.39
-5.69 -8.64 2.39
-5.61 -8.90 2.43
-5.57 -9.24 2.49
-5.38 -9.35 2.49
-5.19 -9.46 2.49
-5.00 -9.56 2.49
-4.81 -9.66 2.49
-4.61 -9.75 2.49
-4.42 -9.84 2.49
-4.22 -9.93 2.49
-4.02 -10.01 2.49
-3.81 -10.09 2.49
-3.61 -10.16 2.49
-3.41 -10.23 2.49
-3.20 -10.30 2.49
-2.99 -10.36 2.49
-2.78 -10.42 2.49
-2.57 -10.47 2.49
-2.36 -10.52 2.49
-2.15 -10.56 2.49
-1.94 -10.60 2.49
-1.73 -10.64 2.49
-1.51 -10.67 2.49
-1.30 -10.70 2.49
-1.08 -10.72 2.49
-0.87 -10.74 2.49
-0.65 -10.75 2.49
-0.44 -10.76 2.49
-0.22 -10.76 2.49
-0.00 -9.76 2.49
0.19 -9.76 2.49
0.39 -9.75 2.49
0.58 -9.74 2.49
0.78 -9.72 2.49
0.97 -9.70 2.49
1.17 -9.68 2.49
1.36 -9.65 2.49
1.55 -9.62 2.49
1.75 -9.59 2.49
1.94 -9.55 2.49
2.13 -9.51 2.49
2.32 -9.46 2.49
2.45 -9.19 2.44
2.58 -8.97 2.39
2.76 -8.91 2.39
2.94 -8.85 2.39
3.11 -8.79 2.39
3.29 -8.72 2.39
3.46 -8.65 2.39
3.63 -8.58 2.39
3.81 -8.50 2.39
3.97 -8.42 2.39
4.14 -8.34 2.39
4.31 -8.25 2.39
2.85 -5.21 1.53
2.96 -5.16 1.53
4.79 -7.97 2.39
4.95 -7.87 2.39
5.11 -7.77 2.39
5.26 -7.66 2.39
5.41 -7.55 2.39
5.56 -7.44 2.39
5.71 -7.33 2.39
5.85 -7.21 2.39
5.99 -7.09 2.39
6.13 -6.96 2.39
6.27 -6.84 2.39
6.29 -6.59 2.35
6.28 -6.33 2.30
6.28 -6.07 2.25
6.27 -5.83 2.21
6.27 -5.60 2.17
6.27 -5.37 2.13
6.26 -5.15 2.09
6.26 -4.94 2.06
6.26 -4.74 2.03
6.25 -4.54 2.00
6.27 -4.36 1.97
6.27 -4.18 1.95
6.26 -4.00 1.92
6.26 -3.82 1.90
6.26 -3.65 1.88
6.26 -3.48 1.86
6.26 -3.32 1.84
6.26 -3.16 1.82
6.26 -3.00 1.80
6.26 -2.85 1.78
6.26 -2.70 1.77
6.26 -2.55 1.75
6.25 -2.41 1.74
6.25 -2.26 1.73
6.26 -2.13 1.72
6.26 -1.99 1.71
6.26 -1.85 1.70
6.26 -1.71 1.69
6.26 -1.58 1.68
6.26 -1.44 1.67
6.26 -1.31 1.66
6.26 -1.18 1.66
6.26 -1.05 1.65
6.26 -0.92 1.65
6.26 -0.79 1.64
6.25 -0.67 1.64
6.25 -0.54 1.63
6.25 -0.41 1.63
6.24 -0.29 1.63
6.24 -0.16 1.63
6.24 -0.04 1.63
6.24 0.09 1.63
6.24 0.21 1.63
6.24 0.34 1.63
6.24 0.47 1.63
6.24 0.59 1.64
6.23 0.72 1.64
6.23 0.84 1.64
6.23 0.97 1.65
6.23 1.10 1.65
6.23 1.23 1.66
6.23 1.36 1.67
6.23 1.49 1.67
6.22 1.62 1.68
6.22 1.76 1.69
6.34 1.93 1.73
6.93 2.26 1.91
6.82 2.38 1.89
6.79 2.52 1.90
6.71 2.65 1.89
6.78 2.83 1.93
6.70 2.96 1.92
6.59 3.07 1.91
6.53 3.20 1.91
6.47 3.34 1.91
6.45 3.49 1.92
6.55 3.72 1.98
6.52 3.88 1.99
6.48 4.03 2.00
6.49 4.22 2.03
6.61 4.49 2.10
6.61 4.68 2.13
6.60 4.89 2.16
6.67 5.15 2.21
7.59 6.10 2.56
7.51 6.29 2.57
7.45 6.50 2.60
7.60 6.90 2.70
6.58 6.23 2.38
6.29 6.19 2.32
6.06 6.21 2.28
5.78 6.17 2.22
5.60 6.22 2.20
5.48 6.35 2.20
5.34 6.44 2.20
5.08 6.38 2.14
4.94 6.47 2.14
4.88 6.66 2.17
4.93 7.02 2.26
5.01 7.44 2.36
4.93 7.65 2.39
4.77 7.75 2.39
4.61 7.84 2.39
4.46 7.93 2.39
4.30 8.02 2.39
4.13 8.10 2.39
3.97 8.19 2.39
3.81 8.26 2.39
3.64 8.34 2.39
3.47 8.41 2.39
3.30 8.48 2.39
3.13 8.55 2.39
2.96 8.61 2.39
2.78 8.66 2.39
2.61 8.72 2.39
2.43 8.77 2.39
2.27 8.86 2.40
2.17 9.25 2.49
1.98 9.29 2.49
1.80 9.33 2.49
1.61 9.36 2.49
1.42 9.39 2.49
1.23 9.42 2.49
1.04 9.45 2.49
0.85 9.47 2.49
0.66 9.48 2.49
0.47 9.50 2.49
0.28 9.50 2.49
0.09 9.51 2.49
-0.10 9.51 2.49
-0.29 9.51 2.49
-0.48 9.50 2.49
-0.67 9.49 2.49
-0.86 9.48 2.49
-1.05 9.46 2.49
-1.24 9.44 2.49
-1.43 9.41 2.49
-1.62 9.38 2.49
-1.81 9.35 2.49
-2.00 9.32 2.49
-2.19 9.28 2.49
-2.37 9.23 2.49
-2.56 9.18 2.49
-2.74 9.13 2.49
-2.93 9.08 2.49
-3.11 9.02 2.49
-3.29 8.96 2.49
-3.47 8.89 2.49
-3.65 8.82 2.49
-3.83 8.75 2.49
-4.00 8.67 2.49
-4.18 8.59 2.49
-4.35 8.51 2.49
-4.52 8.42 2.49
-4.69 8.33 2.49
-4.86 8.24 2.49
-5.02 8.14 2.49
-5.19 8.04 2.49
-5.35 7.94 2.49
-5.51 7.83 2.49
-5.67 7.72 2.49
-5.77 7.54 2.47
-5.78 7.24 2.41
-5.87 7.07 2.39
-6.02 6.95 2.39
-6.16 6.83 2.39
-6.29 6.71 2.39
-6.43 6.58 2.39
-6.56 6.45 2.39
-6.69 6.32 2.39
-6.82 6.19 2.39
-6.94 6.05 2.39
-7.07 5.91 2.39
-7.19 5.77 2.39
-7.30 5.63 2.39
-7.42 5.48 2.39
-7.53 5.33 2.39
-7.63 5.18 2.39
-7.74 5.03 2.39
-7.84 4.87 2.39
-7.94 4.72 2.39
-8.03 4.56 2.39
-8.13 4.40 2.39
-8.22 4.23 2.39
-8.30 4.07 2.39
-8.38 3.90 2.39
-8.46 3.74 2.39
-8.54 3.57 2.39
-8.61 3.39 2.39
-8.68 3.22 2.39
-8.75 3.05 2.39
-8.81 2.87 2.39
-8.87 2.70 2.39
-8.92 2.52 2.39
-8.97 2.34 2.39
-9.02 2.16 2.39
-9.06 1.98 2.39
-9.11 1.80 2.39
-9.14 1.61 2.39
-9.18 1.43 2.39
-9.20 1.25 2.39
-9.23 1.06 2.39
-9.25 0.88 2.39
-9.27 0.69 2.39
-9.29 0.51 2.39
-9.30 0.32 2.39
-9.30 0.13 2.39
-9.31 -0.05 2.39
-9.31 -0.24 2.39
-9.30 -0.43 2.39
-9.29 -0.61 2.39
-9.28 -0.80 2.39
-9.27 -0.99 2.39
-9.25 -1.17 2.39
-9.22 -1.36 2.39
-9.20 -1.54 2.39
-9.17 -1.73 2.39
-9.13 -1.91 2.39
-9.09 -2.10 2.39
-9.05 -2.28 2.39
-9.01 -2.46 2.39
-8.96 -2.64 2.39
-8.90 -2.82 2.39
-8.85 -3.00 2.39
-8.79 -3.18 2.39
-8.72 -3.35 2.39
-8.66 -3.53 2.39
-8.58 -3.70 2.39
-8.51 -3.87 2.39
-8.43 -4.04 2.39
-8.35 -4.21 2.39
-8.27 -4.38 2.39
-8.18 -4.55 2.39
-8.09 -4.71 2.39
-7.99 -4.87 2.39
-7.89 -5.03 2.39
-7.79 -5.19 2.39
-7.69 -5.35 2.39
-7.58 -5.50 2.39
-7.47 -5.65 2.39
-7.35 -5.80 2.39
-7.24 -5.95 2.39
-7.12 -6.09 2.39
-6.99 -6.23 2.39
-6.87 -6.37 2.39
-6.74 -6.51 2.39
-6.61 -6.64 2.39
-6.47 -6.78 2.39
-6.34 -6.91 2.39
-6.20 -7.03 2.39
-6.06 -7.15 2.39
-5.91 -7.28 2.39
-5.76 -7.39 2.39
-5.63 -7.52 2.40
-5.61 -7.83 2.46
-5.54 -8.06 2.49
-5.38 -8.17 2.49
-5.21 -8.28 2.49
-5.05 -8.38 2.49
-4.88 -8.48 2.49
-4.70 -8.57 2.49
-4.53 -8.67 2.49
-4.36 -8.76 2.49
-4.18 -8.84 2.49
-4.00 -8.92 2.49
-3.82 -9.00 2.49
-3.64 -9.08 2.49
-3.46 -9.15 2.49
-3.27 -9.21 2.49
-3.09 -9.28 2.49
-2.90 -9.34 2.49
-2.71 -9.39 2.49
-2.52 -9.44 2.49
-2.33 -9.49 2.49
-2.14 -9.54 2.49
-1.95 -9.58 2.49
-1.76 -9.61 2.49
-1.57 -9.64 2.49
-1.37 -9.67 2.49
-1.18 -9.70 2.49
-0.98 -9.72 2.49
-0.79 -9.73 2.49
-0.59 -9.75 2.49
-0.40 -9.75 2.49
-0.20 -9.76 2.49
-0.00 -8.92 2.49
0.17 -8.91 2.49
0.35 -8.91 2.49
0.53 -8.90 2.49
0.71 -8.88 2.49
0.89 -8.87 2.49
1.07 -8.85 2.49
1.24 -8.82 2.49
1.42 -8.79 2.49
1.59 -8.76 2.49
1.77 -8.73 2.49
1.94 -8.69 2.49
2.12 -8.64 2.49
2.29 -8.60 2.49
2.44 -8.47 2.47
2.52 -8.14 2.39
2.68 -8.09 2.39
2.85 -8.03 2.39
3.01 -7.97 2.39
3.16 -7.91 2.39
3.32 -7.84 2.39
3.48 -7.77 2.39
3.63 -7.70 2.39
3.78 -7.62 2.39
3.94 -7.54 2.39
2.85 -5.21 1.67
2.96 -5.16 1.67
4.38 -7.29 2.39
4.52 -7.20 2.39
4.67 -7.10 2.39
4.81 -7.01 2.39
4.94 -6.91 2.39
5.08 -6.80 2.39
5.22 -6.70 2.39
5.35 -6.59 2.39
5.48 -6.48 2.39
5.60 -6.37 2.39
5.73 -6.25 2.39
5.85 -6.14 2.39
5.97 -6.01 2.39
6.09 -5.89 2.39
6.21 -5.77 2.39
6.27 -5.60 2.37
6.27 -5.37 2.33
6.26 -5.15 2.29
6.26 -4.94 2.25
6.26 -4.74 2.22
6.25 -4.54 2.18
6.27 -4.36 2.16
6.27 -4.18 2.13
6.26 -4.00 2.10
6.26 -3.82 2.08
6.26 -3.65 2.05
6.26 -3.49 2.03
6.26 -3.32 2.01
6.26 -3.16 1.99
6.26 -3.01 1.97
6.26 -2.85 1.95
6.26 -2.70 1.93
6.26 -2.55 1.92
6.25 -2.41 1.90
6.25 -2.26 1.89
6.26 -2.13 1.88
6.26 -1.99 1.87
6.26 -1.85 1.85
6.26 -1.71 1.84
6.26 -1.58 1.84
6.26 -1.44 1.83
6.26 -1.31 1.82
6.26 -1.18 1.81
6.26 -1.05 1.81
6.26 -0.92 1.80
6.26 -0.80 1.80
6.25 -0.67 1.79
6.25 -0.54 1.79
6.25 -0.41 1.78
6.24 -0.29 1.78
6.24 -0.16 1.78
6.24 -0.04 1.78
6.24 0.09 1.78
6.24 0.21 1.78
6.24 0.34 1.78
6.24 0.46 1.78
6.24 0.59 1.79
6.23 0.72 1.79
6.23 0.84 1.80
6.23 0.97 1.80
6.23 1.10 1.81
6.23 1.23 1.81
6.23 1.36 1.82
6.23 1.49 1.83
6.22 1.62 1.84
6.22 1.76 1.85
6.34 1.93 1.89
6.30 2.06 1.89
6.26 2.18 1.90
6.27 2.33 1.91
6.48 2.56 2.00
6.64 2.77 2.06
6.56 2.90 2.05
6.51 3.03 2.06
6.51 3.19 2.08
6.49 3.35 2.09
6.43 3.48 2.09
6.39 3.63 2.10
6.43 3.82 2.14
6.39 3.98 2.16
6.35 4.13 2.17
6.54 4.44 2.27
6.57 4.66 2.31
6.56 4.85 2.34
6.78 5.23 2.45
6.76 5.44 2.49
7.53 6.30 2.82
6.28 5.48 2.39
6.17 5.60 2.39
6.06 5.73 2.39
5.94 5.85 2.39
5.82 5.96 2.39
5.70 6.08 2.39
5.57 6.19 2.39
5.42 6.27 2.38
5.32 6.41 2.39
5.19 6.51 2.39
4.98 6.52 2.35
4.86 6.64 2.36
4.79 6.82 2.39
4.65 6.91 2.39
4.51 7.00 2.39
4.37 7.09 2.39
4.23 7.18 2.39
4.08 7.26 2.39
3.93 7.34 2.39
3.79 7.42 2.39
3.64 7.50 2.39
3.48 7.57 2.39
3.33 7.64 2.39
3.18 7.70 2.39
3.02 7.76 2.39
2.87 7.82 2.39
2.71 7.88 2.39
2.55 7.93 2.39
2.39 7.98 2.39
2.27 8.17 2.43
2.16 8.42 2.49
1.99 8.47 2.49
1.82 8.50 2.49
1.65 8.54 2.49
1.47 8.57 2.49
1.30 8.60 2.49
1.13 8.63 2.49
0.96 8.65 2.49
0.78 8.67 2.49
0.61 8.68 2.49
0.43 8.69 2.49
0.26 8.70 2.49
0.08 8.71 2.49
-0.09 8.71 2.49
-0.27 8.70 2.49
-0.44 8.70 2.49
-0.62 8.69 2.49
-0.79 8.68 2.49
-0.97 8.66 2.49
-1.14 8.64 2.49
-1.31 8.62 2.49
-1.49 8.59 2.49
-1.66 8.56 2.49
-1.83 8.53 2.49
-2.00 8.49 2.49
-2.17 8.45 2.49
-2.34 8.41 2.49
-2.51 8.36 2.49
-2.68 8.31 2.49
-2.85 8.25 2.49
-3.01 8.20 2.49
-3.18 8.14 2.49
-3.34 8.07 2.49
-3.50 8.01 2.49
-3.66 7.94 2.49
-3.82 7.86 2.49
-3.98 7.79 2.49
-4.14 7.71 2.49
-4.29 7.62 2.49
-4.45 7.54 2.49
-4.60 7.45 2.49
-4.75 7.36 2.49
-4.90 7.26 2.49
-5.04 7.16 2.49
-5.19 7.06 2.49
-5.33 6.96 2.49
-5.47 6.85 2.49
-5.61 6.74 2.49
-5.74 6.63 2.49
-5.76 6.39 2.45
-5.77 6.15 2.40
-5.88 6.02 2.39
-6.00 5.90 2.39
-6.12 5.78 2.39
-6.24 5.66 2.39
-6.35 5.53 2.39
-6.46 5.41 2.39
-6.57 5.28 2.39
-6.68 5.15 2.39
-6.78 5.01 2.39
-6.88 4.88 2.39
-6.98 4.74 2.39
-7.08 4.60 2.39
-7.17 4.46 2.39
-7.26 4.31 2.39
-7.35 4.17 2.39
-7.43 4.02 2.39
-7.51 3.87 2.39
-7.59 3.72 2.39
-7.67 3.57 2.39
-7.74 3.41 2.39
-7.81 3.26 2.39
-7.88 3.10 2.39
-7.94 2.95 2.39
-8.00 2.79 2.39
-8.05 2.63 2.39
-8.11 2.46 2.39
-8.16 2.30 2.39
-8.20 2.14 2.39
-8.25 1.97 2.39
-8.29 1.81 2.39
-8.32 1.64 2.39
-8.36 1.48 2.39
-8.39 1.31 2.39
-8.42 1.14 2.39
-8.44 0.97 2.39
-8.46 0.80 2.39
-8.47 0.63 2.39
-8.49 0.46 2.39
-8.50 0.29 2.39
-8.50 0.12 2.39
-8.51 -0.05 2.39
-8.51 -0.22 2.39
-8.50 -0.39 2.39
-8.49 -0.56 2.39
-8.48 -0.73 2.39
-8.47 -0.90 2.39
-8.45 -1.07 2.39
-8.43 -1.24 2.39
-8.40 -1.41 2.39
-8.38 -1.58 2.39
-8.34 -1.75 2.39
-8.31 -1.92 2.39
-8.27 -2.08 2.39
-8.23 -2.25 2.39
-8.18 -2.41 2.39
-8.14 -2.58 2.39
-8.08 -2.74 2.39
-8.03 -2.90 2.39
-7.97 -3.06 2.39
-7.91 -3.22 2.39
-7.84 -3.38 2.39
-7.78 -3.54 2.39
-7.70 -3.70 2.39
-7.63 -3.85 2.39
-7.55 -4.00 2.39
-7.47 -4.15 2.39
-7.39 -4.30 2.39
-7.30 -4.45 2.39
-7.21 -4.60 2.39
-7.12 -4.74 2.39
-7.02 -4.88 2.39
-6.92 -5.02 2.39
-6.82 -5.16 2.39
-6.72 -5.30 2.39
-6.61 -5.43 2.39
-6.50 -5.57 2.39
-6.39 -5.70 2.39
-6.27 -5.82 2.39
-6.16 -5.95 2.39
-6.04 -6.07 2.39
-5.91 -6.19 2.39
-5.79 -6.31 2.39
-5.66 -6.42 2.39
-5.63 -6.65 2.43
-5.62 -6.92 2.49
-5.49 -7.04 2.49
-5.35 -7.15 2.49
-5.21 -7.26 2.49
-5.06 -7.36 2.49
-4.91 -7.46 2.49
-4.76 -7.56 2.49
-4.61 -7.65 2.49
-4.45 -7.75 2.49
-4.30 -7.83 2.49
-4.14 -7.92 2.49
-3.98 -8.00 2.49
-3.82 -8.08 2.49
-3.66 -8.15 2.49
-3.49 -8.22 2.49
-3.33 -8.29 2.49
-3.16 -8.36 2.49
-2.99 -8.42 2.49
-2.82 -8.47 2.49
-2.65 -8.53 2.49
-2.48 -8.58 2.49
-2.31 -8.63 2.49
-2.13 -8.67 2.49
-1.96 -8.71 2.49
-1.78 -8.75 2.49
-1.61 -8.78 2.49
-1.43 -8.81 2.49
-1.25 -8.84 2.49
-1.08 -8.86 2.49
-0.90 -8.88 2.49
-0.72 -8.89 2.49
-0.54 -8.90 2.49
-0.36 -8.91 2.49
-0.18 -8.92 2.49
-0.00 -8.20 2.49
0.16 -8.20 2.49
0.32 -8.19 2.49
0.49 -8.18 2.49
0.65 -8.17 2.49
0.82 -8.15 2.49
0.98 -8.14 2.49
1.14 -8.11 2.49
1.30 -8.09 2.49
1.47 -8.06 2.49
1.63 -8.03 2.49
1.79 -7.99 2.49
1.95 -7.95 2.49
2.11 -7.91 2.49
2.26 -7.86 2.49
2.42 -7.81 2.49
2.47 -7.44 2.39
2.64 -7.44 2.41
2.76 -7.33 2.39
2.91 -7.28 2.39
3.06 -7.21 2.39
3.20 -7.15 2.39
3.34 -7.08 2.39
3.48 -7.01 2.39
3.62 -6.94 2.39
2.85 -5.21 1.81
2.96 -5.16 1.82
4.03 -6.71 2.39
4.16 -6.62 2.39
4.29 -6.54 2.39
4.42 -6.45 2.39
4.55 -6.35 2.39
4.67 -6.26 2.39
4.80 -6.16 2.39
4.92 -6.07 2.39
5.04 -5.96 2.39
5.16 -5.86 2.39
5.27 -5.75 2.39
5.38 -5.65 2.39
5.50 -5.54 2.39
5.60 -5.42 2.39
5.71 -5.31 2.39
5.81 -5.19 2.39
5.92 -5.07 2.39
6.01 -4.95 2.39
6.11 -4.83 2.39
6.21 -4.70 2.39
6.25 -4.54 2.37
6.27 -4.36 2.35
6.27 -4.18 2.31
6.26 -4.00 2.28
6.26 -3.82 2.26
6.26 -3.65 2.23
6.26 -3.49 2.20
6.26 -3.32 2.18
6.26 -3.16 2.16
6.26 -3.01 2.14
6.26 -2.85 2.12
6.26 -2.70 2.10
6.26 -2.55 2.08
6.25 -2.41 2.07
6.25 -2.26 2.05
6.26 -2.13 2.04
6.26 -1.99 2.03
6.26 -1.85 2.01
6.26 -1.71 2.00
6.26 -1.58 1.99
6.26 -1.45 1.98
6.26 -1.31 1.98
6.26 -1.18 1.97
6.26 -1.05 1.96
6.26 -0.92 1.96
6.26 -0.80 1.95
6.25 -0.67 1.94
6.25 -0.54 1.94
6.25 -0.41 1.94
6.24 -0.29 1.93
6.24 -0.16 1.93
6.24 -0.04 1.93
6.24 0.09 1.93
6.24 0.21 1.93
6.24 0.34 1.94
6.24 0.46 1.94
6.24 0.59 1.94
6.23 0.72 1.95
6.23 0.84 1.95
6.23 0.97 1.96
6.23 1.10 1.96
6.23 1.23 1.97
6.23 1.36 1.98
6.23 1.49 1.99
6.22 1.62 2.00
6.22 1.76 2.01
6.10 1.86 1.98
6.06 1.98 1.98
6.07 2.12 2.00
6.12 2.27 2.03
6.23 2.46 2.08
6.52 2.72 2.20
6.46 2.85 2.19
6.48 3.02 2.22
6.49 3.18 2.25
6.47 3.34 2.26
6.43 3.48 2.27
6.38 3.62 2.28
6.32 3.76 2.29
6.26 3.90 2.30
6.23 4.05 2.31
6.19 4.21 2.33
6.27 4.44 2.39
6.18 4.57 2.39
6.08 4.69 2.39
5.99 4.81 2.39
5.89 4.93 2.39
5.79 5.05 2.39
5.68 5.16 2.39
5.58 5.28 2.39
5.47 5.39 2.39
5.36 5.49 2.39
5.25 5.60 2.39
5.14 5.71 2.39
5.02 5.81 2.39
4.90 5.91 2.39
4.78 6.00 2.39
4.66 6.10 2.39
4.54 6.19 2.39
4.41 6.28 2.39
4.28 6.37 2.39
4.16 6.45 2.39
4.02 6.53 2.39
3.89 6.61 2.39
3.76 6.69 2.39
3.62 6.76 2.39
3.49 6.84 2.39
3.35 6.91 2.39
3.21 6.97 2.39
3.07 7.03 2.39
2.93 7.10 2.39
2.78 7.15 2.39
2.64 7.21 2.39
2.49 7.26 2.39
2.35 7.31 2.39
2.27 7.59 2.47
2.14 7.72 2.49
1.99 7.76 2.49
1.83 7.80 2.49
1.67 7.83 2.49
1.52 7.87 2.49
1.36 7.90 2.49
1.20 7.92 2.49
1.04 7.95 2.49
0.88 7.97 2.49
0.72 7.98 2.49
0.56 8.00 2.49
0.40 8.01 2.49
0.24 8.01 2.49
0.08 8.02 2.49
-0.09 8.02 2.49
-0.25 8.02 2.49
-0.41 8.01 2.49
-0.57 8.00 2.49
-0.73 7.99 2.49
-0.89 7.98 2.49
-1.05 7.96 2.49
-1.21 7.94 2.49
-1.37 7.91 2.49
-1.53 7.88 2.49
-1.69 7.85 2.49
-1.84 7.82 2.49
-2.00 7.78 2.49
-2.16 7.74 2.49
-2.31 7.70 2.49
-2.47 7.65 2.49
-2.62 7.60 2.49
-2.77 7.55 2.49
-2.93 7.49 2.49
-3.08 7.43 2.49
-3.23 7.37 2.49
-3.37 7.31 2.49
-3.52 7.24 2.49
-3.67 7.17 2.49
-3.81 7.10 2.49
-3.95 7.02 2.49
-4.09 6.94 2.49
-4.23 6.86 2.49
-4.37 6.77 2.49
-4.51 6.69 2.49
-4.64 6.60 2.49
-4.78 6.50 2.49
-4.91 6.41 2.49
-5.03 6.31 2.49
-5.16 6.21 2.49
-5.29 6.10 2.49
-5.41 6.00 2.49
-5.53 5.89 2.49
-5.65 5.78 2.49
-5.75 5.66 2.49
-5.75 5.43 2.44
-5.76 5.22 2.40
-5.85 5.09 2.39
-5.95 4.98 2.39
-6.05 4.86 2.39
-6.15 4.74 2.39
-6.24 4.61 2.39
-6.34 4.49 2.39
-6.43 4.36 2.39
-6.52 4.23 2.39
-6.60 4.10 2.39
-6.68 3.97 2.39
-6.76 3.84 2.39
-6.84 3.70 2.39
-6.92 3.56 2.39
-6.99 3.42 2.39
-7.06 3.28 2.39
-7.12 3.14 2.39
-7.19 3.00 2.39
-7.25 2.86 2.39
-7.31 2.71 2.39
-7.36 2.56 2.39
-7.41 2.42 2.39
-7.46 2.27 2.39
-7.51 2.12 2.39
-7.55 1.97 2.39
-7.59 1.82 2.39
-7.63 1.66 2.39
-7.66 1.51 2.39
-7.69 1.36 2.39
-7.72 1.20 2.39
-7.74 1.05 2.39
-7.76 0.89 2.39
-7.78 0.74 2.39
-7.80 0.58 2.39
-7.81 0.42 2.39
-7.82 0.27 2.39
-7.82 0.11 2.39
-7.83 -0.05 2.39
-7.82 -0.20 2.39
-7.82 -0.36 2.39
-7.81 -0.52 2.39
-7.80 -0.67 2.39
-7.79 -0.83 2.39
-7.77 -0.99 2.39
-7.75 -1.14 2.39
-7.73 -1.30 2.39
-7.70 -1.45 2.39
-7.68 -1.61 2.39
-7.64 -1.76 2.39
-7.61 -1.92 2.39
-7.57 -2.07 2.39
-7.53 -2.22 2.39
-7.48 -2.37 2.39
-7.44 -2.52 2.39
-7.38 -2.67 2.39
-7.33 -2.82 2.39
-7.27 -2.97 2.39
-7.21 -3.11 2.39
-7.15 -3.26 2.39
-7.09 -3.40 2.39
-7.02 -3.54 2.39
-6.95 -3.68 2.39
-6.87 -3.82 2.39
-6.79 -3.96 2.39
-6.71 -4.09 2.39
-6.63 -4.23 2.39
-6.55 -4.36 2.39
-6.46 -4.49 2.39
-6.37 -4.62 2.39
-6.27 -4.75 2.39
-6.18 -4.87 2.39
-6.08 -5.00 2.39
-5.98 -5.12 2.39
-5.88 -5.24 2.39
-5.77 -5.35 2.39
-5.66 -5.47 2.39
-5.64 -5.67 2.43
-5.63 -5.90 2.48
-5.55 -6.05 2.49
-5.43 -6.16 2.49
-5.31 -6.27 2.49
-5.18 -6.38 2.49
-5.05 -6.48 2.49
-4.92 -6.58 2.49
-4.79 -6.68 2.49
-4.65 -6.77 2.49
-4.52 -6.86 2.49
-4.38 -6.95 2.49
-4.24 -7.04 2.49
-4.10 -7.12 2.49
-3.95 -7.20 2.49
-3.81 -7.28 2.49
-3.66 -7.36 2.49
-3.51 -7.43 2.49
-3.36 -7.50 2.49
-3.21 -7.56 2.49
-3.06 -7.62 2.49
-2.91 -7.68 2.49
-2.75 -7.74 2.49
-2.59 -7.79 2.49
-2.44 -7.84 2.49
-2.28 -7.89 2.49
-2.12 -7.93 2.49
-1.96 -7.97 2.49
-1.80 -8.01 2.49
-1.64 -8.04 2.49
-1.48 -8.08 2.49
-1.32 -8.10 2.49
-1.15 -8.13 2.49
-0.99 -8.15 2.49
-0.83 -8.16 2.49
-0.66 -8.18 2.49
-0.50 -8.19 2.49
-0.33 -8.20 2.49
-0.17 -8.20 2.49
-0.00 -7.58 2.49
0.15 -7.58 2.49
0.30 -7.58 2.49
0.45 -7.57 2.49
0.60 -7.56 2.49
0.75 -7.54 2.49
0.90 -7.52 2.49
1.06 -7.50 2.49
1.21 -7.48 2.49
1.36 -7.45 2.49
1.50 -7.42 2.49
1.65 -7.39 2.49
1.80 -7.35 2.49
1.95 -7.31 2.49
2.09 -7.27 2.49
2.24 -7.23 2.49
2.38 -7.18 2.49
2.43 -6.87 2.40
2.56 -6.78 2.39
2.69 -6.73 2.39
2.83 -6.67 2.39
2.96 -6.61 2.39
3.09 -6.55 2.39
3.22 -6.49 2.39
3.35 -6.42 2.39
2.85 -5.21 1.96
2.96 -5.16 1.97
3.73 -6.20 2.39
3.85 -6.13 2.39
3.97 -6.05 2.39
4.09 -5.96 2.39
4.21 -5.88 2.39
4.32 -5.79 2.39
4.44 -5.70 2.39
4.55 -5.61 2.39
4.66 -5.52 2.39
4.77 -5.42 2.39
4.88 -5.32 2.39
4.98 -5.22 2.39
5.08 -5.12 2.39
5.18 -5.02 2.39
5.28 -4.91 2.39
5.38 -4.80 2.39
5.47 -4.69 2.39
5.56 -4.58 2.39
5.65 -4.47 2.39
5.74 -4.35 2.39
5.83 -4.23 2.39
5.91 -4.12 2.39
5.99 -4.00 2.39
6.07 -3.87 2.39
6.14 -3.75 2.39
6.21 -3.62 2.39
6.26 -3.49 2.38
6.26 -3.32 2.36
6.26 -3.16 2.33
6.26 -3.01 2.31
6.26 -2.85 2.29
6.26 -2.70 2.27
6.26 -2.55 2.25
6.25 -2.41 2.23
6.25 -2.26 2.22
6.26 -2.13 2.20
6.26 -1.99 2.19
6.26 -1.85 2.18
6.26 -1.71 2.16
6.26 -1.58 2.15
6.26 -1.45 2.14
6.26 -1.31 2.13
6.26 -1.18 2.13
6.26 -1.05 2.12
6.26 -0.92 2.11
6.26 -0.80 2.11
6.25 -0.67 2.10
6.25 -0.54 2.10
6.25 -0.41 2.09
6.24 -0.29 2.09
6.24 -0.16 2.09
6.24 -0.04 2.09
6.24 0.09 2.09
6.24 0.21 2.09
6.24 0.34 2.09
6.24 0.46 2.09
6.24 0.59 2.10
6.23 0.72 2.10
6.23 0.84 2.11
6.23 0.97 2.11
6.23 1.10 2.12
6.23 1.23 2.13
6.23 1.36 2.14
6.23 1.49 2.15
6.22 1.62 2.16
6.12 1.73 2.13
6.03 1.83 2.11
6.00 1.96 2.12
5.99 2.09 2.13
6.03 2.24 2.16
6.06 2.39 2.19
6.41 2.68 2.33
6.40 2.82 2.35
6.42 2.99 2.38
6.43 3.15 2.41
6.33 3.26 2.39
6.26 3.39 2.39
6.19 3.51 2.39
6.12 3.64 2.39
6.04 3.76 2.39
5.97 3.88 2.39
5.89 4.00 2.39
5.80 4.11 2.39
5.72 4.23 2.39
5.63 4.34 2.39
5.54 4.46 2.39
5.45 4.57 2.39
5.36 4.67 2.39
5.26 4.78 2.39
5.17 4.89 2.39
5.07 4.99 2.39
4.97 5.09 2.39
4.86 5.19 2.39
4.76 5.28 2.39
4.65 5.38 2.39
4.54 5.47 2.39
4.43 5.56 2.39
4.32 5.65 2.39
4.20 5.73 2.39
4.09 5.82 2.39
3.97 5.90 2.39
3.85 5.97 2.39
3.73 6.05 2.39
3.60 6.12 2.39
3.48 6.20 2.39
3.36 6.26 2.39
3.23 6.33 2.39
3.10 6.39 2.39
2.97 6.46 2.39
2.84 6.51 2.39
2.71 6.57 2.39
2.58 6.62 2.39
2.44 6.67 2.39
2.31 6.72 2.39
2.27 7.06 2.49
2.13 7.10 2.49
1.98 7.15 2.49
1.84 7.19 2.49
1.69 7.22 2.49
1.55 7.25 2.49
1.40 7.28 2.49
1.26 7.31 2.49
1.11 7.34 2.49
0.96 7.36 2.49
0.81 7.38 2.49
0.67 7.39 2.49
0.52 7.40 2.49
0.37 7.41 2.49
0.22 7.42 2.49
0.07 7.42 2.49
-0.08 7.43 2.49
-0.23 7.42 2.49
-0.38 7.42 2.49
-0.53 7.41 2.49
-0.68 7.40 2.49
-0.82 7.39 2.49
-0.97 7.37 2.49
-1.12 7.35 2.49
-1.27 7.33 2.49
-1.42 7.30 2.49
-1.56 7.27 2.49
-1.71 7.24 2.49
-1.85 7.20 2.49
-2.00 7.17 2.49
-2.14 7.13 2.49
-2.29 7.08 2.49
-2.43 7.04 2.49
-2.57 6.99 2.49
-2.71 6.94 2.49
-2.85 6.88 2.49
-2.99 6.83 2.49
-3.12 6.77 2.49
-3.26 6.70 2.49
-3.39 6.64 2.49
-3.53 6.57 2.49
-3.66 6.50 2.49
-3.79 6.42 2.49
-3.92 6.35 2.49
-4.05 6.27 2.49
-4.17 6.19 2.49
-4.30 6.11 2.49
-4.42 6.02 2.49
-4.54 5.93 2.49
-4.66 5.84 2.49
-4.78 5.75 2.49
-4.89 5.65 2.49
-5.01 5.55 2.49
-5.12 5.45 2.49
-5.23 5.35 2.49
-5.34 5.24 2.49
-5.44 5.14 2.49
-5.54 5.03 2.49
-5.65 4.92 2.49
-5.74 4.80 2.49
-5.74 4.61 2.45
-5.75 4.43 2.42
-5.78 4.27 2.39
-5.86 4.15 2.39
-5.95 4.03 2.39
-6.03 3.92 2.39
-6.11 3.79 2.39
-6.19 3.67 2.39
-6.26 3.55 2.39
-6.33 3.42 2.39
-6.40 3.30 2.39
-6.47 3.17 2.39
-6.53 3.04 2.39
-6.59 2.91 2.39
-6.65 2.77 2.39
-6.71 2.64 2.39
-6.76 2.51 2.39
-6.81 2.37 2.39
-6.86 2.23 2.39
-6.90 2.10 2.39
-6.94 1.96 2.39
-6.98 1.82 2.39
-7.02 1.68 2.39
-7.06 1.54 2.39
-7.09 1.40 2.39
-7.11 1.25 2.39
-7.14 1.11 2.39
-7.16 0.97 2.39
-7.18 0.82 2.39
-7.20 0.68 2.39
-7.21 0.54 2.39
-7.22 0.39 2.39
-7.23 0.25 2.39
-7.24 0.10 2.39
-7.24 -0.04 2.39
-7.24 -0.19 2.39
-7.23 -0.33 2.39
-7.23 -0.48 2.39
-7.22 -0.62 2.39
-7.20 -0.77 2.39
-7.19 -0.91 2.39
-7.17 -1.06 2.39
-7.15 -1.20 2.39
-7.13 -1.35 2.39
-7.10 -1.49 2.39
-7.07 -1.63 2.39
-7.04 -1.77 2.39
-7.00 -1.91 2.39
-6.96 -2.05 2.39
-6.92 -2.19 2.39
-6.88 -2.33 2.39
-6.83 -2.47 2.39
-6.78 -2.61 2.39
-6.73 -2.74 2.39
-6.67 -2.88 2.39
-6.61 -3.01 2.39
-6.55 -3.14 2.39
-6.49 -3.27 2.39
-6.42 -3.40 2.39
-6.35 -3.53 2.39
-6.28 -3.66 2.39
-6.21 -3.79 2.39
-6.13 -3.91 2.39
-6.05 -4.03 2.39
-5.97 -4.15 2.39
-5.89 -4.27 2.39
-5.80 -4.39 2.39
-5.71 -4.51 2.39
-5.66 -4.65 2.41
-5.65 -4.83 2.44
-5.64 -5.03 2.48
-5.56 -5.16 2.49
-5.46 -5.28 2.49
-5.35 -5.38 2.49
-5.25 -5.49 2.49
-5.13 -5.60 2.49
-5.02 -5.70 2.49
-4.91 -5.80 2.49
-4.79 -5.89 2.49
-4.67 -5.99 2.49
-4.55 -6.08 2.49
-4.43 -6.17 2.49
-4.30 -6.26 2.49
-4.18 -6.35 2.49
-4.05 -6.43 2.49
-3.92 -6.51 2.49
-3.79 -6.58 2.49
-3.65 -6.66 2.49
-3.52 -6.73 2.49
-3.38 -6.80 2.49
-3.25 -6.87 2.49
-3.11 -6.93 2.49
-2.97 -6.99 2.49
-2.83 -7.05 2.49
-2.69 -7.10 2.49
-2.54 -7.16 2.49
-2.40 -7.21 2.49
-2.25 -7.25 2.49
-2.11 -7.29 2.49
-1.96 -7.34 2.49
-1.81 -7.37 2.49
-1.67 -7.41 2.49
-1.52 -7.44 2.49
-1.37 -7.47 2.49
-1.22 -7.49 2.49
-1.07 -7.51 2.49
-0.92 -7.53 2.49
-0.76 -7.55 2.49
-0.61 -7.56 2.49
-0.46 -7.57 2.49
-0.31 -7.58 2.49
-0.16 -7.58 2.49
-0.00 -7.04 2.49
0.14 -7.04 2.49
0.28 -7.04 2.49
0.42 -7.03 2.49
0.56 -7.02 2.49
0.70 -7.01 2.49
0.84 -6.99 2.49
0.98 -6.97 2.49
1.12 -6.95 2.49
1.26 -6.92 2.49
1.40 -6.90 2.49
1.53 -6.86 2.49
1.67 -6.83 2.49
1.81 -6.80 2.49
1.94 -6.76 2.49
2.08 -6.72 2.49
2.21 -6.67 2.49
2.35 -6.62 2.49
2.42 -6.42 2.44
2.50 -6.25 2.39
2.63 -6.21 2.39
2.75 -6.14 2.39
2.87 -6.09 2.39
2.99 -6.03 2.39
3.11 -5.97 2.39
2.85 -5.21 2.11
2.96 -5.16 2.11
3.46 -5.76 2.39
3.58 -5.69 2.39
3.69 -5.62 2.39
3.80 -5.54 2.39
3.91 -5.46 2.39
4.02 -5.38 2.39
4.12 -5.30 2.39
4.23 -5.21 2.39
4.33 -5.13 2.39
4.43 -5.04 2.39
4.53 -4.95 2.39
4.63 -4.85 2.39
4.72 -4.76 2.39
4.82 -4.66 2.39
4.91 -4.56 2.39
5.00 -4.46 2.39
5.09 -4.36 2.39
5.17 -4.26 2.39
5.25 -4.15 2.39
5.34 -4.04 2.39
5.41 -3.94 2.39
5.49 -3.83 2.39
5.57 -3.71 2.39
5.64 -3.60 2.39
5.71 -3.49 2.39
5.77 -3.37 2.39
5.84 -3.25 2.39
5.90 -3.13 2.39
5.96 -3.01 2.39
6.02 -2.89 2.39
6.08 -2.77 2.39
6.13 -2.65 2.39
6.18 -2.52 2.39
6.23 -2.40 2.39
6.25 -2.27 2.38
6.26 -2.13 2.37
6.26 -1.99 2.36
6.26 -1.85 2.34
6.26 -1.71 2.33
6.26 -1.58 2.32
6.26 -1.45 2.31
6.26 -1.31 2.30
6.26 -1.18 2.29
6.26 -1.05 2.28
6.26 -0.92 2.27
6.26 -0.80 2.27
6.25 -0.67 2.26
6.25 -0.54 2.25
6.25 -0.42 2.25
6.24 -0.29 2.25
6.24 -0.16 2.25
6.24 -0.04 2.24
6.24 0.09 2.25
6.24 0.21 2.25
6.24 0.34 2.25
6.24 0.46 2.25
6.24 0.59 2.25
6.23 0.72 2.26
6.23 0.84 2.27
6.23 0.97 2.27
6.23 1.10 2.28
6.23 1.23 2.29
6.23 1.36 2.30
6.23 1.49 2.31
6.17 1.61 2.30
6.03 1.70 2.26
5.98 1.82 2.25
5.96 1.94 2.26
5.95 2.08 2.27
6.01 2.23 2.31
6.08 2.40 2.36
6.11 2.55 2.39
6.06 2.68 2.39
6.00 2.80 2.39
5.95 2.92 2.39
5.89 3.03 2.39
5.82 3.15 2.39
5.76 3.27 2.39
5.69 3.38 2.39
5.62 3.50 2.39
5.55 3.61 2.39
5.47 3.72 2.39
5.40 3.83 2.39
5.32 3.93 2.39
5.24 4.04 2.39
5.16 4.14 2.39
5.07 4.25 2.39
4.98 4.35 2.39
4.90 4.45 2.39
4.81 4.54 2.39
4.71 4.64 2.39
4.62 4.73 2.39
4.52 4.82 2.39
4.42 4.91 2.39
4.32 5.00 2.39
4.22 5.09 2.39
4.12 5.17 2.39
4.01 5.25 2.39
3.91 5.33 2.39
3.80 5.41 2.39
3.69 5.48 2.39
3.58 5.56 2.39
3.47 5.63 2.39
3.35 5.70 2.39
3.24 5.76 2.39
3.12 5.83 2.39
3.00 5.89 2.39
2.88 5.95 2.39
2.76 6.00 2.39
2.64 6.06 2.39
2.52 6.11 2.39
2.40 6.16 2.39
2.29 6.26 2.41
2.24 6.52 2.49
2.11 6.57 2.49
1.98 6.61 2.49
1.84 6.65 2.49
1.71 6.68 2.49
1.58 6.72 2.49
1.44 6.75 2.49
1.31 6.78 2.49
1.17 6.80 2.49
1.03 6.82 2.49
0.89 6.84 2.49
0.76 6.86 2.49
0.62 6.88 2.49
0.48 6.89 2.49
0.34 6.90 2.49
0.20 6.90 2.49
0.06 6.91 2.49
-0.07 6.91 2.49
-0.21 6.90 2.49
-0.35 6.90 2.49
-0.49 6.89 2.49
-0.63 6.88 2.49
-0.77 6.87 2.49
-0.90 6.85 2.49
-1.04 6.83 2.49
-1.18 6.81 2.49
-1.32 6.79 2.49
-1.45 6.76 2.49
-1.59 6.73 2.49
-1.72 6.70 2.49
-1.86 6.67 2.49
-1.99 6.63 2.49
-2.13 6.59 2.49
-2.26 6.54 2.49
-2.39 6.50 2.49
-2.52 6.45 2.49
-2.65 6.40 2.49
-2.78 6.35 2.49
-2.91 6.29 2.49
-3.03 6.23 2.49
-3.16 6.17 2.49
-3.28 6.11 2.49
-3.40 6.04 2.49
-3.52 5.97 2.49
-3.64 5.90 2.49
-3.76 5.83 2.49
-3.88 5.75 2.49
-4.00 5.68 2.49
-4.11 5.60 2.49
-4.22 5.51 2.49
-4.33 5.43 2.49
-4.44 5.34 2.49
-4.55 5.25 2.49
-4.66 5.16 2.49
-4.76 5.07 2.49
-4.86 4.97 2.49
-4.96 4.87 2.49
-5.06 4.78 2.49
-5.16 4.67 2.49
-5.25 4.57 2.49
-5.34 4.47 2.49
-5.43 4.36 2.49
-5.52 4.25 2.49
-5.60 4.14 2.49
-5.69 4.03 2.49
-5.74 3.89 2.48
-5.73 3.72 2.45
-5.74 3.56 2.42
-5.75 3.41 2.39
-5.82 3.30 2.39
-5.88 3.18 2.39
-5.95 3.06 2.39
-6.01 2.94 2.39
-6.07 2.82 2.39
-6.13 2.70 2.39
-6.18 2.58 2.39
-6.23 2.45 2.39
-6.28 2.33 2.39
-6.33 2.20 2.39
-6.37 2.08 2.39
-6.42 1.95 2.39
-6.45 1.82 2.39
-6.49 1.69 2.39
-6.53 1.56 2.39
-6.56 1.43 2.39
-6.59 1.30 2.39
-6.61 1.17 2.39
-6.63 1.03 2.39
-6.66 0.90 2.39
-6.67 0.77 2.39
-6.69 0.63 2.39
-6.70 0.50 2.39
-6.71 0.36 2.39
-6.72 0.23 2.39
-6.72 0.09 2.39
-6.73 -0.04 2.39
-6.73 -0.18 2.39
-6.72 -0.31 2.39
-6.72 -0.45 2.39
-6.71 -0.58 2.39
-6.69 -0.72 2.39
-6.68 -0.85 2.39
-6.66 -0.98 2.39
-6.64 -1.12 2.39
-6.62 -1.25 2.39
-6.60 -1.38 2.39
-6.57 -1.52 2.39
-6.54 -1.65 2.39
-6.50 -1.78 2.39
-6.47 -1.91 2.39
-6.43 -2.04 2.39
-6.39 -2.17 2.39
-6.34 -2.29 2.39
-6.30 -2.42 2.39
-6.25 -2.55 2.39
-6.20 -2.67 2.39
-6.14 -2.80 2.39
-6.09 -2.92 2.39
-6.03 -3.04 2.39
-5.97 -3.16 2.39
-5.90 -3.28 2.39
-5.85 -3.41 2.40
-5.77 -3.52 2.39
-5.70 -3.63 2.39
-5.66 -3.77 2.41
-5.66 -3.93 2.44
-5.65 -4.10 2.47
-5.62 -4.25 2.49
-5.54 -4.37 2.49
-5.45 -4.48 2.49
-5.36 -4.59 2.49
-5.26 -4.69 2.49
-5.17 -4.80 2.49
-5.07 -4.90 2.49
-4.97 -5.00 2.49
-4.87 -5.10 2.49
-4.77 -5.20 2.49
-4.66 -5.29 2.49
-4.56 -5.38 2.49
-4.45 -5.48 2.49
-4.34 -5.56 2.49
-4.23 -5.65 2.49
-4.11 -5.73 2.49
-4.00 -5.81 2.49
-3.88 -5.89 2.49
-3.76 -5.97 2.49
-3.64 -6.04 2.49
-3.52 -6.12 2.49
-3.39 -6.19 2.49
-3.27 -6.25 2.49
-3.14 -6.32 2.49
-3.02 -6.38 2.49
-2.89 -6.44 2.49
-2.76 -6.49 2.49
-2.63 -6.55 2.49
-2.50 -6.60 2.49
-2.36 -6.65 2.49
-2.23 -6.69 2.49
-2.09 -6.74 2.49
-1.96 -6.78 2.49
-1.82 -6.81 2.49
-1.69 -6.85 2.49
-1.55 -6.88 2.49
-1.41 -6.91 2.49
-1.27 -6.94 2.49
-1.13 -6.96 2.49
-0.99 -6.98 2.49
-0.85 -7.00 2.49
-0.71 -7.01 2.49
-0.57 -7.02 2.49
-0.43 -7.03 2.49
-0.29 -7.04 2.49
-0.15 -7.04 2.49
-0.00 -6.57 2.49
0.13 -6.57 2.49
0.26 -6.56 2.49
0.39 -6.56 2.49
0.52 -6.55 2.49
0.65 -6.53 2.49
0.78 -6.52 2.49
0.91 -6.50 2.49
1.04 -6.48 2.49
1.17 -6.46 2.49
1.30 -6.43 2.49
1.43 -6.40 2.49
1.56 -6.37 2.49
1.69 -6.34 2.49
1.81 -6.30 2.49
1.94 -6.26 2.49
2.06 -6.22 2.49
2.19 -6.18 2.49
2.31 -6.13 2.49
2.41 -6.04 2.47
2.45 -5.78 2.39
2.56 -5.73 2.39
2.68 -5.68 2.39
2.79 -5.62 2.39
2.90 -5.56 2.39
2.85 -5.21 2.26
2.96 -5.16 2.27
3.23 -5.38 2.39
3.34 -5.31 2.39
3.44 -5.24 2.39
3.54 -5.17 2.39
3.65 -5.10 2.39
3.75 -5.02 2.39
3.85 -4.94 2.39
3.94 -4.87 2.39
4.04 -4.78 2.39
4.13 -4.70 2.39
4.23 -4.62 2.39
4.32 -4.53 2.39
4.41 -4.44 2.39
4.49 -4.35 2.39
4.58 -4.26 2.39
4.66 -4.17 2.39
4.75 -4.07 2.39
4.82 -3.97 2.39
4.90 -3.87 2.39
4.98 -3.77 2.39
5.05 -3.67 2.39
5.12 -3.57 2.39
5.19 -3.47 2.39
5.26 -3.36 2.39
5.33 -3.25 2.39
5.39 -3.15 2.39
5.45 -3.04 2.39
5.51 -2.93 2.39
5.56 -2.81 2.39
5.62 -2.70 2.39
5.67 -2.59 2.39
5.72 -2.47 2.39
5.77 -2.36 2.39
5.81 -2.24 2.39
5.85 -2.12 2.39
5.89 -2.00 2.39
5.93 -1.88 2.39
5.97 -1.76 2.39
6.00 -1.64 2.39
6.03 -1.52 2.39
6.06 -1.40 2.39
6.09 -1.28 2.39
6.11 -1.16 2.39
6.13 -1.03 2.39
6.15 -0.91 2.39
6.16 -0.79 2.39
6.18 -0.66 2.39
6.19 -0.54 2.39
6.20 -0.41 2.39
6.20 -0.29 2.39
6.20 -0.16 2.39
6.21 -0.04 2.39
6.20 0.09 2.39
6.20 0.21 2.39
6.19 0.33 2.39
6.18 0.46 2.39
6.17 0.58 2.39
6.16 0.71 2.39
6.14 0.83 2.39
6.12 0.95 2.39
6.10 1.08 2.39
6.08 1.20 2.39
6.05 1.32 2.39
6.02 1.44 2.39
5.99 1.56 2.39
5.96 1.68 2.39
5.92 1.80 2.39
5.88 1.92 2.39
5.84 2.04 2.39
5.80 2.15 2.39
5.76 2.27 2.39
5.71 2.38 2.39
5.66 2.50 2.39
5.61 2.61 2.39
5.55 2.72 2.39
5.50 2.83 2.39
5.44 2.94 2.39
5.38 3.05 2.39
5.31 3.16 2.39
5.25 3.26 2.39
5.18 3.37 2.39
5.11 3.47 2.39
5.04 3.57 2.39
4.97 3.67 2.39
4.89 3.77 2.39
4.81 3.87 2.39
4.74 3.96 2.39
4.65 4.06 2.39
4.57 4.15 2.39
4.49 4.24 2.39
4.40 4.33 2.39
4.31 4.42 2.39
4.22 4.50 2.39
4.13 4.59 2.39
4.04 4.67 2.39
3.94 4.75 2.39
3.85 4.83 2.39
3.75 4.90 2.39
3.65 4.98 2.39
3.55 5.05 2.39
3.45 5.12 2.39
3.34 5.19 2.39
3.24 5.26 2.39
3.13 5.32 2.39
3.02 5.38 2.39
2.91 5.44 2.39
2.80 5.50 2.39
2.69 5.55 2.39
2.58 5.61 2.39
2.47 5.66 2.39
2.35 5.71 2.39
2.29 5.88 2.44
2.21 6.05 2.49
2.09 6.09 2.49
1.97 6.13 2.49
1.85 6.17 2.49
1.72 6.21 2.49
1.60 6.24 2.49
1.47 6.27 2.49
1.35 6.30 2.49
1.22 6.33 2.49
1.09 6.35 2.49
0.96 6.37 2.49
0.83 6.39 2.49
0.71 6.41 2.49
0.58 6.42 2.49
0.45 6.43 2.49
0.32 6.44 2.49
0.19 6.44 2.49
0.06 6.45 2.49
-0.07 6.45 2.49
-0.20 6.45 2.49
-0.33 6.44 2.49
-0.46 6.43 2.49
-0.59 6.42 2.49
-0.72 6.41 2.49
-0.85 6.40 2.49
-0.97 6.38 2.49
-1.10 6.36 2.49
-1.23 6.34 2.49
-1.36 6.31 2.49
-1.48 6.29 2.49
-1.61 6.25 2.49
-1.74 6.22 2.49
-1.86 6.19 2.49
-1.98 6.15 2.49
-2.11 6.11 2.49
-2.23 6.07 2.49
-2.35 6.02 2.49
-2.47 5.97 2.49
-2.59 5.92 2.49
-2.71 5.87 2.49
-2.83 5.82 2.49
-2.95 5.76 2.49
-3.06 5.70 2.49
-3.18 5.64 2.49
-3.29 5.58 2.49
-3.40 5.51 2.49
-3.51 5.44 2.49
-3.62 5.37 2.49
-3.73 5.30 2.49
-3.84 5.22 2.49
-3.94 5.15 2.49
-4.05 5.07 2.49
-4.15 4.99 2.49
-4.25 4.90 2.49
-4.35 4.82 2.49
-4.44 4.73 2.49
-4.54 4.64 2.49
-4.63 4.55 2.49
-4.72 4.46 2.49
-4.81 4.36 2.49
-4.90 4.26 2.49
-4.99 4.17 2.49
-5.07 4.07 2.49
-5.15 3.96 2.49
-5.23 3.86 2.49
-5.31 3.76 2.49
-5.38 3.65 2.49
-5.46 3.54 2.49
-5.53 3.43 2.49
-5.60 3.32 2.49
-5.66 3.21 2.49
-5.73 3.10 2.49
-5.73 2.95 2.47
-5.73 2.80 2.44
-5.73 2.66 2.42
-5.73 2.53 2.40
-5.77 2.41 2.39
-5.82 2.29 2.39
-5.86 2.17 2.39
-5.91 2.06 2.39
-5.95 1.94 2.39
-5.99 1.82 2.39
-6.02 1.70 2.39
-6.06 1.58 2.39
-6.09 1.45 2.39
-6.12 1.33 2.39
-6.14 1.21 2.39
-6.17 1.09 2.39
-6.19 0.96 2.39
-6.21 0.84 2.39
-6.23 0.71 2.39
-6.24 0.59 2.39
-6.25 0.46 2.39
-6.26 0.34 2.39
-6.27 0.21 2.39
-6.27 0.09 2.39
-6.27 -0.04 2.39
-6.27 -0.16 2.39
-6.27 -0.29 2.39
-6.26 -0.42 2.39
-6.26 -0.54 2.39
-6.24 -0.67 2.39
-6.23 -0.79 2.39
-6.22 -0.92 2.39
-6.20 -1.04 2.39
-6.18 -1.17 2.39
-6.15 -1.29 2.39
-6.13 -1.41 2.39
-6.10 -1.54 2.39
-6.07 -1.66 2.39
-6.03 -1.78 2.39
-6.00 -1.90 2.39
-5.96 -2.02 2.39
-5.92 -2.14 2.39
-5.87 -2.26 2.39
-5.83 -2.38 2.39
-5.78 -2.49 2.39
-5.73 -2.61 2.39
-5.68 -2.73 2.39
-5.67 -2.86 2.41
-5.67 -3.00 2.44
-5.66 -3.15 2.46
-5.66 -3.30 2.49
-5.61 -3.42 2.49
-5.54 -3.53 2.49
-5.47 -3.64 2.49
-5.40 -3.75 2.49
-5.32 -3.86 2.49
-5.24 -3.97 2.49
-5.16 -4.07 2.49
-5.08 -4.18 2.49
-5.00 -4.28 2.49
-4.91 -4.38 2.49
-4.82 -4.47 2.49
-4.73 -4.57 2.49
-4.64 -4.66 2.49
-4.54 -4.76 2.49
-4.45 -4.85 2.49
-4.35 -4.94 2.49
-4.25 -5.02 2.49
-4.15 -5.11 2.49
-4.05 -5.19 2.49
-3.94 -5.27 2.49
-3.83 -5.35 2.49
-3.73 -5.42 2.49
-3.62 -5.50 2.49
-3.51 -5.57 2.49
-3.39 -5.64 2.49
-3.28 -5.70 2.49
-3.17 -5.77 2.49
-3.05 -5.83 2.49
-2.93 -5.89 2.49
-2.81 -5.95 2.49
-2.69 -6.00 2.49
-2.57 -6.06 2.49
-2.45 -6.11 2.49
-2.33 -6.15 2.49
-2.20 -6.20 2.49
-2.08 -6.24 2.49
-1.95 -6.28 2.49
-1.83 -6.32 2.49
-1.70 -6.35 2.49
-1.57 -6.39 2.49
-1.44 -6.42 2.49
-1.31 -6.44 2.49
-1.18 -6.47 2.49
-1.05 -6.49 2.49
-0.92 -6.51 2.49
-0.79 -6.53 2.49
-0.66 -6.54 2.49
-0.53 -6.55 2.49
-0.40 -6.56 2.49
-0.27 -6.57 2.49
-0.14 -6.57 2.49
-0.00 -6.15 2.49
0.12 -6.15 2.49
0.24 -6.14 2.49
0.36 -6.14 2.49
0.49 -6.13 2.49
0.61 -6.12 2.49
0.73 -6.10 2.49
0.85 -6.08 2.49
0.98 -6.07 2.49
1.10 -6.04 2.49
1.22 -6.02 2.49
1.34 -5.99 2.49
1.46 -5.96 2.49
1.58 -5.93 2.49
1.70 -5.90 2.49
1.81 -5.86 2.49
1.93 -5.82 2.49
2.05 -5.78 2.49
2.16 -5.74 2.49
2.28 -5.70 2.49
2.39 -5.65 2.49
2.41 -5.40 2.41
2.51 -5.32 2.39
2.62 -5.28 2.40
2.72 -5.21 2.39
2.82 -5.15 2.39
2.92 -5.09 2.39
3.02 -5.03 2.39
3.12 -4.97 2.39
3.22 -4.91 2.39
3.32 -4.84 2.39
3.41 -4.77 2.39
3.51 -4.70 2.39
3.60 -4.63 2.39
3.69 -4.56 2.39
3.78 -4.48 2.39
3.87 -4.40 2.39
3.96 -4.32 2.39
4.04 -4.24 2.39
4.13 -4.16 2.39
4.21 -4.07 2.39
4.29 -3.99 2.39
4.37 -3.90 2.39
4.44 -3.81 2.39
4.52 -3.72 2.39
4.59 -3.63 2.39
4.66 -3.53 2.39
4.73 -3.44 2.39
4.80 -3.34 2.39
4.86 -3.25 2.39
4.93 -3.15 2.39
4.99 -3.05 2.39
5.05 -2.95 2.39
5.10 -2.84 2.39
5.16 -2.74 2.39
5.21 -2.63 2.39
5.26 -2.53 2.39
5.31 -2.42 2.39
5.36 -2.32 2.39
5.40 -2.21 2.39
5.44 -2.10 2.39
5.48 -1.99 2.39
5.52 -1.88 2.39
5.56 -1.76 2.39
5.59 -1.65 2.39
5.62 -1.54 2.39
5.65 -1.43 2.39
5.67 -1.31 2.39
5.70 -1.20 2.39
5.72 -1.08 2.39
5.74 -0.97 2.39
5.76 -0.85 2.39
5.77 -0.74 2.39
5.78 -0.62 2.39
5.79 -0.50 2.39
5.80 -0.39 2.39
5.81 -0.27 2.39
5.81 -0.15 2.39
5.81 -0.04 2.39
5.81 0.08 2.39
