ply
format ascii 1.0
element vertex 2938
property float32 x
property float32 y
property float32 z
end_header
-9.65 -13.46 2.39
-9.38 -13.66 2.39
-9.11 -13.86 2.39
-8.83 -14.05 2.39
-8.56 -14.23 2.39
-8.27 -14.41 2.39
-7.99 -14.58 2.39
-7.70 -14.75 2.39
-7.41 -14.91 2.39
-7.11 -15.06 2.39
-6.81 -15.21 2.39
-6.52 -15.38 2.39
-6.32 -15.80 2.44
-6.15 -16.30 2.49
-5.82 -16.43 2.49
-5.50 -16.56 2.49
-5.17 -16.68 2.49
-4.83 -16.79 2.49
-4.50 -16.90 2.49
-4.16 -17.00 2.49
-3.82 -17.09 2.49
-3.48 -17.17 2.49
-3.14 -17.25 2.49
-2.79 -17.32 2.49
-2.45 -17.39 2.49
-2.10 -17.45 2.49
-1.75 -17.50 2.49
-1.40 -17.54 2.49
-1.05 -17.58 2.49
-0.69 -17.61 2.49
-0.34 -17.63 2.49
0.01 -15.17 2.49
0.32 -15.18 2.49
0.62 -15.18 2.49
0.93 -15.18 2.49
1.23 -15.16 2.49
1.54 -15.14 2.49
1.78 -14.61 2.41
2.06 -14.47 2.39
2.35 -14.43 2.39
2.64 -14.39 2.39
2.93 -14.34 2.39
3.22 -14.29 2.39
3.51 -14.23 2.39
3.79 -14.17 2.39
4.08 -14.09 2.39
4.37 -14.02 2.39
4.65 -13.94 2.39
4.93 -13.85 2.39
5.21 -13.75 2.39
5.49 -13.66 2.39
5.76 -13.55 2.39
6.05 -13.46 2.39
6.32 -13.34 2.39
6.59 -13.22 2.39
6.86 -13.09 2.39
7.12 -12.96 2.39
7.38 -12.82 2.39
7.64 -12.67 2.39
7.90 -12.53 2.39
8.15 -12.37 2.39
8.41 -12.21 2.39
8.65 -12.05 2.39
8.90 -11.88 2.39
9.14 -11.70 2.39
9.38 -11.52 2.39
9.61 -11.33 2.39
9.84 -11.14 2.39
10.06 -10.95 2.39
10.29 -10.75 2.39
10.50 -10.55 2.39
10.72 -10.34 2.39
10.93 -10.12 2.39
11.13 -9.91 2.39
11.33 -9.69 2.39
11.53 -9.46 2.39
11.72 -9.23 2.39
11.91 -9.00 2.39
12.09 -8.76 2.39
12.27 -8.52 2.39
12.44 -8.27 2.39
12.61 -8.02 2.39
12.77 -7.77 2.39
12.93 -7.52 2.39
13.08 -7.26 2.39
13.23 -7.00 2.39
13.37 -6.73 2.39
13.50 -6.46 2.39
13.63 -6.19 2.39
13.76 -5.92 2.39
13.88 -5.64 2.39
13.99 -5.36 2.39
14.10 -5.08 2.39
14.20 -4.80 2.39
14.29 -4.51 2.39
14.38 -4.23 2.39
14.47 -3.94 2.39
14.55 -3.65 2.39
14.62 -3.36 2.39
14.68 -3.06 2.39
14.74 -2.77 2.39
14.79 -2.47 2.39
14.84 -2.17 2.39
14.88 -1.88 2.39
14.92 -1.58 2.39
14.95 -1.28 2.39
14.97 -0.98 2.39
14.98 -0.68 2.39
14.99 -0.38 2.39
15.00 -0.08 2.39
15.00 0.22 2.39
14.99 0.53 2.39
14.97 0.83 2.39
14.95 1.13 2.39
14.92 1.43 2.39
14.89 1.72 2.39
14.85 2.02 2.39
14.81 2.32 2.39
14.75 2.62 2.39
14.70 2.91 2.39
14.63 3.20 2.39
14.56 3.50 2.39
14.49 3.79 2.39
14.40 4.08 2.39
14.32 4.36 2.39
14.22 4.65 2.39
14.12 4.93 2.39
14.02 5.21 2.39
13.91 5.49 2.39
13.79 5.77 2.39
13.67 6.04 2.39
13.54 6.31 2.39
13.41 6.58 2.39
13.27 6.84 2.39
13.12 7.11 2.39
12.97 7.37 2.39
12.82 7.62 2.39
12.66 7.88 2.39
12.49 8.12 2.39
12.32 8.37 2.39
12.15 8.61 2.39
11.97 8.85 2.39
11.78 9.08 2.39
11.59 9.31 2.39
11.40 9.54 2.39
11.20 9.76 2.39
11.00 9.98 2.39
10.79 10.20 2.39
10.58 10.40 2.39
10.36 10.61 2.39
10.14 10.81 2.39
9.92 11.01 2.39
9.69 11.20 2.39
9.46 11.38 2.39
9.22 11.56 2.39
8.98 11.74 2.39
8.74 11.91 2.39
8.50 12.08 2.39
8.25 12.24 2.39
8.00 12.40 2.39
7.74 12.55 2.39
7.48 12.69 2.39
7.22 12.83 2.39
6.96 12.97 2.39
6.69 13.08 2.39
6.42 13.21 2.39
6.15 13.32 2.39
5.88 13.44 2.39
5.60 13.54 2.39
5.33 13.65 2.39
5.05 13.74 2.39
4.77 13.83 2.39
4.49 13.92 2.39
4.20 13.99 2.39
3.92 14.07 2.39
3.64 14.13 2.39
3.35 14.20 2.39
3.06 14.25 2.39
2.85 14.72 2.46
2.59 14.96 2.49
2.29 15.00 2.49
1.99 15.04 2.49
1.68 15.06 2.49
1.38 15.08 2.49
1.08 15.10 2.49
0.77 15.11 2.49
0.47 15.11 2.49
0.16 15.11 2.49
-0.14 15.10 2.49
-0.44 15.08 2.49
-0.74 15.06 2.49
-1.05 15.04 2.49
-1.35 15.00 2.49
-1.65 14.96 2.49
-1.95 14.92 2.49
-2.24 14.87 2.49
-2.54 14.81 2.49
-2.83 14.75 2.49
-3.13 14.68 2.49
-3.42 14.60 2.49
-3.71 14.52 2.49
-4.00 14.44 2.49
-4.29 14.35 2.49
-4.57 14.25 2.49
-4.85 14.15 2.49
-5.13 14.04 2.49
-5.25 13.50 2.42
-5.46 13.26 2.40
-5.71 13.11 2.39
-5.97 12.99 2.39
-6.23 12.86 2.39
-6.48 12.73 2.39
-6.73 12.59 2.39
-6.98 12.44 2.39
-7.22 12.29 2.39
-7.47 12.14 2.39
-7.70 11.98 2.39
-7.94 11.82 2.39
-8.17 11.65 2.39
-8.40 11.48 2.39
-8.62 11.30 2.39
-8.84 11.12 2.39
-5.94 7.17 1.57
-9.28 10.75 2.39
-10.59 11.78 2.67
-10.66 11.39 2.63
-10.72 11.01 2.59
-10.79 10.64 2.56
-10.83 10.26 2.52
-10.85 9.87 2.48
-10.88 9.51 2.44
-10.91 9.15 2.41
-10.94 8.81 2.37
-10.96 8.47 2.34
-10.85 8.04 2.28
-10.83 7.69 2.25
-10.84 7.38 2.22
-10.84 7.06 2.19
-10.84 6.76 2.16
-10.85 6.46 2.14
-10.84 6.17 2.11
-10.81 5.86 2.08
-10.80 5.58 2.06
-10.80 5.31 2.04
-10.80 5.04 2.02
-10.79 4.78 2.00
-10.79 4.52 1.98
-10.78 4.26 1.97
-10.77 4.01 1.95
-10.76 3.76 1.94
-10.76 3.52 1.92
-10.77 3.29 1.91
-10.77 3.05 1.90
-10.77 2.82 1.89
-10.77 2.59 1.88
-10.76 2.36 1.87
-10.76 2.14 1.86
-10.76 1.91 1.86
-10.75 1.69 1.85
-10.73 1.46 1.84
-10.71 1.24 1.83
-10.68 1.02 1.82
-10.65 0.80 1.82
-10.63 0.59 1.81
-10.60 0.37 1.80
-10.57 0.16 1.80
-10.54 -0.05 1.79
-10.52 -0.26 1.79
-10.53 -0.48 1.79
-10.52 -0.69 1.79
-10.52 -0.90 1.79
-10.51 -1.11 1.80
-10.51 -1.33 1.80
-10.50 -1.54 1.80
-10.49 -1.76 1.81
-10.48 -1.97 1.81
-10.47 -2.19 1.82
-10.45 -2.40 1.82
-10.43 -2.62 1.82
-10.42 -2.84 1.83
-10.42 -3.07 1.84
-10.41 -3.29 1.85
-10.40 -3.52 1.86
-10.39 -3.75 1.87
-10.38 -3.99 1.88
-10.37 -4.22 1.90
-10.35 -4.46 1.91
-10.33 -4.70 1.92
-10.30 -4.94 1.93
-10.28 -5.19 1.95
-10.26 -5.44 1.96
-10.24 -5.69 1.98
-10.22 -5.96 2.00
-10.20 -6.22 2.02
-10.18 -6.49 2.04
-10.15 -6.76 2.06
-10.12 -7.04 2.08
-10.08 -7.32 2.10
-10.05 -7.61 2.13
-10.02 -7.90 2.15
-9.98 -8.21 2.18
-9.93 -8.51 2.20
-9.88 -8.81 2.23
-9.82 -9.12 2.25
-9.76 -9.43 2.28
-9.70 -9.76 2.31
-9.73 -10.19 2.37
-9.62 -10.49 2.39
-9.41 -10.69 2.39
-9.20 -10.88 2.39
-8.99 -11.07 2.39
-8.77 -11.25 2.39
-8.54 -11.43 2.39
-8.32 -11.61 2.39
-8.08 -11.78 2.39
-7.85 -11.95 2.39
-7.61 -12.11 2.39
-7.37 -12.26 2.39
-7.13 -12.42 2.39
-6.88 -12.57 2.39
-6.63 -12.71 2.39
-6.38 -12.85 2.39
-6.23 -13.20 2.43
-6.12 -13.67 2.49
-5.85 -13.80 2.49
-5.57 -13.92 2.49
-5.29 -14.04 2.49
-5.01 -14.15 2.49
-4.73 -14.26 2.49
-4.45 -14.36 2.49
-4.16 -14.46 2.49
-3.87 -14.55 2.49
-3.58 -14.63 2.49
-3.29 -14.71 2.49
-2.99 -14.78 2.49
-2.70 -14.85 2.49
-2.40 -14.91 2.49
-2.10 -14.96 2.49
-1.80 -15.01 2.49
-1.50 -15.05 2.49
-1.20 -15.09 2.49
-0.90 -15.12 2.49
-0.60 -15.14 2.49
-0.29 -15.16 2.49
0.01 -13.30 2.49
0.28 -13.30 2.49
0.55 -13.30 2.49
0.81 -13.29 2.49
1.08 -13.28 2.49
1.35 -13.26 2.49
1.62 -13.24 2.49
1.84 -12.91 2.44
2.06 -12.64 2.39
2.31 -12.60 2.39
2.57 -12.56 2.39
2.82 -12.51 2.39
3.07 -12.46 2.39
3.32 -12.40 2.39
3.57 -12.34 2.39
3.82 -12.27 2.39
4.07 -12.20 2.39
4.32 -12.12 2.39
4.56 -12.04 2.39
4.80 -11.95 2.39
5.04 -11.86 2.39
5.28 -11.76 2.39
5.52 -11.65 2.39
5.76 -11.55 2.39
6.00 -11.45 2.39
6.23 -11.33 2.39
6.46 -11.21 2.39
6.69 -11.08 2.39
6.91 -10.95 2.39
7.13 -10.82 2.39
7.35 -10.68 2.39
7.57 -10.53 2.39
7.78 -10.38 2.39
7.99 -10.23 2.39
8.20 -10.07 2.39
8.40 -9.91 2.39
8.60 -9.74 2.39
8.80 -9.57 2.39
8.99 -9.40 2.39
9.18 -9.22 2.39
9.37 -9.03 2.39
9.55 -8.85 2.39
9.73 -8.66 2.39
9.91 -8.46 2.39
10.08 -8.27 2.39
10.24 -8.06 2.39
10.41 -7.86 2.39
10.56 -7.65 2.39
10.72 -7.44 2.39
10.87 -7.23 2.39
11.02 -7.01 2.39
11.16 -6.79 2.39
11.29 -6.56 2.39
11.43 -6.34 2.39
11.55 -6.11 2.39
11.68 -5.88 2.39
11.79 -5.64 2.39
11.91 -5.41 2.39
12.02 -5.17 2.39
12.12 -4.93 2.39
12.22 -4.68 2.39
12.31 -4.44 2.39
12.40 -4.19 2.39
12.48 -3.94 2.39
12.56 -3.69 2.39
12.63 -3.44 2.39
12.70 -3.19 2.39
12.76 -2.93 2.39
12.82 -2.67 2.39
12.87 -2.42 2.39
12.92 -2.16 2.39
12.96 -1.90 2.39
12.99 -1.64 2.39
13.02 -1.38 2.39
13.05 -1.12 2.39
13.07 -0.85 2.39
13.08 -0.59 2.39
13.09 -0.33 2.39
13.10 -0.07 2.39
13.09 0.20 2.39
13.09 0.46 2.39
13.07 0.72 2.39
13.06 0.98 2.39
13.03 1.24 2.39
13.00 1.51 2.39
12.97 1.77 2.39
12.93 2.03 2.39
12.88 2.28 2.39
12.83 2.54 2.39
12.78 2.80 2.39
12.72 3.05 2.39
12.65 3.31 2.39
12.58 3.56 2.39
12.50 3.81 2.39
12.42 4.06 2.39
12.34 4.31 2.39
12.24 4.55 2.39
12.15 4.80 2.39
12.05 5.04 2.39
11.94 5.28 2.39
11.83 5.51 2.39
11.71 5.75 2.39
11.59 5.98 2.39
11.47 6.21 2.39
11.33 6.44 2.39
11.20 6.66 2.39
11.06 6.88 2.39
10.92 7.10 2.39
10.77 7.31 2.39
10.62 7.53 2.39
10.46 7.73 2.39
10.30 7.94 2.39
10.13 8.14 2.39
9.96 8.34 2.39
9.79 8.53 2.39
9.61 8.73 2.39
9.43 8.91 2.39
9.25 9.10 2.39
9.06 9.28 2.39
8.87 9.45 2.39
8.67 9.62 2.39
8.47 9.79 2.39
8.27 9.95 2.39
8.07 10.11 2.39
7.86 10.27 2.39
7.65 10.42 2.39
7.43 10.57 2.39
7.22 10.71 2.39
7.00 10.84 2.39
6.77 10.98 2.39
6.54 11.09 2.39
6.31 11.22 2.39
6.08 11.34 2.39
5.85 11.45 2.39
5.62 11.56 2.39
5.38 11.66 2.39
5.15 11.76 2.39
4.91 11.86 2.39
4.66 11.95 2.39
4.42 12.03 2.39
4.18 12.11 2.39
3.93 12.19 2.39
3.68 12.26 2.39
3.44 12.32 2.39
3.19 12.38 2.39
2.93 12.43 2.39
2.79 12.98 2.49
2.54 13.07 2.49
2.27 13.11 2.49
2.01 13.14 2.49
1.74 13.18 2.49
1.48 13.20 2.49
1.21 13.22 2.49
0.94 13.23 2.49
0.68 13.24 2.49
0.41 13.25 2.49
0.15 13.24 2.49
-0.12 13.24 2.49
-0.39 13.23 2.49
-0.65 13.21 2.49
-0.92 13.18 2.49
-1.18 13.16 2.49
-1.44 13.12 2.49
-1.70 13.08 2.49
-1.97 13.04 2.49
-2.23 12.99 2.49
-2.49 12.94 2.49
-2.74 12.88 2.49
-3.00 12.81 2.49
-3.25 12.74 2.49
-3.51 12.67 2.49
-3.76 12.59 2.49
-4.01 12.51 2.49
-4.26 12.42 2.49
-4.50 12.32 2.49
-4.75 12.22 2.49
-4.99 12.12 2.49
-5.23 12.01 2.49
-5.32 11.57 2.43
-5.47 11.29 2.39
-5.69 11.17 2.39
-5.91 11.05 2.39
-6.13 10.93 2.39
-6.34 10.80 2.39
-6.56 10.66 2.39
-6.77 10.52 2.39
-6.97 10.38 2.39
-7.18 10.23 2.39
-7.38 10.08 2.39
-7.58 9.93 2.39
-7.77 9.77 2.39
-5.94 7.17 1.78
-8.15 9.44 2.39
-8.33 9.28 2.39
-8.52 9.10 2.39
-8.69 8.93 2.39
-8.87 8.75 2.39
-9.04 8.56 2.39
-9.21 8.38 2.39
-9.37 8.19 2.39
-10.25 8.60 2.57
-10.30 8.29 2.54
-10.34 7.99 2.51
-10.39 7.70 2.49
-10.41 7.39 2.46
-10.42 7.09 2.43
-10.42 6.79 2.40
-10.43 6.50 2.37
-10.43 6.22 2.34
-10.43 5.94 2.31
-10.45 5.67 2.29
-10.45 5.40 2.27
-10.44 5.13 2.24
-10.43 4.87 2.22
-10.42 4.61 2.20
-10.41 4.36 2.18
-10.39 4.11 2.16
-10.38 3.87 2.14
-10.41 3.64 2.13
-10.41 3.41 2.11
-10.41 3.18 2.10
-10.41 2.95 2.09
-10.40 2.72 2.08
-10.40 2.50 2.07
-10.39 2.28 2.05
-10.38 2.06 2.04
-10.38 1.84 2.04
-10.39 1.63 2.03
-10.39 1.42 2.03
-10.37 1.20 2.02
-10.35 0.99 2.01
-10.32 0.78 2.00
-10.30 0.57 1.99
-10.27 0.36 1.99
-10.24 0.15 1.98
-10.22 -0.05 1.97
-10.20 -0.26 1.97
-10.20 -0.46 1.97
-10.20 -0.67 1.97
-10.20 -0.87 1.98
-10.20 -1.08 1.98
-10.19 -1.29 1.98
-10.18 -1.49 1.99
-10.17 -1.70 1.99
-10.16 -1.91 2.00
-10.15 -2.12 2.00
-10.14 -2.33 2.01
-10.12 -2.54 2.01
-10.10 -2.75 2.02
-10.07 -2.97 2.03
-10.06 -3.18 2.03
-10.05 -3.40 2.04
-10.04 -3.63 2.06
-10.02 -3.85 2.07
-10.01 -4.08 2.08
-9.99 -4.31 2.10
-9.97 -4.54 2.11
-9.94 -4.77 2.12
-9.91 -5.00 2.14
-9.88 -5.24 2.15
-9.85 -5.48 2.17
-9.83 -5.73 2.19
-9.80 -5.98 2.21
-9.78 -6.23 2.23
-9.75 -6.49 2.25
-9.71 -6.76 2.27
-9.68 -7.02 2.30
-9.64 -7.30 2.32
-9.60 -7.58 2.35
-9.56 -7.86 2.37
-9.47 -8.12 2.39
-9.31 -8.31 2.39
-9.15 -8.50 2.39
-8.98 -8.68 2.39
-8.81 -8.86 2.39
-8.63 -9.04 2.39
-8.45 -9.22 2.39
-8.27 -9.39 2.39
-8.08 -9.56 2.39
-7.89 -9.72 2.39
-7.70 -9.88 2.39
-7.50 -10.04 2.39
-7.30 -10.19 2.39
-7.10 -10.34 2.39
-6.89 -10.49 2.39
-6.68 -10.63 2.39
-6.47 -10.77 2.39
-6.26 -10.90 2.39
-6.15 -11.24 2.44
-6.07 -11.64 2.49
-5.84 -11.76 2.49
-5.60 -11.88 2.49
-5.37 -12.00 2.49
-5.13 -12.11 2.49
-4.89 -12.22 2.49
-4.64 -12.32 2.49
-4.40 -12.42 2.49
-4.15 -12.51 2.49
-3.90 -12.60 2.49
-3.65 -12.68 2.49
-3.39 -12.76 2.49
-3.14 -12.83 2.49
-2.88 -12.90 2.49
-2.62 -12.96 2.49
-2.37 -13.02 2.49
-2.10 -13.07 2.49
-1.84 -13.12 2.49
-1.58 -13.16 2.49
-1.32 -13.19 2.49
-1.05 -13.23 2.49
-0.79 -13.25 2.49
-0.52 -13.27 2.49
-0.25 -13.29 2.49
0.01 -11.82 2.49
0.25 -11.82 2.49
0.49 -11.82 2.49
0.72 -11.82 2.49
0.96 -11.81 2.49
1.20 -11.79 2.49
1.44 -11.77 2.49
1.67 -11.74 2.49
1.89 -11.57 2.46
2.06 -11.20 2.39
2.28 -11.16 2.39
2.51 -11.11 2.39
2.73 -11.07 2.39
2.95 -11.02 2.39
3.18 -10.96 2.39
3.40 -10.90 2.39
3.62 -10.83 2.39
3.83 -10.76 2.39
4.05 -10.69 2.39
4.27 -10.61 2.39
4.48 -10.53 2.39
4.69 -10.44 2.39
4.90 -10.35 2.39
5.11 -10.25 2.39
5.32 -10.15 2.39
5.52 -10.05 2.39
5.73 -9.94 2.39
5.93 -9.83 2.39
6.14 -9.72 2.39
6.33 -9.60 2.39
6.53 -9.48 2.39
6.72 -9.35 2.39
6.91 -9.21 2.39
7.09 -9.08 2.39
7.27 -8.94 2.39
7.46 -8.79 2.39
7.63 -8.64 2.39
7.81 -8.49 2.39
7.98 -8.34 2.39
8.15 -8.18 2.39
8.31 -8.01 2.39
8.47 -7.85 2.39
8.63 -7.68 2.39
8.79 -7.51 2.39
8.94 -7.33 2.39
9.09 -7.15 2.39
9.23 -6.97 2.39
9.37 -6.79 2.39
9.51 -6.60 2.39
9.64 -6.41 2.39
9.77 -6.22 2.39
9.90 -6.02 2.39
10.02 -5.82 2.39
10.13 -5.62 2.39
10.25 -5.42 2.39
10.35 -5.21 2.39
10.46 -5.00 2.39
10.56 -4.79 2.39
10.65 -4.58 2.39
10.75 -4.37 2.39
10.83 -4.15 2.39
10.92 -3.94 2.39
10.99 -3.72 2.39
11.07 -3.50 2.39
11.14 -3.27 2.39
11.20 -3.05 2.39
11.26 -2.82 2.39
11.31 -2.60 2.39
11.36 -2.37 2.39
11.41 -2.14 2.39
11.45 -1.91 2.39
11.49 -1.68 2.39
11.52 -1.45 2.39
11.55 -1.22 2.39
11.57 -0.99 2.39
11.59 -0.76 2.39
11.60 -0.52 2.39
11.61 -0.29 2.39
11.61 -0.06 2.39
11.61 0.17 2.39
11.60 0.41 2.39
11.59 0.64 2.39
11.58 0.87 2.39
11.56 1.10 2.39
11.53 1.33 2.39
11.50 1.57 2.39
11.46 1.80 2.39
11.42 2.02 2.39
11.38 2.25 2.39
11.33 2.48 2.39
11.28 2.71 2.39
11.22 2.93 2.39
11.16 3.16 2.39
11.09 3.38 2.39
11.02 3.60 2.39
10.94 3.82 2.39
10.86 4.04 2.39
10.77 4.25 2.39
10.68 4.47 2.39
10.59 4.68 2.39
10.49 4.89 2.39
10.39 5.10 2.39
10.28 5.30 2.39
10.17 5.51 2.39
10.06 5.71 2.39
9.94 5.91 2.39
9.81 6.10 2.39
9.68 6.30 2.39
9.55 6.49 2.39
9.42 6.68 2.39
9.28 6.86 2.39
9.14 7.04 2.39
8.99 7.22 2.39
8.84 7.40 2.39
8.69 7.57 2.39
8.53 7.74 2.39
8.37 7.91 2.39
8.21 8.07 2.39
8.04 8.23 2.39
7.87 8.39 2.39
7.70 8.54 2.39
7.52 8.69 2.39
7.34 8.84 2.39
7.16 8.98 2.39
6.98 9.12 2.39
6.79 9.25 2.39
6.59 9.37 2.39
6.40 9.50 2.39
6.21 9.62 2.39
6.01 9.74 2.39
5.81 9.85 2.39
5.61 9.96 2.39
5.41 10.07 2.39
5.20 10.17 2.39
4.99 10.27 2.39
4.78 10.36 2.39
4.57 10.45 2.39
4.36 10.53 2.39
4.15 10.61 2.39
3.93 10.69 2.39
3.71 10.76 2.39
3.49 10.83 2.39
3.27 10.89 2.39
3.05 10.95 2.39
2.83 11.00 2.39
2.72 11.53 2.49
2.49 11.57 2.49
2.26 11.62 2.49
2.02 11.65 2.49
1.79 11.69 2.49
1.55 11.71 2.49
1.31 11.74 2.49
1.08 11.75 2.49
0.84 11.77 2.49
0.60 11.78 2.49
0.37 11.78 2.49
0.13 11.78 2.49
-0.11 11.77 2.49
-0.34 11.76 2.49
-0.58 11.75 2.49
-0.81 11.73 2.49
-1.05 11.70 2.49
-1.28 11.68 2.49
-1.52 11.64 2.49
-1.75 11.60 2.49
-1.98 11.56 2.49
-2.21 11.51 2.49
-2.44 11.46 2.49
-2.67 11.40 2.49
-2.90 11.34 2.49
-3.12 11.28 2.49
-3.35 11.21 2.49
-3.57 11.13 2.49
-3.79 11.05 2.49
-4.01 10.97 2.49
-4.23 10.88 2.49
-4.44 10.79 2.49
-4.66 10.69 2.49
-4.87 10.59 2.49
-5.08 10.49 2.49
-5.28 10.38 2.49
-5.37 10.04 2.44
-5.46 9.73 2.39
-5.65 9.62 2.39
-5.84 9.50 2.39
-6.03 9.37 2.39
-6.21 9.25 2.39
-6.39 9.12 2.39
-6.57 8.98 2.39
-6.75 8.85 2.39
-6.92 8.71 2.39
-5.94 7.17 2.00
-7.26 8.42 2.39
-7.43 8.27 2.39
-7.59 8.11 2.39
-7.75 7.95 2.39
-7.90 7.80 2.39
-8.05 7.63 2.39
-8.20 7.47 2.39
-8.35 7.30 2.39
-8.49 7.13 2.39
-8.63 6.95 2.39
-8.77 6.78 2.39
-8.90 6.60 2.39
-9.03 6.42 2.39
-9.15 6.23 2.39
-9.27 6.04 2.39
-9.39 5.86 2.39
-9.50 5.66 2.39
-9.89 5.63 2.46
-9.93 5.39 2.44
-9.96 5.15 2.42
-9.96 4.90 2.40
-9.95 4.65 2.38
-9.95 4.41 2.35
-9.94 4.17 2.33
-9.93 3.93 2.31
-9.95 3.71 2.30
-9.98 3.49 2.29
-10.01 3.28 2.28
-10.02 3.06 2.27
-10.02 2.84 2.25
-10.02 2.62 2.24
-10.01 2.41 2.23
-10.01 2.20 2.22
-10.00 1.98 2.21
-10.00 1.78 2.20
-10.02 1.57 2.20
-10.03 1.37 2.19
-10.04 1.16 2.19
-10.03 0.96 2.18
-10.01 0.75 2.17
-9.98 0.55 2.17
-9.96 0.35 2.16
-9.93 0.15 2.15
-9.91 -0.05 2.15
-9.89 -0.25 2.14
-9.89 -0.45 2.14
-9.89 -0.65 2.15
-9.89 -0.85 2.15
-9.89 -1.05 2.15
-9.89 -1.25 2.16
-9.88 -1.45 2.16
-9.87 -1.65 2.17
-9.86 -1.86 2.17
-9.85 -2.06 2.18
-9.84 -2.26 2.18
-9.82 -2.47 2.19
-9.80 -2.67 2.20
-9.77 -2.88 2.20
-9.75 -3.09 2.21
-9.73 -3.29 2.22
-9.70 -3.50 2.23
-9.69 -3.72 2.24
-9.67 -3.94 2.26
-9.66 -4.16 2.27
-9.63 -4.38 2.29
-9.60 -4.61 2.30
-9.57 -4.83 2.32
-9.54 -5.06 2.33
-9.51 -5.29 2.35
-9.47 -5.52 2.37
-9.44 -5.76 2.38
-9.35 -5.96 2.39
-9.23 -6.15 2.39
-9.11 -6.34 2.39
-8.98 -6.52 2.39
-8.85 -6.70 2.39
-8.72 -6.88 2.39
-8.58 -7.06 2.39
-8.44 -7.23 2.39
-8.30 -7.40 2.39
-8.15 -7.57 2.39
-8.00 -7.73 2.39
-7.84 -7.90 2.39
-7.69 -8.06 2.39
-7.53 -8.21 2.39
-7.36 -8.36 2.39
-7.20 -8.51 2.39
-7.03 -8.66 2.39
-6.85 -8.80 2.39
-6.68 -8.94 2.39
-6.50 -9.08 2.39
-6.32 -9.21 2.39
-6.14 -9.34 2.39
-6.10 -9.70 2.45
-6.01 -10.00 2.49
-5.81 -10.12 2.49
-5.61 -10.24 2.49
-5.40 -10.36 2.49
-5.20 -10.47 2.49
-4.99 -10.58 2.49
-4.78 -10.68 2.49
-4.56 -10.78 2.49
-4.35 -10.87 2.49
-4.13 -10.96 2.49
-3.91 -11.05 2.49
-3.69 -11.13 2.49
-3.47 -11.21 2.49
-3.24 -11.28 2.49
-3.02 -11.35 2.49
-2.79 -11.41 2.49
-2.56 -11.47 2.49
-2.33 -11.53 2.49
-2.10 -11.58 2.49
-1.87 -11.62 2.49
-1.64 -11.67 2.49
-1.40 -11.70 2.49
-1.17 -11.73 2.49
-0.93 -11.76 2.49
-0.70 -11.78 2.49
-0.46 -11.80 2.49
-0.22 -11.81 2.49
0.01 -10.63 2.49
0.23 -10.63 2.49
0.44 -10.63 2.49
0.65 -10.62 2.49
0.87 -10.61 2.49
1.08 -10.60 2.49
1.29 -10.58 2.49
1.51 -10.56 2.49
1.72 -10.53 2.49
1.93 -10.48 2.49
2.05 -10.03 2.39
2.25 -9.99 2.39
2.46 -9.95 2.39
2.66 -9.90 2.39
2.85 -9.85 2.39
3.05 -9.79 2.39
3.25 -9.73 2.39
3.45 -9.67 2.39
3.64 -9.60 2.39
3.83 -9.53 2.39
4.03 -9.46 2.39
4.22 -9.38 2.39
4.41 -9.30 2.39
4.59 -9.21 2.39
4.78 -9.12 2.39
4.96 -9.03 2.39
5.15 -8.93 2.39
5.33 -8.83 2.39
5.50 -8.72 2.39
5.68 -8.61 2.39
5.85 -8.50 2.39
6.02 -8.38 2.39
6.20 -8.27 2.39
6.37 -8.15 2.39
6.53 -8.02 2.39
6.70 -7.89 2.39
6.85 -7.76 2.39
7.01 -7.62 2.39
7.16 -7.48 2.39
7.32 -7.34 2.39
7.46 -7.19 2.39
7.61 -7.05 2.39
7.75 -6.89 2.39
7.89 -6.74 2.39
8.02 -6.58 2.39
8.16 -6.42 2.39
8.29 -6.26 2.39
8.41 -6.09 2.39
8.54 -5.92 2.39
8.65 -5.75 2.39
8.77 -5.58 2.39
8.88 -5.40 2.39
8.99 -5.22 2.39
9.09 -5.04 2.39
9.20 -4.86 2.39
9.29 -4.68 2.39
9.39 -4.49 2.39
9.48 -4.30 2.39
9.56 -4.11 2.39
9.64 -3.92 2.39
9.72 -3.73 2.39
9.80 -3.53 2.39
9.87 -3.33 2.39
9.93 -3.14 2.39
9.99 -2.94 2.39
10.05 -2.74 2.39
10.10 -2.53 2.39
10.15 -2.33 2.39
10.20 -2.13 2.39
10.24 -1.92 2.39
10.28 -1.72 2.39
10.31 -1.51 2.39
10.34 -1.30 2.39
10.36 -1.10 2.39
10.38 -0.89 2.39
10.40 -0.68 2.39
10.41 -0.47 2.39
10.42 -0.26 2.39
10.42 -0.05 2.39
10.42 0.16 2.39
10.41 0.36 2.39
10.40 0.57 2.39
10.39 0.78 2.39
10.37 0.99 2.39
10.35 1.20 2.39
10.32 1.40 2.39
10.29 1.61 2.39
10.25 1.82 2.39
10.21 2.02 2.39
10.17 2.23 2.39
10.12 2.43 2.39
10.07 2.63 2.39
10.01 2.83 2.39
9.95 3.03 2.39
9.89 3.23 2.39
9.82 3.43 2.39
9.75 3.62 2.39
9.67 3.82 2.39
9.59 4.01 2.39
9.51 4.20 2.39
9.42 4.39 2.39
9.32 4.57 2.39
9.23 4.76 2.39
9.13 4.94 2.39
9.03 5.12 2.39
8.92 5.30 2.39
8.81 5.48 2.39
8.70 5.65 2.39
8.58 5.82 2.39
8.46 5.99 2.39
8.33 6.16 2.39
8.20 6.32 2.39
8.07 6.48 2.39
7.94 6.64 2.39
7.80 6.80 2.39
7.66 6.95 2.39
7.52 7.10 2.39
7.37 7.25 2.39
7.22 7.39 2.39
7.07 7.53 2.39
6.91 7.67 2.39
6.76 7.80 2.39
6.59 7.93 2.39
6.43 8.05 2.39
6.26 8.18 2.39
6.09 8.30 2.39
5.92 8.42 2.39
5.75 8.53 2.39
5.58 8.64 2.39
5.40 8.75 2.39
5.22 8.85 2.39
5.04 8.95 2.39
4.86 9.05 2.39
4.67 9.14 2.39
4.49 9.23 2.39
4.30 9.31 2.39
4.11 9.39 2.39
3.92 9.47 2.39
3.73 9.54 2.39
3.53 9.61 2.39
3.34 9.67 2.39
3.14 9.73 2.39
2.95 9.79 2.39
2.75 9.84 2.39
2.66 10.32 2.49
2.45 10.36 2.49
2.24 10.41 2.49
2.03 10.44 2.49
1.82 10.48 2.49
1.61 10.51 2.49
1.39 10.53 2.49
1.18 10.55 2.49
0.97 10.57 2.49
0.76 10.58 2.49
0.54 10.59 2.49
0.33 10.60 2.49
0.12 10.60 2.49
-0.09 10.59 2.49
-0.31 10.58 2.49
-0.52 10.57 2.49
-0.73 10.55 2.49
-0.94 10.53 2.49
-1.15 10.51 2.49
-1.36 10.48 2.49
-1.57 10.44 2.49
-1.78 10.40 2.49
-1.99 10.36 2.49
-2.19 10.31 2.49
-2.40 10.26 2.49
-2.60 10.21 2.49
-2.81 10.15 2.49
-3.01 10.09 2.49
-3.21 10.02 2.49
-3.41 9.95 2.49
-3.61 9.88 2.49
-3.80 9.80 2.49
-4.00 9.72 2.49
-4.19 9.63 2.49
-4.38 9.54 2.49
-4.57 9.45 2.49
-4.76 9.35 2.49
-4.94 9.25 2.49
-5.12 9.14 2.49
-5.31 9.03 2.49
-5.41 8.81 2.46
-5.44 8.46 2.40
-5.59 8.33 2.39
-5.76 8.21 2.39
-5.92 8.09 2.39
-6.08 7.97 2.39
-6.23 7.84 2.39
-5.94 7.17 2.22
-6.54 7.58 2.39
-6.69 7.45 2.39
-6.84 7.31 2.39
-6.98 7.17 2.39
-7.12 7.02 2.39
-7.26 6.88 2.39
-7.39 6.73 2.39
-7.52 6.58 2.39
-7.65 6.42 2.39
-7.78 6.27 2.39
-7.90 6.11 2.39
-8.02 5.95 2.39
-8.13 5.78 2.39
-8.25 5.62 2.39
-8.36 5.45 2.39
-8.46 5.28 2.39
-8.56 5.11 2.39
-8.66 4.93 2.39
-8.76 4.76 2.39
-8.85 4.58 2.39
-8.94 4.40 2.39
-9.03 4.22 2.39
-9.11 4.03 2.39
-9.19 3.85 2.39
-9.26 3.66 2.39
-9.33 3.48 2.39
-9.40 3.29 2.39
-9.46 3.10 2.39
-9.52 2.91 2.39
-9.57 2.71 2.39
-9.63 2.52 2.39
-9.65 2.32 2.39
-9.65 2.12 2.37
-9.65 1.91 2.36
-9.65 1.71 2.36
-9.67 1.52 2.35
-9.68 1.32 2.35
-9.69 1.12 2.34
-9.70 0.93 2.34
-9.71 0.73 2.34
-9.69 0.54 2.33
-9.66 0.34 2.32
-9.64 0.14 2.32
-9.62 -0.05 2.31
-9.59 -0.24 2.31
-9.60 -0.44 2.31
-9.60 -0.63 2.31
-9.60 -0.82 2.31
-9.60 -1.02 2.32
-9.60 -1.21 2.32
-9.59 -1.41 2.33
-9.59 -1.61 2.33
-9.58 -1.80 2.34
-9.56 -2.00 2.35
-9.55 -2.20 2.35
-9.53 -2.40 2.36
-9.51 -2.60 2.37
-9.49 -2.79 2.37
-9.46 -3.00 2.38
-9.44 -3.20 2.39
-9.37 -3.39 2.39
-9.31 -3.58 2.39
-9.23 -3.76 2.39
-9.16 -3.95 2.39
-9.08 -4.13 2.39
-9.00 -4.31 2.39
-8.91 -4.50 2.39
-8.82 -4.67 2.39
-8.73 -4.85 2.39
-8.63 -5.03 2.39
-8.53 -5.20 2.39
-8.42 -5.37 2.39
-8.32 -5.54 2.39
-8.21 -5.71 2.39
-8.09 -5.88 2.39
-7.97 -6.04 2.39
-7.85 -6.20 2.39
-7.73 -6.36 2.39
-7.60 -6.51 2.39
-7.47 -6.67 2.39
-7.34 -6.82 2.39
-7.20 -6.97 2.39
-7.06 -7.11 2.39
-6.92 -7.26 2.39
-6.78 -7.40 2.39
-6.63 -7.53 2.39
-6.48 -7.67 2.39
-6.33 -7.80 2.39
-6.17 -7.93 2.39
-6.05 -8.10 2.40
-6.05 -8.45 2.47
-5.93 -8.65 2.49
-5.76 -8.77 2.49
-5.59 -8.89 2.49
-5.41 -9.01 2.49
-5.23 -9.12 2.49
-5.05 -9.22 2.49
-4.86 -9.33 2.49
-4.68 -9.43 2.49
-4.49 -9.52 2.49
-4.30 -9.61 2.49
-4.11 -9.70 2.49
-3.91 -9.79 2.49
-3.72 -9.87 2.49
-3.52 -9.94 2.49
-3.32 -10.02 2.49
-3.12 -10.09 2.49
-2.92 -10.15 2.49
-2.71 -10.21 2.49
-2.51 -10.27 2.49
-2.30 -10.32 2.49
-2.10 -10.37 2.49
-1.89 -10.42 2.49
-1.68 -10.46 2.49
-1.47 -10.49 2.49
-1.26 -10.53 2.49
-1.05 -10.55 2.49
-0.84 -10.58 2.49
-0.63 -10.60 2.49
-0.41 -10.61 2.49
-0.20 -10.62 2.49
0.01 -9.65 2.49
0.21 -9.65 2.49
0.40 -9.65 2.49
0.59 -9.64 2.49
0.79 -9.63 2.49
0.98 -9.62 2.49
1.17 -9.60 2.49
1.37 -9.58 2.49
1.56 -9.55 2.49
1.75 -9.52 2.49
1.94 -9.49 2.49
2.05 -9.06 2.39
2.23 -9.02 2.39
2.41 -8.98 2.39
2.59 -8.93 2.39
2.77 -8.88 2.39
2.95 -8.83 2.39
3.13 -8.77 2.39
3.30 -8.71 2.39
3.48 -8.65 2.39
3.65 -8.58 2.39
3.83 -8.51 2.39
4.00 -8.43 2.39
4.17 -8.35 2.39
4.34 -8.27 2.39
4.50 -8.18 2.39
4.67 -8.09 2.39
4.83 -8.00 2.39
4.99 -7.91 2.39
5.15 -7.81 2.39
5.31 -7.70 2.39
5.46 -7.60 2.39
5.62 -7.49 2.39
5.77 -7.38 2.39
5.92 -7.26 2.39
6.06 -7.15 2.39
6.21 -7.03 2.39
6.36 -6.91 2.39
6.49 -6.78 2.39
6.63 -6.65 2.39
6.77 -6.52 2.39
6.90 -6.39 2.39
7.03 -6.25 2.39
7.15 -6.11 2.39
7.27 -5.96 2.39
7.39 -5.82 2.39
7.51 -5.67 2.39
7.62 -5.52 2.39
7.74 -5.37 2.39
7.84 -5.21 2.39
7.95 -5.05 2.39
8.05 -4.90 2.39
8.15 -4.73 2.39
8.24 -4.57 2.39
8.33 -4.40 2.39
8.42 -4.24 2.39
8.51 -4.07 2.39
8.59 -3.90 2.39
8.66 -3.73 2.39
8.74 -3.55 2.39
8.81 -3.38 2.39
8.88 -3.20 2.39
8.94 -3.02 2.39
9.00 -2.84 2.39
9.05 -2.66 2.39
9.11 -2.48 2.39
9.15 -2.30 2.39
9.20 -2.11 2.39
9.24 -1.93 2.39
9.28 -1.74 2.39
9.31 -1.56 2.39
9.34 -1.37 2.39
9.37 -1.18 2.39
9.39 -0.99 2.39
9.41 -0.80 2.39
9.42 -0.62 2.39
9.43 -0.43 2.39
9.44 -0.24 2.39
9.44 -0.05 2.39
9.44 0.14 2.39
9.43 0.33 2.39
9.42 0.52 2.39
9.41 0.71 2.39
9.39 0.90 2.39
9.37 1.08 2.39
9.35 1.27 2.39
9.32 1.46 2.39
9.29 1.65 2.39
9.25 1.83 2.39
9.21 2.02 2.39
9.17 2.20 2.39
9.12 2.38 2.39
9.07 2.57 2.39
9.02 2.75 2.39
8.96 2.93 2.39
8.90 3.10 2.39
8.83 3.28 2.39
8.76 3.46 2.39
8.69 3.63 2.39
8.61 3.80 2.39
8.53 3.98 2.39
8.45 4.15 2.39
8.36 4.31 2.39
8.27 4.48 2.39
8.18 4.64 2.39
8.08 4.80 2.39
7.98 4.96 2.39
7.88 5.12 2.39
7.77 5.28 2.39
7.67 5.43 2.39
7.55 5.58 2.39
7.44 5.73 2.39
7.32 5.88 2.39
7.20 6.02 2.39
7.07 6.16 2.39
6.95 6.30 2.39
6.82 6.44 2.39
6.68 6.57 2.39
6.54 6.69 2.39
6.40 6.82 2.39
6.26 6.95 2.39
6.12 7.07 2.39
5.98 7.19 2.39
5.83 7.30 2.39
5.68 7.42 2.39
5.53 7.53 2.39
5.37 7.63 2.39
5.22 7.74 2.39
5.06 7.84 2.39
4.90 7.93 2.39
4.74 8.03 2.39
4.57 8.12 2.39
4.41 8.20 2.39
4.24 8.29 2.39
4.07 8.37 2.39
3.90 8.44 2.39
3.73 8.52 2.39
3.56 8.59 2.39
3.38 8.65 2.39
3.21 8.72 2.39
3.03 8.78 2.39
2.85 8.83 2.39
2.67 8.88 2.39
2.60 9.32 2.49
2.41 9.36 2.49
2.22 9.40 2.49
2.03 9.44 2.49
1.84 9.48 2.49
1.65 9.51 2.49
1.46 9.54 2.49
1.27 9.56 2.49
1.07 9.58 2.49
0.88 9.60 2.49
0.69 9.61 2.49
0.50 9.62 2.49
0.30 9.62 2.49
0.11 9.62 2.49
-0.08 9.62 2.49
-0.28 9.61 2.49
-0.47 9.60 2.49
-0.66 9.58 2.49
-0.85 9.56 2.49
-1.05 9.54 2.49
-1.24 9.51 2.49
-1.43 9.48 2.49
-1.62 9.45 2.49
-1.80 9.41 2.49
-1.99 9.37 2.49
-2.18 9.32 2.49
-2.36 9.27 2.49
-2.55 9.22 2.49
-2.73 9.16 2.49
-2.92 9.10 2.49
-3.10 9.04 2.49
-3.28 8.97 2.49
-3.45 8.90 2.49
-3.63 8.83 2.49
-3.81 8.75 2.49
-3.98 8.67 2.49
-4.15 8.58 2.49
-4.32 8.49 2.49
-4.49 8.40 2.49
-4.66 8.31 2.49
-4.82 8.21 2.49
-4.98 8.11 2.49
-5.14 8.00 2.49
-5.30 7.90 2.49
-5.45 7.78 2.49
-5.47 7.48 2.43
-5.52 7.24 2.39
-5.69 7.16 2.40
-5.81 7.01 2.39
-5.94 6.89 2.39
-6.08 6.77 2.39
-6.21 6.64 2.39
-6.34 6.52 2.39
-6.47 6.38 2.39
-6.60 6.25 2.39
-6.72 6.12 2.39
-6.84 5.98 2.39
-6.96 5.84 2.39
-7.07 5.70 2.39
-7.18 5.55 2.39
-7.29 5.41 2.39
-7.39 5.26 2.39
-7.50 5.11 2.39
-7.60 4.95 2.39
-7.69 4.80 2.39
-7.79 4.64 2.39
-7.88 4.48 2.39
-7.96 4.32 2.39
-8.05 4.16 2.39
-8.13 4.00 2.39
-8.21 3.83 2.39
-8.28 3.67 2.39
-8.35 3.50 2.39
-8.42 3.33 2.39
-8.48 3.16 2.39
-8.54 2.99 2.39
-8.60 2.82 2.39
-8.66 2.64 2.39
-8.71 2.47 2.39
-8.75 2.29 2.39
-8.80 2.12 2.39
-8.84 1.94 2.39
-8.87 1.76 2.39
-8.91 1.58 2.39
-8.94 1.40 2.39
-8.96 1.22 2.39
-8.99 1.04 2.39
-9.01 0.86 2.39
-9.02 0.68 2.39
-9.03 0.50 2.39
-9.04 0.32 2.39
-9.05 0.14 2.39
-9.05 -0.05 2.39
-9.04 -0.23 2.39
-9.04 -0.41 2.39
-9.03 -0.59 2.39
-9.02 -0.77 2.39
-9.00 -0.95 2.39
-8.98 -1.13 2.39
-8.95 -1.32 2.39
-8.93 -1.49 2.39
-8.90 -1.67 2.39
-8.86 -1.85 2.39
-8.82 -2.03 2.39
-8.78 -2.21 2.39
-8.74 -2.38 2.39
-8.69 -2.56 2.39
-8.64 -2.73 2.39
-8.58 -2.91 2.39
-8.52 -3.08 2.39
-8.46 -3.25 2.39
-8.39 -3.42 2.39
-8.33 -3.59 2.39
-8.25 -3.76 2.39
-8.18 -3.92 2.39
-8.10 -4.09 2.39
-8.02 -4.25 2.39
-7.93 -4.41 2.39
-7.84 -4.57 2.39
-7.75 -4.73 2.39
-7.66 -4.89 2.39
-7.56 -5.04 2.39
-7.46 -5.19 2.39
-7.35 -5.34 2.39
-7.25 -5.49 2.39
-7.14 -5.64 2.39
-7.03 -5.78 2.39
-6.91 -5.92 2.39
-6.79 -6.06 2.39
-6.67 -6.20 2.39
-6.55 -6.33 2.39
-6.42 -6.46 2.39
-6.29 -6.59 2.39
-6.16 -6.72 2.39
-6.02 -6.85 2.39
-6.00 -7.10 2.44
-6.00 -7.39 2.49
-5.85 -7.52 2.49
-5.70 -7.63 2.49
-5.55 -7.75 2.49
-5.39 -7.86 2.49
-5.23 -7.97 2.49
-5.07 -8.08 2.49
-4.91 -8.18 2.49
-4.75 -8.28 2.49
-4.58 -8.38 2.49
-4.42 -8.47 2.49
-4.25 -8.56 2.49
-4.08 -8.65 2.49
-3.90 -8.73 2.49
-3.73 -8.81 2.49
-3.55 -8.89 2.49
-3.37 -8.96 2.49
-3.19 -9.03 2.49
-3.01 -9.10 2.49
-2.83 -9.16 2.49
-2.65 -9.22 2.49
-2.46 -9.27 2.49
-2.28 -9.33 2.49
-2.09 -9.37 2.49
-1.90 -9.42 2.49
-1.71 -9.46 2.49
-1.53 -9.49 2.49
-1.33 -9.53 2.49
-1.14 -9.56 2.49
-0.95 -9.58 2.49
-0.76 -9.60 2.49
-0.57 -9.62 2.49
-0.37 -9.63 2.49
-0.18 -9.64 2.49
0.01 -8.82 2.49
0.19 -8.82 2.49
0.37 -8.82 2.49
0.54 -8.82 2.49
0.72 -8.81 2.49
0.90 -8.79 2.49
1.07 -8.78 2.49
1.25 -8.76 2.49
1.43 -8.73 2.49
1.60 -8.71 2.49
1.78 -8.68 2.49
1.95 -8.64 2.49
2.04 -8.25 2.39
2.20 -8.21 2.39
2.37 -8.17 2.39
2.53 -8.12 2.39
2.70 -8.07 2.39
2.86 -8.02 2.39
3.02 -7.96 2.39
3.18 -7.90 2.39
3.34 -7.84 2.39
3.50 -7.77 2.39
3.65 -7.70 2.39
3.81 -7.63 2.39
3.96 -7.56 2.39
4.11 -7.48 2.39
4.27 -7.40 2.39
4.41 -7.31 2.39
4.56 -7.22 2.39
4.71 -7.13 2.39
4.85 -7.04 2.39
4.99 -6.94 2.39
5.13 -6.84 2.39
5.27 -6.74 2.39
5.41 -6.64 2.39
5.54 -6.53 2.39
5.67 -6.42 2.39
5.80 -6.30 2.39
5.93 -6.19 2.39
6.05 -6.07 2.39
6.18 -5.96 2.39
6.30 -5.83 2.39
6.42 -5.71 2.39
6.53 -5.58 2.39
6.64 -5.45 2.39
6.75 -5.31 2.39
6.86 -5.18 2.39
6.96 -5.04 2.39
7.07 -4.90 2.39
7.16 -4.76 2.39
7.26 -4.62 2.39
7.35 -4.47 2.39
7.44 -4.32 2.39
7.53 -4.17 2.39
7.61 -4.02 2.39
7.69 -3.87 2.39
7.77 -3.72 2.39
7.84 -3.56 2.39
7.91 -3.40 2.39
7.98 -3.24 2.39
8.04 -3.08 2.39
8.11 -2.92 2.39
8.16 -2.76 2.39
8.22 -2.59 2.39
8.27 -2.43 2.39
8.31 -2.26 2.39
8.36 -2.10 2.39
8.40 -1.93 2.39
8.44 -1.76 2.39
8.47 -1.59 2.39
8.50 -1.42 2.39
8.53 -1.25 2.39
8.55 -1.08 2.39
8.57 -0.91 2.39
8.59 -0.73 2.39
8.60 -0.56 2.39
8.61 -0.39 2.39
8.62 -0.22 2.39
8.62 -0.04 2.39
8.62 0.13 2.39
8.61 0.30 2.39
8.61 0.47 2.39
8.59 0.65 2.39
8.58 0.82 2.39
8.56 0.99 2.39
8.54 1.16 2.39
8.51 1.33 2.39
8.48 1.50 2.39
8.45 1.67 2.39
8.41 1.84 2.39
8.37 2.01 2.39
8.33 2.18 2.39
8.29 2.34 2.39
8.24 2.51 2.39
8.18 2.67 2.39
8.13 2.84 2.39
8.07 3.00 2.39
8.00 3.16 2.39
7.94 3.32 2.39
7.87 3.47 2.39
7.79 3.63 2.39
7.72 3.79 2.39
7.64 3.94 2.39
7.56 4.09 2.39
7.47 4.24 2.39
7.38 4.39 2.39
7.29 4.53 2.39
7.20 4.68 2.39
7.10 4.82 2.39
7.00 4.96 2.39
6.90 5.10 2.39
6.79 5.24 2.39
6.69 5.37 2.39
6.58 5.50 2.39
6.46 5.62 2.39
6.34 5.75 2.39
6.22 5.87 2.39
6.10 6.00 2.39
5.98 6.12 2.39
5.85 6.23 2.39
5.72 6.35 2.39
5.59 6.46 2.39
5.46 6.57 2.39
5.33 6.67 2.39
5.19 6.78 2.39
5.05 6.88 2.39
4.91 6.97 2.39
4.77 7.07 2.39
4.62 7.16 2.39
4.48 7.25 2.39
4.33 7.34 2.39
4.18 7.42 2.39
4.03 7.50 2.39
3.88 7.57 2.39
3.72 7.65 2.39
3.57 7.72 2.39
3.41 7.79 2.39
3.25 7.85 2.39
3.09 7.91 2.39
2.93 7.97 2.39
2.77 8.02 2.39
2.62 8.11 2.40
2.55 8.47 2.49
2.38 8.52 2.49
2.21 8.56 2.49
2.03 8.60 2.49
1.86 8.64 2.49
1.69 8.67 2.49
1.51 8.70 2.49
1.34 8.72 2.49
1.16 8.74 2.49
0.98 8.76 2.49
0.81 8.78 2.49
0.63 8.79 2.49
0.45 8.79 2.49
0.28 8.80 2.49
0.10 8.80 2.49
-0.08 8.80 2.49
-0.25 8.79 2.49
-0.43 8.78 2.49
-0.60 8.77 2.49
-0.78 8.75 2.49
-0.96 8.73 2.49
-1.13 8.70 2.49
-1.30 8.68 2.49
-1.48 8.64 2.49
-1.65 8.61 2.49
-1.82 8.57 2.49
-1.99 8.53 2.49
-2.16 8.49 2.49
-2.33 8.44 2.49
-2.50 8.39 2.49
-2.67 8.33 2.49
-2.83 8.27 2.49
-3.00 8.21 2.49
-3.16 8.15 2.49
-3.32 8.08 2.49
-3.48 8.01 2.49
-3.64 7.93 2.49
-3.80 7.86 2.49
-3.95 7.78 2.49
-4.11 7.69 2.49
-4.26 7.61 2.49
-4.41 7.52 2.49
-4.56 7.42 2.49
-4.71 7.33 2.49
-4.85 7.23 2.49
-4.99 7.13 2.49
-5.14 7.02 2.49
-5.27 6.92 2.49
-5.41 6.81 2.49
-5.49 6.64 2.47
-5.51 6.39 2.42
-5.57 6.20 2.39
-5.69 6.08 2.39
-5.81 5.97 2.39
-5.92 5.85 2.39
-6.04 5.72 2.39
-6.15 5.60 2.39
-6.26 5.48 2.39
-6.37 5.35 2.39
-6.47 5.22 2.39
-6.58 5.08 2.39
-6.68 4.95 2.39
-6.77 4.81 2.39
-6.87 4.68 2.39
-6.96 4.54 2.39
-7.05 4.39 2.39
-7.13 4.25 2.39
-7.21 4.11 2.39
-7.29 3.96 2.39
-7.37 3.81 2.39
-7.45 3.66 2.39
-7.52 3.51 2.39
-7.58 3.36 2.39
-7.65 3.21 2.39
-7.71 3.05 2.39
-7.77 2.90 2.39
-7.83 2.74 2.39
-7.88 2.58 2.39
-7.93 2.42 2.39
-7.97 2.26 2.39
-8.02 2.10 2.39
-8.06 1.94 2.39
-8.10 1.78 2.39
-8.13 1.61 2.39
-8.16 1.45 2.39
-8.19 1.28 2.39
-8.21 1.12 2.39
-8.23 0.95 2.39
-8.25 0.79 2.39
-8.26 0.62 2.39
-8.27 0.46 2.39
-8.28 0.29 2.39
-8.29 0.12 2.39
-8.29 -0.04 2.39
-8.28 -0.21 2.39
-8.28 -0.38 2.39
-8.27 -0.54 2.39
-8.26 -0.71 2.39
-8.24 -0.87 2.39
-8.22 -1.04 2.39
-8.20 -1.20 2.39
-8.18 -1.37 2.39
-8.15 -1.53 2.39
-8.12 -1.70 2.39
-8.08 -1.86 2.39
-8.04 -2.02 2.39
-8.00 -2.18 2.39
-7.96 -2.34 2.39
-7.91 -2.50 2.39
-7.86 -2.66 2.39
-7.81 -2.82 2.39
-7.75 -2.98 2.39
-7.69 -3.13 2.39
-7.63 -3.29 2.39
-7.56 -3.44 2.39
-7.49 -3.59 2.39
-7.42 -3.74 2.39
-7.34 -3.89 2.39
-7.26 -4.04 2.39
-7.18 -4.19 2.39
-7.10 -4.33 2.39
-7.01 -4.47 2.39
-6.92 -4.61 2.39
-6.83 -4.75 2.39
-6.73 -4.89 2.39
-6.64 -5.03 2.39
-6.54 -5.16 2.39
-6.43 -5.29 2.39
-6.33 -5.42 2.39
-6.22 -5.55 2.39
-6.11 -5.68 2.39
-5.99 -5.80 2.39
-5.96 -6.01 2.43
-5.97 -6.26 2.48
-5.88 -6.42 2.49
-5.75 -6.54 2.49
-5.62 -6.66 2.49
-5.49 -6.77 2.49
-5.35 -6.88 2.49
-5.22 -6.99 2.49
-5.08 -7.09 2.49
-4.93 -7.20 2.49
-4.79 -7.30 2.49
-4.64 -7.39 2.49
-4.50 -7.49 2.49
-4.35 -7.58 2.49
-4.19 -7.67 2.49
-4.04 -7.75 2.49
-3.89 -7.84 2.49
-3.73 -7.92 2.49
-3.57 -7.99 2.49
-3.41 -8.06 2.49
-3.25 -8.13 2.49
-3.09 -8.20 2.49
-2.92 -8.26 2.49
-2.76 -8.32 2.49
-2.59 -8.38 2.49
-2.42 -8.43 2.49
-2.25 -8.48 2.49
-2.08 -8.53 2.49
-1.91 -8.57 2.49
-1.74 -8.61 2.49
-1.57 -8.65 2.49
-1.39 -8.68 2.49
-1.22 -8.71 2.49
-1.05 -8.74 2.49
-0.87 -8.76 2.49
-0.69 -8.78 2.49
-0.52 -8.80 2.49
-0.34 -8.81 2.49
-0.16 -8.82 2.49
0.01 -8.12 2.49
0.18 -8.12 2.49
0.34 -8.12 2.49
0.50 -8.11 2.49
0.66 -8.10 2.49
0.83 -8.09 2.49
0.99 -8.08 2.49
1.15 -8.06 2.49
1.31 -8.04 2.49
1.48 -8.01 2.49
1.64 -7.98 2.49
1.80 -7.95 2.49
1.96 -7.92 2.49
2.04 -7.60 2.40
2.18 -7.51 2.39
2.33 -7.47 2.39
2.48 -7.42 2.39
2.63 -7.37 2.39
2.78 -7.32 2.39
2.93 -7.27 2.39
3.07 -7.21 2.39
3.22 -7.15 2.39
3.36 -7.09 2.39
3.50 -7.02 2.39
3.65 -6.95 2.39
3.79 -6.88 2.39
3.92 -6.80 2.39
4.06 -6.72 2.39
4.20 -6.64 2.39
4.33 -6.56 2.39
4.46 -6.47 2.39
4.59 -6.38 2.39
4.72 -6.29 2.39
4.85 -6.20 2.39
4.97 -6.10 2.39
5.09 -6.00 2.39
5.21 -5.90 2.39
5.33 -5.80 2.39
5.45 -5.69 2.39
5.56 -5.58 2.39
5.68 -5.47 2.39
5.79 -5.36 2.39
5.89 -5.24 2.39
6.00 -5.12 2.39
6.10 -5.00 2.39
6.21 -4.89 2.39
6.31 -4.76 2.39
6.40 -4.63 2.39
6.50 -4.51 2.39
6.59 -4.38 2.39
6.67 -4.24 2.39
6.76 -4.11 2.39
6.84 -3.97 2.39
6.92 -3.84 2.39
7.00 -3.70 2.39
7.07 -3.56 2.39
7.14 -3.42 2.39
7.21 -3.27 2.39
7.27 -3.13 2.39
7.34 -2.98 2.39
7.40 -2.83 2.39
7.45 -2.69 2.39
7.50 -2.53 2.39
7.55 -2.38 2.39
7.60 -2.23 2.39
7.64 -2.08 2.39
7.68 -1.93 2.39
7.72 -1.77 2.39
7.76 -1.62 2.39
7.79 -1.46 2.39
7.81 -1.31 2.39
7.84 -1.15 2.39
7.86 -0.99 2.39
7.88 -0.83 2.39
7.89 -0.68 2.39
7.91 -0.52 2.39
7.92 -0.36 2.39
7.92 -0.20 2.39
7.92 -0.04 2.39
7.92 0.12 2.39
7.92 0.28 2.39
7.91 0.44 2.39
7.90 0.59 2.39
7.89 0.75 2.39
7.87 0.91 2.39
7.85 1.07 2.39
7.82 1.22 2.39
7.80 1.38 2.39
7.77 1.54 2.39
7.73 1.69 2.39
7.70 1.85 2.39
7.66 2.00 2.39
7.62 2.15 2.39
7.57 2.30 2.39
7.52 2.46 2.39
7.47 2.61 2.39
7.42 2.75 2.39
7.36 2.90 2.39
7.30 3.05 2.39
7.23 3.19 2.39
7.17 3.34 2.39
7.10 3.48 2.39
7.02 3.62 2.39
6.95 3.76 2.39
6.87 3.90 2.39
6.79 4.03 2.39
6.71 4.17 2.39
6.62 4.30 2.39
6.53 4.43 2.39
6.43 4.56 2.39
6.34 4.68 2.39
6.24 4.81 2.39
6.14 4.93 2.39
6.04 5.05 2.39
5.94 5.17 2.39
5.83 5.29 2.39
5.72 5.40 2.39
5.61 5.51 2.39
5.50 5.62 2.39
5.38 5.73 2.39
5.26 5.84 2.39
5.14 5.94 2.39
5.02 6.04 2.39
4.90 6.14 2.39
4.77 6.23 2.39
4.65 6.32 2.39
4.52 6.41 2.39
4.39 6.50 2.39
4.25 6.59 2.39
4.12 6.67 2.39
3.98 6.75 2.39
3.85 6.82 2.39
3.71 6.90 2.39
3.57 6.97 2.39
3.43 7.04 2.39
3.28 7.10 2.39
3.14 7.16 2.39
2.99 7.22 2.39
2.85 7.28 2.39
2.70 7.33 2.39
2.59 7.50 2.43
2.50 7.75 2.49
2.35 7.79 2.49
2.19 7.84 2.49
2.03 7.88 2.49
1.87 7.91 2.49
1.71 7.95 2.49
1.55 7.98 2.49
1.39 8.00 2.49
1.23 8.03 2.49
1.07 8.05 2.49
0.91 8.06 2.49
0.74 8.08 2.49
0.58 8.09 2.49
0.42 8.09 2.49
0.26 8.10 2.49
0.09 8.10 2.49
-0.07 8.10 2.49
-0.23 8.09 2.49
-0.39 8.08 2.49
-0.56 8.07 2.49
-0.72 8.05 2.49
-0.88 8.03 2.49
-1.04 8.01 2.49
-1.20 7.99 2.49
-1.36 7.96 2.49
-1.52 7.93 2.49
-1.68 7.89 2.49
-1.83 7.85 2.49
-1.99 7.81 2.49
-2.15 7.77 2.49
-2.30 7.72 2.49
-2.45 7.67 2.49
-2.61 7.62 2.49
-2.76 7.56 2.49
-2.91 7.50 2.49
-3.06 7.44 2.49
-3.21 7.37 2.49
-3.35 7.31 2.49
-3.50 7.24 2.49
-3.64 7.16 2.49
-3.78 7.08 2.49
-3.92 7.01 2.49
-4.06 6.92 2.49
-4.20 6.84 2.49
-4.33 6.75 2.49
-4.47 6.66 2.49
-4.60 6.57 2.49
-4.73 6.47 2.49
-4.86 6.37 2.49
-4.98 6.27 2.49
-5.11 6.17 2.49
-5.23 6.06 2.49
-5.35 5.96 2.49
-5.47 5.85 2.49
-5.53 5.68 2.47
-5.54 5.47 2.43
-5.56 5.27 2.39
-5.67 5.16 2.39
-5.77 5.04 2.39
-5.87 4.93 2.39
-5.96 4.81 2.39
-6.06 4.69 2.39
-6.15 4.56 2.39
-6.24 4.44 2.39
-6.33 4.31 2.39
-6.41 4.18 2.39
-6.49 4.05 2.39
-6.57 3.92 2.39
-6.65 3.78 2.39
-6.72 3.65 2.39
-6.79 3.51 2.39
-6.86 3.38 2.39
-6.93 3.24 2.39
-6.99 3.10 2.39
-7.05 2.95 2.39
-7.11 2.81 2.39
-7.16 2.67 2.39
-7.21 2.52 2.39
-7.26 2.38 2.39
-7.31 2.23 2.39
-7.35 2.08 2.39
-7.39 1.94 2.39
-7.43 1.79 2.39
-7.46 1.64 2.39
-7.49 1.49 2.39
-7.52 1.34 2.39
-7.54 1.18 2.39
-7.57 1.03 2.39
-7.59 0.88 2.39
-7.60 0.73 2.39
-7.61 0.57 2.39
-7.62 0.42 2.39
-7.63 0.27 2.39
-7.64 0.11 2.39
-7.64 -0.04 2.39
-7.63 -0.19 2.39
-7.63 -0.35 2.39
-7.62 -0.50 2.39
-7.61 -0.65 2.39
-7.60 -0.81 2.39
-7.58 -0.96 2.39
-7.56 -1.11 2.39
-7.53 -1.26 2.39
-7.51 -1.41 2.39
-7.48 -1.56 2.39
-7.45 -1.71 2.39
-7.41 -1.86 2.39
-7.37 -2.01 2.39
-7.33 -2.16 2.39
-7.29 -2.31 2.39
-7.24 -2.45 2.39
-7.19 -2.60 2.39
-7.14 -2.74 2.39
-7.08 -2.89 2.39
-7.03 -3.03 2.39
-6.96 -3.17 2.39
-6.90 -3.31 2.39
-6.83 -3.45 2.39
-6.76 -3.59 2.39
-6.69 -3.72 2.39
-6.62 -3.86 2.39
-6.54 -3.99 2.39
-6.46 -4.12 2.39
-6.38 -4.25 2.39
-6.29 -4.38 2.39
-6.20 -4.51 2.39
-6.12 -4.64 2.39
-6.02 -4.76 2.39
-5.93 -4.88 2.39
-5.93 -5.08 2.43
-5.93 -5.30 2.48
-5.87 -5.45 2.49
-5.76 -5.57 2.49
-5.65 -5.69 2.49
-5.53 -5.80 2.49
-5.42 -5.91 2.49
-5.30 -6.02 2.49
-5.18 -6.13 2.49
-5.05 -6.23 2.49
-4.93 -6.34 2.49
-4.80 -6.44 2.49
-4.67 -6.53 2.49
-4.54 -6.63 2.49
-4.41 -6.72 2.49
-4.28 -6.81 2.49
-4.14 -6.90 2.49
-4.00 -6.98 2.49
-3.86 -7.06 2.49
-3.72 -7.14 2.49
-3.58 -7.22 2.49
-3.43 -7.29 2.49
-3.29 -7.36 2.49
-3.14 -7.43 2.49
-2.99 -7.49 2.49
-2.84 -7.55 2.49
-2.69 -7.61 2.49
-2.54 -7.66 2.49
-2.38 -7.72 2.49
-2.23 -7.77 2.49
-2.07 -7.81 2.49
-1.92 -7.85 2.49
-1.76 -7.89 2.49
-1.60 -7.93 2.49
-1.44 -7.96 2.49
-1.28 -7.99 2.49
-1.12 -8.02 2.49
-0.96 -8.04 2.49
-0.80 -8.07 2.49
-0.64 -8.08 2.49
-0.48 -8.10 2.49
-0.31 -8.11 2.49
-0.15 -8.12 2.49
0.01 -7.51 2.49
0.16 -7.51 2.49
0.31 -7.51 2.49
0.47 -7.51 2.49
0.62 -7.50 2.49
0.77 -7.49 2.49
0.92 -7.47 2.49
1.07 -7.45 2.49
1.22 -7.43 2.49
1.37 -7.41 2.49
1.51 -7.38 2.49
1.66 -7.35 2.49
1.81 -7.32 2.49
1.96 -7.29 2.49
2.05 -7.07 2.43
2.16 -6.91 2.39
2.30 -6.87 2.39
2.43 -6.82 2.39
2.57 -6.77 2.39
2.71 -6.72 2.39
2.84 -6.67 2.39
2.98 -6.61 2.39
3.11 -6.55 2.39
3.24 -6.49 2.39
3.37 -6.43 2.39
3.50 -6.36 2.39
3.63 -6.29 2.39
3.76 -6.22 2.39
3.88 -6.14 2.39
4.00 -6.07 2.39
4.13 -5.99 2.39
4.25 -5.90 2.39
4.36 -5.82 2.39
4.48 -5.73 2.39
4.60 -5.64 2.39
4.71 -5.55 2.39
4.82 -5.45 2.39
4.93 -5.36 2.39
5.04 -5.26 2.39
5.14 -5.16 2.39
5.25 -5.06 2.39
5.35 -4.95 2.39
5.45 -4.84 2.39
5.55 -4.73 2.39
5.64 -4.62 2.39
5.73 -4.51 2.39
5.82 -4.39 2.39
5.91 -4.28 2.39
6.00 -4.16 2.39
6.08 -4.04 2.39
6.16 -3.92 2.39
6.25 -3.80 2.39
6.32 -3.67 2.39
6.40 -3.55 2.39
6.47 -3.42 2.39
6.54 -3.29 2.39
6.60 -3.16 2.39
6.66 -3.02 2.39
6.72 -2.89 2.39
6.78 -2.76 2.39
6.84 -2.62 2.39
6.89 -2.48 2.39
6.93 -2.34 2.39
6.98 -2.20 2.39
7.02 -2.06 2.39
7.06 -1.92 2.39
7.10 -1.78 2.39
7.14 -1.64 2.39
7.17 -1.49 2.39
7.20 -1.35 2.39
7.22 -1.21 2.39
7.25 -1.06 2.39
7.27 -0.92 2.39
7.28 -0.77 2.39
7.30 -0.62 2.39
7.31 -0.48 2.39
7.32 -0.33 2.39
7.32 -0.18 2.39
7.32 -0.04 2.39
7.32 0.11 2.39
7.32 0.26 2.39
7.31 0.40 2.39
7.30 0.55 2.39
7.29 0.70 2.39
7.27 0.84 2.39
7.25 0.99 2.39
7.23 1.13 2.39
7.21 1.28 2.39
7.18 1.42 2.39
7.15 1.56 2.39
7.12 1.71 2.39
7.08 1.85 2.39
7.04 1.99 2.39
7.00 2.13 2.39
6.95 2.27 2.39
6.91 2.41 2.39
6.85 2.55 2.39
6.80 2.68 2.39
6.75 2.82 2.39
6.69 2.95 2.39
6.62 3.08 2.39
6.56 3.22 2.39
6.49 3.35 2.39
6.42 3.47 2.39
6.34 3.60 2.39
6.27 3.72 2.39
6.19 3.85 2.39
6.11 3.97 2.39
6.03 4.09 2.39
5.95 4.21 2.39
5.86 4.33 2.39
5.77 4.44 2.39
5.68 4.56 2.39
5.59 4.67 2.39
5.49 4.78 2.39
5.39 4.89 2.39
5.29 4.99 2.39
5.19 5.10 2.39
5.08 5.20 2.39
4.98 5.30 2.39
4.87 5.40 2.39
4.76 5.49 2.39
4.65 5.58 2.39
4.53 5.67 2.39
4.42 5.76 2.39
4.30 5.85 2.39
4.18 5.93 2.39
4.06 6.01 2.39
3.93 6.09 2.39
3.81 6.17 2.39
3.69 6.24 2.39
3.56 6.31 2.39
3.43 6.38 2.39
3.30 6.44 2.39
3.17 6.51 2.39
3.04 6.57 2.39
2.90 6.62 2.39
2.77 6.68 2.39
2.63 6.73 2.39
2.57 6.98 2.46
2.46 7.12 2.49
2.32 7.17 2.49
2.17 7.21 2.49
2.03 7.25 2.49
1.88 7.29 2.49
1.73 7.32 2.49
1.59 7.35 2.49
1.44 7.38 2.49
1.29 7.40 2.49
1.14 7.43 2.49
0.99 7.44 2.49
0.84 7.46 2.49
0.69 7.47 2.49
0.54 7.48 2.49
0.39 7.49 2.49
0.24 7.49 2.49
0.09 7.49 2.49
-0.06 7.49 2.49
-0.21 7.49 2.49
-0.36 7.48 2.49
-0.51 7.47 2.49
-0.66 7.45 2.49
-0.81 7.44 2.49
-0.96 7.42 2.49
-1.11 7.39 2.49
-1.26 7.37 2.49
-1.40 7.34 2.49
-1.55 7.31 2.49
-1.70 7.27 2.49
-1.84 7.23 2.49
-1.99 7.19 2.49
-2.13 7.15 2.49
-2.27 7.10 2.49
-2.41 7.05 2.49
-2.55 7.00 2.49
-2.69 6.95 2.49
-2.83 6.89 2.49
-2.97 6.83 2.49
-3.10 6.76 2.49
-3.24 6.70 2.49
-3.37 6.63 2.49
-3.50 6.56 2.49
-3.63 6.49 2.49
-3.76 6.41 2.49
-3.89 6.33 2.49
-4.01 6.25 2.49
-4.14 6.17 2.49
-4.26 6.08 2.49
-4.38 5.99 2.49
-4.50 5.90 2.49
-4.61 5.81 2.49
-4.73 5.71 2.49
-4.84 5.62 2.49
-4.95 5.52 2.49
-5.06 5.41 2.49
-5.17 5.31 2.49
-5.27 5.20 2.49
-5.37 5.10 2.49
-5.47 4.99 2.49
-5.56 4.86 2.49
-5.57 4.68 2.45
-5.58 4.50 2.42
-5.61 4.34 2.39
-5.70 4.23 2.39
-5.80 4.12 2.40
-5.86 3.99 2.39
-5.94 3.87 2.39
-6.01 3.75 2.39
-6.09 3.63 2.39
-6.16 3.51 2.39
-6.22 3.38 2.39
-6.29 3.25 2.39
-6.35 3.13 2.39
-6.41 3.00 2.39
-6.47 2.87 2.39
-6.53 2.74 2.39
-6.58 2.61 2.39
-6.63 2.47 2.39
-6.68 2.34 2.39
-6.73 2.20 2.39
-6.77 2.07 2.39
-6.81 1.93 2.39
-6.84 1.79 2.39
-6.88 1.66 2.39
-6.91 1.52 2.39
-6.94 1.38 2.39
-6.96 1.24 2.39
-6.99 1.10 2.39
-7.01 0.96 2.39
-7.03 0.82 2.39
-7.04 0.67 2.39
-7.05 0.53 2.39
-7.06 0.39 2.39
-7.07 0.25 2.39
-7.07 0.11 2.39
-7.07 -0.04 2.39
-7.07 -0.18 2.39
-7.07 -0.32 2.39
-7.06 -0.46 2.39
-7.05 -0.60 2.39
-7.04 -0.75 2.39
-7.02 -0.89 2.39
-7.00 -1.03 2.39
-6.98 -1.17 2.39
-6.96 -1.31 2.39
-6.93 -1.45 2.39
-6.90 -1.59 2.39
-6.87 -1.73 2.39
-6.83 -1.86 2.39
-6.79 -2.00 2.39
-6.75 -2.14 2.39
-6.71 -2.27 2.39
-6.66 -2.41 2.39
-6.61 -2.54 2.39
-6.56 -2.68 2.39
-6.51 -2.81 2.39
-6.45 -2.94 2.39
-6.39 -3.07 2.39
-6.33 -3.20 2.39
-6.26 -3.32 2.39
-6.20 -3.45 2.39
-6.13 -3.57 2.39
-6.06 -3.70 2.39
-5.98 -3.82 2.39
-5.91 -3.94 2.39
-5.90 -4.11 2.42
-5.90 -4.29 2.45
-5.90 -4.47 2.49
-5.82 -4.59 2.49
-5.72 -4.71 2.49
-5.63 -4.83 2.49
-5.53 -4.94 2.49
-5.43 -5.05 2.49
-5.33 -5.16 2.49
-5.23 -5.27 2.49
-5.12 -5.37 2.49
-5.01 -5.48 2.49
-4.91 -5.58 2.49
-4.79 -5.68 2.49
-4.68 -5.77 2.49
-4.56 -5.87 2.49
-4.45 -5.96 2.49
-4.33 -6.05 2.49
-4.21 -6.14 2.49
-4.08 -6.22 2.49
-3.96 -6.31 2.49
-3.83 -6.39 2.49
-3.70 -6.46 2.49
-3.57 -6.54 2.49
-3.44 -6.61 2.49
-3.31 -6.68 2.49
-3.18 -6.75 2.49
-3.04 -6.81 2.49
-2.91 -6.87 2.49
-2.77 -6.93 2.49
-2.63 -6.99 2.49
-2.49 -7.04 2.49
-2.35 -7.09 2.49
-2.21 -7.14 2.49
-2.06 -7.19 2.49
-1.92 -7.23 2.49
-1.77 -7.27 2.49
-1.63 -7.31 2.49
-1.48 -7.34 2.49
-1.33 -7.37 2.49
-1.19 -7.40 2.49
-1.04 -7.42 2.49
-0.89 -7.44 2.49
-0.74 -7.46 2.49
-0.59 -7.48 2.49
-0.44 -7.49 2.49
-0.29 -7.50 2.49
-0.14 -7.51 2.49
0.01 -6.98 2.49
0.15 -6.98 2.49
0.29 -6.98 2.49
0.43 -6.98 2.49
0.57 -6.97 2.49
0.71 -6.96 2.49
0.85 -6.94 2.49
0.99 -6.93 2.49
1.13 -6.91 2.49
1.27 -6.89 2.49
1.41 -6.86 2.49
1.55 -6.83 2.49
1.68 -6.80 2.49
1.82 -6.77 2.49
1.96 -6.73 2.49
2.07 -6.62 2.47
2.13 -6.38 2.39
2.27 -6.36 2.40
2.39 -6.29 2.39
2.52 -6.25 2.39
2.64 -6.20 2.39
2.77 -6.14 2.39
2.89 -6.09 2.39
3.01 -6.03 2.39
3.13 -5.97 2.39
3.25 -5.91 2.39
3.37 -5.84 2.39
3.49 -5.78 2.39
3.61 -5.71 2.39
3.72 -5.63 2.39
3.83 -5.56 2.39
3.94 -5.48 2.39
4.05 -5.40 2.39
4.16 -5.32 2.39
4.27 -5.24 2.39
4.38 -5.15 2.39
4.48 -5.07 2.39
4.58 -4.98 2.39
4.68 -4.89 2.39
4.78 -4.79 2.39
4.87 -4.70 2.39
4.97 -4.60 2.39
5.06 -4.50 2.39
5.15 -4.40 2.39
5.24 -4.29 2.39
5.33 -4.19 2.39
5.41 -4.08 2.39
5.49 -3.97 2.39
5.57 -3.86 2.39
5.65 -3.75 2.39
5.72 -3.64 2.39
5.79 -3.52 2.39
5.87 -3.41 2.39
5.93 -3.29 2.39
6.00 -3.17 2.39
6.06 -3.05 2.39
6.12 -2.93 2.39
6.18 -2.80 2.39
6.24 -2.68 2.39
6.30 -2.56 2.39
6.35 -2.43 2.39
6.39 -2.30 2.39
6.44 -2.18 2.39
6.48 -2.05 2.39
6.52 -1.92 2.39
6.56 -1.78 2.39
6.60 -1.65 2.39
6.63 -1.52 2.39
6.66 -1.39 2.39
6.68 -1.25 2.39
6.71 -1.12 2.39
6.73 -0.99 2.39
6.75 -0.85 2.39
6.76 -0.72 2.39
6.78 -0.58 2.39
6.79 -0.44 2.39
6.79 -0.31 2.39
6.80 -0.17 2.39
6.80 -0.03 2.39
6.80 0.10 2.39
6.80 0.24 2.39
6.79 0.37 2.39
6.78 0.51 2.39
6.77 0.65 2.39
6.75 0.78 2.39
6.74 0.92 2.39
6.72 1.05 2.39
6.69 1.18 2.39
6.67 1.32 2.39
6.64 1.45 2.39
6.61 1.58 2.39
6.57 1.72 2.39
6.54 1.85 2.39
6.50 1.98 2.39
6.46 2.11 2.39
6.41 2.23 2.39
6.36 2.36 2.39
6.31 2.49 2.39
6.26 2.61 2.39
6.20 2.74 2.39
6.15 2.86 2.39
6.09 2.98 2.39
6.02 3.10 2.39
5.96 3.22 2.39
5.89 3.34 2.39
5.82 3.46 2.39
5.75 3.57 2.39
5.68 3.69 2.39
5.60 3.80 2.39
5.52 3.91 2.39
5.44 4.02 2.39
5.36 4.13 2.39
5.28 4.23 2.39
5.19 4.34 2.39
5.10 4.44 2.39
5.01 4.54 2.39
4.91 4.64 2.39
4.82 4.73 2.39
4.72 4.83 2.39
4.62 4.92 2.39
4.52 5.01 2.39
4.42 5.10 2.39
4.32 5.19 2.39
4.21 5.27 2.39
4.10 5.35 2.39
3.99 5.43 2.39
3.88 5.51 2.39
3.77 5.59 2.39
3.66 5.66 2.39
3.54 5.73 2.39
3.42 5.80 2.39
3.31 5.86 2.39
3.19 5.93 2.39
3.07 5.99 2.39
2.95 6.05 2.39
2.82 6.10 2.39
2.70 6.16 2.39
2.57 6.21 2.39
2.55 6.52 2.49
2.42 6.57 2.49
2.29 6.62 2.49
2.15 6.66 2.49
2.02 6.70 2.49
1.88 6.74 2.49
1.75 6.77 2.49
1.61 6.80 2.49
1.47 6.83 2.49
1.34 6.86 2.49
1.20 6.88 2.49
1.06 6.90 2.49
0.92 6.92 2.49
0.78 6.93 2.49
0.64 6.95 2.49
0.50 6.96 2.49
0.36 6.96 2.49
0.22 6.97 2.49
0.08 6.97 2.49
-0.06 6.96 2.49
-0.20 6.96 2.49
-0.34 6.95 2.49
-0.48 6.94 2.49
-0.62 6.93 2.49
-0.75 6.91 2.49
-0.89 6.89 2.49
-1.03 6.87 2.49
-1.17 6.85 2.49
-1.30 6.82 2.49
-1.44 6.79 2.49
-1.58 6.76 2.49
-1.71 6.72 2.49
-1.85 6.69 2.49
-1.98 6.65 2.49
-2.11 6.60 2.49
-2.24 6.56 2.49
-2.37 6.51 2.49
-2.50 6.46 2.49
-2.63 6.41 2.49
-2.76 6.35 2.49
-2.89 6.29 2.49
-3.01 6.23 2.49
-3.13 6.17 2.49
-3.26 6.10 2.49
-3.38 6.03 2.49
-3.50 5.96 2.49
-3.62 5.89 2.49
-3.73 5.81 2.49
-3.85 5.74 2.49
-3.96 5.66 2.49
-4.07 5.57 2.49
-4.18 5.49 2.49
-4.29 5.40 2.49
-4.40 5.31 2.49
-4.50 5.22 2.49
-4.61 5.13 2.49
-4.71 5.04 2.49
-4.81 4.94 2.49
-4.90 4.84 2.49
-5.00 4.74 2.49
-5.09 4.64 2.49
-5.18 4.53 2.49
-5.27 4.43 2.49
-5.36 4.32 2.49
-5.44 4.21 2.49
-5.53 4.10 2.49
-5.59 3.98 2.49
-5.60 3.81 2.46
-5.61 3.66 2.43
-5.62 3.51 2.40
-5.66 3.38 2.39
-5.73 3.26 2.39
-5.79 3.15 2.39
-5.85 3.03 2.39
-5.91 2.91 2.39
-5.97 2.79 2.39
-6.02 2.67 2.39
-6.07 2.55 2.39
-6.12 2.42 2.39
-6.17 2.30 2.39
-6.21 2.18 2.39
-6.26 2.05 2.39
-6.30 1.92 2.39
-6.33 1.80 2.39
-6.37 1.67 2.39
-6.40 1.54 2.39
-6.43 1.41 2.39
-6.46 1.28 2.39
-6.48 1.15 2.39
-6.50 1.02 2.39
-6.52 0.89 2.39
-6.54 0.76 2.39
-6.55 0.63 2.39
-6.56 0.49 2.39
-6.57 0.36 2.39
-6.58 0.23 2.39
-6.58 0.10 2.39
-6.58 -0.03 2.39
-6.58 -0.17 2.39
-6.57 -0.30 2.39
-6.57 -0.43 2.39
-6.56 -0.56 2.39
-6.55 -0.69 2.39
-6.53 -0.83 2.39
-6.51 -0.96 2.39
-6.49 -1.09 2.39
-6.47 -1.22 2.39
-6.45 -1.35 2.39
-6.42 -1.48 2.39
-6.39 -1.61 2.39
-6.35 -1.74 2.39
-6.32 -1.86 2.39
-6.28 -1.99 2.39
-6.24 -2.12 2.39
-6.20 -2.24 2.39
-6.15 -2.37 2.39
-6.10 -2.49 2.39
-6.05 -2.61 2.39
-6.00 -2.73 2.39
-5.95 -2.85 2.39
-5.89 -2.97 2.39
-5.86 -3.11 2.41
-5.86 -3.26 2.43
-5.87 -3.42 2.46
-5.87 -3.58 2.49
-5.80 -3.71 2.49
-5.73 -3.82 2.49
-5.65 -3.94 2.49
-5.57 -4.05 2.49
-5.49 -4.16 2.49
-5.41 -4.27 2.49
-5.32 -4.38 2.49
-5.24 -4.49 2.49
-5.15 -4.59 2.49
-5.05 -4.70 2.49
-4.96 -4.80 2.49
-4.86 -4.90 2.49
-4.76 -5.00 2.49
-4.66 -5.09 2.49
-4.56 -5.19 2.49
-4.46 -5.28 2.49
-4.35 -5.37 2.49
-4.24 -5.46 2.49
-4.13 -5.54 2.49
-4.02 -5.63 2.49
-3.91 -5.71 2.49
-3.80 -5.79 2.49
-3.68 -5.86 2.49
-3.56 -5.94 2.49
-3.44 -6.01 2.49
-3.32 -6.08 2.49
-3.20 -6.15 2.49
-3.08 -6.21 2.49
-2.95 -6.27 2.49
-2.83 -6.33 2.49
-2.70 -6.39 2.49
-2.57 -6.45 2.49
-2.44 -6.50 2.49
-2.31 -6.55 2.49
-2.18 -6.60 2.49
-2.05 -6.64 2.49
-1.92 -6.68 2.49
-1.78 -6.72 2.49
-1.65 -6.76 2.49
-1.51 -6.79 2.49
-1.38 -6.82 2.49
-1.24 -6.85 2.49
-1.10 -6.88 2.49
-0.96 -6.90 2.49
-0.82 -6.92 2.49
-0.69 -6.94 2.49
-0.55 -6.95 2.49
-0.41 -6.96 2.49
-0.27 -6.97 2.49
-0.13 -6.98 2.49
0.01 -6.52 2.49
0.14 -6.52 2.49
0.27 -6.51 2.49
0.40 -6.51 2.49
0.54 -6.50 2.49
0.67 -6.49 2.49
0.80 -6.48 2.49
0.93 -6.46 2.49
1.06 -6.45 2.49
1.19 -6.42 2.49
1.31 -6.40 2.49
1.44 -6.38 2.49
1.57 -6.35 2.49
1.70 -6.32 2.49
1.83 -6.28 2.49
1.95 -6.25 2.49
2.08 -6.21 2.49
2.11 -5.91 2.39
2.23 -5.87 2.39
2.35 -5.83 2.39
2.46 -5.78 2.39
2.58 -5.73 2.39
2.70 -5.68 2.39
2.81 -5.62 2.39
2.92 -5.57 2.39
3.04 -5.51 2.39
3.15 -5.45 2.39
3.26 -5.39 2.39
3.36 -5.32 2.39
3.47 -5.25 2.39
3.58 -5.19 2.39
3.68 -5.11 2.39
3.78 -5.04 2.39
3.88 -4.96 2.39
3.98 -4.89 2.39
4.08 -4.81 2.39
4.18 -4.72 2.39
4.27 -4.64 2.39
4.37 -4.56 2.39
4.46 -4.47 2.39
4.55 -4.38 2.39
4.63 -4.29 2.39
4.72 -4.19 2.39
4.80 -4.10 2.39
4.89 -4.00 2.39
4.97 -3.91 2.39
5.04 -3.81 2.39
5.12 -3.70 2.39
5.19 -3.60 2.39
5.27 -3.50 2.39
5.34 -3.39 2.39
5.40 -3.28 2.39
5.47 -3.18 2.39
5.53 -3.07 2.39
5.59 -2.96 2.39
5.65 -2.84 2.39
5.71 -2.73 2.39
5.76 -2.61 2.39
5.81 -2.50 2.39
5.86 -2.38 2.39
5.91 -2.26 2.39
5.96 -2.15 2.39
6.00 -2.03 2.39
6.04 -1.91 2.39
6.08 -1.78 2.39
6.11 -1.66 2.39
6.14 -1.54 2.39
6.17 -1.42 2.39
6.20 -1.29 2.39
6.23 -1.17 2.39
6.25 -1.04 2.39
6.27 -0.92 2.39
6.28 -0.79 2.39
6.30 -0.67 2.39
6.31 -0.54 2.39
6.33 -0.41 2.39
6.33 -0.29 2.39
6.34 -0.16 2.39
6.34 -0.03 2.39
6.33 0.09 2.39
6.33 0.22 2.39
6.32 0.35 2.39
6.32 0.47 2.39
6.30 0.60 2.39
6.29 0.73 2.39
6.27 0.85 2.39
6.26 0.98 2.39
6.23 1.10 2.39
6.21 1.23 2.39
6.18 1.35 2.39
