ply
format ascii 1.0
element vertex 2980
property float32 x
property float32 y
property float32 z
end_header
6.62 1.03 1.07
6.59 1.17 1.07
6.57 1.30 1.08
9.25 2.02 1.52
9.25 2.22 1.53
9.35 2.44 1.55
9.45 2.67 1.58
9.55 2.90 1.61
9.65 3.14 1.64
9.75 3.39 1.67
9.72 3.60 1.67
9.67 3.81 1.68
9.62 4.01 1.69
9.58 4.22 1.70
9.60 4.46 1.72
9.62 4.71 1.74
9.64 4.96 1.76
9.66 5.21 1.79
9.68 5.47 1.81
9.69 5.74 1.84
9.71 6.02 1.87
9.71 6.29 1.90
9.65 6.53 1.91
9.58 6.77 1.93
9.52 7.01 1.95
9.45 7.25 1.97
9.38 7.50 1.99
9.31 7.76 2.01
9.22 8.00 2.03
9.12 8.24 2.04
9.09 8.55 2.08
9.08 8.89 2.12
9.07 9.24 2.17
9.06 9.61 2.22
7.24 7.99 1.81
6.97 8.01 1.79
3.08 3.68 0.81
3.01 3.75 0.81
6.96 9.05 1.94
6.98 9.46 2.00
7.01 9.90 2.07
7.03 10.36 2.14
7.06 10.86 2.22
7.08 11.40 2.31
7.11 11.97 2.40
6.82 12.03 2.39
6.56 12.13 2.39
6.30 12.22 2.39
6.04 12.31 2.39
5.77 12.40 2.39
5.51 12.47 2.39
5.24 12.55 2.39
4.98 12.61 2.39
4.71 12.67 2.39
4.44 12.73 2.39
4.17 12.78 2.39
3.13 10.28 1.92
2.95 10.42 1.94
3.28 12.56 2.33
3.10 12.92 2.39
2.96 13.50 2.49
2.68 13.52 2.49
2.40 13.53 2.49
2.12 13.53 2.49
1.84 13.53 2.49
1.57 13.52 2.49
1.29 13.51 2.49
1.02 13.50 2.49
0.74 13.47 2.49
0.47 13.44 2.49
0.20 13.41 2.49
-0.07 13.37 2.49
-0.33 13.33 2.49
-0.60 13.28 2.49
-0.86 13.23 2.49
-1.13 13.17 2.49
-1.39 13.10 2.49
-1.64 13.03 2.49
-1.90 12.96 2.49
-2.15 12.88 2.49
-2.40 12.80 2.49
-2.65 12.71 2.49
-2.90 12.62 2.49
-3.14 12.52 2.49
-3.38 12.42 2.49
-3.62 12.32 2.49
-3.86 12.21 2.49
-4.09 12.09 2.49
-4.32 11.98 2.49
-4.55 11.85 2.49
-4.77 11.73 2.49
-5.00 11.60 2.49
-5.13 11.28 2.45
-5.20 10.86 2.39
-5.41 10.73 2.39
-5.61 10.59 2.39
-5.80 10.45 2.39
-6.00 10.30 2.39
-6.19 10.15 2.39
-6.38 10.00 2.39
-6.56 9.85 2.39
-6.74 9.69 2.39
-6.92 9.53 2.39
-7.09 9.37 2.39
-7.26 9.20 2.39
-7.43 9.03 2.39
-7.59 8.86 2.39
-7.75 8.69 2.39
-7.91 8.51 2.39
-8.06 8.34 2.39
-8.21 8.15 2.39
-8.36 7.97 2.39
-8.50 7.79 2.39
-8.64 7.60 2.39
-8.77 7.41 2.39
-8.90 7.22 2.39
-9.03 7.02 2.39
-9.16 6.83 2.39
-9.28 6.63 2.39
-9.39 6.43 2.39
-9.68 6.35 2.43
-9.75 6.11 2.42
-9.81 5.88 2.41
-9.78 5.60 2.38
-9.72 5.31 2.34
-9.70 5.05 2.32
-9.75 4.82 2.31
-9.79 4.60 2.30
-9.83 4.38 2.29
-9.86 4.16 2.28
-9.90 3.94 2.27
-9.91 3.71 2.26
-9.87 3.47 2.23
-9.82 3.23 2.21
-9.81 3.01 2.20
-9.82 2.80 2.19
-9.84 2.59 2.18
-9.85 2.38 2.18
-9.86 2.18 2.17
-9.88 1.97 2.16
-9.89 1.77 2.16
-9.90 1.56 2.16
-9.88 1.36 2.15
-9.87 1.15 2.14
-9.88 0.95 2.14
-9.89 0.75 2.14
-9.90 0.55 2.14
-9.91 0.35 2.14
-9.92 0.15 2.14
-9.93 -0.05 2.14
-9.93 -0.25 2.14
-9.94 -0.45 2.15
-9.98 -0.65 2.16
-10.02 -0.86 2.17
-10.04 -1.06 2.18
-10.05 -1.27 2.19
-10.05 -1.48 2.19
-10.06 -1.69 2.20
-10.07 -1.90 2.21
-10.07 -2.11 2.22
-10.08 -2.32 2.23
-10.07 -2.54 2.24
-10.03 -2.74 2.24
-9.99 -2.95 2.24
-9.99 -3.17 2.25
-10.00 -3.40 2.27
-10.00 -3.63 2.28
-10.01 -3.86 2.30
-10.01 -4.09 2.32
-10.01 -4.33 2.34
-10.01 -4.57 2.36
-10.06 -4.84 2.39
-10.11 -5.12 2.42
-9.89 -5.26 2.39
-9.79 -5.47 2.39
-9.69 -5.67 2.39
-9.58 -5.87 2.39
-9.48 -6.07 2.39
-9.36 -6.27 2.39
-9.25 -6.46 2.39
-9.13 -6.66 2.39
-9.01 -6.85 2.39
-8.88 -7.04 2.39
-8.75 -7.23 2.39
-8.61 -7.42 2.39
-8.48 -7.60 2.39
-8.34 -7.78 2.39
-8.19 -7.96 2.39
-8.04 -8.14 2.39
-7.89 -8.32 2.39
-7.74 -8.49 2.39
-7.58 -8.66 2.39
-7.42 -8.83 2.39
-7.25 -8.99 2.39
-7.08 -9.16 2.39
-6.91 -9.32 2.39
-6.74 -9.47 2.39
-6.56 -9.63 2.39
-6.39 -9.79 2.39
-6.21 -9.96 2.40
-6.23 -10.44 2.48
-6.07 -10.66 2.49
-5.86 -10.80 2.49
-5.66 -10.94 2.49
-5.45 -11.08 2.49
-5.24 -11.22 2.49
-5.03 -11.35 2.49
-4.81 -11.47 2.49
-4.59 -11.60 2.49
-4.37 -11.72 2.49
-4.14 -11.83 2.49
-3.91 -11.94 2.49
-3.68 -12.05 2.49
-3.45 -12.16 2.49
-3.21 -12.26 2.49
-2.97 -12.35 2.49
-2.73 -12.44 2.49
-2.49 -12.53 2.49
-2.24 -12.61 2.49
-1.99 -12.69 2.49
-1.74 -12.76 2.49
-1.49 -12.83 2.49
-1.23 -12.90 2.49
-0.98 -12.96 2.49
-0.72 -13.01 2.49
-0.46 -13.06 2.49
-0.20 -13.10 2.49
0.07 -11.70 2.49
0.30 -11.73 2.49
0.54 -11.75 2.49
0.78 -11.77 2.49
1.01 -11.78 2.49
1.25 -11.79 2.49
1.49 -11.79 2.49
1.74 -11.79 2.49
1.89 -11.30 2.39
2.13 -11.29 2.39
2.36 -11.27 2.39
2.59 -11.25 2.39
2.82 -11.23 2.39
3.06 -11.20 2.39
3.29 -11.17 2.39
3.52 -11.13 2.39
3.75 -11.08 2.39
3.99 -11.04 2.39
4.22 -10.98 2.39
4.45 -10.93 2.39
4.68 -10.86 2.39
4.91 -10.79 2.39
5.14 -10.72 2.39
5.36 -10.64 2.39
5.59 -10.56 2.39
5.82 -10.47 2.39
6.27 -10.78 2.48
6.46 -10.61 2.47
6.64 -10.44 2.45
6.74 -10.13 2.40
6.81 -9.81 2.35
6.94 -9.59 2.33
7.07 -9.37 2.30
7.20 -9.15 2.28
7.32 -8.93 2.25
7.44 -8.71 2.23
7.55 -8.49 2.21
7.66 -8.27 2.18
7.76 -8.05 2.16
7.86 -7.83 2.14
7.94 -7.60 2.12
8.03 -7.38 2.10
8.12 -7.18 2.08
8.22 -6.98 2.06
8.31 -6.77 2.05
6.26 -4.90 1.52
6.40 -4.81 1.52
6.55 -4.71 1.53
6.69 -4.62 1.54
6.84 -4.52 1.55
8.79 -5.56 1.96
8.85 -5.35 1.95
8.91 -5.15 1.94
8.97 -4.94 1.92
9.02 -4.74 1.91
9.07 -4.54 1.90
9.09 -4.33 1.88
9.08 -4.10 1.86
9.06 -3.87 1.84
9.04 -3.65 1.82
9.01 -3.43 1.79
8.98 -3.22 1.77
8.95 -3.01 1.75
8.92 -2.80 1.73
8.89 -2.60 1.72
8.86 -2.40 1.70
8.82 -2.20 1.68
8.79 -2.01 1.66
8.76 -1.82 1.65
8.74 -1.63 1.64
8.73 -1.45 1.63
8.71 -1.27 1.62
8.70 -1.09 1.61
8.68 -0.91 1.60
8.66 -0.73 1.60
8.64 -0.56 1.59
8.62 -0.38 1.58
8.60 -0.21 1.58
8.57 -0.04 1.57
8.55 0.13 1.57
8.55 0.30 1.57
8.56 0.47 1.57
6.70 0.51 1.23
6.68 0.64 1.23
6.66 0.77 1.23
6.64 0.90 1.23
6.61 1.03 1.23
6.59 1.17 1.23
6.57 1.30 1.23
8.75 1.91 1.65
8.77 2.10 1.66
8.82 2.30 1.68
8.88 2.50 1.70
8.93 2.71 1.72
8.99 2.93 1.74
9.06 3.15 1.77
9.15 3.39 1.80
9.23 3.63 1.83
9.32 3.88 1.87
9.28 4.09 1.88
9.26 4.30 1.89
9.28 4.53 1.92
9.29 4.77 1.94
9.30 5.02 1.97
9.32 5.27 1.99
9.33 5.52 2.02
9.34 5.78 2.05
9.35 6.05 2.08
9.33 6.31 2.11
9.27 6.54 2.13
9.20 6.77 2.15
9.11 6.99 2.16
9.02 7.21 2.18
8.92 7.43 2.19
8.82 7.65 2.21
8.72 7.87 2.23
8.61 8.09 2.24
8.51 8.32 2.26
8.47 8.62 2.30
8.43 8.93 2.35
7.25 7.99 2.06
6.97 8.01 2.04
3.08 3.69 0.92
3.01 3.75 0.93
6.96 9.04 2.20
6.98 9.45 2.27
7.01 9.89 2.35
7.03 10.35 2.43
6.69 10.29 2.39
6.47 10.39 2.39
6.24 10.50 2.39
6.02 10.59 2.39
5.79 10.69 2.39
5.56 10.77 2.39
5.33 10.86 2.39
5.10 10.93 2.39
4.87 11.01 2.39
4.64 11.07 2.39
4.40 11.14 2.39
4.17 11.19 2.39
3.93 11.25 2.39
3.70 11.29 2.39
3.14 10.28 2.17
3.20 11.30 2.37
2.99 11.41 2.39
2.87 11.93 2.49
2.62 11.95 2.49
2.38 11.97 2.49
2.13 11.98 2.49
1.89 11.99 2.49
1.64 11.99 2.49
1.40 11.99 2.49
1.15 11.99 2.49
0.91 11.98 2.49
0.67 11.96 2.49
0.43 11.94 2.49
0.19 11.91 2.49
-0.05 11.88 2.49
-0.29 11.85 2.49
-0.53 11.81 2.49
-0.76 11.76 2.49
-0.99 11.71 2.49
-1.23 11.66 2.49
-1.46 11.60 2.49
-1.68 11.54 2.49
-1.91 11.47 2.49
-2.13 11.40 2.49
-2.36 11.33 2.49
-2.58 11.25 2.49
-2.80 11.17 2.49
-3.01 11.08 2.49
-3.23 10.99 2.49
-3.44 10.90 2.49
-3.65 10.80 2.49
-3.85 10.70 2.49
-4.06 10.59 2.49
-4.26 10.48 2.49
-4.46 10.37 2.49
-4.65 10.25 2.49
-4.85 10.13 2.49
-5.04 10.01 2.49
-5.20 9.84 2.48
-5.23 9.43 2.41
-5.36 9.22 2.39
-5.54 9.09 2.39
-5.70 8.96 2.39
-5.87 8.82 2.39
-6.03 8.68 2.39
-6.19 8.54 2.39
-6.35 8.40 2.39
-6.51 8.25 2.39
-6.66 8.10 2.39
-6.81 7.95 2.39
-6.95 7.80 2.39
-7.09 7.64 2.39
-7.23 7.48 2.39
-7.37 7.32 2.39
-7.50 7.16 2.39
-7.63 6.99 2.39
-7.75 6.83 2.39
-7.88 6.66 2.39
-8.00 6.49 2.39
-8.11 6.31 2.39
-8.22 6.14 2.39
-8.33 5.96 2.39
-8.44 5.78 2.39
-8.54 5.61 2.39
-8.64 5.42 2.39
-8.74 5.24 2.39
-8.83 5.06 2.39
-8.92 4.87 2.39
-9.00 4.68 2.39
-9.08 4.50 2.39
-9.16 4.31 2.39
-9.24 4.12 2.39
-9.31 3.93 2.39
-9.37 3.73 2.39
-9.44 3.54 2.39
-9.50 3.35 2.39
-9.56 3.15 2.39
-9.68 2.98 2.41
-9.70 2.77 2.40
-9.71 2.56 2.39
-9.73 2.36 2.38
-9.74 2.15 2.38
-9.75 1.95 2.37
-9.77 1.75 2.37
-9.78 1.55 2.36
-9.77 1.34 2.36
-9.76 1.14 2.35
-9.77 0.94 2.35
-9.78 0.75 2.35
-9.79 0.55 2.35
-9.80 0.35 2.35
-9.81 0.15 2.35
-9.82 -0.05 2.35
-9.82 -0.24 2.35
-9.83 -0.44 2.36
-9.85 -0.64 2.36
-9.89 -0.85 2.38
-9.91 -1.05 2.39
-9.92 -1.25 2.39
-9.92 -1.46 2.40
-9.93 -1.67 2.41
-9.81 -1.85 2.39
-9.78 -2.05 2.39
-9.74 -2.25 2.39
-9.69 -2.44 2.39
-9.65 -2.64 2.39
-9.59 -2.84 2.39
-9.54 -3.03 2.39
-9.48 -3.22 2.39
-9.42 -3.42 2.39
-9.36 -3.61 2.39
-9.29 -3.80 2.39
-9.22 -3.99 2.39
-9.14 -4.18 2.39
-9.07 -4.37 2.39
-8.98 -4.55 2.39
-8.90 -4.74 2.39
-8.81 -4.92 2.39
-8.72 -5.10 2.39
-8.62 -5.28 2.39
-8.52 -5.46 2.39
-8.42 -5.64 2.39
-8.32 -5.82 2.39
-8.21 -5.99 2.39
-8.10 -6.16 2.39
-7.98 -6.33 2.39
-7.86 -6.50 2.39
-7.74 -6.67 2.39
-7.62 -6.84 2.39
-7.49 -7.00 2.39
-7.36 -7.16 2.39
-7.22 -7.32 2.39
-7.09 -7.47 2.39
-6.95 -7.63 2.39
-6.80 -7.78 2.39
-6.66 -7.93 2.39
-6.51 -8.08 2.39
-6.35 -8.22 2.39
-6.20 -8.36 2.39
-6.14 -8.64 2.43
-6.13 -9.01 2.49
-5.96 -9.15 2.49
-5.79 -9.29 2.49
-5.61 -9.42 2.49
-5.43 -9.55 2.49
-5.25 -9.68 2.49
-5.06 -9.80 2.49
-4.88 -9.93 2.49
-4.69 -10.04 2.49
-4.49 -10.16 2.49
-4.30 -10.27 2.49
-4.10 -10.38 2.49
-3.90 -10.48 2.49
-3.70 -10.58 2.49
-3.49 -10.68 2.49
-3.28 -10.77 2.49
-3.07 -10.86 2.49
-2.86 -10.95 2.49
-2.65 -11.03 2.49
-2.43 -11.11 2.49
-2.21 -11.19 2.49
-1.99 -11.26 2.49
-1.77 -11.32 2.49
-1.55 -11.38 2.49
-1.32 -11.44 2.49
-1.09 -11.50 2.49
-0.86 -11.55 2.49
-0.63 -11.59 2.49
-0.40 -11.63 2.49
-0.17 -11.67 2.49
0.07 -10.53 2.49
0.28 -10.55 2.49
0.49 -10.57 2.49
0.70 -10.58 2.49
0.92 -10.59 2.49
1.13 -10.60 2.49
1.35 -10.60 2.49
1.57 -10.59 2.49
1.78 -10.59 2.49
1.92 -10.14 2.39
2.12 -10.12 2.39
2.33 -10.10 2.39
2.54 -10.08 2.39
2.75 -10.05 2.39
2.96 -10.01 2.39
3.16 -9.98 2.39
3.37 -9.94 2.39
3.58 -9.89 2.39
3.79 -9.84 2.39
3.99 -9.79 2.39
4.20 -9.73 2.39
4.40 -9.66 2.39
4.60 -9.60 2.39
4.81 -9.52 2.39
5.01 -9.45 2.39
5.21 -9.37 2.39
5.41 -9.28 2.39
5.60 -9.19 2.39
5.80 -9.10 2.39
6.24 -9.37 2.49
6.37 -9.16 2.46
6.50 -8.96 2.44
6.62 -8.76 2.41
6.74 -8.56 2.39
6.86 -8.36 2.36
6.97 -8.15 2.34
7.08 -7.95 2.32
7.18 -7.74 2.29
7.26 -7.53 2.27
7.35 -7.32 2.24
7.43 -7.11 2.22
7.51 -6.90 2.20
7.60 -6.71 2.18
7.69 -6.53 2.17
7.78 -6.34 2.15
6.26 -4.89 1.70
6.40 -4.80 1.71
6.54 -4.71 1.72
6.69 -4.61 1.73
6.83 -4.51 1.74
8.23 -5.20 2.07
8.28 -5.00 2.05
8.33 -4.81 2.03
8.37 -4.61 2.02
8.41 -4.42 2.01
8.45 -4.23 1.99
8.49 -4.04 1.98
8.53 -3.85 1.97
8.55 -3.65 1.95
8.54 -3.45 1.93
8.53 -3.25 1.91
8.52 -3.05 1.89
8.50 -2.86 1.87
8.49 -2.66 1.86
8.47 -2.47 1.84
8.46 -2.29 1.83
8.44 -2.10 1.81
8.42 -1.92 1.80
8.43 -1.75 1.79
8.45 -1.57 1.78
8.44 -1.40 1.78
8.42 -1.22 1.77
8.41 -1.05 1.76
8.39 -0.88 1.75
8.37 -0.71 1.74
8.36 -0.54 1.73
8.34 -0.37 1.73
8.32 -0.20 1.72
8.30 -0.04 1.72
8.27 0.13 1.71
8.27 0.29 1.71
8.28 0.46 1.72
6.70 0.50 1.39
6.68 0.64 1.39
6.66 0.77 1.39
6.63 0.90 1.39
6.61 1.03 1.39
6.59 1.16 1.39
6.57 1.30 1.39
8.41 1.84 1.78
8.43 2.02 1.80
8.45 2.20 1.81
8.50 2.40 1.83
8.56 2.60 1.86
8.61 2.80 1.88
8.66 3.01 1.91
8.70 3.22 1.93
8.75 3.44 1.96
8.80 3.66 1.99
8.85 3.89 2.02
8.90 4.13 2.05
8.90 4.35 2.07
8.90 4.57 2.09
8.91 4.80 2.12
8.91 5.04 2.15
8.92 5.28 2.18
8.92 5.52 2.20
8.92 5.77 2.24
8.92 6.02 2.27
8.90 6.28 2.30
8.82 6.48 2.31
8.73 6.69 2.33
8.64 6.90 2.34
8.54 7.11 2.36
8.44 7.32 2.38
8.34 7.53 2.39
8.24 7.74 2.41
8.13 7.95 2.43
8.03 8.16 2.45
7.93 8.39 2.48
7.25 7.99 2.32
6.98 8.00 2.29
3.09 3.69 1.04
3.01 3.75 1.04
6.74 8.74 2.39
6.55 8.86 2.39
6.36 8.97 2.39
6.17 9.07 2.39
5.97 9.18 2.39
5.78 9.28 2.39
5.58 9.37 2.39
5.38 9.46 2.39
5.18 9.54 2.39
4.97 9.62 2.39
4.77 9.70 2.39
4.56 9.77 2.39
4.36 9.84 2.39
4.15 9.90 2.39
3.94 9.96 2.39
3.73 10.01 2.39
3.53 10.06 2.39
3.32 10.11 2.39
3.10 10.15 2.39
2.89 10.19 2.39
2.80 10.66 2.49
2.58 10.69 2.49
2.36 10.71 2.49
2.14 10.73 2.49
1.92 10.75 2.49
1.70 10.76 2.49
1.48 10.76 2.49
1.26 10.76 2.49
1.04 10.76 2.49
0.82 10.75 2.49
0.61 10.74 2.49
0.39 10.72 2.49
0.17 10.70 2.49
-0.04 10.68 2.49
-0.25 10.65 2.49
-0.47 10.62 2.49
-0.68 10.58 2.49
-0.89 10.54 2.49
-1.10 10.49 2.49
-1.30 10.44 2.49
-1.51 10.39 2.49
-1.71 10.33 2.49
-1.92 10.27 2.49
-2.12 10.21 2.49
-2.32 10.14 2.49
-2.51 10.07 2.49
-2.71 9.99 2.49
-2.90 9.91 2.49
-3.09 9.83 2.49
-3.28 9.74 2.49
-3.47 9.65 2.49
-3.66 9.56 2.49
-3.84 9.46 2.49
-4.02 9.36 2.49
-4.20 9.26 2.49
-4.37 9.16 2.49
-4.55 9.05 2.49
-4.72 8.93 2.49
-4.89 8.82 2.49
-5.05 8.70 2.49
-5.22 8.58 2.49
-5.28 8.30 2.45
-5.31 7.99 2.39
-5.46 7.86 2.39
-5.60 7.73 2.39
-5.75 7.61 2.39
-5.89 7.47 2.39
-6.02 7.34 2.39
-6.16 7.20 2.39
-6.29 7.07 2.39
-6.42 6.93 2.39
-6.55 6.78 2.39
-6.67 6.64 2.39
-6.79 6.49 2.39
-6.91 6.34 2.39
-7.03 6.19 2.39
-7.14 6.04 2.39
-7.25 5.89 2.39
-7.35 5.73 2.39
-7.46 5.57 2.39
-7.56 5.41 2.39
-7.65 5.25 2.39
-7.75 5.09 2.39
-7.84 4.92 2.39
-7.93 4.76 2.39
-8.01 4.59 2.39
-8.09 4.43 2.39
-8.17 4.26 2.39
-8.25 4.09 2.39
-8.32 3.91 2.39
-8.39 3.74 2.39
-8.45 3.57 2.39
-8.51 3.39 2.39
-8.57 3.22 2.39
-8.63 3.04 2.39
-8.68 2.86 2.39
-8.73 2.69 2.39
-8.78 2.51 2.39
-8.82 2.33 2.39
-8.86 2.15 2.39
-8.89 1.97 2.39
-8.93 1.79 2.39
-8.95 1.60 2.39
-8.98 1.42 2.39
-9.00 1.24 2.39
-9.02 1.06 2.39
-9.04 0.87 2.39
-9.05 0.69 2.39
-9.06 0.51 2.39
-9.07 0.32 2.39
-9.07 0.14 2.39
-9.07 -0.04 2.39
-9.07 -0.23 2.39
-9.06 -0.41 2.39
-9.05 -0.59 2.39
-9.04 -0.77 2.39
-9.02 -0.96 2.39
-9.00 -1.14 2.39
-8.98 -1.32 2.39
-8.95 -1.50 2.39
-8.92 -1.68 2.39
-8.89 -1.86 2.39
-8.85 -2.04 2.39
-8.81 -2.22 2.39
-8.77 -2.40 2.39
-8.72 -2.58 2.39
-8.67 -2.76 2.39
-8.62 -2.93 2.39
-8.56 -3.11 2.39
-8.50 -3.28 2.39
-8.44 -3.46 2.39
-8.38 -3.63 2.39
-8.31 -3.80 2.39
-8.24 -3.97 2.39
-8.16 -4.14 2.39
-8.08 -4.31 2.39
-8.00 -4.47 2.39
-7.92 -4.64 2.39
-7.83 -4.80 2.39
-7.74 -4.96 2.39
-7.65 -5.12 2.39
-7.55 -5.28 2.39
-7.45 -5.44 2.39
-7.35 -5.60 2.39
-7.24 -5.75 2.39
-7.13 -5.90 2.39
-7.02 -6.05 2.39
-6.91 -6.20 2.39
-6.79 -6.35 2.39
-6.67 -6.50 2.39
-6.55 -6.64 2.39
-6.42 -6.78 2.39
-6.29 -6.92 2.39
-6.16 -7.06 2.39
-6.07 -7.24 2.41
-6.08 -7.56 2.47
-6.00 -7.77 2.49
-5.85 -7.91 2.49
-5.70 -8.04 2.49
-5.55 -8.16 2.49
-5.39 -8.29 2.49
-5.24 -8.41 2.49
-5.08 -8.53 2.49
-4.91 -8.65 2.49
-4.75 -8.76 2.49
-4.58 -8.87 2.49
-4.41 -8.98 2.49
-4.23 -9.09 2.49
-4.06 -9.19 2.49
-3.88 -9.29 2.49
-3.70 -9.38 2.49
-3.52 -9.48 2.49
-3.33 -9.56 2.49
-3.15 -9.65 2.49
-2.96 -9.73 2.49
-2.77 -9.81 2.49
-2.58 -9.89 2.49
-2.38 -9.96 2.49
-2.19 -10.03 2.49
-1.99 -10.09 2.49
-1.79 -10.15 2.49
-1.59 -10.21 2.49
-1.39 -10.26 2.49
-1.18 -10.31 2.49
-0.98 -10.36 2.49
-0.77 -10.40 2.49
-0.56 -10.44 2.49
-0.35 -10.47 2.49
-0.14 -10.50 2.49
0.07 -9.56 2.49
0.26 -9.58 2.49
0.45 -9.60 2.49
0.65 -9.61 2.49
0.84 -9.61 2.49
1.04 -9.62 2.49
1.23 -9.61 2.49
1.43 -9.61 2.49
1.62 -9.60 2.49
1.82 -9.59 2.49
1.93 -9.17 2.39
2.12 -9.15 2.39
2.31 -9.13 2.39
2.50 -9.10 2.39
2.68 -9.07 2.39
2.87 -9.03 2.39
3.06 -8.99 2.39
3.24 -8.95 2.39
3.43 -8.90 2.39
3.62 -8.85 2.39
3.80 -8.80 2.39
3.98 -8.74 2.39
4.17 -8.67 2.39
4.35 -8.61 2.39
4.53 -8.54 2.39
4.71 -8.46 2.39
4.89 -8.38 2.39
5.07 -8.30 2.39
5.24 -8.22 2.39
5.42 -8.13 2.39
5.59 -8.03 2.39
5.76 -7.93 2.39
5.93 -7.83 2.39
6.34 -8.03 2.48
6.45 -7.85 2.46
6.55 -7.65 2.44
6.64 -7.45 2.41
6.73 -7.25 2.38
6.82 -7.06 2.36
6.90 -6.86 2.34
6.98 -6.67 2.31
7.06 -6.48 2.29
7.14 -6.30 2.28
7.23 -6.13 2.26
7.32 -5.95 2.25
6.26 -4.89 1.89
6.40 -4.80 1.90
6.54 -4.70 1.91
6.69 -4.61 1.92
6.83 -4.51 1.93
7.77 -4.90 2.17
7.82 -4.72 2.15
7.86 -4.54 2.14
7.91 -4.35 2.12
7.95 -4.17 2.11
7.99 -3.99 2.09
8.04 -3.82 2.08
8.10 -3.65 2.08
8.15 -3.48 2.07
8.18 -3.30 2.06
8.17 -3.11 2.04
8.16 -2.92 2.02
8.15 -2.74 2.00
8.14 -2.55 1.98
8.13 -2.37 1.97
8.12 -2.19 1.95
8.10 -2.02 1.94
8.09 -1.84 1.92
8.11 -1.68 1.92
8.13 -1.51 1.91
8.14 -1.35 1.91
8.15 -1.18 1.90
8.14 -1.02 1.89
8.12 -0.85 1.89
8.11 -0.69 1.88
8.09 -0.52 1.87
8.07 -0.36 1.86
8.05 -0.20 1.86
8.03 -0.04 1.85
8.01 0.12 1.85
8.01 0.28 1.85
8.01 0.44 1.85
6.70 0.50 1.55
6.68 0.64 1.55
6.65 0.77 1.54
6.63 0.90 1.54
6.61 1.03 1.54
6.59 1.16 1.54
6.56 1.30 1.54
8.09 1.77 1.91
8.11 1.94 1.93
8.12 2.11 1.94
8.15 2.30 1.96
8.20 2.49 1.98
8.25 2.68 2.01
8.29 2.88 2.03
8.34 3.08 2.06
8.38 3.29 2.09
8.42 3.50 2.12
8.46 3.72 2.15
8.50 3.94 2.18
8.54 4.17 2.21
8.53 4.38 2.23
8.50 4.58 2.25
8.47 4.78 2.27
8.45 5.00 2.29
8.45 5.23 2.32
8.44 5.46 2.35
8.43 5.69 2.39
8.43 5.94 2.42
8.41 6.18 2.45
8.35 6.40 2.48
8.27 6.60 2.49
8.18 6.80 2.51
8.08 7.00 2.53
7.99 7.20 2.55
7.89 7.40 2.56
7.79 7.61 2.58
7.69 7.81 2.61
7.58 8.02 2.63
6.74 7.42 2.39
6.58 7.54 2.39
3.09 3.69 1.15
3.01 3.74 1.15
6.08 7.88 2.39
5.91 7.98 2.39
5.74 8.08 2.39
5.57 8.18 2.39
5.39 8.27 2.39
5.22 8.37 2.39
5.04 8.45 2.39
4.86 8.53 2.39
4.68 8.61 2.39
4.50 8.69 2.39
4.31 8.76 2.39
4.13 8.82 2.39
3.94 8.89 2.39
3.76 8.95 2.39
3.57 9.00 2.39
3.38 9.05 2.39
3.19 9.10 2.39
3.00 9.14 2.39
2.83 9.24 2.41
2.74 9.61 2.49
2.54 9.64 2.49
2.34 9.67 2.49
2.14 9.69 2.49
1.94 9.71 2.49
1.74 9.73 2.49
1.54 9.74 2.49
1.35 9.75 2.49
1.15 9.75 2.49
0.95 9.75 2.49
0.75 9.75 2.49
0.56 9.74 2.49
0.36 9.73 2.49
0.16 9.71 2.49
-0.03 9.69 2.49
-0.22 9.66 2.49
-0.42 9.64 2.49
-0.61 9.61 2.49
-0.80 9.57 2.49
-0.99 9.53 2.49
-1.18 9.49 2.49
-1.37 9.44 2.49
-1.55 9.39 2.49
-1.74 9.34 2.49
-1.92 9.28 2.49
-2.10 9.22 2.49
-2.28 9.16 2.49
-2.46 9.09 2.49
-2.63 9.02 2.49
-2.81 8.95 2.49
-2.98 8.87 2.49
-3.15 8.79 2.49
-3.32 8.71 2.49
-3.49 8.62 2.49
-3.66 8.53 2.49
-3.82 8.44 2.49
-3.98 8.34 2.49
-4.14 8.24 2.49
-4.30 8.14 2.49
-4.45 8.04 2.49
-4.60 7.93 2.49
-4.75 7.82 2.49
-4.90 7.71 2.49
-5.04 7.60 2.49
-5.19 7.48 2.49
-5.33 7.36 2.49
-5.34 7.08 2.44
-5.37 6.82 2.39
-5.49 6.70 2.39
-5.62 6.58 2.39
-5.74 6.45 2.39
-5.86 6.33 2.39
-5.98 6.20 2.39
-6.09 6.07 2.39
-6.20 5.93 2.39
-6.31 5.80 2.39
-6.42 5.66 2.39
-6.52 5.52 2.39
-6.62 5.38 2.39
-6.72 5.24 2.39
-6.81 5.10 2.39
-6.91 4.95 2.39
-7.00 4.80 2.39
-7.08 4.66 2.39
-7.17 4.51 2.39
-7.25 4.36 2.39
-7.33 4.20 2.39
-7.40 4.05 2.39
-7.47 3.90 2.39
-7.54 3.74 2.39
-7.61 3.58 2.39
-7.67 3.43 2.39
-7.73 3.27 2.39
-7.79 3.11 2.39
-7.84 2.95 2.39
-7.90 2.79 2.39
-7.94 2.62 2.39
-7.99 2.46 2.39
-8.03 2.30 2.39
-8.07 2.13 2.39
-8.11 1.97 2.39
-8.14 1.80 2.39
-8.17 1.64 2.39
-8.20 1.47 2.39
-8.22 1.30 2.39
-8.24 1.14 2.39
-8.26 0.97 2.39
-8.28 0.80 2.39
-8.29 0.63 2.39
-8.30 0.47 2.39
-8.30 0.30 2.39
-8.31 0.13 2.39
-8.31 -0.04 2.39
-8.30 -0.21 2.39
-8.30 -0.37 2.39
-8.29 -0.54 2.39
-8.28 -0.71 2.39
-8.26 -0.88 2.39
-8.24 -1.04 2.39
-8.22 -1.21 2.39
-8.20 -1.38 2.39
-8.17 -1.54 2.39
-8.14 -1.71 2.39
-8.10 -1.87 2.39
-8.07 -2.04 2.39
-8.03 -2.20 2.39
-7.98 -2.36 2.39
-7.94 -2.52 2.39
-7.89 -2.69 2.39
-7.84 -2.85 2.39
-7.78 -3.01 2.39
-7.73 -3.16 2.39
-7.67 -3.32 2.39
-7.60 -3.48 2.39
-7.54 -3.63 2.39
-7.47 -3.79 2.39
-7.40 -3.94 2.39
-7.32 -4.09 2.39
-7.24 -4.25 2.39
-7.16 -4.40 2.39
-7.08 -4.54 2.39
-6.99 -4.69 2.39
-6.90 -4.84 2.39
-6.81 -4.98 2.39
-6.72 -5.12 2.39
-6.62 -5.26 2.39
-6.52 -5.40 2.39
-6.42 -5.54 2.39
-6.31 -5.67 2.39
-6.21 -5.81 2.39
-6.10 -5.94 2.39
-6.02 -6.10 2.40
-6.02 -6.36 2.45
-6.00 -6.60 2.49
-5.87 -6.73 2.49
-5.74 -6.85 2.49
-5.61 -6.98 2.49
-5.48 -7.10 2.49
-5.34 -7.22 2.49
-5.20 -7.34 2.49
-5.06 -7.46 2.49
-4.92 -7.57 2.49
-4.77 -7.68 2.49
-4.63 -7.79 2.49
-4.48 -7.89 2.49
-4.32 -8.00 2.49
-4.17 -8.10 2.49
-4.01 -8.19 2.49
-3.86 -8.29 2.49
-3.69 -8.38 2.49
-3.53 -8.47 2.49
-3.37 -8.55 2.49
-3.20 -8.64 2.49
-3.03 -8.72 2.49
-2.86 -8.79 2.49
-2.69 -8.87 2.49
-2.52 -8.94 2.49
-2.34 -9.00 2.49
-2.16 -9.07 2.49
-1.98 -9.13 2.49
-1.80 -9.19 2.49
-1.62 -9.24 2.49
-1.44 -9.29 2.49
-1.26 -9.34 2.49
-1.07 -9.38 2.49
-0.88 -9.42 2.49
-0.70 -9.46 2.49
-0.51 -9.49 2.49
-0.32 -9.52 2.49
-0.13 -9.54 2.49
0.07 -8.75 2.49
0.24 -8.77 2.49
0.42 -8.78 2.49
0.60 -8.79 2.49
0.77 -8.79 2.49
0.95 -8.79 2.49
1.13 -8.79 2.49
1.31 -8.78 2.49
1.49 -8.77 2.49
1.67 -8.76 2.49
1.85 -8.74 2.49
1.95 -8.37 2.39
2.11 -8.34 2.39
2.28 -8.31 2.39
2.46 -8.28 2.39
2.63 -8.24 2.39
2.80 -8.21 2.39
2.97 -8.17 2.39
3.14 -8.12 2.39
3.30 -8.07 2.39
3.47 -8.02 2.39
3.64 -7.97 2.39
3.80 -7.91 2.39
3.97 -7.84 2.39
4.13 -7.78 2.39
4.30 -7.71 2.39
4.46 -7.64 2.39
4.62 -7.56 2.39
4.78 -7.48 2.39
4.94 -7.40 2.39
5.09 -7.31 2.39
5.25 -7.22 2.39
5.40 -7.13 2.39
5.55 -7.03 2.39
5.70 -6.93 2.39
5.85 -6.83 2.39
5.99 -6.72 2.39
6.34 -6.82 2.47
6.42 -6.64 2.44
6.50 -6.46 2.42
6.58 -6.28 2.40
6.65 -6.10 2.38
6.73 -5.93 2.36
6.82 -5.77 2.34
6.90 -5.61 2.33
6.26 -4.88 2.08
6.40 -4.79 2.09
6.54 -4.70 2.10
6.68 -4.60 2.11
6.83 -4.50 2.13
7.35 -4.64 2.26
7.40 -4.46 2.24
7.45 -4.29 2.23
7.49 -4.12 2.21
7.53 -3.95 2.20
7.58 -3.79 2.19
7.64 -3.63 2.18
7.70 -3.47 2.17
7.75 -3.31 2.17
7.80 -3.15 2.16
7.84 -2.98 2.16
7.84 -2.80 2.14
7.83 -2.63 2.12
7.82 -2.45 2.10
7.81 -2.28 2.08
7.80 -2.11 2.07
7.79 -1.94 2.05
7.79 -1.77 2.04
7.81 -1.61 2.04
7.83 -1.46 2.03
7.84 -1.30 2.03
7.86 -1.14 2.02
7.87 -0.98 2.02
7.87 -0.82 2.02
7.85 -0.66 2.01
7.84 -0.50 2.00
7.82 -0.35 1.99
7.80 -0.19 1.99
7.79 -0.04 1.98
7.77 0.12 1.98
7.76 0.27 1.97
7.76 0.43 1.98
6.70 0.50 1.71
6.67 0.64 1.71
6.65 0.77 1.70
6.63 0.90 1.70
6.61 1.03 1.70
6.58 1.16 1.70
6.56 1.29 1.70
7.80 1.70 2.03
7.81 1.87 2.05
7.82 2.03 2.06
7.83 2.20 2.07
7.86 2.38 2.10
7.91 2.57 2.12
7.95 2.76 2.15
7.99 2.95 2.18
8.03 3.15 2.21
8.07 3.35 2.24
8.10 3.56 2.27
8.14 3.77 2.30
8.17 3.99 2.33
8.20 4.21 2.37
8.18 4.40 2.39
8.15 4.60 2.41
8.11 4.79 2.43
8.08 4.99 2.45
8.04 5.19 2.47
8.00 5.40 2.49
7.98 5.62 2.52
7.97 5.85 2.56
7.95 6.08 2.59
7.92 6.32 2.63
7.83 6.51 2.65
7.74 6.70 2.66
7.65 6.89 2.68
6.68 6.26 2.39
6.55 6.39 2.39
6.41 6.51 2.39
6.27 6.62 2.39
6.12 6.74 2.39
5.98 6.85 2.39
3.10 3.69 1.27
3.01 3.74 1.27
5.53 7.16 2.39
5.38 7.26 2.39
5.22 7.35 2.39
5.07 7.44 2.39
4.91 7.53 2.39
4.75 7.61 2.39
4.59 7.69 2.39
4.43 7.77 2.39
4.26 7.84 2.39
4.10 7.91 2.39
3.93 7.97 2.39
3.76 8.04 2.39
3.60 8.09 2.39
3.43 8.15 2.39
3.26 8.20 2.39
3.09 8.25 2.39
2.92 8.29 2.39
2.79 8.47 2.43
2.68 8.73 2.49
2.50 8.76 2.49
2.32 8.79 2.49
2.14 8.82 2.49
1.96 8.85 2.49
1.78 8.86 2.49
1.60 8.88 2.49
1.42 8.89 2.49
1.23 8.90 2.49
1.05 8.91 2.49
0.87 8.91 2.49
0.69 8.90 2.49
0.51 8.90 2.49
0.33 8.89 2.49
0.16 8.87 2.49
-0.02 8.86 2.49
-0.20 8.84 2.49
-0.38 8.81 2.49
-0.55 8.79 2.49
-0.73 8.75 2.49
-0.90 8.72 2.49
-1.07 8.68 2.49
-1.24 8.64 2.49
-1.41 8.60 2.49
-1.58 8.55 2.49
-1.75 8.50 2.49
-1.92 8.45 2.49
-2.08 8.39 2.49
-2.25 8.33 2.49
-2.41 8.27 2.49
-2.57 8.20 2.49
-2.73 8.13 2.49
-2.89 8.06 2.49
-3.04 7.98 2.49
-3.20 7.91 2.49
-3.35 7.83 2.49
-3.50 7.74 2.49
-3.65 7.66 2.49
-3.79 7.57 2.49
-3.94 7.48 2.49
-4.08 7.38 2.49
-4.22 7.28 2.49
-4.36 7.19 2.49
-4.49 7.08 2.49
-4.63 6.98 2.49
-4.76 6.87 2.49
-4.89 6.76 2.49
-5.02 6.65 2.49
-5.14 6.54 2.49
-5.26 6.43 2.49
-5.38 6.31 2.49
-5.39 6.07 2.44
-5.41 5.85 2.40
-5.49 5.70 2.39
-5.61 5.59 2.39
-5.70 5.46 2.39
-5.80 5.33 2.39
-5.90 5.21 2.39
-5.99 5.08 2.39
-6.09 4.95 2.39
-6.18 4.82 2.39
-6.27 4.69 2.39
-6.35 4.56 2.39
-6.44 4.42 2.39
-6.52 4.29 2.39
-6.59 4.15 2.39
-6.67 4.01 2.39
-6.74 3.87 2.39
-6.81 3.73 2.39
-6.88 3.59 2.39
-6.94 3.45 2.39
-7.00 3.30 2.39
-7.06 3.16 2.39
-7.12 3.01 2.39
-7.17 2.86 2.39
-7.22 2.72 2.39
-7.27 2.57 2.39
-7.32 2.42 2.39
-7.36 2.27 2.39
-7.40 2.12 2.39
-7.43 1.97 2.39
-7.47 1.81 2.39
-7.50 1.66 2.39
-7.53 1.51 2.39
-7.55 1.36 2.39
-7.58 1.20 2.39
-7.59 1.05 2.39
-7.61 0.89 2.39
-7.63 0.74 2.39
-7.64 0.58 2.39
-7.65 0.43 2.39
-7.65 0.28 2.39
-7.65 0.12 2.39
-7.65 -0.03 2.39
-7.65 -0.19 2.39
-7.64 -0.34 2.39
-7.64 -0.50 2.39
-7.62 -0.65 2.39
-7.61 -0.81 2.39
-7.59 -0.96 2.39
-7.57 -1.11 2.39
-7.55 -1.27 2.39
-7.52 -1.42 2.39
-7.50 -1.57 2.39
-7.47 -1.73 2.39
-7.43 -1.88 2.39
-7.39 -2.03 2.39
-7.36 -2.18 2.39
-7.31 -2.33 2.39
-7.27 -2.48 2.39
-7.22 -2.62 2.39
-7.17 -2.77 2.39
-7.12 -2.92 2.39
-7.06 -3.06 2.39
-7.00 -3.21 2.39
-6.94 -3.35 2.39
-6.88 -3.49 2.39
-6.81 -3.63 2.39
-6.74 -3.77 2.39
-6.67 -3.91 2.39
-6.59 -4.05 2.39
-6.52 -4.18 2.39
-6.44 -4.32 2.39
-6.35 -4.45 2.39
-6.27 -4.59 2.39
-6.18 -4.72 2.39
-6.09 -4.85 2.39
-6.00 -4.97 2.39
-5.97 -5.15 2.41
-5.97 -5.37 2.46
-5.95 -5.58 2.49
-5.85 -5.70 2.49
-5.74 -5.83 2.49
-5.63 -5.95 2.49
-5.51 -6.07 2.49
-5.40 -6.19 2.49
-5.28 -6.30 2.49
-5.16 -6.42 2.49
-5.03 -6.53 2.49
-4.91 -6.64 2.49
-4.78 -6.75 2.49
-4.65 -6.85 2.49
-4.52 -6.96 2.49
-4.38 -7.06 2.49
-4.25 -7.16 2.49
-4.11 -7.25 2.49
-3.97 -7.35 2.49
-3.83 -7.44 2.49
-3.68 -7.52 2.49
-3.53 -7.61 2.49
-3.39 -7.69 2.49
-3.24 -7.77 2.49
-3.09 -7.85 2.49
-2.93 -7.93 2.49
-2.78 -8.00 2.49
-2.62 -8.07 2.49
-2.46 -8.13 2.49
-2.30 -8.20 2.49
-2.14 -8.26 2.49
-1.98 -8.31 2.49
-1.81 -8.37 2.49
-1.65 -8.42 2.49
-1.48 -8.47 2.49
-1.31 -8.51 2.49
-1.14 -8.55 2.49
-0.97 -8.59 2.49
-0.80 -8.63 2.49
-0.63 -8.66 2.49
-0.46 -8.69 2.49
-0.28 -8.71 2.49
-0.11 -8.73 2.49
0.07 -8.06 2.49
0.23 -8.07 2.49
0.39 -8.08 2.49
0.55 -8.09 2.49
0.72 -8.09 2.49
0.88 -8.09 2.49
1.05 -8.08 2.49
1.21 -8.08 2.49
1.37 -8.07 2.49
1.54 -8.05 2.49
1.70 -8.04 2.49
1.87 -8.02 2.49
1.97 -7.75 2.42
2.10 -7.64 2.39
2.26 -7.61 2.39
2.42 -7.57 2.39
2.57 -7.54 2.39
2.73 -7.50 2.39
2.88 -7.46 2.39
3.04 -7.41 2.39
3.19 -7.36 2.39
3.35 -7.31 2.39
3.50 -7.26 2.39
3.65 -7.20 2.39
3.80 -7.14 2.39
3.95 -7.07 2.39
4.10 -7.00 2.39
4.24 -6.93 2.39
4.39 -6.86 2.39
4.53 -6.78 2.39
4.67 -6.70 2.39
4.82 -6.62 2.39
4.95 -6.53 2.39
5.09 -6.44 2.39
5.23 -6.35 2.39
5.36 -6.25 2.39
5.50 -6.15 2.39
5.63 -6.05 2.39
5.76 -5.95 2.39
5.88 -5.84 2.39
6.01 -5.73 2.39
6.30 -5.77 2.46
6.38 -5.62 2.44
6.45 -5.46 2.42
6.53 -5.30 2.41
6.26 -4.88 2.27
6.40 -4.78 2.28
6.54 -4.69 2.29
6.68 -4.59 2.31
6.83 -4.50 2.32
6.96 -4.39 2.34
7.02 -4.23 2.32
7.07 -4.07 2.31
7.11 -3.91 2.30
7.16 -3.75 2.29
7.22 -3.60 2.28
7.28 -3.45 2.27
7.33 -3.30 2.27
7.38 -3.15 2.26
7.43 -2.99 2.25
7.48 -2.84 2.25
7.52 -2.69 2.24
7.53 -2.52 2.23
7.52 -2.35 2.21
7.52 -2.19 2.19
7.51 -2.02 2.18
7.50 -1.86 2.16
7.51 -1.71 2.15
7.53 -1.55 2.15
7.54 -1.40 2.14
7.56 -1.25 2.14
7.57 -1.10 2.14
7.59 -0.95 2.13
7.60 -0.79 2.13
7.61 -0.64 2.13
7.60 -0.49 2.12
7.58 -0.34 2.11
7.57 -0.18 2.11
7.55 -0.03 2.10
7.53 0.12 2.10
7.52 0.27 2.10
7.52 0.42 2.10
6.69 0.50 1.87
6.67 0.64 1.87
6.65 0.77 1.86
6.63 0.90 1.86
6.60 1.03 1.86
6.58 1.16 1.86
6.56 1.29 1.86
7.51 1.64 2.14
7.52 1.80 2.16
7.53 1.96 2.17
7.54 2.12 2.19
7.56 2.29 2.20
7.59 2.47 2.23
7.63 2.65 2.26
7.66 2.83 2.29
7.70 3.02 2.31
7.73 3.21 2.35
7.77 3.41 2.38
7.80 3.61 2.41
7.82 3.81 2.44
7.85 4.02 2.48
7.88 4.24 2.51
7.85 4.43 2.54
7.81 4.61 2.56
7.78 4.80 2.58
7.74 4.99 2.60
7.69 5.19 2.62
7.65 5.38 2.64
7.60 5.58 2.67
7.56 5.78 2.70
6.59 5.25 2.39
6.47 5.37 2.39
6.36 5.49 2.39
6.24 5.61 2.39
6.12 5.73 2.39
5.99 5.84 2.39
5.87 5.95 2.39
5.74 6.06 2.39
5.61 6.17 2.39
5.48 6.27 2.39
3.07 3.66 1.37
3.00 3.72 1.37
5.07 6.55 2.39
4.93 6.64 2.39
4.79 6.73 2.39
4.65 6.81 2.39
4.50 6.89 2.39
4.36 6.97 2.39
4.21 7.05 2.39
4.06 7.12 2.39
3.91 7.18 2.39
3.76 7.25 2.39
3.61 7.31 2.39
3.46 7.37 2.39
3.30 7.42 2.39
3.15 7.47 2.39
2.99 7.52 2.39
2.84 7.57 2.39
2.75 7.81 2.45
2.63 7.98 2.49
2.47 8.01 2.49
2.30 8.05 2.49
2.14 8.08 2.49
1.97 8.10 2.49
1.81 8.12 2.49
1.64 8.14 2.49
1.47 8.16 2.49
1.31 8.17 2.49
1.14 8.18 2.49
0.97 8.19 2.49
0.81 8.19 2.49
0.64 8.19 2.49
0.48 8.18 2.49
0.31 8.17 2.49
0.15 8.16 2.49
-0.01 8.15 2.49
-0.18 8.13 2.49
-0.34 8.11 2.49
-0.50 8.09 2.49
-0.66 8.06 2.49
-0.82 8.03 2.49
-0.98 8.00 2.49
-1.14 7.96 2.49
-1.30 7.92 2.49
-1.45 7.88 2.49
-1.61 7.83 2.49
-1.76 7.78 2.49
-1.91 7.73 2.49
-2.07 7.68 2.49
-2.22 7.62 2.49
-2.36 7.56 2.49
-2.51 7.50 2.49
-2.66 7.43 2.49
-2.80 7.36 2.49
-2.94 7.29 2.49
-3.08 7.22 2.49
-3.22 7.14 2.49
-3.36 7.07 2.49
-3.50 6.98 2.49
-3.63 6.90 2.49
-3.76 6.82 2.49
-3.89 6.73 2.49
-4.02 6.64 2.49
-4.15 6.54 2.49
-4.27 6.45 2.49
-4.39 6.35 2.49
-4.51 6.25 2.49
-4.63 6.15 2.49
-4.75 6.05 2.49
-4.86 5.94 2.49
-4.97 5.83 2.49
-5.08 5.72 2.49
-5.19 5.61 2.49
-5.29 5.50 2.49
-5.39 5.38 2.49
-5.44 5.21 2.47
-5.45 5.01 2.43
-5.47 4.83 2.40
-5.54 4.70 2.39
-5.63 4.58 2.39
-5.71 4.46 2.39
-5.79 4.34 2.39
-5.87 4.22 2.39
-5.95 4.09 2.39
-6.03 3.97 2.39
-6.10 3.84 2.39
-6.17 3.71 2.39
-6.24 3.58 2.39
-6.30 3.45 2.39
-6.36 3.32 2.39
-6.42 3.19 2.39
-6.48 3.06 2.39
-6.54 2.92 2.39
-6.59 2.79 2.39
-6.64 2.65 2.39
-6.69 2.52 2.39
-6.73 2.38 2.39
-6.77 2.24 2.39
-6.81 2.10 2.39
-6.85 1.96 2.39
-6.88 1.82 2.39
-6.91 1.68 2.39
-6.94 1.54 2.39
-6.97 1.40 2.39
-6.99 1.26 2.39
-7.01 1.11 2.39
-7.03 0.97 2.39
-7.05 0.83 2.39
-7.06 0.69 2.39
-7.07 0.54 2.39
-7.08 0.40 2.39
-7.09 0.26 2.39
-7.09 0.11 2.39
-7.09 -0.03 2.39
-7.09 -0.18 2.39
-7.08 -0.32 2.39
-7.07 -0.46 2.39
-7.06 -0.61 2.39
-7.05 -0.75 2.39
-7.03 -0.89 2.39
-7.01 -1.03 2.39
-6.99 -1.17 2.39
-6.97 -1.32 2.39
-6.94 -1.46 2.39
-6.91 -1.60 2.39
-6.88 -1.74 2.39
-6.85 -1.88 2.39
-6.81 -2.02 2.39
-6.77 -2.16 2.39
-6.73 -2.29 2.39
-6.68 -2.43 2.39
-6.64 -2.57 2.39
-6.59 -2.70 2.39
-6.54 -2.84 2.39
-6.48 -2.97 2.39
-6.42 -3.10 2.39
-6.36 -3.23 2.39
-6.30 -3.36 2.39
-6.24 -3.49 2.39
-6.17 -3.62 2.39
-6.10 -3.75 2.39
-6.03 -3.87 2.39
-5.95 -4.00 2.39
-5.92 -4.15 2.41
-5.92 -4.33 2.44
-5.93 -4.53 2.48
-5.88 -4.68 2.49
-5.79 -4.80 2.49
-5.70 -4.92 2.49
-5.60 -5.04 2.49
-5.50 -5.16 2.49
-5.40 -5.28 2.49
-5.30 -5.39 2.49
-5.20 -5.50 2.49
-5.09 -5.61 2.49
-4.99 -5.72 2.49
-4.88 -5.83 2.49
-4.76 -5.94 2.49
-4.65 -6.04 2.49
-4.53 -6.14 2.49
-4.41 -6.24 2.49
-4.29 -6.34 2.49
-4.17 -6.43 2.49
-4.05 -6.52 2.49
-3.92 -6.61 2.49
-3.79 -6.70 2.49
-3.66 -6.79 2.49
-3.53 -6.87 2.49
-3.40 -6.95 2.49
-3.26 -7.03 2.49
-3.12 -7.10 2.49
-2.98 -7.18 2.49
-2.84 -7.25 2.49
-2.70 -7.32 2.49
-2.56 -7.38 2.49
-2.41 -7.45 2.49
-2.27 -7.51 2.49
-2.12 -7.56 2.49
-1.97 -7.62 2.49
-1.82 -7.67 2.49
-1.67 -7.72 2.49
-1.51 -7.76 2.49
-1.36 -7.81 2.49
-1.21 -7.85 2.49
-1.05 -7.88 2.49
-0.89 -7.92 2.49
-0.73 -7.95 2.49
-0.58 -7.98 2.49
-0.42 -8.00 2.49
-0.26 -8.02 2.49
-0.10 -8.04 2.49
0.07 -7.46 2.49
0.22 -7.47 2.49
0.37 -7.48 2.49
0.52 -7.48 2.49
0.67 -7.48 2.49
0.82 -7.48 2.49
0.97 -7.48 2.49
1.12 -7.47 2.49
1.28 -7.46 2.49
1.43 -7.45 2.49
1.58 -7.43 2.49
1.73 -7.41 2.49
1.88 -7.39 2.49
1.99 -7.21 2.44
2.09 -7.03 2.39
2.24 -7.00 2.39
2.38 -6.96 2.39
2.53 -6.93 2.39
2.67 -6.89 2.39
2.81 -6.84 2.39
2.95 -6.80 2.39
3.09 -6.75 2.39
3.23 -6.70 2.39
3.37 -6.64 2.39
3.51 -6.58 2.39
3.65 -6.52 2.39
3.78 -6.46 2.39
3.92 -6.39 2.39
4.05 -6.33 2.39
4.18 -6.25 2.39
4.31 -6.18 2.39
4.44 -6.10 2.39
4.57 -6.02 2.39
4.70 -5.94 2.39
4.82 -5.85 2.39
4.95 -5.76 2.39
5.07 -5.67 2.39
5.19 -5.58 2.39
5.31 -5.48 2.39
5.42 -5.38 2.39
5.54 -5.28 2.39
5.65 -5.17 2.39
5.76 -5.07 2.39
5.87 -4.96 2.39
5.97 -4.85 2.39
6.07 -4.73 2.39
6.35 -4.75 2.46
6.42 -4.60 2.44
6.48 -4.45 2.43
6.54 -4.31 2.42
6.60 -4.16 2.41
6.66 -4.01 2.40
6.72 -3.87 2.39
6.77 -3.72 2.38
6.83 -3.58 2.37
6.89 -3.43 2.36
6.94 -3.29 2.35
6.99 -3.14 2.35
7.04 -3.00 2.34
7.09 -2.85 2.34
7.14 -2.71 2.33
7.18 -2.56 2.33
7.22 -2.42 2.32
7.24 -2.26 2.31
7.24 -2.11 2.30
7.23 -1.95 2.28
7.23 -1.79 2.27
7.24 -1.65 2.26
7.26 -1.50 2.25
7.28 -1.35 2.25
7.29 -1.20 2.24
7.31 -1.06 2.24
7.32 -0.91 2.24
7.33 -0.77 2.24
7.34 -0.62 2.23
7.35 -0.47 2.23
7.36 -0.33 2.23
7.34 -0.18 2.22
7.32 -0.03 2.22
7.31 0.11 2.21
7.29 0.26 2.21
7.30 0.40 2.21
6.69 0.50 2.03
6.67 0.64 2.03
6.65 0.77 2.03
6.62 0.90 2.03
6.60 1.03 2.02
6.58 1.16 2.02
6.56 1.29 2.03
7.28 1.59 2.26
7.28 1.74 2.27
7.27 1.89 2.28
7.27 2.05 2.29
7.28 2.20 2.31
7.30 2.37 2.33
7.33 2.54 2.36
7.36 2.72 2.39
7.39 2.90 2.42
7.42 3.08 2.45
7.45 3.27 2.48
7.47 3.46 2.51
7.50 3.65 2.55
7.52 3.85 2.58
7.54 4.06 2.62
7.56 4.26 2.65
7.53 4.44 2.68
7.49 4.62 2.70
6.55 4.22 2.39
6.46 4.35 2.39
6.36 4.47 2.39
6.27 4.59 2.39
6.17 4.71 2.39
6.06 4.83 2.39
5.96 4.94 2.39
5.85 5.06 2.39
5.75 5.17 2.39
5.63 5.27 2.39
5.52 5.38 2.39
5.41 5.48 2.39
5.29 5.58 2.39
5.17 5.68 2.39
5.05 5.77 2.39
3.07 3.65 1.49
3.00 3.71 1.49
4.68 6.04 2.39
4.55 6.12 2.39
4.42 6.20 2.39
4.29 6.28 2.39
4.16 6.35 2.39
4.02 6.43 2.39
3.89 6.50 2.39
3.75 6.56 2.39
3.61 6.62 2.39
3.47 6.68 2.39
3.33 6.74 2.39
3.19 6.80 2.39
3.05 6.85 2.39
2.92 6.92 2.40
2.77 6.94 2.39
2.72 7.25 2.48
2.59 7.33 2.49
2.43 7.36 2.49
2.28 7.40 2.49
2.13 7.43 2.49
1.98 7.46 2.49
1.83 7.48 2.49
1.67 7.50 2.49
1.52 7.52 2.49
1.37 7.54 2.49
1.21 7.55 2.49
1.06 7.56 2.49
0.91 7.57 2.49
0.75 7.57 2.49
0.60 7.57 2.49
0.45 7.57 2.49
0.29 7.56 2.49
0.14 7.55 2.49
-0.01 7.54 2.49
-0.16 7.52 2.49
-0.31 7.50 2.49
-0.46 7.48 2.49
-0.61 7.46 2.49
-0.76 7.43 2.49
-0.90 7.40 2.49
-1.05 7.37 2.49
-1.20 7.33 2.49
-1.34 7.30 2.49
-1.48 7.25 2.49
-1.63 7.21 2.49
-1.77 7.16 2.49
-1.91 7.11 2.49
-2.05 7.06 2.49
-2.19 7.01 2.49
-2.32 6.95 2.49
-2.46 6.89 2.49
-2.59 6.83 2.49
-2.72 6.76 2.49
-2.85 6.70 2.49
-2.98 6.63 2.49
-3.11 6.55 2.49
-3.24 6.48 2.49
-3.36 6.40 2.49
-3.48 6.32 2.49
-3.61 6.24 2.49
-3.73 6.16 2.49
-3.84 6.07 2.49
-3.96 5.99 2.49
-4.07 5.90 2.49
-4.18 5.80 2.49
-4.29 5.71 2.49
-4.40 5.61 2.49
-4.51 5.52 2.49
-4.61 5.42 2.49
-4.71 5.32 2.49
-4.81 5.21 2.49
-4.91 5.11 2.49
-5.01 5.00 2.49
-5.10 4.89 2.49
-5.19 4.78 2.49
-5.28 4.67 2.49
-5.37 4.56 2.49
-5.45 4.44 2.49
-5.48 4.29 2.47
-5.49 4.12 2.44
-5.51 3.96 2.41
-5.53 3.81 2.39
-5.60 3.69 2.39
-5.67 3.57 2.39
-5.73 3.45 2.39
-5.80 3.33 2.39
-5.86 3.21 2.39
-5.91 3.09 2.39
-5.97 2.97 2.39
-6.02 2.84 2.39
-6.08 2.72 2.39
-6.12 2.59 2.39
-6.17 2.47 2.39
-6.22 2.34 2.39
-6.26 2.21 2.39
-6.30 2.08 2.39
-6.33 1.96 2.39
-6.37 1.83 2.39
-6.40 1.70 2.39
-6.43 1.56 2.39
-6.46 1.43 2.39
-6.48 1.30 2.39
-6.50 1.17 2.39
-6.52 1.04 2.39
-6.54 0.90 2.39
-6.56 0.77 2.39
-6.57 0.64 2.39
-6.58 0.50 2.39
-6.59 0.37 2.39
-6.59 0.24 2.39
-6.59 0.10 2.39
-6.59 -0.03 2.39
-6.59 -0.16 2.39
-6.59 -0.30 2.39
-6.58 -0.43 2.39
-6.57 -0.56 2.39
-6.56 -0.70 2.39
-6.54 -0.83 2.39
-6.52 -0.96 2.39
-6.50 -1.09 2.39
-6.48 -1.23 2.39
-6.46 -1.36 2.39
-6.43 -1.49 2.39
-6.40 -1.62 2.39
-6.37 -1.75 2.39
-6.33 -1.88 2.39
-6.30 -2.01 2.39
-6.26 -2.13 2.39
-6.22 -2.26 2.39
-6.17 -2.39 2.39
-6.13 -2.51 2.39
-6.08 -2.64 2.39
-6.03 -2.77 2.39
-5.97 -2.89 2.39
-5.92 -3.01 2.39
-5.87 -3.13 2.39
-5.87 -3.29 2.42
-5.87 -3.45 2.45
-5.88 -3.62 2.48
-5.85 -3.76 2.49
-5.77 -3.88 2.49
-5.70 -4.00 2.49
-5.62 -4.12 2.49
-5.54 -4.23 2.49
-5.46 -4.35 2.49
-5.38 -4.46 2.49
-5.29 -4.58 2.49
-5.20 -4.69 2.49
-5.11 -4.80 2.49
-5.02 -4.90 2.49
-4.93 -5.01 2.49
-4.83 -5.12 2.49
-4.73 -5.22 2.49
-4.63 -5.32 2.49
-4.53 -5.42 2.49
-4.42 -5.52 2.49
-4.31 -5.61 2.49
-4.21 -5.70 2.49
-4.10 -5.80 2.49
-3.98 -5.88 2.49
-3.87 -5.97 2.49
-3.75 -6.06 2.49
-3.63 -6.14 2.49
-3.52 -6.22 2.49
-3.39 -6.30 2.49
-3.27 -6.38 2.49
-3.15 -6.45 2.49
-3.02 -6.52 2.49
-2.89 -6.59 2.49
-2.76 -6.66 2.49
-2.63 -6.73 2.49
-2.50 -6.79 2.49
-2.37 -6.85 2.49
-2.23 -6.91 2.49
-2.10 -6.96 2.49
-1.96 -7.01 2.49
-1.82 -7.06 2.49
-1.68 -7.11 2.49
-1.54 -7.15 2.49
-1.40 -7.20 2.49
-1.26 -7.23 2.49
-1.11 -7.27 2.49
-0.97 -7.30 2.49
-0.82 -7.34 2.49
-0.68 -7.36 2.49
-0.53 -7.39 2.49
-0.38 -7.41 2.49
-0.23 -7.43 2.49
-0.08 -7.45 2.49
0.07 -6.94 2.49
0.21 -6.95 2.49
0.35 -6.95 2.49
0.49 -6.95 2.49
0.63 -6.96 2.49
0.77 -6.95 2.49
0.91 -6.95 2.49
1.05 -6.94 2.49
1.19 -6.93 2.49
1.33 -6.92 2.49
1.47 -6.90 2.49
1.61 -6.88 2.49
1.75 -6.86 2.49
1.89 -6.83 2.49
2.02 -6.75 2.47
2.08 -6.49 2.39
2.22 -6.46 2.39
2.35 -6.43 2.39
2.48 -6.39 2.39
2.61 -6.35 2.39
2.74 -6.31 2.39
2.87 -6.26 2.39
3.00 -6.21 2.39
3.13 -6.16 2.39
3.26 -6.11 2.39
3.39 -6.05 2.39
3.51 -5.99 2.39
3.64 -5.93 2.39
3.76 -5.86 2.39
3.88 -5.79 2.39
4.00 -5.72 2.39
4.12 -5.65 2.39
4.24 -5.58 2.39
4.36 -5.50 2.39
4.47 -5.42 2.39
4.59 -5.34 2.39
4.70 -5.25 2.39
4.81 -5.16 2.39
4.92 -5.07 2.39
5.03 -4.98 2.39
5.13 -4.89 2.39
5.23 -4.79 2.39
5.33 -4.69 2.39
5.43 -4.59 2.39
5.53 -4.48 2.39
5.63 -4.38 2.39
5.72 -4.27 2.39
5.81 -4.16 2.39
5.90 -4.05 2.39
5.98 -3.93 2.39
6.07 -3.82 2.39
6.15 -3.70 2.39
6.41 -3.69 2.46
6.47 -3.55 2.45
6.52 -3.41 2.44
6.58 -3.28 2.44
6.63 -3.14 2.43
6.68 -3.00 2.43
6.73 -2.86 2.42
6.78 -2.73 2.41
6.82 -2.59 2.41
6.86 -2.45 2.40
6.90 -2.31 2.40
6.94 -2.17 2.40
6.97 -2.03 2.39
6.97 -1.88 2.38
6.98 -1.73 2.36
6.99 -1.59 2.36
7.01 -1.45 2.35
7.03 -1.30 2.35
7.04 -1.16 2.34
7.06 -1.02 2.34
7.07 -0.88 2.34
7.08 -0.74 2.34
7.09 -0.60 2.33
7.10 -0.46 2.33
7.10 -0.31 2.33
7.11 -0.17 2.33
7.11 -0.03 2.33
7.09 0.11 2.32
7.08 0.25 2.32
7.08 0.39 2.32
6.69 0.50 2.20
6.67 0.64 2.19
6.64 0.77 2.19
6.62 0.90 2.19
6.60 1.03 2.19
6.58 1.16 2.19
6.55 1.29 2.19
7.06 1.54 2.37
7.06 1.68 2.38
7.05 1.83 2.39
7.04 1.98 2.40
7.02 2.13 2.41
7.02 2.28 2.43
7.05 2.44 2.45
7.08 2.61 2.48
7.10 2.78 2.51
7.13 2.96 2.54
7.15 3.14 2.57
7.17 3.32 2.60
6.51 3.17 2.39
6.44 3.30 2.39
6.37 3.42 2.39
6.30 3.55 2.39
6.22 3.67 2.39
6.14 3.79 2.39
6.06 3.91 2.39
5.98 4.02 2.39
5.89 4.14 2.39
5.80 4.25 2.39
5.71 4.36 2.39
5.61 4.47 2.39
5.52 4.57 2.39
5.42 4.68 2.39
5.32 4.78 2.39
5.22 4.88 2.39
5.11 4.98 2.39
5.01 5.07 2.39
4.90 5.16 2.39
4.79 5.25 2.39
4.68 5.34 2.39
3.07 3.65 1.61
3.00 3.71 1.61
4.33 5.59 2.39
4.22 5.67 2.39
4.10 5.74 2.39
3.98 5.82 2.39
3.85 5.89 2.39
3.73 5.95 2.39
3.60 6.02 2.39
3.48 6.08 2.39
3.35 6.14 2.39
3.22 6.20 2.39
3.09 6.25 2.39
2.96 6.30 2.39
2.83 6.35 2.39
2.70 6.39 2.39
2.68 6.71 2.49
2.54 6.76 2.49
2.40 6.79 2.49
2.26 6.83 2.49
2.12 6.86 2.49
1.98 6.89 2.49
1.84 6.92 2.49
1.70 6.94 2.49
1.56 6.96 2.49
1.41 6.98 2.49
1.27 7.00 2.49
1.13 7.01 2.49
0.99 7.02 2.49
0.85 7.03 2.49
0.70 7.03 2.49
0.56 7.03 2.49
0.42 7.03 2.49
0.28 7.02 2.49
0.14 7.02 2.49
-0.00 7.01 2.49
-0.14 6.99 2.49
-0.28 6.98 2.49
-0.42 6.96 2.49
-0.56 6.94 2.49
-0.70 6.91 2.49
-0.84 6.88 2.49
-0.97 6.85 2.49
-1.11 6.82 2.49
-1.24 6.79 2.49
-1.38 6.75 2.49
-1.51 6.71 2.49
-1.64 6.67 2.49
-1.77 6.62 2.49
-1.90 6.57 2.49
-2.03 6.52 2.49
-2.16 6.47 2.49
-2.28 6.42 2.49
-2.41 6.36 2.49
-2.53 6.30 2.49
-2.65 6.24 2.49
-2.77 6.17 2.49
-2.89 6.11 2.49
-3.01 6.04 2.49
-3.13 5.97 2.49
-3.24 5.89 2.49
-3.36 5.82 2.49
-3.47 5.74 2.49
-3.58 5.66 2.49
-3.68 5.58 2.49
-3.79 5.50 2.49
-3.90 5.41 2.49
-4.00 5.32 2.49
-4.10 5.23 2.49
-4.20 5.14 2.49
-4.30 5.05 2.49
-4.39 4.96 2.49
-4.49 4.86 2.49
-4.58 4.76 2.49
-4.67 4.66 2.49
-4.75 4.56 2.49
-4.84 4.46 2.49
-4.92 4.36 2.49
-5.00 4.25 2.49
-5.08 4.15 2.49
-5.16 4.04 2.49
-5.24 3.93 2.49
-5.31 3.82 2.49
-5.38 3.71 2.49
-5.45 3.59 2.49
-5.51 3.48 2.49
-5.53 3.34 2.47
-5.54 3.19 2.45
-5.55 3.05 2.43
-5.56 2.91 2.41
-5.57 2.77 2.39
-5.62 2.66 2.39
-5.67 2.54 2.39
-5.72 2.42 2.39
-5.77 2.31 2.40
-5.80 2.19 2.39
-5.84 2.07 2.39
-5.88 1.95 2.39
-5.91 1.83 2.39
-5.95 1.71 2.39
-5.98 1.58 2.39
-6.00 1.46 2.39
-6.03 1.34 2.39
-6.05 1.22 2.39
-6.07 1.09 2.39
-6.09 0.97 2.39
-6.11 0.85 2.39
-6.12 0.72 2.39
-6.13 0.60 2.39
-6.14 0.47 2.39
-6.15 0.35 2.39
-6.16 0.22 2.39
-6.16 0.10 2.39
-6.16 -0.03 2.39
-6.16 -0.15 2.39
-6.15 -0.28 2.39
-6.14 -0.40 2.39
-6.13 -0.53 2.39
-6.12 -0.65 2.39
-6.11 -0.77 2.39
-6.09 -0.90 2.39
-6.07 -1.02 2.39
-6.05 -1.14 2.39
-6.03 -1.27 2.39
-6.00 -1.39 2.39
-5.98 -1.51 2.39
-5.95 -1.63 2.39
-5.91 -1.75 2.39
-5.88 -1.87 2.39
-5.84 -1.99 2.39
-5.82 -2.12 2.39
-5.82 -2.25 2.41
-5.82 -2.39 2.43
-5.83 -2.53 2.45
-5.83 -2.68 2.48
-5.82 -2.81 2.49
-5.76 -2.93 2.49
-5.70 -3.05 2.49
-5.65 -3.17 2.49
-5.58 -3.28 2.49
-5.52 -3.40 2.49
-5.45 -3.51 2.49
-5.39 -3.62 2.49
-5.32 -3.73 2.49
-5.24 -3.84 2.49
-5.17 -3.95 2.49
-5.09 -4.06 2.49
-5.02 -4.17 2.49
-4.93 -4.27 2.49
-4.85 -4.38 2.49
-4.77 -4.48 2.49
-4.68 -4.58 2.49
-4.59 -4.68 2.49
-4.50 -4.77 2.49
-4.41 -4.87 2.49
-4.31 -4.96 2.49
-4.22 -5.05 2.49
-4.12 -5.14 2.49
-4.02 -5.23 2.49
-3.92 -5.32 2.49
-3.82 -5.41 2.49
-3.71 -5.49 2.49
-3.60 -5.57 2.49
-3.49 -5.65 2.49
-3.38 -5.73 2.49
-3.27 -5.80 2.49
-3.16 -5.87 2.49
-3.04 -5.94 2.49
-2.93 -6.01 2.49
-2.81 -6.08 2.49
-2.69 -6.14 2.49
-2.57 -6.21 2.49
-2.45 -6.27 2.49
-2.33 -6.32 2.49
-2.20 -6.38 2.49
-2.08 -6.43 2.49
-1.95 -6.48 2.49
-1.82 -6.53 2.49
-1.69 -6.58 2.49
-1.56 -6.62 2.49
-1.43 -6.66 2.49
-1.30 -6.70 2.49
-1.16 -6.73 2.49
-1.03 -6.77 2.49
-0.90 -6.80 2.49
-0.76 -6.82 2.49
-0.62 -6.85 2.49
-0.49 -6.87 2.49
-0.35 -6.89 2.49
-0.21 -6.91 2.49
-0.07 -6.92 2.49
0.07 -6.47 2.49
0.20 -6.48 2.49
0.33 -6.49 2.49
0.46 -6.49 2.49
0.59 -6.49 2.49
0.72 -6.49 2.49
0.85 -6.48 2.49
0.98 -6.47 2.49
1.11 -6.46 2.49
1.25 -6.45 2.49
1.38 -6.43 2.49
1.51 -6.42 2.49
1.64 -6.39 2.49
1.77 -6.37 2.49
1.90 -6.34 2.49
2.03 -6.31 2.49
2.07 -6.02 2.39
2.19 -5.99 2.39
2.32 -5.95 2.39
2.44 -5.91 2.39
2.56 -5.87 2.39
2.68 -5.83 2.39
2.80 -5.78 2.39
2.92 -5.74 2.39
3.04 -5.69 2.39
3.16 -5.63 2.39
3.27 -5.58 2.39
3.39 -5.52 2.39
3.50 -5.46 2.39
3.62 -5.39 2.39
3.73 -5.33 2.39
3.84 -5.26 2.39
3.95 -5.19 2.39
4.06 -5.12 2.39
4.17 -5.04 2.39
4.27 -4.96 2.39
4.38 -4.88 2.39
4.48 -4.80 2.39
4.58 -4.72 2.39
4.68 -4.63 2.39
4.78 -4.54 2.39
4.87 -4.45 2.39
4.96 -4.36 2.39
5.06 -4.26 2.39
5.15 -4.17 2.39
5.23 -4.07 2.39
5.32 -3.97 2.39
5.40 -3.87 2.39
5.49 -3.76 2.39
5.57 -3.66 2.39
5.64 -3.55 2.39
5.72 -3.44 2.39
5.79 -3.33 2.39
5.86 -3.21 2.39
5.93 -3.10 2.39
5.99 -2.98 2.39
6.06 -2.87 2.39
6.12 -2.75 2.39
6.18 -2.63 2.39
6.23 -2.50 2.39
6.52 -2.47 2.48
6.56 -2.34 2.48
6.60 -2.21 2.47
6.64 -2.07 2.47
6.68 -1.94 2.47
6.71 -1.81 2.46
6.74 -1.67 2.46
6.76 -1.53 2.45
6.78 -1.40 2.45
6.79 -1.26 2.44
6.81 -1.12 2.44
6.82 -0.99 2.44
6.83 -0.85 2.43
6.84 -0.71 2.43
6.85 -0.58 2.43
6.86 -0.44 2.43
6.87 -0.30 2.43
6.87 -0.17 2.43
6.87 -0.03 2.43
6.88 0.11 2.43
6.87 0.24 2.43
6.87 0.38 2.43
6.69 0.50 2.37
6.66 0.64 2.36
6.64 0.77 2.36
6.62 0.90 2.36
6.60 1.03 2.36
6.57 1.16 2.36
6.55 1.29 2.36
6.83 1.49 2.47
6.82 1.63 2.47
6.80 1.76 2.48
6.78 1.90 2.49
6.47 1.96 2.39
6.43 2.08 2.39
6.38 2.21 2.39
6.33 2.34 2.39
6.28 2.46 2.39
6.23 2.58 2.39
6.17 2.71 2.39
6.11 2.83 2.39
6.05 2.94 2.39
5.99 3.06 2.39
5.92 3.18 2.39
5.85 3.29 2.39
5.78 3.41 2.39
5.71 3.52 2.39
5.63 3.63 2.39
5.55 3.74 2.39
5.47 3.84 2.39
5.39 3.95 2.39
5.31 4.05 2.39
5.22 4.15 2.39
5.13 4.25 2.39
5.04 4.35 2.39
4.95 4.44 2.39
4.85 4.54 2.39
4.76 4.63 2.39
4.66 4.71 2.39
4.56 4.80 2.39
4.46 4.89 2.39
4.35 4.97 2.39
3.08 3.65 1.73
3.00 3.71 1.73
4.03 5.20 2.39
3.93 5.27 2.39
3.81 5.34 2.39
3.70 5.41 2.39
3.59 5.48 2.39
3.47 5.54 2.39
3.36 5.60 2.39
3.24 5.66 2.39
3.12 5.71 2.39
3.00 5.77 2.39
2.89 5.82 2.39
2.76 5.86 2.39
2.67 5.96 2.41
2.63 6.21 2.49
2.50 6.25 2.49
2.37 6.29 2.49
2.24 6.33 2.49
2.11 6.36 2.49
1.98 6.39 2.49
1.85 6.42 2.49
1.72 6.45 2.49
1.59 6.47 2.49
1.46 6.49 2.49
1.32 6.51 2.49
1.19 6.52 2.49
1.06 6.54 2.49
0.93 6.54 2.49
0.79 6.55 2.49
0.66 6.56 2.49
0.53 6.56 2.49
0.40 6.56 2.49
0.26 6.55 2.49
0.13 6.54 2.49
0.00 6.54 2.49
-0.13 6.52 2.49
-0.26 6.51 2.49
-0.39 6.49 2.49
-0.52 6.47 2.49
-0.65 6.45 2.49
-0.78 6.43 2.49
-0.90 6.40 2.49
-1.03 6.37 2.49
-1.16 6.34 2.49
-1.28 6.30 2.49
-1.41 6.27 2.49
-1.53 6.23 2.49
-1.65 6.18 2.49
-1.77 6.14 2.49
-1.89 6.09 2.49
-2.01 6.05 2.49
-2.13 6.00 2.49
-2.25 5.94 2.49
-2.36 5.89 2.49
-2.48 5.83 2.49
-2.59 5.77 2.49
-2.70 5.71 2.49
-2.81 5.64 2.49
-2.92 5.58 2.49
-3.03 5.51 2.49
-3.13 5.44 2.49
-3.24 5.37 2.49
-3.34 5.30 2.49
-3.44 5.22 2.49
-3.54 5.14 2.49
-3.64 5.06 2.49
-3.74 4.98 2.49
-3.83 4.90 2.49
-3.93 4.81 2.49
-4.02 4.73 2.49
-4.11 4.64 2.49
-4.19 4.55 2.49
-4.28 4.46 2.49
-4.36 4.37 2.49
-4.45 4.27 2.49
-4.53 4.18 2.49
-4.61 4.08 2.49
-4.68 3.98 2.49
-4.76 3.88 2.49
-4.83 3.78 2.49
-4.90 3.68 2.49
-4.97 3.58 2.49
-5.03 3.47 2.49
-5.10 3.37 2.49
-5.16 3.26 2.49
-5.22 3.15 2.49
-5.28 3.04 2.49
-5.34 2.93 2.49
-5.39 2.82 2.49
-5.44 2.71 2.49
-5.49 2.60 2.49
-5.54 2.48 2.49
-5.58 2.37 2.49
-5.59 2.24 2.47
-5.59 2.11 2.46
-5.60 1.98 2.45
-5.61 1.86 2.43
-5.62 1.74 2.42
-5.62 1.61 2.41
-5.63 1.49 2.40
-5.64 1.37 2.40
-5.65 1.26 2.39
-5.67 1.14 2.39
-5.69 1.02 2.39
-5.71 0.91 2.39
-5.72 0.79 2.39
-5.74 0.68 2.39
-5.75 0.56 2.39
-5.76 0.44 2.39
-5.76 0.33 2.39
-5.77 0.21 2.39
-5.77 0.09 2.39
-5.77 -0.03 2.39
-5.77 -0.14 2.39
-5.76 -0.26 2.39
-5.76 -0.38 2.39
-5.75 -0.49 2.39
-5.74 -0.61 2.39
-5.75 -0.73 2.40
-5.75 -0.85 2.41
-5.75 -0.97 2.42
-5.76 -1.09 2.43
-5.76 -1.21 2.44
-5.77 -1.34 2.45
-5.77 -1.46 2.46
-5.78 -1.59 2.48
-5.78 -1.71 2.49
-5.75 -1.83 2.49
-5.71 -1.95 2.49
-5.67 -2.07 2.49
-5.63 -2.18 2.49
-5.59 -2.30 2.49
-5.54 -2.41 2.49
-5.50 -2.52 2.49
-5.45 -2.64 2.49
-5.40 -2.75 2.49
-5.34 -2.86 2.49
-5.29 -2.97 2.49
-5.23 -3.08 2.49
-5.17 -3.18 2.49
-5.11 -3.29 2.49
-5.04 -3.39 2.49
-4.98 -3.50 2.49
-4.91 -3.60 2.49
-4.84 -3.70 2.49
-4.77 -3.80 2.49
-4.69 -3.90 2.49
-4.62 -4.00 2.49
-4.54 -4.10 2.49
-4.46 -4.19 2.49
-4.38 -4.29 2.49
-4.30 -4.38 2.49
-4.21 -4.47 2.49
-4.12 -4.56 2.49
-4.04 -4.65 2.49
-3.95 -4.73 2.49
-3.85 -4.82 2.49
-3.76 -4.90 2.49
-3.66 -4.98 2.49
-3.57 -5.06 2.49
-3.47 -5.14 2.49
-3.37 -5.21 2.49
-3.27 -5.29 2.49
-3.16 -5.36 2.49
-3.06 -5.43 2.49
-2.95 -5.49 2.49
-2.84 -5.56 2.49
-2.74 -5.62 2.49
-2.62 -5.69 2.49
-2.51 -5.75 2.49
-2.40 -5.80 2.49
-2.29 -5.86 2.49
-2.17 -5.91 2.49
-2.05 -5.96 2.49
-1.94 -6.01 2.49
-1.82 -6.06 2.49
-1.70 -6.10 2.49
-1.58 -6.15 2.49
-1.45 -6.19 2.49
-1.33 -6.22 2.49
-1.21 -6.26 2.49
-1.08 -6.29 2.49
-0.96 -6.32 2.49
-0.83 -6.35 2.49
-0.71 -6.37 2.49
-0.58 -6.40 2.49
-0.45 -6.42 2.49
-0.32 -6.44 2.49
-0.19 -6.45 2.49
-0.06 -6.46 2.49
0.07 -6.06 2.49
0.19 -6.07 2.49
0.31 -6.07 2.49
0.43 -6.08 2.49
0.56 -6.08 2.49
0.68 -6.07 2.49
0.80 -6.07 2.49
0.92 -6.06 2.49
1.05 -6.05 2.49
1.17 -6.04 2.49
1.29 -6.02 2.49
1.42 -6.00 2.49
1.54 -5.98 2.49
1.66 -5.96 2.49
1.78 -5.93 2.49
1.90 -5.91 2.49
2.02 -5.88 2.49
2.08 -5.66 2.42
2.17 -5.57 2.39
2.29 -5.54 2.39
2.40 -5.49 2.39
2.51 -5.45 2.39
2.62 -5.41 2.39
2.73 -5.36 2.39
2.85 -5.31 2.39
2.95 -5.26 2.39
3.06 -5.21 2.39
3.17 -5.16 2.39
3.28 -5.10 2.39
3.38 -5.04 2.39
3.49 -4.98 2.39
3.59 -4.91 2.39
3.69 -4.85 2.39
3.80 -4.78 2.39
3.89 -4.71 2.39
3.99 -4.63 2.39
4.09 -4.56 2.39
4.18 -4.48 2.39
4.28 -4.40 2.39
4.37 -4.32 2.39
4.46 -4.24 2.39
4.55 -4.16 2.39
4.64 -4.07 2.39
4.72 -3.98 2.39
4.81 -3.89 2.39
4.89 -3.80 2.39
4.97 -3.70 2.39
5.05 -3.61 2.39
5.12 -3.51 2.39
5.20 -3.41 2.39
5.27 -3.31 2.39
5.34 -3.21 2.39
5.40 -3.10 2.39
5.47 -3.00 2.39
5.53 -2.89 2.39
5.59 -2.78 2.39
5.65 -2.67 2.39
5.71 -2.56 2.39
5.76 -2.45 2.39
5.82 -2.34 2.39
5.86 -2.22 2.39
5.91 -2.11 2.39
5.96 -1.99 2.39
6.00 -1.87 2.39
6.04 -1.75 2.39
6.07 -1.63 2.39
6.11 -1.51 2.39
6.14 -1.39 2.39
6.17 -1.27 2.39
6.20 -1.15 2.39
6.22 -1.02 2.39
6.24 -0.90 2.39
6.26 -0.78 2.39
6.28 -0.65 2.39
6.29 -0.53 2.39
6.30 -0.40 2.39
6.31 -0.28 2.39
6.31 -0.15 2.39
6.32 -0.03 2.39
6.32 0.10 2.39
6.31 0.22 2.39
6.31 0.35 2.39
6.30 0.47 2.39
6.29 0.60 2.39
6.27 0.72 2.39
6.26 0.85 2.39
6.24 0.97 2.39
6.22 1.10 2.39
6.19 1.22 2.39
6.17 1.34 2.39
6.14 1.46 2.39
6.10 1.58 2.39
6.07 1.70 2.39
6.03 1.82 2.39
5.99 1.94 2.39
5.95 2.06 2.39
5.91 2.18 2.39
5.86 2.29 2.39
5.81 2.41 2.39
5.76 2.52 2.39
5.70 2.63 2.39
5.65 2.75 2.39
5.59 2.86 2.39
5.53 2.96 2.39
5.46 3.07 2.39
5.40 3.18 2.39
5.33 3.28 2.39
5.26 3.38 2.39
5.18 3.48 2.39
5.11 3.58 2.39
5.03 3.68 2.39
4.95 3.78 2.39
4.87 3.87 2.39
4.79 3.96 2.39
4.71 4.06 2.39
4.62 4.14 2.39
4.53 4.23 2.39
4.44 4.32 2.39
4.35 4.40 2.39
4.26 4.48 2.39
4.16 4.56 2.39
4.07 4.64 2.39
3.08 3.65 1.85
3.00 3.70 1.85
3.77 4.85 2.39
3.67 4.92 2.39
3.57 4.99 2.39
3.46 5.05 2.39
3.36 5.11 2.39
3.25 5.17 2.39
3.14 5.23 2.39
3.03 5.28 2.39
2.92 5.34 2.39
2.81 5.39 2.39
2.70 5.43 2.39
2.64 5.59 2.44
2.58 5.76 2.49
2.46 5.80 2.49
2.34 5.84 2.49
2.22 5.88 2.49
2.10 5.92 2.49
1.98 5.95 2.49
1.86 5.98 2.49
1.73 6.00 2.49
1.61 6.03 2.49
1.49 6.05 2.49
1.37 6.07 2.49
1.24 6.09 2.49
1.12 6.10 2.49
0.99 6.11 2.49
0.87 6.12 2.49
0.75 6.13 2.49
0.62 6.13 2.49
0.50 6.14 2.49
0.38 6.14 2.49
0.25 6.13 2.49
0.13 6.13 2.49
0.01 6.12 2.49
-0.12 6.11 2.49
-0.24 6.09 2.49
-0.36 6.08 2.49
-0.48 6.06 2.49
-0.60 6.04 2.49
-0.72 6.02 2.49
-0.84 5.99 2.49
-0.96 5.97 2.49
-1.08 5.94 2.49
-1.20 5.91 2.49
-1.31 5.87 2.49
-1.43 5.84 2.49
-1.54 5.80 2.49
-1.66 5.76 2.49
-1.77 5.71 2.49
-1.88 5.67 2.49
-1.99 5.62 2.49
-2.10 5.57 2.49
-2.21 5.52 2.49
-2.32 5.47 2.49
-2.42 5.41 2.49
-2.53 5.35 2.49
-2.63 5.29 2.49
-2.74 5.23 2.49
-2.84 5.17 2.49
-2.94 5.10 2.49
-3.03 5.04 2.49
-3.13 4.97 2.49
-3.23 4.90 2.49
-3.32 4.83 2.49
-3.41 4.75 2.49
-3.50 4.68 2.49
-3.59 4.60 2.49
-3.68 4.52 2.49
-3.77 4.44 2.49
-3.85 4.36 2.49
-3.93 4.27 2.49
-4.01 4.19 2.49
-4.09 4.10 2.49
-4.17 4.01 2.49
-4.25 3.92 2.49
-4.32 3.83 2.49
-4.39 3.74 2.49
-4.46 3.65 2.49
-4.53 3.55 2.49
-4.60 3.46 2.49
-4.66 3.36 2.49
-4.73 3.26 2.49
-4.79 3.16 2.49
-4.85 3.06 2.49
-4.90 2.96 2.49
-4.96 2.86 2.49
-5.01 2.76 2.49
-5.06 2.65 2.49
-5.11 2.55 2.49
-5.16 2.44 2.49
-5.20 2.33 2.49
-5.24 2.23 2.49
-5.28 2.12 2.49
-5.32 2.01 2.49
-5.36 1.90 2.49
-5.39 1.79 2.49
-5.43 1.68 2.49
-5.46 1.57 2.49
-5.48 1.46 2.49
-5.51 1.34 2.49
-5.53 1.23 2.49
-5.56 1.12 2.49
-5.58 1.01 2.49
-5.59 0.89 2.49
-5.61 0.78 2.49
-5.62 0.66 2.49
-5.63 0.55 2.49
-5.64 0.43 2.49
-5.65 0.32 2.49
-5.65 0.21 2.49
-5.65 0.09 2.49
-5.65 -0.02 2.49
-5.65 -0.14 2.49
-5.65 -0.25 2.49
-5.64 -0.37 2.49
-5.63 -0.48 2.49
-5.62 -0.60 2.49
-5.61 -0.71 2.49
-5.59 -0.83 2.49
-5.58 -0.94 2.49
-5.56 -1.05 2.49
-5.54 -1.16 2.49
-5.51 -1.28 2.49
-5.49 -1.39 2.49
-5.46 -1.50 2.49
