ply
format ascii 1.0
element vertex 2936
property float32 x
property float32 y
property float32 z
end_header
15.32 4.68 2.25
15.23 4.99 2.25
15.13 5.30 2.25
15.04 5.60 2.25
14.93 5.91 2.25
11.27 4.72 1.71
14.69 6.51 2.25
14.55 6.80 2.25
12.49 6.14 1.95
14.27 7.38 2.25
12.49 6.78 1.99
13.96 7.94 2.24
13.79 8.22 2.24
13.63 8.49 2.24
13.46 8.77 2.24
13.29 9.04 2.24
12.80 9.09 2.19
12.29 9.11 2.13
8.79 6.79 1.55
11.31 9.11 2.02
9.44 7.91 1.71
10.43 9.11 1.93
10.02 9.11 1.88
9.62 9.11 1.84
9.25 9.11 1.80
8.88 9.11 1.77
8.53 9.11 1.73
8.20 9.12 1.70
7.87 9.12 1.67
7.56 9.12 1.64
7.26 9.12 1.62
6.96 9.12 1.59
6.68 9.12 1.57
6.40 9.12 1.54
6.13 9.12 1.52
6.01 9.33 1.54
8.43 13.69 2.23
8.19 13.93 2.24
7.97 14.20 2.25
7.74 14.46 2.27
7.51 14.73 2.29
7.59 15.65 2.41
7.27 15.80 2.41
6.96 15.94 2.41
6.64 16.08 2.41
6.31 16.22 2.41
5.95 16.23 2.39
5.62 16.35 2.39
5.29 16.46 2.39
4.96 16.57 2.39
4.63 16.67 2.39
4.29 16.76 2.39
3.96 16.84 2.39
3.62 16.92 2.39
3.28 16.99 2.39
2.94 17.05 2.39
2.59 17.11 2.39
2.25 17.16 2.39
1.99 17.95 2.49
1.63 17.98 2.49
1.27 18.01 2.49
0.91 18.03 2.49
0.54 18.05 2.49
0.18 18.06 2.49
-0.18 18.06 2.49
-0.54 18.05 2.49
-0.90 18.03 2.49
-1.27 18.01 2.49
-1.63 17.98 2.49
-1.99 17.94 2.49
-2.35 17.90 2.49
-2.71 17.84 2.49
-3.06 17.78 2.49
-3.42 17.72 2.49
-3.77 17.64 2.49
-4.12 17.56 2.49
-4.48 17.47 2.49
-4.82 17.38 2.49
-5.17 17.27 2.49
-5.52 17.16 2.49
-5.86 17.04 2.49
-5.99 16.35 2.41
-6.26 16.10 2.39
-6.34 15.37 2.30
-6.79 15.56 2.35
-6.93 15.05 2.30
-7.53 15.53 2.39
-7.84 15.37 2.39
-8.14 15.20 2.39
-8.44 15.03 2.39
-8.74 14.86 2.39
-9.03 14.67 2.39
-9.32 14.49 2.39
-9.61 14.29 2.39
-9.89 14.09 2.39
-11.38 15.54 2.67
-12.02 15.74 2.75
-10.02 12.59 2.24
-13.86 16.71 3.02
-14.19 16.44 3.02
-14.52 16.15 3.02
-14.85 15.86 3.02
-15.16 15.56 3.02
-15.46 15.24 3.02
-10.03 9.50 1.92
-16.04 14.59 3.02
-16.34 14.27 3.03
-6.32 5.30 1.15
-16.92 13.63 3.03
-17.21 13.29 3.04
-17.48 12.95 3.04
-17.75 12.61 3.04
-10.04 6.83 1.70
-10.03 6.54 1.68
-10.04 6.26 1.66
-18.75 11.17 3.06
-18.98 10.80 3.06
-19.20 10.42 3.06
-19.70 10.19 3.11
-10.04 4.94 1.57
-10.04 4.69 1.55
-10.04 4.45 1.54
-10.06 -3.85 1.54
-10.06 -4.09 1.56
-10.06 -4.33 1.57
-19.30 -9.23 3.07
-18.82 -9.47 3.02
-18.13 -9.59 2.94
-17.47 -9.69 2.87
-17.11 -9.94 2.84
-16.82 -10.23 2.83
-16.53 -10.52 2.82
-16.26 -10.81 2.81
-16.05 -11.14 2.81
-10.07 -7.29 1.79
-15.63 -11.81 2.82
-10.08 -7.94 1.85
-15.05 -12.35 2.81
-14.73 -12.59 2.79
-14.40 -12.82 2.78
-14.21 -13.17 2.79
-14.03 -13.53 2.81
-13.85 -13.91 2.83
-13.70 -14.32 2.86
-13.55 -14.75 2.89
-13.40 -15.19 2.93
-10.09 -11.91 2.26
-12.12 -14.90 2.78
-11.24 -14.40 2.64
-9.90 -13.23 2.39
-9.63 -13.42 2.39
-9.36 -13.61 2.39
-9.08 -13.79 2.39
-8.80 -13.96 2.39
-8.52 -14.13 2.39
-8.23 -14.30 2.39
-7.94 -14.46 2.39
-7.64 -14.61 2.39
-7.35 -14.76 2.39
-7.05 -14.90 2.39
-6.75 -15.04 2.39
-6.44 -15.17 2.39
-6.13 -15.29 2.39
-6.06 -16.03 2.49
-5.75 -16.19 2.49
-5.43 -16.30 2.49
-5.10 -16.40 2.49
-4.77 -16.50 2.49
-4.43 -16.59 2.49
-4.10 -16.67 2.49
-3.76 -16.75 2.49
-3.42 -16.82 2.49
-3.09 -16.89 2.49
-2.75 -16.94 2.49
-2.40 -16.99 2.49
-2.06 -17.04 2.49
-1.72 -17.08 2.49
-1.38 -17.11 2.49
-1.03 -17.13 2.49
-0.69 -17.15 2.49
-0.34 -17.16 2.49
0.00 -14.81 2.49
0.30 -14.81 2.49
0.60 -14.80 2.49
0.89 -14.78 2.49
1.19 -14.76 2.49
1.49 -14.74 2.49
1.78 -14.71 2.49
2.00 -14.13 2.40
2.27 -14.02 2.39
2.55 -13.97 2.39
2.83 -13.92 2.39
3.11 -13.86 2.39
2.16 -8.80 1.52
2.58 -9.66 1.68
2.78 -9.63 1.69
4.22 -13.57 2.39
4.49 -13.49 2.39
4.76 -13.40 2.39
5.03 -13.30 2.39
5.30 -13.20 2.39
5.56 -13.09 2.39
5.83 -12.98 2.39
6.15 -13.00 2.42
6.28 -12.62 2.37
6.52 -12.46 2.36
5.11 -9.31 1.78
5.22 -9.07 1.76
5.47 -9.08 1.78
5.83 -9.25 1.83
5.83 -8.86 1.78
5.83 -8.48 1.73
5.84 -8.13 1.68
5.84 -7.79 1.63
5.84 -7.48 1.59
5.83 -7.16 1.55
5.80 -6.85 1.50
5.78 -6.55 1.46
5.77 -6.28 1.43
5.77 -6.03 1.40
5.78 -5.81 1.37
5.81 -5.61 1.35
5.86 -5.43 1.33
5.92 -5.27 1.32
6.00 -5.13 1.32
6.08 -4.99 1.31
6.18 -4.87 1.31
6.29 -4.75 1.32
6.42 -4.65 1.32
6.56 -4.55 1.33
6.72 -4.47 1.34
6.90 -4.39 1.36
7.13 -4.34 1.39
7.41 -4.31 1.43
7.77 -4.31 1.48
8.20 -4.33 1.54
8.68 -4.37 1.62
9.15 -4.38 1.69
9.65 -4.38 1.76
10.19 -4.38 1.84
10.79 -4.38 1.93
11.44 -4.38 2.03
12.17 -4.39 2.15
12.82 -4.33 2.24
12.91 -4.07 2.24
12.99 -3.81 2.24
12.52 -3.40 2.15
12.58 -3.15 2.15
12.64 -2.90 2.15
12.70 -2.64 2.14
12.75 -2.39 2.14
12.80 -2.13 2.14
12.84 -1.87 2.14
12.88 -1.62 2.14
13.57 -1.43 2.25
13.60 -1.16 2.25
13.63 -0.88 2.25
13.66 -0.61 2.25
13.68 -0.34 2.25
13.70 -0.06 2.25
13.71 0.21 2.26
13.71 0.49 2.26
13.70 0.77 2.26
13.69 1.04 2.26
13.66 1.31 2.25
13.63 1.59 2.25
12.93 1.77 2.14
12.90 2.03 2.14
12.87 2.29 2.14
12.83 2.55 2.14
12.79 2.81 2.15
12.75 3.07 2.15
12.70 3.33 2.15
12.64 3.59 2.15
13.20 4.03 2.26
13.12 4.30 2.26
13.04 4.56 2.26
12.94 4.82 2.26
12.84 5.08 2.25
11.27 4.73 1.99
12.62 5.59 2.25
12.50 5.84 2.25
12.40 6.10 2.25
12.28 6.35 2.25
12.16 6.60 2.25
12.03 6.85 2.25
11.89 7.09 2.25
11.74 7.32 2.25
11.59 7.55 2.25
11.43 7.78 2.25
11.27 8.01 2.25
11.12 8.24 2.25
8.79 6.79 1.80
10.87 8.76 2.27
9.44 7.92 2.00
10.43 9.11 2.25
10.02 9.11 2.20
9.62 9.11 2.15
9.24 9.11 2.10
8.88 9.11 2.06
8.53 9.11 2.02
8.20 9.12 1.99
7.87 9.12 1.95
7.56 9.12 1.92
7.26 9.12 1.89
6.33 8.29 1.69
6.15 8.40 1.68
6.09 8.68 1.71
6.13 9.12 1.78
6.01 9.33 1.79
7.24 11.76 2.23
7.05 11.98 2.25
7.14 12.71 2.36
6.83 12.75 2.34
6.61 12.97 2.35
6.40 13.19 2.37
6.17 13.41 2.38
5.92 13.58 2.39
5.65 13.70 2.39
5.37 13.81 2.39
5.10 13.92 2.39
4.82 14.02 2.39
4.54 14.11 2.39
4.25 14.20 2.39
3.97 14.29 2.39
3.68 14.36 2.39
3.39 14.44 2.39
3.10 14.50 2.39
2.81 14.56 2.39
2.52 14.62 2.39
2.22 14.67 2.39
2.01 15.34 2.49
1.70 15.38 2.49
1.40 15.41 2.49
1.09 15.44 2.49
0.78 15.46 2.49
0.47 15.47 2.49
0.16 15.48 2.49
-0.15 15.47 2.49
-0.47 15.47 2.49
-0.78 15.46 2.49
-1.09 15.44 2.49
-1.39 15.41 2.49
-1.70 15.38 2.49
-2.01 15.34 2.49
-2.32 15.29 2.49
-2.62 15.24 2.49
-2.93 15.19 2.49
-3.23 15.12 2.49
-3.54 15.05 2.49
-3.84 14.98 2.49
-4.14 14.90 2.49
-4.43 14.81 2.49
-4.73 14.71 2.49
-5.02 14.61 2.49
-5.31 14.51 2.49
-5.60 14.39 2.49
-5.89 14.28 2.49
-5.99 13.74 2.42
-6.19 13.44 2.39
-6.35 13.09 2.35
-6.38 12.51 2.27
-6.87 12.82 2.35
-6.87 12.24 2.27
-7.49 12.74 2.39
-7.75 12.59 2.39
-7.99 12.42 2.39
-8.24 12.26 2.39
-8.48 12.09 2.39
-8.72 11.91 2.39
-8.96 11.73 2.39
-9.19 11.55 2.39
-9.41 11.36 2.39
-9.64 11.16 2.39
-9.86 10.96 2.39
-11.00 11.75 2.61
-11.13 11.42 2.59
-12.03 11.86 2.74
-10.03 9.50 2.24
-13.23 12.04 2.91
-13.56 11.85 2.93
-6.29 5.28 1.34
-14.20 11.44 2.96
-14.52 11.22 2.98
-14.83 10.99 3.00
-15.14 10.76 3.02
-15.39 10.48 3.03
-10.03 6.54 1.95
-15.80 9.85 3.03
-16.00 9.54 3.04
-16.19 9.21 3.04
-16.37 8.89 3.04
-16.55 8.56 3.04
-10.04 4.94 1.83
-16.92 7.91 3.05
-10.05 4.45 1.80
-17.26 7.24 3.06
-17.43 6.90 3.07
-17.60 6.56 3.07
-17.73 6.21 3.08
-17.83 5.84 3.07
-10.05 3.07 1.72
-17.96 5.10 3.06
-18.01 4.72 3.05
-18.12 4.37 3.06
-10.05 2.21 1.69
-18.52 3.68 3.10
-18.71 3.33 3.12
-10.05 1.58 1.67
-19.07 2.61 3.16
-19.16 2.23 3.17
-19.20 1.85 3.17
-19.24 1.46 3.18
-19.26 1.08 3.18
-10.05 0.36 1.66
-19.06 0.30 3.14
-18.77 -0.08 3.10
-18.46 -0.45 3.05
-18.44 -0.82 3.05
-18.60 -1.20 3.08
-18.76 -1.59 3.11
-18.71 -1.97 3.11
-18.66 -2.34 3.11
-10.06 -1.47 1.68
-18.59 -3.10 3.12
-18.62 -3.49 3.14
-18.67 -3.89 3.16
-10.07 -2.31 1.71
-18.77 -4.70 3.21
-10.06 -2.73 1.73
-17.92 -5.26 3.10
-17.11 -5.40 2.98
-17.08 -5.77 2.99
-17.08 -6.15 3.02
-17.06 -6.54 3.04
-17.05 -6.93 3.06
-17.03 -7.32 3.08
-16.62 -7.54 3.04
-16.15 -7.72 2.98
-10.07 -5.07 1.88
-15.51 -8.20 2.92
-15.47 -8.58 2.95
-15.42 -8.96 2.97
-15.36 -9.34 3.00
-15.29 -9.73 3.02
-14.98 -9.96 3.00
-14.67 -10.19 2.98
-10.07 -7.29 2.08
-10.08 -7.61 2.11
-13.85 -10.90 2.95
-13.62 -11.17 2.95
-13.39 -11.44 2.94
-10.08 -8.97 2.26
-11.75 -10.89 2.68
-11.17 -10.77 2.60
-10.97 -11.02 2.60
-9.87 -10.31 2.39
-9.65 -10.51 2.39
-9.44 -10.70 2.39
-9.22 -10.88 2.39
-9.00 -11.06 2.39
-8.77 -11.24 2.39
-8.54 -11.41 2.39
-8.31 -11.57 2.39
-8.07 -11.74 2.39
-7.83 -11.89 2.39
-7.59 -12.04 2.39
-7.00 -11.61 2.28
-6.80 -11.81 2.29
-6.50 -11.84 2.27
-6.59 -12.60 2.39
-6.34 -12.73 2.39
-6.08 -12.86 2.39
-6.05 -13.49 2.49
-5.80 -13.65 2.49
-5.52 -13.76 2.49
-5.24 -13.87 2.49
-4.96 -13.97 2.49
-4.68 -14.06 2.49
-4.40 -14.15 2.49
-4.11 -14.24 2.49
-3.82 -14.31 2.49
-3.54 -14.39 2.49
-3.25 -14.45 2.49
-2.96 -14.52 2.49
-2.66 -14.57 2.49
-2.37 -14.62 2.49
-2.08 -14.67 2.49
-1.78 -14.70 2.49
-1.48 -14.74 2.49
-1.19 -14.76 2.49
-0.89 -14.78 2.49
-0.59 -14.80 2.49
-0.30 -14.81 2.49
0.00 -13.01 2.49
0.26 -13.01 2.49
0.52 -13.00 2.49
0.78 -12.99 2.49
1.05 -12.97 2.49
1.31 -12.95 2.49
1.57 -12.92 2.49
1.82 -12.89 2.49
2.00 -12.36 2.40
2.24 -12.28 2.39
2.49 -12.23 2.39
2.74 -12.18 2.39
2.16 -8.80 1.73
2.58 -9.66 1.91
2.78 -9.63 1.92
3.71 -11.93 2.39
3.95 -11.85 2.39
4.18 -11.77 2.39
4.42 -11.69 2.39
4.65 -11.60 2.39
4.89 -11.50 2.39
5.12 -11.40 2.39
5.35 -11.30 2.39
5.57 -11.19 2.39
5.80 -11.08 2.39
5.13 -9.33 2.03
5.23 -9.08 2.00
5.48 -9.09 2.03
5.83 -9.25 2.09
5.83 -8.85 2.02
5.83 -8.48 1.96
5.84 -8.13 1.91
5.84 -7.79 1.86
5.84 -7.48 1.81
5.83 -7.16 1.76
5.80 -6.85 1.71
5.78 -6.55 1.67
5.77 -6.28 1.63
5.77 -6.03 1.59
5.78 -5.81 1.56
5.81 -5.61 1.54
5.86 -5.43 1.52
5.92 -5.27 1.51
6.00 -5.13 1.50
6.08 -4.99 1.50
6.18 -4.87 1.50
6.29 -4.75 1.50
6.42 -4.65 1.51
6.56 -4.55 1.52
6.72 -4.46 1.53
6.90 -4.39 1.55
7.13 -4.34 1.58
7.41 -4.31 1.63
7.77 -4.31 1.68
8.20 -4.33 1.76
8.68 -4.37 1.84
9.16 -4.38 1.92
9.65 -4.38 2.01
10.19 -4.38 2.10
10.79 -4.38 2.20
11.10 -4.25 2.25
11.19 -4.03 2.25
11.28 -3.81 2.25
10.96 -3.46 2.17
11.02 -3.23 2.17
11.09 -3.01 2.17
11.14 -2.79 2.17
11.20 -2.57 2.17
11.25 -2.34 2.17
11.29 -2.11 2.17
11.33 -1.89 2.16
11.37 -1.66 2.16
11.57 -1.45 2.19
11.90 -1.25 2.25
11.93 -1.01 2.25
11.96 -0.77 2.25
11.98 -0.53 2.25
11.99 -0.29 2.25
12.00 -0.05 2.25
12.00 0.19 2.25
12.00 0.43 2.25
11.99 0.67 2.25
11.97 0.91 2.25
11.95 1.15 2.25
11.93 1.39 2.25
11.90 1.63 2.25
11.50 1.81 2.18
11.47 2.04 2.18
11.43 2.27 2.18
11.40 2.51 2.18
11.35 2.74 2.18
11.31 2.97 2.18
11.26 3.20 2.19
11.20 3.43 2.19
11.14 3.65 2.19
11.39 3.99 2.25
11.31 4.22 2.25
11.22 4.44 2.25
11.14 4.67 2.25
11.08 4.91 2.26
11.01 5.15 2.26
10.94 5.38 2.27
10.87 5.62 2.28
10.79 5.86 2.28
10.71 6.10 2.29
10.63 6.33 2.30
10.53 6.57 2.31
10.43 6.80 2.31
10.33 7.03 2.32
10.22 7.26 2.33
10.10 7.49 2.34
8.78 6.79 2.06
9.88 7.95 2.35
9.76 8.18 2.36
9.63 8.42 2.37
9.51 8.65 2.38
9.37 8.88 2.39
9.24 9.11 2.40
8.88 9.11 2.36
8.53 9.11 2.31
8.16 9.08 2.26
7.83 9.07 2.22
7.56 9.12 2.19
7.25 9.12 2.16
6.34 8.30 1.93
6.15 8.41 1.93
6.10 8.69 1.96
6.13 9.12 2.03
6.01 9.33 2.05
6.49 10.55 2.29
6.31 10.74 2.30
6.20 11.05 2.34
6.15 11.49 2.41
5.88 11.53 2.39
5.65 11.65 2.39
5.41 11.76 2.39
5.18 11.87 2.39
4.94 11.97 2.39
4.70 12.07 2.39
4.46 12.17 2.39
4.21 12.25 2.39
3.97 12.34 2.39
3.72 12.42 2.39
3.47 12.49 2.39
3.22 12.56 2.39
2.96 12.62 2.39
2.71 12.68 2.39
2.46 12.73 2.39
2.20 12.78 2.39
2.03 13.37 2.49
1.76 13.41 2.49
1.49 13.45 2.49
1.22 13.47 2.49
0.95 13.50 2.49
0.68 13.51 2.49
0.41 13.52 2.49
0.14 13.53 2.49
-0.14 13.53 2.49
-0.41 13.52 2.49
-0.68 13.51 2.49
-0.95 13.49 2.49
-1.22 13.47 2.49
-1.49 13.44 2.49
-1.76 13.41 2.49
-2.03 13.37 2.49
-2.29 13.33 2.49
-2.56 13.28 2.49
-2.83 13.22 2.49
-3.09 13.16 2.49
-3.35 13.09 2.49
-3.62 13.02 2.49
-3.88 12.95 2.49
-4.13 12.86 2.49
-4.39 12.78 2.49
-4.64 12.68 2.49
-4.90 12.59 2.49
-5.15 12.48 2.49
-5.40 12.38 2.49
-5.64 12.26 2.49
-5.89 12.14 2.49
-5.99 11.76 2.44
-6.10 11.40 2.39
-6.33 11.28 2.39
-6.55 11.14 2.39
-6.77 11.01 2.39
-6.99 10.87 2.39
-7.21 10.72 2.39
-7.42 10.57 2.39
-7.63 10.42 2.39
-7.83 10.26 2.39
-8.04 10.10 2.39
-8.23 9.93 2.39
-8.43 9.76 2.39
-8.62 9.59 2.39
-8.81 9.41 2.39
-8.99 9.23 2.39
-9.17 9.05 2.39
-9.35 8.86 2.39
-9.52 8.67 2.39
-9.69 8.47 2.39
-6.29 5.28 1.53
-10.02 8.07 2.39
-10.86 8.39 2.55
-11.10 8.23 2.57
-11.79 8.38 2.69
-10.04 6.84 2.26
-10.03 6.54 2.23
-13.63 8.50 2.99
-13.83 8.24 3.00
-14.02 7.98 3.01
-14.21 7.72 3.01
-14.39 7.44 3.02
-10.04 4.94 2.09
-14.76 6.90 3.04
-14.94 6.62 3.05
-15.10 6.33 3.06
-15.23 6.03 3.06
-15.35 5.73 3.06
-15.46 5.42 3.06
-15.57 5.10 3.06
-15.66 4.79 3.06
-15.76 4.47 3.07
-15.89 4.17 3.08
-16.01 3.86 3.08
-16.11 3.54 3.09
-16.17 3.22 3.09
-16.23 2.89 3.09
-16.27 2.56 3.09
-16.21 2.22 3.07
-16.09 1.88 3.04
-16.06 1.55 3.03
-16.11 1.23 3.04
-16.16 0.90 3.04
-10.05 0.36 1.89
-16.29 0.26 3.06
-16.39 -0.07 3.08
-16.48 -0.40 3.10
-16.58 -0.74 3.12
-16.62 -1.07 3.14
-16.61 -1.41 3.14
-16.62 -1.75 3.15
-16.66 -2.09 3.17
-16.70 -2.44 3.18
-16.73 -2.79 3.20
-16.65 -3.12 3.20
-16.18 -3.37 3.12
-15.71 -3.60 3.05
-15.39 -3.85 3.00
-10.06 -2.73 1.97
-15.43 -4.53 3.04
-15.45 -4.87 3.07
-15.46 -5.22 3.09
-15.46 -5.57 3.11
-15.36 -5.88 3.11
-14.94 -6.07 3.06
-14.53 -6.24 3.00
-10.07 -4.57 2.10
-13.98 -6.69 2.94
-13.91 -7.00 2.95
-13.83 -7.31 2.97
-10.07 -5.58 2.19
-10.07 -5.85 2.21
-13.53 -8.23 3.01
-10.07 -6.41 2.27
-11.18 -7.43 2.55
-11.10 -7.70 2.57
-10.07 -7.29 2.37
-10.02 -7.57 2.39
-9.87 -7.77 2.39
-9.71 -7.96 2.39
-9.54 -8.15 2.39
-9.37 -8.34 2.39
-9.20 -8.53 2.39
-9.03 -8.71 2.39
-8.85 -8.88 2.39
-8.66 -9.06 2.39
-8.48 -9.23 2.39
-8.29 -9.39 2.39
-8.10 -9.55 2.39
-7.90 -9.71 2.39
-7.70 -9.87 2.39
-7.12 -9.51 2.27
-6.99 -9.74 2.29
-6.97 -10.14 2.35
-6.53 -9.91 2.27
-6.40 -10.16 2.30
-6.40 -10.63 2.37
-6.24 -10.84 2.39
-6.06 -11.03 2.41
-6.04 -11.55 2.49
-5.81 -11.67 2.49
-5.57 -11.78 2.49
-5.33 -11.89 2.49
-5.09 -11.99 2.49
-4.85 -12.09 2.49
-4.61 -12.18 2.49
-4.36 -12.27 2.49
-4.11 -12.36 2.49
-3.86 -12.43 2.49
-3.61 -12.51 2.49
-3.36 -12.58 2.49
-3.11 -12.64 2.49
-2.85 -12.70 2.49
-2.60 -12.75 2.49
-2.34 -12.80 2.49
-2.08 -12.85 2.49
-1.82 -12.89 2.49
-1.56 -12.92 2.49
-1.30 -12.95 2.49
-1.04 -12.97 2.49
-0.78 -12.99 2.49
-0.52 -13.00 2.49
-0.26 -13.01 2.49
0.00 -11.59 2.49
0.23 -11.59 2.49
0.47 -11.59 2.49
0.70 -11.57 2.49
0.93 -11.56 2.49
1.16 -11.54 2.49
1.39 -11.51 2.49
1.63 -11.48 2.49
1.86 -11.45 2.49
2.01 -10.98 2.40
2.22 -10.90 2.39
2.44 -10.85 2.39
2.16 -8.80 1.95
2.59 -9.68 2.15
2.79 -9.66 2.16
3.30 -10.62 2.39
3.52 -10.56 2.39
3.73 -10.49 2.39
3.94 -10.41 2.39
4.15 -10.33 2.39
4.35 -10.25 2.39
4.56 -10.16 2.39
4.76 -10.07 2.39
4.97 -9.97 2.39
5.17 -9.87 2.39
5.14 -9.36 2.29
5.24 -9.10 2.25
5.49 -9.10 2.28
5.83 -9.25 2.34
5.83 -8.85 2.27
5.83 -8.48 2.21
5.84 -8.13 2.14
5.84 -7.79 2.09
5.84 -7.47 2.03
5.83 -7.16 1.98
5.80 -6.85 1.92
5.78 -6.55 1.87
5.77 -6.28 1.83
5.77 -6.03 1.79
5.78 -5.81 1.75
5.81 -5.61 1.73
5.86 -5.43 1.71
5.92 -5.27 1.69
6.00 -5.13 1.69
6.08 -4.99 1.68
6.18 -4.87 1.68
6.29 -4.75 1.68
6.42 -4.65 1.69
6.56 -4.55 1.70
6.72 -4.46 1.72
6.90 -4.39 1.74
7.13 -4.34 1.78
7.41 -4.31 1.83
7.77 -4.31 1.89
8.20 -4.33 1.98
8.68 -4.37 2.07
9.16 -4.38 2.16
9.62 -4.36 2.25
9.71 -4.17 2.25
9.80 -3.98 2.25
9.89 -3.78 2.25
9.69 -3.49 2.19
9.75 -3.29 2.19
9.81 -3.09 2.18
9.86 -2.89 2.18
9.91 -2.69 2.18
9.96 -2.49 2.18
10.00 -2.29 2.18
10.04 -2.09 2.17
10.08 -1.89 2.17
10.12 -1.68 2.17
10.15 -1.48 2.17
10.65 -1.34 2.27
10.68 -1.12 2.27
10.70 -0.91 2.27
10.71 -0.69 2.27
10.72 -0.48 2.27
10.73 -0.26 2.27
10.74 -0.05 2.27
10.76 0.17 2.27
10.78 0.39 2.28
10.78 0.60 2.28
10.77 0.82 2.28
10.76 1.04 2.28
10.75 1.25 2.28
10.73 1.47 2.28
10.71 1.69 2.28
10.34 1.84 2.21
10.31 2.05 2.21
10.28 2.26 2.22
10.24 2.47 2.22
10.20 2.68 2.22
10.16 2.89 2.22
10.11 3.09 2.22
10.06 3.30 2.22
10.01 3.51 2.23
9.95 3.71 2.23
10.27 4.07 2.32
10.22 4.29 2.32
10.16 4.50 2.33
10.09 4.72 2.34
10.03 4.94 2.34
9.96 5.15 2.35
9.88 5.37 2.36
9.81 5.58 2.36
9.73 5.80 2.37
9.64 6.01 2.38
9.55 6.23 2.39
9.46 6.44 2.39
9.36 6.65 2.40
9.26 6.86 2.41
9.15 7.07 2.42
9.01 7.26 2.42
8.86 7.44 2.42
8.71 7.61 2.42
8.55 7.78 2.41
8.40 7.95 2.41
8.24 8.12 2.41
8.08 8.29 2.41
7.91 8.45 2.41
7.74 8.61 2.41
7.56 8.76 2.41
7.39 8.91 2.41
7.21 9.06 2.41
6.35 8.32 2.18
6.16 8.42 2.17
6.35 9.05 2.30
6.13 9.12 2.29
6.01 9.34 2.31
6.02 9.78 2.39
5.82 9.90 2.39
5.62 10.02 2.39
5.42 10.13 2.39
5.22 10.24 2.39
5.01 10.34 2.39
4.81 10.44 2.39
4.60 10.54 2.39
4.38 10.63 2.39
4.17 10.72 2.39
3.95 10.80 2.39
3.74 10.88 2.39
3.52 10.95 2.39
3.30 11.02 2.39
3.08 11.08 2.39
2.85 11.14 2.39
2.63 11.20 2.39
2.41 11.25 2.39
2.18 11.30 2.39
2.04 11.83 2.49
1.80 11.87 2.49
1.56 11.90 2.49
1.32 11.93 2.49
1.08 11.96 2.49
0.84 11.98 2.49
0.60 11.99 2.49
0.36 12.00 2.49
0.12 12.00 2.49
-0.12 12.00 2.49
-0.36 12.00 2.49
-0.60 11.99 2.49
-0.84 11.97 2.49
-1.08 11.95 2.49
-1.32 11.93 2.49
-1.56 11.90 2.49
-1.80 11.87 2.49
-2.04 11.83 2.49
-2.27 11.78 2.49
-2.51 11.73 2.49
-2.74 11.68 2.49
-2.98 11.62 2.49
-3.21 11.56 2.49
-3.44 11.49 2.49
-3.67 11.42 2.49
-3.90 11.34 2.49
-4.12 11.26 2.49
-4.35 11.17 2.49
-4.57 11.08 2.49
-4.79 10.98 2.49
-5.01 10.88 2.49
-5.22 10.78 2.49
-5.44 10.67 2.49
-5.65 10.56 2.49
-5.86 10.44 2.49
-6.00 10.20 2.46
-6.01 9.77 2.39
-6.21 9.65 2.39
-6.40 9.52 2.39
-6.59 9.39 2.39
-6.77 9.25 2.39
-6.95 9.11 2.39
-7.13 8.97 2.39
-7.31 8.82 2.39
-7.48 8.67 2.39
-7.65 8.52 2.39
-7.82 8.36 2.39
-7.98 8.19 2.39
-8.14 8.03 2.39
-8.30 7.86 2.39
-8.46 7.70 2.39
-8.61 7.52 2.39
-6.29 5.28 1.72
-8.90 7.17 2.39
-9.04 6.99 2.39
-9.17 6.80 2.39
-9.30 6.61 2.39
-9.43 6.42 2.39
-9.56 6.23 2.39
-9.68 6.04 2.39
-9.79 5.84 2.39
-9.91 5.64 2.39
-10.01 5.44 2.39
-11.14 5.76 2.63
-10.04 4.94 2.35
-12.99 6.07 3.01
-13.33 5.91 3.06
-13.46 5.65 3.07
-10.05 3.98 2.27
-10.05 3.75 2.25
-13.81 4.84 3.08
-13.92 4.56 3.08
-14.00 4.28 3.08
-14.08 4.00 3.08
-14.14 3.71 3.08
-14.20 3.42 3.08
-14.23 3.13 3.07
-14.26 2.84 3.07
-14.29 2.55 3.06
-14.36 2.26 3.07
-14.45 1.98 3.08
-14.53 1.70 3.09
-14.60 1.41 3.10
-14.68 1.12 3.11
-14.69 0.82 3.11
-10.05 0.36 2.13
-14.65 0.23 3.10
-14.67 -0.06 3.10
-14.68 -0.36 3.11
-14.68 -0.65 3.11
-14.67 -0.95 3.11
-14.60 -1.24 3.10
-14.50 -1.52 3.09
-14.29 -1.79 3.05
-14.02 -2.05 3.01
-13.82 -2.30 2.97
-13.73 -2.57 2.96
-13.64 -2.84 2.96
-13.53 -3.10 2.95
-13.43 -3.36 2.94
-10.06 -2.73 2.21
-13.02 -3.82 2.88
-12.42 -3.92 2.77
-10.07 -3.40 2.26
-10.07 -3.62 2.28
-11.17 -4.28 2.55
-11.12 -4.51 2.55
-11.06 -4.75 2.56
-11.00 -4.99 2.57
-10.93 -5.23 2.58
-10.02 -5.04 2.39
-9.91 -5.24 2.39
-9.80 -5.43 2.39
-9.69 -5.63 2.39
-9.57 -5.82 2.39
-9.45 -6.01 2.39
-9.32 -6.20 2.39
-9.19 -6.38 2.39
-9.06 -6.56 2.39
-8.92 -6.74 2.39
-8.79 -6.92 2.39
-8.64 -7.09 2.39
-8.50 -7.26 2.39
-8.35 -7.43 2.39
-8.19 -7.59 2.39
-8.04 -7.75 2.39
-7.88 -7.91 2.39
-7.72 -8.06 2.39
-7.55 -8.22 2.39
-7.01 -7.94 2.27
-6.99 -8.24 2.32
-6.92 -8.51 2.35
-6.51 -8.34 2.27
-6.40 -8.55 2.29
-6.40 -8.91 2.35
-6.32 -9.18 2.39
-6.13 -9.30 2.39
-6.05 -9.59 2.43
-6.00 -9.95 2.49
-5.79 -10.07 2.49
-5.59 -10.18 2.49
-5.38 -10.29 2.49
-5.18 -10.39 2.49
-4.96 -10.49 2.49
-4.75 -10.59 2.49
-4.54 -10.68 2.49
-4.32 -10.77 2.49
-4.10 -10.85 2.49
-3.89 -10.93 2.49
-3.66 -11.01 2.49
-3.44 -11.08 2.49
-3.22 -11.14 2.49
-2.99 -11.21 2.49
-2.77 -11.26 2.49
-2.54 -11.31 2.49
-2.31 -11.36 2.49
-2.08 -11.41 2.49
-1.86 -11.45 2.49
-1.62 -11.48 2.49
-1.39 -11.51 2.49
-1.16 -11.54 2.49
-0.93 -11.56 2.49
-0.70 -11.57 2.49
-0.47 -11.58 2.49
-0.23 -11.59 2.49
0.00 -10.44 2.49
0.21 -10.44 2.49
0.42 -10.44 2.49
0.63 -10.43 2.49
0.84 -10.41 2.49
1.05 -10.39 2.49
1.26 -10.37 2.49
1.46 -10.34 2.49
1.67 -10.31 2.49
1.88 -10.28 2.49
2.01 -9.87 2.40
2.21 -9.83 2.41
2.16 -8.80 2.16
2.59 -9.68 2.39
2.78 -9.63 2.39
2.97 -9.57 2.39
3.17 -9.51 2.39
3.36 -9.44 2.39
3.55 -9.38 2.39
3.74 -9.30 2.39
3.92 -9.23 2.39
4.11 -9.15 2.39
4.29 -9.07 2.39
4.47 -8.98 2.39
4.65 -8.89 2.39
4.83 -8.80 2.39
5.01 -8.70 2.39
5.18 -8.60 2.39
5.35 -8.49 2.39
5.53 -8.38 2.39
5.69 -8.27 2.39
5.84 -8.12 2.38
5.84 -7.79 2.32
5.84 -7.47 2.26
5.83 -7.16 2.19
5.80 -6.85 2.13
5.78 -6.55 2.08
5.77 -6.28 2.03
5.77 -6.03 1.98
5.78 -5.80 1.95
5.81 -5.61 1.92
5.86 -5.43 1.90
5.92 -5.27 1.88
6.00 -5.13 1.87
6.08 -4.99 1.87
6.18 -4.87 1.87
6.29 -4.75 1.87
6.42 -4.65 1.88
6.56 -4.55 1.89
6.72 -4.46 1.91
6.90 -4.39 1.94
7.13 -4.34 1.98
7.42 -4.31 2.03
7.77 -4.31 2.10
8.20 -4.33 2.19
8.63 -4.34 2.29
8.70 -4.16 2.28
8.77 -3.98 2.28
8.83 -3.79 2.27
8.90 -3.61 2.27
8.78 -3.36 2.22
8.84 -3.18 2.22
8.90 -3.00 2.22
8.95 -2.82 2.22
9.00 -2.64 2.21
9.05 -2.46 2.21
9.10 -2.28 2.21
9.14 -2.09 2.21
9.17 -1.91 2.21
9.21 -1.72 2.21
9.24 -1.54 2.21
9.73 -1.42 2.31
9.76 -1.22 2.31
9.78 -1.03 2.31
9.81 -0.83 2.32
9.84 -0.63 2.32
9.87 -0.44 2.32
9.90 -0.24 2.33
9.92 -0.04 2.33
9.95 0.16 2.34
9.96 0.36 2.34
9.96 0.56 2.34
9.95 0.76 2.34
9.94 0.96 2.34
9.93 1.16 2.34
9.91 1.36 2.34
9.89 1.56 2.35
9.68 1.73 2.30
9.42 1.88 2.25
9.39 2.07 2.25
9.35 2.26 2.25
9.32 2.45 2.25
9.28 2.64 2.25
9.23 2.82 2.26
9.18 3.01 2.26
9.13 3.20 2.26
9.08 3.39 2.26
9.02 3.57 2.27
8.96 3.76 2.27
9.37 4.15 2.39
9.31 4.35 2.40
9.25 4.55 2.40
9.18 4.75 2.41
9.11 4.95 2.42
9.01 5.13 2.42
8.91 5.31 2.42
8.80 5.49 2.42
8.70 5.67 2.42
8.58 5.85 2.42
8.47 6.02 2.42
8.35 6.19 2.42
8.22 6.36 2.42
8.10 6.52 2.42
7.96 6.68 2.42
7.82 6.84 2.42
7.68 6.99 2.41
7.54 7.15 2.41
7.40 7.30 2.41
7.25 7.45 2.41
7.10 7.59 2.41
6.95 7.73 2.41
6.79 7.87 2.41
6.63 8.00 2.41
6.47 8.14 2.41
6.31 8.26 2.41
6.14 8.39 2.41
5.92 8.44 2.39
5.75 8.56 2.39
5.58 8.67 2.39
5.41 8.78 2.39
5.23 8.89 2.39
5.05 9.00 2.39
4.87 9.10 2.39
4.69 9.19 2.39
4.50 9.29 2.39
4.31 9.38 2.39
4.13 9.46 2.39
3.94 9.54 2.39
3.74 9.62 2.39
3.55 9.70 2.39
3.36 9.77 2.39
3.16 9.83 2.39
2.96 9.90 2.39
2.76 9.95 2.39
2.56 10.01 2.39
2.36 10.06 2.39
2.16 10.10 2.39
2.04 10.58 2.49
1.83 10.62 2.49
1.62 10.66 2.49
1.40 10.69 2.49
1.19 10.71 2.49
0.97 10.74 2.49
0.76 10.75 2.49
0.54 10.77 2.49
0.32 10.78 2.49
0.11 10.78 2.49
-0.11 10.78 2.49
-0.32 10.77 2.49
-0.54 10.77 2.49
-0.76 10.75 2.49
-0.97 10.73 2.49
-1.19 10.71 2.49
-1.40 10.69 2.49
-1.61 10.66 2.49
-1.83 10.62 2.49
-2.04 10.58 2.49
-2.25 10.54 2.49
-2.46 10.49 2.49
-2.67 10.44 2.49
-2.88 10.38 2.49
-3.09 10.32 2.49
-3.29 10.25 2.49
-3.50 10.18 2.49
-3.70 10.11 2.49
-3.90 10.03 2.49
-4.10 9.95 2.49
-4.30 9.87 2.49
-4.50 9.78 2.49
-4.69 9.68 2.49
-4.88 9.58 2.49
-5.08 9.48 2.49
-5.26 9.38 2.49
-5.45 9.27 2.49
-5.63 9.16 2.49
-5.81 9.04 2.49
-5.99 8.92 2.49
-6.00 8.56 2.43
-6.08 8.31 2.39
-6.25 8.18 2.39
-6.41 8.06 2.39
-6.57 7.92 2.39
-6.72 7.79 2.39
-6.88 7.65 2.39
-7.03 7.51 2.39
-7.17 7.37 2.39
-7.32 7.22 2.39
-7.46 7.07 2.39
-7.60 6.92 2.39
-7.73 6.76 2.39
-6.29 5.28 1.91
-7.99 6.44 2.39
-8.12 6.28 2.39
-8.24 6.11 2.39
-8.36 5.94 2.39
-8.48 5.77 2.39
-8.59 5.60 2.39
-8.70 5.43 2.39
-8.80 5.25 2.39
-8.90 5.07 2.39
-9.00 4.89 2.39
-9.09 4.71 2.39
-9.18 4.52 2.39
-9.27 4.33 2.39
-9.35 4.15 2.39
-9.43 3.96 2.39
-9.50 3.77 2.39
-9.58 3.57 2.39
-9.64 3.38 2.39
-9.70 3.18 2.39
-9.76 2.99 2.39
-9.82 2.79 2.39
-9.87 2.59 2.39
-9.92 2.39 2.39
-9.96 2.19 2.39
-10.00 1.99 2.39
-10.03 1.79 2.39
-10.98 1.73 2.61
-11.06 1.52 2.62
-11.14 1.30 2.63
-11.22 1.08 2.65
-11.35 0.87 2.68
-11.48 0.64 2.70
-10.05 0.36 2.36
-11.54 0.18 2.71
-11.44 -0.05 2.69
-11.31 -0.27 2.66
-11.21 -0.50 2.64
-11.17 -0.72 2.64
-11.14 -0.94 2.63
-11.10 -1.16 2.63
-11.05 -1.38 2.63
-10.03 -1.46 2.39
-10.00 -1.66 2.39
-9.96 -1.86 2.39
-9.92 -2.06 2.39
-9.87 -2.26 2.39
-9.82 -2.46 2.39
-9.77 -2.65 2.39
-9.71 -2.85 2.39
-9.65 -3.04 2.39
-9.58 -3.23 2.39
-9.51 -3.42 2.39
-9.44 -3.61 2.39
-9.36 -3.80 2.39
-9.28 -3.99 2.39
-9.20 -4.17 2.39
-9.11 -4.35 2.39
-9.02 -4.53 2.39
-8.92 -4.71 2.39
-8.82 -4.89 2.39
-8.72 -5.07 2.39
-8.61 -5.24 2.39
-8.50 -5.41 2.39
-8.39 -5.58 2.39
-8.28 -5.74 2.39
-8.16 -5.91 2.39
-8.04 -6.07 2.39
-7.91 -6.23 2.39
-7.78 -6.38 2.39
-7.65 -6.54 2.39
-7.52 -6.69 2.39
-7.38 -6.83 2.39
-7.24 -6.98 2.39
-7.06 -7.09 2.38
-6.79 -7.09 2.33
-6.52 -7.09 2.29
-6.40 -7.25 2.30
-6.40 -7.55 2.35
-6.34 -7.79 2.39
-6.18 -7.91 2.39
-6.05 -8.08 2.40
-6.04 -8.41 2.47
-5.93 -8.62 2.49
-5.76 -8.74 2.49
-5.58 -8.85 2.49
-5.40 -8.96 2.49
-5.22 -9.07 2.49
-5.04 -9.17 2.49
-4.85 -9.27 2.49
-4.66 -9.36 2.49
-4.47 -9.45 2.49
-4.28 -9.54 2.49
-4.09 -9.62 2.49
-3.89 -9.70 2.49
-3.70 -9.78 2.49
-3.50 -9.85 2.49
-3.30 -9.91 2.49
-3.10 -9.98 2.49
-2.90 -10.04 2.49
-2.70 -10.09 2.49
-2.49 -10.14 2.49
-2.29 -10.19 2.49
-2.08 -10.24 2.49
-1.88 -10.28 2.49
-1.67 -10.31 2.49
-1.46 -10.34 2.49
-1.26 -10.37 2.49
-1.05 -10.39 2.49
-0.84 -10.41 2.49
-0.63 -10.42 2.49
-0.42 -10.44 2.49
-0.21 -10.44 2.49
0.00 -9.49 2.49
0.19 -9.49 2.49
0.38 -9.49 2.49
0.57 -9.48 2.49
0.76 -9.46 2.49
0.95 -9.45 2.49
1.14 -9.43 2.49
1.33 -9.40 2.49
1.52 -9.37 2.49
1.71 -9.34 2.49
1.90 -9.31 2.49
2.01 -8.95 2.41
2.16 -8.79 2.38
2.35 -8.80 2.39
2.53 -8.75 2.39
2.70 -8.70 2.39
2.88 -8.64 2.39
3.05 -8.58 2.39
3.22 -8.52 2.39
3.39 -8.46 2.39
3.56 -8.39 2.39
3.73 -8.31 2.39
3.90 -8.24 2.39
4.06 -8.16 2.39
4.23 -8.08 2.39
4.39 -7.99 2.39
4.55 -7.90 2.39
4.71 -7.81 2.39
4.87 -7.72 2.39
5.02 -7.62 2.39
5.17 -7.52 2.39
5.32 -7.41 2.39
5.47 -7.31 2.39
5.62 -7.20 2.39
5.76 -7.08 2.39
5.80 -6.85 2.35
5.78 -6.55 2.29
5.77 -6.28 2.23
5.77 -6.03 2.18
5.78 -5.80 2.14
5.81 -5.61 2.11
5.86 -5.43 2.09
5.92 -5.27 2.07
6.00 -5.13 2.06
6.08 -4.99 2.05
6.19 -4.87 2.06
6.29 -4.75 2.06
6.42 -4.65 2.07
6.56 -4.55 2.08
6.72 -4.46 2.10
6.90 -4.39 2.13
7.13 -4.34 2.18
7.42 -4.31 2.24
7.77 -4.31 2.32
7.94 -4.19 2.34
8.01 -4.03 2.33
8.07 -3.86 2.33
8.13 -3.69 2.32
7.92 -3.40 2.24
7.98 -3.24 2.24
8.03 -3.07 2.24
8.08 -2.91 2.23
8.13 -2.74 2.23
8.17 -2.58 2.23
8.22 -2.41 2.22
8.26 -2.24 2.22
8.29 -2.07 2.22
8.33 -1.91 2.22
8.44 -1.75 2.24
8.47 -1.58 2.23
8.56 -1.42 2.25
9.00 -1.31 2.36
9.04 -1.13 2.36
9.08 -0.95 2.37
9.12 -0.77 2.37
9.15 -0.59 2.37
9.17 -0.41 2.38
9.20 -0.22 2.38
9.22 -0.04 2.39
9.24 0.15 2.39
9.25 0.33 2.39
9.25 0.52 2.40
9.24 0.71 2.40
9.23 0.89 2.40
9.22 1.08 2.40
9.20 1.26 2.40
9.19 1.45 2.40
9.16 1.63 2.40
8.74 1.74 2.30
8.63 1.90 2.28
8.60 2.07 2.28
8.56 2.25 2.28
8.53 2.42 2.28
8.48 2.60 2.29
8.44 2.77 2.29
8.39 2.94 2.29
8.34 3.11 2.29
8.29 3.28 2.29
8.23 3.45 2.30
8.17 3.62 2.30
8.11 3.79 2.30
8.42 4.15 2.41
8.33 4.31 2.41
8.24 4.48 2.41
8.16 4.64 2.41
8.06 4.81 2.41
7.97 4.97 2.41
7.87 5.13 2.41
7.77 5.29 2.41
7.66 5.45 2.41
7.55 5.60 2.41
7.44 5.75 2.41
7.33 5.90 2.41
7.21 6.05 2.41
7.09 6.20 2.41
6.97 6.34 2.41
6.84 6.48 2.41
6.71 6.61 2.41
6.57 6.75 2.41
6.44 6.88 2.41
6.30 7.00 2.41
6.15 7.13 2.41
5.96 7.19 2.39
5.82 7.31 2.39
5.67 7.43 2.39
5.52 7.54 2.39
5.37 7.65 2.39
5.21 7.76 2.39
5.06 7.86 2.39
4.90 7.96 2.39
4.74 8.06 2.39
4.58 8.16 2.39
4.41 8.25 2.39
4.25 8.34 2.39
4.08 8.42 2.39
3.91 8.50 2.39
3.74 8.58 2.39
3.57 8.65 2.39
3.39 8.72 2.39
3.22 8.79 2.39
3.04 8.85 2.39
2.86 8.91 2.39
2.69 8.97 2.39
2.50 9.02 2.39
2.32 9.07 2.39
2.14 9.12 2.39
2.04 9.55 2.49
1.85 9.59 2.49
1.66 9.63 2.49
1.46 9.66 2.49
1.27 9.69 2.49
1.08 9.71 2.49
0.88 9.73 2.49
0.69 9.75 2.49
0.49 9.76 2.49
0.29 9.77 2.49
0.10 9.77 2.49
-0.10 9.77 2.49
-0.29 9.77 2.49
-0.49 9.76 2.49
-0.68 9.75 2.49
-0.88 9.73 2.49
-1.08 9.71 2.49
-1.27 9.69 2.49
-1.46 9.66 2.49
-1.66 9.63 2.49
-1.85 9.59 2.49
-2.04 9.55 2.49
-2.23 9.51 2.49
-2.42 9.46 2.49
-2.61 9.41 2.49
-2.80 9.35 2.49
-2.99 9.30 2.49
-3.17 9.23 2.49
-3.36 9.17 2.49
-3.54 9.10 2.49
-3.72 9.02 2.49
-3.90 8.94 2.49
-4.08 8.86 2.49
-4.25 8.78 2.49
-4.43 8.69 2.49
-4.60 8.60 2.49
-4.77 8.50 2.49
-4.94 8.40 2.49
-5.11 8.30 2.49
-5.27 8.20 2.49
-5.43 8.09 2.49
-5.59 7.98 2.49
-5.75 7.86 2.49
-5.91 7.74 2.49
-6.00 7.55 2.47
-6.01 7.25 2.41
-6.10 7.06 2.39
-6.24 6.94 2.39
-6.37 6.81 2.39
-6.51 6.68 2.39
-6.64 6.55 2.39
-6.77 6.41 2.39
-6.89 6.27 2.39
-7.01 6.13 2.39
-6.29 5.28 2.11
-7.25 5.84 2.39
-7.37 5.69 2.39
-7.48 5.54 2.39
-7.58 5.39 2.39
-7.69 5.24 2.39
-7.79 5.08 2.39
-7.89 4.92 2.39
-7.98 4.76 2.39
-8.08 4.60 2.39
-8.16 4.44 2.39
-8.25 4.27 2.39
-8.33 4.10 2.39
-8.41 3.93 2.39
-8.48 3.76 2.39
-8.56 3.59 2.39
-8.62 3.42 2.39
-8.69 3.24 2.39
-8.75 3.07 2.39
-8.81 2.89 2.39
-8.86 2.71 2.39
-8.91 2.53 2.39
-8.96 2.35 2.39
-9.00 2.17 2.39
-9.04 1.99 2.39
-9.07 1.81 2.39
-9.11 1.62 2.39
-9.13 1.44 2.39
-9.16 1.26 2.39
-9.18 1.07 2.39
-9.20 0.89 2.39
-9.21 0.70 2.39
-9.22 0.52 2.39
-9.22 0.33 2.39
-9.23 0.15 2.39
-9.23 -0.04 2.39
-9.22 -0.22 2.39
-9.21 -0.41 2.39
-9.20 -0.59 2.39
-9.18 -0.78 2.39
-9.16 -0.96 2.39
-9.14 -1.14 2.39
-9.11 -1.33 2.39
-9.08 -1.51 2.39
-9.04 -1.69 2.39
-9.01 -1.87 2.39
-8.96 -2.05 2.39
-8.92 -2.23 2.39
-8.87 -2.41 2.39
-8.82 -2.59 2.39
-8.76 -2.76 2.39
-8.70 -2.94 2.39
-8.64 -3.11 2.39
-8.57 -3.28 2.39
-8.50 -3.45 2.39
-8.43 -3.62 2.39
-8.35 -3.79 2.39
-8.27 -3.95 2.39
-8.19 -4.12 2.39
-8.10 -4.28 2.39
-8.01 -4.44 2.39
-7.92 -4.60 2.39
-7.82 -4.76 2.39
-7.73 -4.91 2.39
-7.62 -5.07 2.39
-7.52 -5.22 2.39
-7.41 -5.36 2.39
-7.30 -5.51 2.39
-7.19 -5.66 2.39
-7.07 -5.80 2.39
-6.95 -5.94 2.39
-6.83 -6.07 2.39
-6.70 -6.21 2.39
-6.58 -6.34 2.39
-6.45 -6.47 2.39
-6.31 -6.60 2.39
-6.18 -6.72 2.39
-6.05 -6.85 2.39
-6.04 -7.12 2.45
-6.01 -7.38 2.49
-5.86 -7.50 2.49
-5.70 -7.62 2.49
-5.55 -7.73 2.49
-5.39 -7.84 2.49
-5.23 -7.94 2.49
-5.07 -8.04 2.49
-4.91 -8.14 2.49
-4.74 -8.24 2.49
-4.58 -8.33 2.49
-4.41 -8.42 2.49
-4.24 -8.51 2.49
-4.06 -8.59 2.49
-3.89 -8.67 2.49
-3.72 -8.74 2.49
-3.54 -8.82 2.49
-3.36 -8.88 2.49
-3.18 -8.95 2.49
-3.00 -9.01 2.49
-2.82 -9.07 2.49
-2.64 -9.12 2.49
-2.45 -9.17 2.49
-2.27 -9.22 2.49
-2.08 -9.26 2.49
-1.89 -9.30 2.49
-1.71 -9.34 2.49
-1.52 -9.37 2.49
-1.33 -9.40 2.49
-1.14 -9.42 2.49
-0.95 -9.44 2.49
-0.76 -9.46 2.49
-0.57 -9.48 2.49
-0.38 -9.48 2.49
-0.19 -9.49 2.49
0.00 -8.69 2.49
0.18 -8.69 2.49
0.35 -8.68 2.49
0.52 -8.68 2.49
0.70 -8.66 2.49
0.87 -8.65 2.49
1.05 -8.63 2.49
1.22 -8.61 2.49
1.39 -8.58 2.49
1.56 -8.55 2.49
1.74 -8.52 2.49
1.91 -8.48 2.49
2.01 -8.18 2.41
2.15 -8.05 2.39
2.31 -8.01 2.39
2.48 -7.96 2.39
2.64 -7.91 2.39
2.79 -7.86 2.39
2.95 -7.80 2.39
3.11 -7.74 2.39
3.26 -7.68 2.39
3.42 -7.61 2.39
3.57 -7.54 2.39
3.72 -7.47 2.39
3.87 -7.39 2.39
4.02 -7.32 2.39
4.17 -7.23 2.39
4.31 -7.15 2.39
4.45 -7.06 2.39
4.60 -6.97 2.39
4.74 -6.88 2.39
4.87 -6.79 2.39
5.01 -6.69 2.39
5.14 -6.59 2.39
5.28 -6.48 2.39
5.41 -6.38 2.39
5.54 -6.27 2.39
5.66 -6.16 2.39
5.77 -6.03 2.38
5.78 -5.80 2.34
5.82 -5.61 2.31
5.86 -5.43 2.28
5.92 -5.27 2.26
6.00 -5.13 2.25
6.08 -4.99 2.24
6.19 -4.87 2.25
6.29 -4.75 2.25
6.42 -4.65 2.26
6.56 -4.55 2.28
6.72 -4.46 2.30
6.91 -4.39 2.33
7.13 -4.34 2.38
7.26 -4.22 2.39
7.33 -4.06 2.39
7.39 -3.91 2.38
7.46 -3.75 2.38
7.25 -3.47 2.29
7.31 -3.31 2.28
7.37 -3.16 2.28
7.42 -3.01 2.28
7.47 -2.86 2.27
7.52 -2.70 2.27
7.56 -2.55 2.27
7.61 -2.40 2.27
7.65 -2.24 2.26
7.68 -2.09 2.26
7.72 -1.93 2.26
7.75 -1.77 2.26
7.78 -1.62 2.25
7.81 -1.46 2.25
8.28 -1.38 2.38
8.32 -1.21 2.38
8.36 -1.05 2.39
8.40 -0.88 2.39
8.43 -0.71 2.40
8.46 -0.54 2.40
8.49 -0.38 2.40
8.51 -0.21 2.41
8.51 -0.03 2.41
8.51 0.14 2.41
8.50 0.31 2.41
8.50 0.48 2.41
8.49 0.65 2.41
8.48 0.82 2.41
8.46 0.99 2.41
8.44 1.16 2.41
8.42 1.33 2.41
8.39 1.50 2.41
8.36 1.67 2.41
7.98 1.76 2.31
7.95 1.92 2.31
7.92 2.08 2.31
7.88 2.24 2.31
7.84 2.40 2.31
7.80 2.56 2.31
7.75 2.72 2.31
7.71 2.88 2.32
7.66 3.03 2.32
7.60 3.19 2.32
7.55 3.35 2.32
7.49 3.50 2.33
7.42 3.66 2.33
7.36 3.81 2.33
7.54 4.09 2.41
7.45 4.24 2.41
7.36 4.39 2.41
7.27 4.54 2.41
7.18 4.68 2.41
7.09 4.83 2.41
6.99 4.97 2.41
6.90 5.11 2.41
6.80 5.25 2.41
6.69 5.39 2.41
6.59 5.53 2.41
6.48 5.66 2.41
6.37 5.79 2.41
6.25 5.92 2.41
6.13 6.04 2.41
5.95 6.11 2.39
5.83 6.23 2.39
5.70 6.35 2.39
5.58 6.46 2.39
5.45 6.57 2.39
5.31 6.68 2.39
5.18 6.79 2.39
5.04 6.89 2.39
4.90 6.99 2.39
4.76 7.09 2.39
4.62 7.18 2.39
4.48 7.28 2.39
4.33 7.37 2.39
4.18 7.45 2.39
4.03 7.54 2.39
3.88 7.62 2.39
3.73 7.69 2.39
3.57 7.77 2.39
3.42 7.84 2.39
3.26 7.91 2.39
3.10 7.97 2.39
2.94 8.03 2.39
2.78 8.09 2.39
2.62 8.14 2.39
2.45 8.20 2.39
2.29 8.24 2.39
2.12 8.29 2.39
2.04 8.69 2.49
1.87 8.73 2.49
1.69 8.77 2.49
1.51 8.80 2.49
1.34 8.83 2.49
1.16 8.85 2.49
0.98 8.87 2.49
0.81 8.89 2.49
0.63 8.91 2.49
0.45 8.92 2.49
0.27 8.92 2.49
0.09 8.93 2.49
-0.09 8.93 2.49
-0.27 8.92 2.49
-0.45 8.92 2.49
-0.63 8.91 2.49
-0.80 8.89 2.49
-0.98 8.87 2.49
-1.16 8.85 2.49
-1.34 8.83 2.49
-1.51 8.80 2.49
-1.69 8.76 2.49
-1.86 8.73 2.49
-2.04 8.69 2.49
-2.21 8.64 2.49
-2.39 8.60 2.49
-2.56 8.55 2.49
-2.73 8.49 2.49
-2.90 8.44 2.49
-3.07 8.38 2.49
-3.23 8.31 2.49
-3.40 8.24 2.49
-3.56 8.17 2.49
-3.73 8.10 2.49
-3.89 8.02 2.49
-4.05 7.94 2.49
-4.20 7.86 2.49
-4.36 7.77 2.49
-4.51 7.68 2.49
-4.67 7.59 2.49
-4.82 7.49 2.49
-4.97 7.39 2.49
-5.11 7.29 2.49
-5.26 7.18 2.49
-5.40 7.08 2.49
-5.54 6.96 2.49
-5.68 6.85 2.49
-5.81 6.73 2.49
-5.94 6.61 2.49
-6.01 6.42 2.47
-6.01 6.17 2.42
-6.07 5.98 2.39
-6.20 5.87 2.40
-6.30 5.73 2.39
-6.41 5.60 2.39
-6.29 5.28 2.30
-6.63 5.34 2.39
-6.73 5.21 2.39
-6.83 5.07 2.39
-6.93 4.93 2.39
-7.03 4.79 2.39
-7.12 4.64 2.39
-7.21 4.50 2.39
-7.30 4.35 2.39
-7.38 4.21 2.39
-7.46 4.06 2.39
-7.54 3.90 2.39
-7.62 3.75 2.39
-7.69 3.60 2.39
-7.76 3.44 2.39
-7.82 3.28 2.39
-7.88 3.12 2.39
-7.94 2.97 2.39
-8.00 2.80 2.39
-8.05 2.64 2.39
-8.10 2.48 2.39
-8.15 2.32 2.39
-8.19 2.15 2.39
-8.23 1.99 2.39
-8.26 1.82 2.39
-8.30 1.65 2.39
-8.33 1.49 2.39
-8.35 1.32 2.39
-8.38 1.15 2.39
-8.39 0.98 2.39
-8.41 0.81 2.39
-8.42 0.64 2.39
-8.43 0.47 2.39
-8.44 0.30 2.39
-8.44 0.14 2.39
-8.44 -0.03 2.39
-8.43 -0.20 2.39
-8.43 -0.37 2.39
-8.41 -0.54 2.39
-8.40 -0.71 2.39
-8.38 -0.88 2.39
-8.36 -1.05 2.39
-8.33 -1.21 2.39
-8.31 -1.38 2.39
-8.27 -1.55 2.39
-8.24 -1.71 2.39
-8.20 -1.88 2.39
-8.16 -2.04 2.39
-8.12 -2.20 2.39
-8.07 -2.36 2.39
-8.02 -2.53 2.39
-7.96 -2.69 2.39
-7.90 -2.84 2.39
-7.84 -3.00 2.39
-7.78 -3.16 2.39
-7.71 -3.31 2.39
-7.64 -3.47 2.39
-7.57 -3.62 2.39
-7.49 -3.77 2.39
-7.04 -3.72 2.27
-6.98 -3.87 2.27
-6.98 -4.05 2.30
-6.98 -4.24 2.33
-6.95 -4.42 2.35
-6.86 -4.56 2.35
-6.62 -4.59 2.30
-6.44 -4.66 2.27
-6.39 -4.83 2.29
-6.58 -5.18 2.39
-6.47 -5.31 2.39
-6.36 -5.43 2.39
-6.25 -5.56 2.39
-6.14 -5.68 2.39
-6.04 -5.83 2.40
-6.04 -6.06 2.45
-6.03 -6.30 2.49
-5.90 -6.42 2.49
-5.77 -6.53 2.49
-5.64 -6.65 2.49
-5.50 -6.76 2.49
-5.36 -6.87 2.49
-5.22 -6.97 2.49
-5.08 -7.07 2.49
-4.94 -7.17 2.49
-4.79 -7.27 2.49
-4.64 -7.36 2.49
-4.49 -7.45 2.49
-4.34 -7.54 2.49
-4.19 -7.63 2.49
-4.04 -7.71 2.49
-3.88 -7.79 2.49
-3.72 -7.86 2.49
-3.56 -7.94 2.49
-3.40 -8.01 2.49
-3.24 -8.07 2.49
-3.08 -8.13 2.49
-2.91 -8.19 2.49
-2.75 -8.25 2.49
-2.58 -8.30 2.49
-2.41 -8.35 2.49
-2.24 -8.40 2.49
-2.08 -8.44 2.49
-1.91 -8.48 2.49
-1.73 -8.52 2.49
-1.56 -8.55 2.49
-1.39 -8.58 2.49
-1.22 -8.61 2.49
-1.04 -8.63 2.49
-0.87 -8.65 2.49
-0.70 -8.66 2.49
-0.52 -8.68 2.49
-0.35 -8.68 2.49
-0.17 -8.69 2.49
0.00 -8.01 2.49
0.16 -8.00 2.49
0.32 -8.00 2.49
0.48 -7.99 2.49
0.64 -7.98 2.49
0.80 -7.97 2.49
0.96 -7.95 2.49
1.12 -7.93 2.49
1.28 -7.90 2.49
1.44 -7.88 2.49
1.60 -7.85 2.49
1.76 -7.81 2.49
1.91 -7.78 2.49
2.01 -7.52 2.42
2.13 -7.38 2.39
2.28 -7.33 2.39
2.43 -7.29 2.39
2.57 -7.24 2.39
2.72 -7.19 2.39
2.86 -7.13 2.39
3.01 -7.07 2.39
3.15 -7.01 2.39
3.29 -6.95 2.39
3.43 -6.88 2.39
3.57 -6.81 2.39
3.70 -6.74 2.39
3.84 -6.66 2.39
3.97 -6.59 2.39
4.10 -6.51 2.39
4.23 -6.42 2.39
4.36 -6.34 2.39
4.49 -6.25 2.39
4.62 -6.16 2.39
4.74 -6.07 2.39
4.86 -5.97 2.39
4.98 -5.87 2.39
5.10 -5.77 2.39
5.21 -5.67 2.39
5.33 -5.57 2.39
5.44 -5.46 2.39
5.55 -5.35 2.39
5.66 -5.24 2.39
5.76 -5.12 2.39
5.86 -5.01 2.39
5.97 -4.89 2.39
6.10 -4.80 2.41
6.20 -4.68 2.41
6.29 -4.56 2.41
6.39 -4.43 2.41
6.48 -4.30 2.41
6.56 -4.17 2.41
6.65 -4.04 2.41
6.73 -3.91 2.41
6.81 -3.77 2.41
6.88 -3.63 2.41
6.72 -3.38 2.33
6.78 -3.24 2.32
6.83 -3.10 2.32
6.88 -2.95 2.31
6.93 -2.81 2.31
6.98 -2.67 2.31
7.02 -2.53 2.30
7.06 -2.38 2.30
7.11 -2.24 2.30
7.14 -2.09 2.30
7.18 -1.95 2.29
7.21 -1.80 2.29
7.24 -1.66 2.29
7.27 -1.51 2.29
7.56 -1.41 2.37
7.70 -1.28 2.40
7.74 -1.13 2.41
7.77 -0.97 2.41
7.79 -0.82 2.41
7.80 -0.66 2.41
7.82 -0.50 2.41
7.83 -0.35 2.41
7.83 -0.19 2.41
7.83 -0.03 2.41
7.83 0.13 2.41
7.83 0.28 2.41
7.82 0.44 2.41
7.81 0.60 2.41
7.80 0.75 2.41
7.79 0.91 2.41
7.77 1.07 2.41
7.75 1.22 2.41
7.73 1.38 2.41
7.71 1.54 2.41
7.68 1.69 2.41
7.38 1.78 2.33
7.35 1.93 2.33
7.32 2.08 2.33
7.28 2.23 2.33
7.24 2.38 2.33
7.20 2.52 2.34
7.15 2.67 2.34
7.11 2.82 2.34
7.06 2.96 2.34
7.00 3.11 2.34
6.95 3.25 2.35
6.89 3.39 2.35
6.83 3.53 2.35
6.76 3.68 2.35
6.70 3.82 2.36
6.77 4.04 2.41
6.69 4.17 2.41
6.61 4.31 2.41
6.52 4.44 2.41
6.43 4.57 2.41
6.34 4.71 2.41
6.25 4.83 2.41
6.16 4.96 2.41
6.00 5.04 2.39
5.90 5.16 2.39
5.80 5.28 2.39
5.69 5.39 2.39
5.58 5.51 2.39
5.47 5.62 2.39
5.36 5.73 2.39
5.25 5.84 2.39
5.13 5.94 2.39
5.01 6.04 2.39
4.89 6.14 2.39
4.76 6.24 2.39
4.64 6.34 2.39
4.51 6.43 2.39
4.38 6.52 2.39
4.25 6.61 2.39
4.12 6.69 2.39
3.98 6.77 2.39
3.85 6.85 2.39
3.71 6.93 2.39
3.57 7.00 2.39
3.43 7.07 2.39
3.29 7.14 2.39
3.14 7.21 2.39
3.00 7.27 2.39
2.85 7.33 2.39
2.70 7.39 2.39
2.56 7.44 2.39
2.41 7.49 2.39
2.26 7.54 2.39
2.10 7.58 2.39
2.04 7.95 2.49
1.88 7.99 2.49
1.72 8.03 2.49
1.55 8.06 2.49
1.39 8.09 2.49
1.23 8.12 2.49
1.07 8.14 2.49
0.90 8.16 2.49
0.74 8.18 2.49
0.58 8.19 2.49
0.41 8.20 2.49
0.25 8.21 2.49
0.08 8.21 2.49
-0.08 8.21 2.49
-0.25 8.21 2.49
-0.41 8.20 2.49
-0.58 8.19 2.49
-0.74 8.18 2.49
-0.90 8.16 2.49
-1.07 8.14 2.49
-1.23 8.12 2.49
-1.39 8.09 2.49
-1.55 8.06 2.49
-1.71 8.03 2.49
-1.88 7.99 2.49
-2.03 7.95 2.49
-2.19 7.91 2.49
-2.35 7.86 2.49
-2.51 7.81 2.49
-2.66 7.76 2.49
-2.82 7.70 2.49
-2.97 7.64 2.49
-3.12 7.58 2.49
-3.28 7.52 2.49
-3.43 7.45 2.49
-3.57 7.38 2.49
-3.72 7.30 2.49
-3.87 7.23 2.49
-4.01 7.15 2.49
-4.15 7.06 2.49
-4.29 6.98 2.49
-4.43 6.89 2.49
-4.57 6.80 2.49
-4.70 6.70 2.49
-4.83 6.61 2.49
-4.96 6.51 2.49
-5.09 6.41 2.49
-5.22 6.30 2.49
-5.34 6.19 2.49
-5.47 6.08 2.49
-5.59 5.97 2.49
-5.70 5.86 2.49
-5.82 5.74 2.49
-5.93 5.62 2.49
-6.01 5.47 2.48
-6.01 5.25 2.44
-6.02 5.05 2.40
-6.10 4.91 2.39
-6.20 4.80 2.39
-6.29 4.66 2.39
-6.38 4.53 2.39
-6.46 4.41 2.39
-6.55 4.27 2.39
-6.63 4.14 2.39
-6.71 4.01 2.39
-6.79 3.87 2.39
-6.87 3.73 2.39
-6.94 3.59 2.39
-7.01 3.45 2.39
-7.07 3.31 2.39
-7.14 3.17 2.39
-7.20 3.02 2.39
-7.25 2.88 2.39
-7.31 2.73 2.39
-7.36 2.58 2.39
-7.41 2.43 2.39
-7.45 2.28 2.39
-7.50 2.13 2.39
-7.54 1.98 2.39
-7.57 1.83 2.39
-7.61 1.68 2.39
-7.64 1.52 2.39
-7.66 1.37 2.39
-7.69 1.21 2.39
-7.71 1.06 2.39
-7.73 0.90 2.39
-7.74 0.75 2.39
-7.75 0.59 2.39
-7.76 0.44 2.39
-7.77 0.28 2.39
-7.77 0.13 2.39
-7.77 -0.03 2.39
-7.76 -0.19 2.39
-7.76 -0.34 2.39
-7.74 -0.50 2.39
-7.73 -0.65 2.39
-7.71 -0.81 2.39
-7.69 -0.96 2.39
-7.67 -1.12 2.39
-7.65 -1.27 2.39
-7.62 -1.42 2.39
-7.59 -1.57 2.39
-7.55 -1.73 2.39
-7.51 -1.88 2.39
-7.09 -1.92 2.27
-7.05 -2.07 2.27
-7.00 -2.21 2.27
-6.98 -2.35 2.27
-6.97 -2.51 2.29
-6.97 -2.67 2.31
-6.97 -2.83 2.33
-6.97 -2.99 2.35
-6.92 -3.14 2.35
-6.86 -3.28 2.35
-6.79 -3.41 2.35
-6.48 -3.42 2.27
-6.41 -3.55 2.27
-6.39 -3.71 2.29
-6.39 -3.88 2.32
-6.39 -4.06 2.35
-6.39 -4.24 2.38
-6.34 -4.40 2.39
-6.25 -4.52 2.39
-6.15 -4.64 2.39
-6.06 -4.77 2.39
-6.04 -4.95 2.42
-6.03 -5.15 2.46
-6.00 -5.34 2.49
-5.90 -5.46 2.49
-5.78 -5.58 2.49
-5.67 -5.69 2.49
-5.55 -5.80 2.49
-5.43 -5.91 2.49
-5.31 -6.02 2.49
-5.19 -6.12 2.49
-5.07 -6.22 2.49
-4.94 -6.32 2.49
-4.81 -6.42 2.49
-4.68 -6.52 2.49
-4.55 -6.61 2.49
-4.41 -6.70 2.49
-4.28 -6.78 2.49
-4.14 -6.87 2.49
-4.00 -6.95 2.49
-3.86 -7.03 2.49
-3.72 -7.10 2.49
-3.57 -7.17 2.49
-3.43 -7.24 2.49
-3.28 -7.31 2.49
-3.13 -7.37 2.49
-2.98 -7.43 2.49
-2.83 -7.49 2.49
-2.68 -7.55 2.49
-2.53 -7.60 2.49
-2.38 -7.65 2.49
-2.22 -7.69 2.49
-2.07 -7.74 2.49
-1.91 -7.78 2.49
-1.76 -7.81 2.49
-1.60 -7.85 2.49
-1.44 -7.88 2.49
-1.28 -7.90 2.49
-1.12 -7.93 2.49
-0.96 -7.95 2.49
-0.80 -7.97 2.49
-0.64 -7.98 2.49
-0.48 -7.99 2.49
-0.32 -8.00 2.49
-0.16 -8.00 2.49
0.00 -7.41 2.49
0.15 -7.41 2.49
0.30 -7.41 2.49
0.45 -7.40 2.49
0.60 -7.39 2.49
0.74 -7.38 2.49
0.89 -7.36 2.49
1.04 -7.34 2.49
1.19 -7.32 2.49
1.33 -7.30 2.49
1.48 -7.27 2.49
1.63 -7.24 2.49
1.77 -7.20 2.49
1.92 -7.17 2.49
2.01 -6.95 2.43
2.11 -6.79 2.39
2.25 -6.75 2.39
2.38 -6.70 2.39
2.52 -6.65 2.39
2.65 -6.60 2.39
2.78 -6.55 2.39
2.92 -6.49 2.39
3.05 -6.43 2.39
3.17 -6.37 2.39
3.30 -6.31 2.39
3.43 -6.24 2.39
3.55 -6.17 2.39
3.68 -6.10 2.39
3.80 -6.02 2.39
3.92 -5.95 2.39
4.04 -5.87 2.39
4.16 -5.79 2.39
4.27 -5.70 2.39
4.39 -5.62 2.39
4.50 -5.53 2.39
4.61 -5.44 2.39
4.72 -5.34 2.39
4.83 -5.25 2.39
4.93 -5.15 2.39
5.04 -5.05 2.39
5.14 -4.95 2.39
5.24 -4.85 2.39
5.33 -4.74 2.39
5.43 -4.64 2.39
5.52 -4.53 2.39
5.61 -4.42 2.39
5.70 -4.30 2.39
5.79 -4.19 2.39
5.87 -4.07 2.39
5.95 -3.95 2.39
6.03 -3.83 2.39
6.15 -3.74 2.41
6.23 -3.61 2.41
6.21 -3.44 2.37
6.26 -3.31 2.37
6.32 -3.17 2.36
6.37 -3.04 2.36
6.42 -2.91 2.35
6.47 -2.78 2.35
6.51 -2.64 2.35
6.56 -2.51 2.34
6.60 -2.37 2.34
6.64 -2.24 2.34
6.67 -2.10 2.33
6.71 -1.96 2.33
6.74 -1.83 2.33
6.77 -1.69 2.33
6.80 -1.55 2.32
6.82 -1.42 2.32
7.12 -1.33 2.41
7.15 -1.19 2.41
7.17 -1.04 2.41
7.19 -0.90 2.41
7.21 -0.75 2.41
7.22 -0.61 2.41
7.23 -0.46 2.41
7.24 -0.32 2.41
7.25 -0.17 2.41
7.25 -0.03 2.41
7.25 0.12 2.41
7.24 0.26 2.41
7.24 0.41 2.41
7.23 0.55 2.41
7.22 0.70 2.41
7.21 0.84 2.41
7.20 0.99 2.41
7.18 1.13 2.41
7.16 1.28 2.41
7.14 1.42 2.41
7.12 1.57 2.42
7.09 1.71 2.42
6.86 1.80 2.35
6.82 1.94 2.35
6.79 2.08 2.35
6.75 2.22 2.35
6.71 2.35 2.35
6.67 2.49 2.36
6.62 2.63 2.36
6.58 2.76 2.36
6.53 2.90 2.36
6.48 3.03 2.36
6.42 3.16 2.37
6.36 3.29 2.37
6.30 3.43 2.37
6.24 3.56 2.37
6.18 3.69 2.38
6.11 3.81 2.38
6.11 3.99 2.41
5.98 4.08 2.39
5.90 4.20 2.39
5.82 4.32 2.39
5.73 4.43 2.39
5.64 4.55 2.39
5.55 4.66 2.39
5.46 4.77 2.39
5.36 4.88 2.39
5.26 4.99 2.39
5.16 5.09 2.39
5.06 5.20 2.39
4.96 5.30 2.39
4.85 5.40 2.39
4.74 5.50 2.39
4.63 5.59 2.39
4.52 5.68 2.39
4.40 5.77 2.39
4.29 5.86 2.39
4.17 5.95 2.39
4.05 6.03 2.39
3.93 6.11 2.39
3.81 6.19 2.39
3.68 6.26 2.39
3.56 6.34 2.39
3.43 6.41 2.39
3.30 6.48 2.39
3.17 6.54 2.39
3.04 6.60 2.39
2.91 6.66 2.39
2.77 6.72 2.39
2.64 6.78 2.39
2.50 6.83 2.39
2.36 6.88 2.39
2.22 6.92 2.39
2.09 6.97 2.39
2.03 7.31 2.49
1.88 7.35 2.49
1.73 7.39 2.49
1.59 7.42 2.49
1.44 7.45 2.49
1.29 7.48 2.49
1.14 7.50 2.49
0.99 7.53 2.49
0.84 7.54 2.49
0.68 7.56 2.49
0.53 7.57 2.49
0.38 7.58 2.49
0.23 7.59 2.49
0.08 7.59 2.49
-0.08 7.59 2.49
-0.23 7.59 2.49
-0.38 7.58 2.49
-0.53 7.57 2.49
-0.68 7.56 2.49
-0.83 7.54 2.49
-0.99 7.52 2.49
-1.14 7.50 2.49
-1.29 7.48 2.49
-1.44 7.45 2.49
-1.59 7.42 2.49
-1.73 7.39 2.49
-1.88 7.35 2.49
-2.03 7.31 2.49
-2.17 7.27 2.49
-2.32 7.22 2.49
-2.46 7.17 2.49
-2.61 7.12 2.49
-2.75 7.07 2.49
-2.89 7.01 2.49
-3.03 6.95 2.49
-3.17 6.89 2.49
-3.30 6.82 2.49
-3.44 6.75 2.49
-3.57 6.68 2.49
-3.71 6.61 2.49
-3.84 6.53 2.49
-3.97 6.45 2.49
-4.10 6.37 2.49
-4.22 6.29 2.49
-4.35 6.20 2.49
-4.47 6.11 2.49
-4.59 6.02 2.49
-4.71 5.92 2.49
-4.83 5.83 2.49
-4.94 5.73 2.49
-5.06 5.63 2.49
-5.17 5.52 2.49
-5.28 5.42 2.49
-5.38 5.31 2.49
-5.49 5.20 2.49
-5.59 5.09 2.49
-5.69 4.97 2.49
-5.79 4.86 2.49
-5.88 4.74 2.49
-5.97 4.62 2.49
-6.01 4.46 2.47
-6.01 4.28 2.44
-6.02 4.10 2.41
-6.06 3.95 2.39
-6.14 3.83 2.39
-6.21 3.71 2.39
-6.28 3.58 2.39
-6.35 3.45 2.39
-6.42 3.32 2.39
-6.48 3.19 2.39
-6.54 3.06 2.39
-6.60 2.93 2.39
-6.66 2.80 2.39
-6.71 2.66 2.39
-6.76 2.53 2.39
-6.81 2.39 2.39
-6.85 2.25 2.39
-6.90 2.11 2.39
-6.94 1.97 2.39
-6.97 1.83 2.39
-7.01 1.69 2.39
-7.04 1.55 2.39
-7.06 1.41 2.39
-7.09 1.27 2.39
-7.11 1.12 2.39
-7.13 0.98 2.39
-7.15 0.84 2.39
-7.16 0.69 2.39
-7.17 0.55 2.39
-7.18 0.41 2.39
-7.19 0.26 2.39
-6.83 0.11 2.27
-6.82 -0.03 2.27
-6.97 -0.17 2.32
-6.97 -0.31 2.32
-6.97 -0.45 2.32
-6.97 -0.59 2.33
-6.97 -0.73 2.33
-6.97 -0.87 2.34
-6.96 -1.01 2.34
-6.96 -1.15 2.35
-6.93 -1.29 2.35
-6.90 -1.43 2.35
-6.87 -1.57 2.35
-6.84 -1.71 2.35
-6.80 -1.84 2.35
-6.76 -1.98 2.35
-6.48 -2.04 2.27
-6.44 -2.17 2.27
-6.40 -2.30 2.27
-6.38 -2.44 2.28
-6.38 -2.59 2.30
-6.39 -2.74 2.32
-6.39 -2.89 2.34
-6.39 -3.05 2.37
-6.39 -3.21 2.39
-6.32 -3.34 2.39
-6.25 -3.46 2.39
-6.18 -3.59 2.39
-6.11 -3.71 2.39
-6.04 -3.84 2.40
-6.03 -4.01 2.42
-6.03 -4.18 2.46
-6.03 -4.36 2.49
-5.94 -4.48 2.49
-5.85 -4.60 2.49
-5.76 -4.72 2.49
-5.66 -4.83 2.49
-5.56 -4.94 2.49
-5.46 -5.05 2.49
-5.35 -5.16 2.49
-5.25 -5.27 2.49
-5.14 -5.37 2.49
-5.03 -5.47 2.49
-4.92 -5.57 2.49
-4.81 -5.67 2.49
-4.69 -5.76 2.49
-4.57 -5.86 2.49
-4.45 -5.95 2.49
-4.33 -6.03 2.49
-4.21 -6.12 2.49
-4.09 -6.20 2.49
-3.96 -6.28 2.49
-3.83 -6.36 2.49
-3.70 -6.43 2.49
-3.57 -6.51 2.49
-3.44 -6.58 2.49
-3.31 -6.64 2.49
-3.17 -6.71 2.49
-3.04 -6.77 2.49
-2.90 -6.83 2.49
-2.76 -6.88 2.49
-2.62 -6.94 2.49
-2.48 -6.99 2.49
-2.34 -7.04 2.49
-2.20 -7.08 2.49
-2.06 -7.12 2.49
-1.92 -7.16 2.49
-1.77 -7.20 2.49
-1.63 -7.23 2.49
-1.48 -7.27 2.49
-1.33 -7.29 2.49
-1.19 -7.32 2.49
-1.04 -7.34 2.49
-0.89 -7.36 2.49
-0.74 -7.38 2.49
-0.59 -7.39 2.49
-0.45 -7.40 2.49
-0.30 -7.41 2.49
-0.15 -7.41 2.49
0.00 -6.90 2.49
0.14 -6.89 2.49
0.28 -6.89 2.49
0.42 -6.88 2.49
0.55 -6.87 2.49
0.69 -6.86 2.49
0.83 -6.85 2.49
0.97 -6.83 2.49
1.10 -6.81 2.49
1.24 -6.79 2.49
1.38 -6.76 2.49
1.51 -6.73 2.49
1.65 -6.70 2.49
1.78 -6.67 2.49
1.92 -6.63 2.49
2.01 -6.46 2.44
2.09 -6.28 2.39
2.22 -6.25 2.40
2.34 -6.19 2.39
2.47 -6.14 2.39
2.59 -6.09 2.39
2.71 -6.04 2.39
2.83 -5.98 2.39
2.95 -5.92 2.39
3.07 -5.86 2.39
3.19 -5.80 2.39
3.31 -5.74 2.39
3.42 -5.67 2.39
3.53 -5.60 2.39
3.65 -5.53 2.39
3.76 -5.46 2.39
3.87 -5.38 2.39
3.97 -5.30 2.39
4.08 -5.22 2.39
4.19 -5.14 2.39
4.29 -5.06 2.39
4.39 -4.97 2.39
4.49 -4.88 2.39
4.59 -4.79 2.39
4.68 -4.70 2.39
4.78 -4.60 2.39
4.87 -4.51 2.39
4.96 -4.41 2.39
5.05 -4.31 2.39
5.14 -4.21 2.39
5.22 -4.11 2.39
5.30 -4.00 2.39
5.38 -3.89 2.39
5.46 -3.79 2.39
5.54 -3.68 2.39
5.61 -3.56 2.39
5.68 -3.45 2.39
5.75 -3.34 2.39
5.82 -3.22 2.39
5.88 -3.11 2.39
5.95 -2.99 2.39
6.00 -2.87 2.39
6.05 -2.74 2.39
6.10 -2.62 2.38
6.14 -2.49 2.38
6.18 -2.36 2.37
6.22 -2.24 2.37
6.26 -2.11 2.37
6.29 -1.98 2.37
6.33 -1.85 2.36
6.36 -1.72 2.36
6.38 -1.59 2.36
6.41 -1.46 2.36
6.59 -1.37 2.41
6.62 -1.23 2.41
6.64 -1.10 2.41
6.66 -0.97 2.41
6.68 -0.83 2.41
6.70 -0.70 2.41
6.71 -0.57 2.41
6.72 -0.43 2.41
6.73 -0.30 2.41
6.73 -0.16 2.41
6.73 -0.03 2.41
6.73 0.11 2.41
6.73 0.25 2.41
6.73 0.38 2.41
6.73 0.52 2.41
6.72 0.65 2.41
6.71 0.79 2.41
6.70 0.92 2.41
6.68 1.06 2.41
6.66 1.19 2.41
6.64 1.33 2.42
6.62 1.46 2.42
6.59 1.59 2.42
6.56 1.73 2.42
6.39 1.82 2.37
6.35 1.95 2.37
6.32 2.07 2.37
6.28 2.20 2.37
6.24 2.33 2.37
6.20 2.46 2.37
6.15 2.58 2.38
6.11 2.71 2.38
6.06 2.83 2.38
6.01 2.96 2.38
5.95 3.08 2.38
5.89 3.20 2.39
5.84 3.33 2.39
5.78 3.45 2.39
5.71 3.56 2.39
5.63 3.68 2.39
5.56 3.79 2.39
5.48 3.90 2.39
5.41 4.01 2.39
5.33 4.12 2.39
5.24 4.23 2.39
5.16 4.33 2.39
5.07 4.43 2.39
4.98 4.54 2.39
4.89 4.64 2.39
4.80 4.73 2.39
4.70 4.83 2.39
4.60 4.92 2.39
4.51 5.02 2.39
4.40 5.11 2.39
4.30 5.19 2.39
4.20 5.28 2.39
4.09 5.36 2.39
3.98 5.44 2.39
3.87 5.52 2.39
3.76 5.60 2.39
3.65 5.68 2.39
3.54 5.75 2.39
3.42 5.82 2.39
3.30 5.89 2.39
3.19 5.95 2.39
3.07 6.02 2.39
2.94 6.08 2.39
2.82 6.14 2.39
2.70 6.19 2.39
2.57 6.24 2.39
2.45 6.30 2.39
2.32 6.34 2.39
2.19 6.39 2.39
2.07 6.43 2.39
2.02 6.75 2.49
1.89 6.79 2.49
1.75 6.83 2.49
1.61 6.86 2.49
1.47 6.89 2.49
1.34 6.92 2.49
1.20 6.95 2.49
1.06 6.97 2.49
0.92 6.99 2.49
0.78 7.01 2.49
0.64 7.02 2.49
0.49 7.03 2.49
0.35 7.04 2.49
0.21 7.05 2.49
0.07 7.05 2.49
-0.07 7.05 2.49
-0.21 7.05 2.49
-0.35 7.04 2.49
-0.49 7.03 2.49
-0.63 7.02 2.49
-0.78 7.01 2.49
-0.92 6.99 2.49
-1.06 6.97 2.49
-1.20 6.95 2.49
-1.33 6.92 2.49
-1.47 6.89 2.49
-1.61 6.86 2.49
-1.75 6.83 2.49
-1.88 6.79 2.49
-2.02 6.75 2.49
-2.15 6.71 2.49
-2.29 6.66 2.49
-2.42 6.62 2.49
-2.55 6.57 2.49
-2.68 6.51 2.49
-2.81 6.46 2.49
-2.94 6.40 2.49
-3.07 6.34 2.49
-3.20 6.27 2.49
-3.32 6.21 2.49
-3.44 6.14 2.49
-3.57 6.07 2.49
-3.69 5.99 2.49
-3.81 5.92 2.49
-3.92 5.84 2.49
-4.04 5.76 2.49
-4.15 5.68 2.49
-4.26 5.59 2.49
-4.38 5.50 2.49
-4.48 5.41 2.49
-4.59 5.32 2.49
-4.70 5.23 2.49
-4.80 5.13 2.49
-4.90 5.03 2.49
-5.00 4.93 2.49
-5.10 4.83 2.49
-5.19 4.73 2.49
-5.28 4.62 2.49
-5.38 4.51 2.49
-5.46 4.41 2.49
-5.55 4.29 2.49
-5.63 4.18 2.49
-5.72 4.07 2.49
-5.80 3.95 2.49
-5.87 3.83 2.49
-5.95 3.71 2.49
-6.01 3.59 2.49
-6.01 3.43 2.46
-6.01 3.27 2.44
-6.02 3.12 2.41
-6.03 2.97 2.39
-6.08 2.85 2.39
-6.13 2.72 2.39
-6.21 2.61 2.40
-6.24 2.47 2.39
-6.28 2.35 2.39
-6.33 2.22 2.39
-6.37 2.09 2.39
-6.41 1.96 2.39
-6.45 1.83 2.39
-6.48 1.70 2.39
-6.51 1.57 2.39
-6.54 1.44 2.39
-6.57 1.31 2.39
-6.59 1.18 2.39
-6.61 1.05 2.39
-6.63 0.91 2.39
-6.64 0.78 2.39
-6.66 0.65 2.39
-6.67 0.51 2.39
-6.67 0.38 2.39
-6.68 0.24 2.39
-6.38 0.10 2.28
-6.38 -0.02 2.28
-6.38 -0.15 2.28
-6.38 -0.28 2.29
-6.38 -0.41 2.29
-6.38 -0.54 2.29
-6.38 -0.67 2.30
-6.38 -0.80 2.30
-6.38 -0.93 2.31
-6.38 -1.06 2.32
-6.38 -1.19 2.33
-6.38 -1.32 2.34
-6.38 -1.46 2.35
-6.38 -1.59 2.36
-6.38 -1.73 2.37
-6.39 -1.87 2.39
-6.35 -2.00 2.39
