ply
format ascii 1.0
element vertex 2915
property float32 x
property float32 y
property float32 z
end_header
-2.56 -21.18 2.49
-2.13 -21.23 2.49
-1.71 -21.28 2.49
-1.28 -21.31 2.49
-0.85 -21.34 2.49
-0.42 -21.36 2.49
0.00 -17.87 2.49
0.36 -17.87 2.49
0.72 -17.86 2.49
1.08 -17.85 2.49
1.44 -17.83 2.49
1.80 -17.80 2.49
2.15 -17.77 2.49
2.41 -16.99 2.39
2.75 -16.94 2.39
3.09 -16.89 2.39
3.43 -16.83 2.39
3.76 -16.76 2.39
4.10 -16.68 2.39
2.63 -9.83 1.42
2.55 -8.82 1.28
5.10 -16.41 2.39
5.43 -16.31 2.39
5.76 -16.20 2.39
6.08 -16.08 2.39
6.41 -15.98 2.39
6.73 -15.85 2.39
7.05 -15.71 2.39
7.36 -15.57 2.39
7.68 -15.42 2.39
7.98 -15.27 2.39
8.29 -15.10 2.39
8.59 -14.94 2.39
8.89 -14.76 2.39
9.19 -14.58 2.39
9.48 -14.40 2.39
9.76 -14.20 2.39
10.05 -14.00 2.39
10.33 -13.80 2.39
10.60 -13.59 2.39
10.87 -13.38 2.39
11.14 -13.16 2.39
11.40 -12.93 2.39
11.66 -12.70 2.39
11.91 -12.46 2.39
12.16 -12.22 2.39
12.40 -11.97 2.39
12.64 -11.72 2.39
12.87 -11.47 2.39
13.10 -11.20 2.39
13.32 -10.94 2.39
13.53 -10.67 2.39
13.74 -10.39 2.39
13.95 -10.12 2.39
14.15 -9.83 2.39
13.23 -8.80 2.21
13.78 -8.78 2.27
14.71 -8.96 2.39
14.88 -8.66 2.39
15.05 -8.36 2.39
15.22 -8.06 2.39
15.37 -7.75 2.39
15.52 -7.44 2.39
15.67 -7.12 2.39
15.80 -6.81 2.39
13.22 -5.38 1.99
13.63 -5.23 2.03
16.18 -5.84 2.39
16.29 -5.51 2.39
16.39 -5.18 2.39
16.49 -4.85 2.39
16.58 -4.52 2.39
16.66 -4.19 2.39
16.74 -3.85 2.39
16.81 -3.51 2.39
16.87 -3.17 2.39
16.93 -2.83 2.39
16.98 -2.49 2.39
14.22 -1.80 2.00
17.05 -1.81 2.39
17.08 -1.47 2.39
17.10 -1.12 2.39
17.12 -0.78 2.39
17.12 -0.43 2.39
17.12 -0.09 2.39
17.12 0.25 2.39
17.10 0.60 2.39
17.08 0.94 2.39
17.06 1.28 2.39
17.02 1.62 2.39
16.98 1.96 2.39
16.93 2.30 2.39
16.73 2.62 2.37
14.76 2.61 2.10
13.19 2.61 1.89
11.96 2.62 1.72
11.96 2.87 1.73
11.96 3.13 1.74
11.96 3.38 1.75
12.05 3.67 1.77
12.05 3.94 1.78
12.05 4.21 1.79
12.04 4.48 1.81
12.04 4.76 1.82
12.04 5.04 1.84
11.95 5.28 1.84
11.95 5.57 1.86
11.95 5.87 1.88
11.95 6.17 1.90
11.95 6.47 1.92
11.90 6.76 1.93
11.85 7.05 1.95
11.84 7.37 1.97
11.84 7.70 2.00
11.87 8.06 2.03
11.95 8.47 2.07
11.95 8.84 2.10
11.94 9.21 2.13
10.56 8.49 1.92
11.94 10.00 2.21
11.94 10.42 2.24
11.94 10.84 2.29
11.94 11.29 2.33
11.94 11.75 2.38
11.79 12.08 2.39
11.50 12.26 2.39
11.13 12.35 2.36
10.82 12.51 2.35
10.58 12.74 2.35
10.38 13.02 2.37
10.22 13.37 2.39
9.95 13.57 2.39
9.67 13.76 2.39
9.39 13.95 2.39
9.10 14.13 2.39
8.82 14.30 2.39
8.52 14.47 2.39
8.23 14.63 2.39
7.93 14.79 2.39
7.63 14.94 2.39
7.32 15.09 2.39
7.02 15.22 2.39
6.71 15.36 2.39
6.40 15.48 2.39
6.08 15.58 2.39
5.76 15.70 2.39
5.44 15.80 2.39
5.12 15.91 2.39
4.80 16.00 2.39
4.48 16.09 2.39
4.15 16.17 2.39
3.82 16.24 2.39
3.50 16.31 2.39
3.17 16.37 2.39
2.84 16.43 2.39
2.50 16.48 2.39
2.17 16.52 2.39
1.92 17.27 2.49
1.57 17.30 2.49
1.22 17.32 2.49
0.88 17.34 2.49
0.53 17.35 2.49
0.18 17.35 2.49
-0.17 17.34 2.49
-0.52 17.33 2.49
-0.87 17.31 2.49
-1.21 17.29 2.49
-1.56 17.26 2.49
-1.90 17.22 2.49
-2.25 17.17 2.49
-2.59 17.12 2.49
-2.94 17.06 2.49
-3.28 17.00 2.49
-3.62 16.92 2.49
-3.96 16.84 2.49
-4.29 16.76 2.49
-4.63 16.67 2.49
-4.96 16.57 2.49
-5.29 16.46 2.49
-5.62 16.35 2.49
-5.92 16.17 2.48
-6.01 15.44 2.39
-6.32 15.31 2.39
-6.62 15.18 2.39
-6.93 15.04 2.39
-7.23 14.90 2.39
-7.52 14.75 2.39
-7.82 14.59 2.39
-8.11 14.43 2.39
-8.39 14.27 2.39
-8.68 14.09 2.39
-8.96 13.91 2.39
-9.24 13.73 2.39
-9.51 13.54 2.39
-9.78 13.35 2.39
-10.29 13.47 2.45
-10.51 13.20 2.44
-10.73 12.93 2.43
-10.94 12.66 2.42
-11.08 12.31 2.39
-11.20 11.96 2.37
-11.33 11.62 2.35
-11.48 11.31 2.33
-11.61 10.98 2.31
-11.73 10.66 2.29
-11.85 10.34 2.27
-11.94 10.01 2.25
-12.03 9.68 2.23
-12.12 9.35 2.21
-12.23 9.06 2.20
-12.35 8.76 2.19
-12.52 8.51 2.19
-12.70 8.27 2.19
-12.87 8.01 2.19
-13.01 7.75 2.19
-13.07 7.43 2.17
-13.10 7.10 2.15
-13.13 6.78 2.13
-13.16 6.46 2.12
-13.19 6.15 2.10
-13.21 5.84 2.08
-13.23 5.54 2.07
-13.19 5.21 2.04
-13.10 4.87 2.01
-13.01 4.54 1.99
-12.85 4.20 1.95
-12.68 3.87 1.91
-12.51 3.54 1.87
-12.40 3.24 1.85
-12.41 2.98 1.84
-12.40 2.72 1.83
-12.38 2.45 1.82
-12.35 2.19 1.80
-12.32 1.93 1.79
-12.29 1.67 1.78
-12.26 1.42 1.78
-12.24 1.17 1.77
-12.23 0.92 1.76
-12.21 0.67 1.76
-12.21 0.43 1.75
-12.22 0.18 1.75
-12.23 -0.06 1.76
-12.23 -0.31 1.76
-12.24 -0.56 1.76
-12.25 -0.80 1.76
-12.27 -1.05 1.77
-12.29 -1.30 1.77
-12.30 -1.56 1.78
-12.29 -1.81 1.78
-12.29 -2.06 1.78
-12.28 -2.31 1.79
-12.28 -2.57 1.79
-12.27 -2.82 1.80
-12.26 -3.08 1.81
-12.25 -3.34 1.81
-12.24 -3.61 1.82
-12.25 -3.88 1.84
-12.26 -4.15 1.85
-12.27 -4.43 1.86
-12.27 -4.71 1.88
-12.25 -4.99 1.89
-12.21 -5.26 1.90
-12.18 -5.54 1.91
-12.13 -5.82 1.92
-12.09 -6.10 1.93
-12.04 -6.38 1.94
-11.99 -6.66 1.95
-11.94 -6.95 1.97
-11.89 -7.25 1.98
-11.84 -7.55 2.00
-11.79 -7.86 2.01
-11.76 -8.18 2.03
-11.74 -8.52 2.06
-11.71 -8.86 2.08
-11.64 -9.18 2.10
-11.56 -9.50 2.12
-11.48 -9.83 2.14
-11.40 -10.16 2.16
-11.32 -10.50 2.19
-11.27 -10.89 2.22
-11.19 -11.25 2.25
-11.10 -11.62 2.27
-11.01 -12.00 2.30
-10.91 -12.38 2.33
-10.72 -12.67 2.35
-10.53 -12.96 2.36
-10.36 -13.29 2.38
-10.18 -13.61 2.40
-9.99 -13.93 2.42
-9.60 -13.98 2.39
-9.32 -14.17 2.39
-9.04 -14.36 2.39
-8.75 -14.54 2.39
-8.46 -14.72 2.39
-8.17 -14.90 2.39
-7.87 -15.06 2.39
-7.57 -15.22 2.39
-7.26 -15.38 2.39
-6.96 -15.53 2.39
-6.64 -15.67 2.39
-6.33 -15.80 2.39
-6.02 -15.93 2.39
-5.84 -16.47 2.45
-5.61 -16.87 2.49
-5.27 -16.99 2.49
-4.93 -17.09 2.49
-4.59 -17.20 2.49
-4.24 -17.29 2.49
-3.90 -17.38 2.49
-3.55 -17.46 2.49
-3.20 -17.53 2.49
-2.85 -17.60 2.49
-2.49 -17.66 2.49
-2.14 -17.71 2.49
-1.78 -17.75 2.49
-1.43 -17.79 2.49
-1.07 -17.82 2.49
-0.71 -17.84 2.49
-0.35 -17.86 2.49
0.00 -15.34 2.49
0.31 -15.34 2.49
0.62 -15.33 2.49
0.93 -15.32 2.49
1.24 -15.30 2.49
1.54 -15.28 2.49
1.85 -15.25 2.49
2.16 -15.21 2.49
2.36 -14.54 2.39
2.65 -14.49 2.39
2.94 -14.44 2.39
3.23 -14.38 2.39
3.52 -14.31 2.39
2.54 -9.52 1.60
2.54 -8.79 1.48
4.38 -14.08 2.39
4.66 -13.99 2.39
4.89 -13.75 2.37
5.22 -13.80 2.39
5.49 -13.69 2.39
5.77 -13.58 2.39
6.04 -13.46 2.39
6.32 -13.36 2.39
6.58 -13.23 2.39
6.85 -13.10 2.39
7.11 -12.96 2.39
7.37 -12.81 2.39
7.63 -12.66 2.39
7.83 -12.42 2.38
8.08 -12.27 2.38
8.38 -12.18 2.39
8.62 -12.01 2.39
8.86 -11.84 2.39
9.09 -11.66 2.39
9.33 -11.47 2.39
9.55 -11.28 2.39
9.78 -11.09 2.39
10.00 -10.89 2.39
10.22 -10.69 2.39
8.23 -8.27 1.89
8.38 -8.09 1.89
10.84 -10.05 2.39
11.04 -9.83 2.39
11.23 -9.61 2.39
11.42 -9.38 2.39
11.61 -9.15 2.39
11.79 -8.92 2.39
11.97 -8.68 2.39
12.14 -8.43 2.39
12.30 -8.19 2.39
12.46 -7.94 2.39
12.62 -7.69 2.39
12.77 -7.43 2.39
12.91 -7.17 2.39
13.05 -6.91 2.39
13.19 -6.65 2.39
13.32 -6.38 2.39
13.44 -6.11 2.39
13.56 -5.84 2.39
13.24 -5.39 2.32
13.69 -5.26 2.38
13.88 -5.01 2.39
13.97 -4.73 2.39
14.06 -4.45 2.39
14.15 -4.16 2.39
14.23 -3.88 2.39
14.30 -3.59 2.39
14.36 -3.30 2.39
14.42 -3.01 2.39
14.48 -2.72 2.39
14.53 -2.43 2.39
13.21 -1.94 2.17
13.21 -1.67 2.16
14.64 -1.55 2.39
14.66 -1.26 2.39
14.68 -0.96 2.39
14.69 -0.67 2.39
14.70 -0.37 2.39
14.70 -0.08 2.39
14.70 0.22 2.39
14.69 0.51 2.39
14.67 0.81 2.39
14.64 1.10 2.39
14.62 1.39 2.39
14.58 1.69 2.39
14.54 1.98 2.39
14.49 2.27 2.39
14.44 2.56 2.39
13.19 2.61 2.20
11.96 2.62 2.00
11.96 2.87 2.01
11.96 3.12 2.02
11.96 3.38 2.03
12.02 3.66 2.05
11.96 3.91 2.06
11.96 4.17 2.07
11.96 4.44 2.09
11.96 4.72 2.10
11.95 5.00 2.12
11.95 5.28 2.14
11.95 5.57 2.16
11.95 5.87 2.18
11.95 6.17 2.21
11.55 6.25 2.15
11.42 6.48 2.15
11.28 6.71 2.15
10.42 6.49 2.02
10.99 7.15 2.15
10.84 7.37 2.15
10.69 7.58 2.15
10.53 7.79 2.15
10.37 8.00 2.15
10.26 8.25 2.17
10.26 8.59 2.20
10.95 9.55 2.39
10.76 9.77 2.39
10.55 9.98 2.39
10.35 10.18 2.39
10.14 10.39 2.39
9.92 10.58 2.39
9.71 10.78 2.39
9.49 10.97 2.39
9.26 11.15 2.39
9.03 11.33 2.39
8.80 11.51 2.39
8.56 11.68 2.39
8.32 11.84 2.39
8.08 12.00 2.39
7.84 12.16 2.39
7.59 12.31 2.39
7.34 12.46 2.39
7.08 12.60 2.39
6.83 12.73 2.39
6.57 12.86 2.39
6.31 12.99 2.39
6.04 13.09 2.39
5.77 13.21 2.39
5.50 13.32 2.39
5.23 13.42 2.39
4.96 13.52 2.39
4.69 13.61 2.39
4.41 13.70 2.39
4.13 13.78 2.39
3.86 13.86 2.39
3.58 13.93 2.39
3.29 13.99 2.39
3.01 14.05 2.39
2.73 14.10 2.39
2.44 14.15 2.39
2.16 14.19 2.39
1.95 14.85 2.49
1.65 14.88 2.49
1.36 14.90 2.49
1.06 14.92 2.49
0.76 14.94 2.49
0.45 14.95 2.49
0.15 14.95 2.49
-0.15 14.95 2.49
-0.45 14.94 2.49
-0.75 14.92 2.49
-1.04 14.90 2.49
-1.34 14.87 2.49
-1.64 14.84 2.49
-1.94 14.80 2.49
-2.23 14.76 2.49
-2.53 14.71 2.49
-2.82 14.65 2.49
-3.12 14.59 2.49
-3.41 14.52 2.49
-3.70 14.45 2.49
-3.99 14.37 2.49
-4.28 14.28 2.49
-4.56 14.19 2.49
-4.84 14.09 2.49
-5.13 13.99 2.49
-5.40 13.89 2.49
-5.68 13.77 2.49
-5.92 13.56 2.48
-5.97 12.97 2.39
-6.23 12.85 2.39
-6.49 12.72 2.39
-6.74 12.58 2.39
-6.99 12.44 2.39
-7.24 12.30 2.39
-7.48 12.15 2.39
-7.73 12.00 2.39
-7.96 11.84 2.39
-8.20 11.68 2.39
-8.43 11.51 2.39
-8.66 11.34 2.39
-8.89 11.16 2.39
-9.11 10.98 2.39
-9.33 10.80 2.39
-9.54 10.61 2.39
-9.75 10.41 2.39
-10.38 10.65 2.49
-10.56 10.40 2.48
-10.74 10.16 2.48
-10.91 9.92 2.47
-11.05 9.64 2.46
-11.15 9.35 2.44
-11.27 9.07 2.42
-11.39 8.79 2.41
-11.50 8.51 2.40
-11.61 8.24 2.39
-11.75 7.99 2.38
-11.91 7.75 2.38
-12.07 7.52 2.38
-12.19 7.25 2.37
-12.25 6.96 2.36
-12.32 6.68 2.35
-12.42 6.41 2.34
-12.52 6.15 2.33
-12.62 5.88 2.33
-12.71 5.62 2.33
-12.80 5.36 2.32
-12.76 5.04 2.30
-12.60 4.69 2.25
-12.44 4.34 2.20
-12.28 4.01 2.16
-12.13 3.70 2.12
-11.98 3.39 2.08
-11.95 3.12 2.06
-11.96 2.87 2.05
-11.96 2.62 2.05
-11.96 2.37 2.04
-11.94 2.12 2.03
-11.92 1.87 2.01
-11.89 1.62 2.00
-11.87 1.37 1.99
-11.85 1.13 1.99
-11.84 0.89 1.98
-11.83 0.65 1.97
-11.81 0.41 1.97
-11.80 0.17 1.97
-11.80 -0.06 1.97
-11.81 -0.30 1.97
-11.81 -0.54 1.97
-11.82 -0.78 1.97
-11.84 -1.02 1.98
-11.85 -1.26 1.98
-11.87 -1.50 1.99
-11.89 -1.75 2.00
-11.89 -1.99 2.00
-11.88 -2.24 2.01
-11.87 -2.48 2.02
-11.86 -2.73 2.02
-11.85 -2.98 2.03
-11.84 -3.23 2.04
-11.83 -3.48 2.05
-11.81 -3.74 2.06
-11.80 -4.00 2.07
-11.80 -4.26 2.08
-11.80 -4.53 2.10
-11.80 -4.81 2.11
-11.77 -5.07 2.12
-11.73 -5.34 2.13
-11.69 -5.60 2.15
-11.65 -5.87 2.16
-11.60 -6.15 2.17
-11.55 -6.42 2.19
-11.50 -6.70 2.20
-11.45 -6.98 2.22
-11.40 -7.27 2.23
-11.35 -7.56 2.25
-11.29 -7.85 2.27
-11.24 -8.15 2.29
-11.18 -8.46 2.31
-11.13 -8.78 2.34
-11.06 -9.09 2.36
-10.98 -9.40 2.38
-10.88 -9.70 2.40
-10.72 -9.95 2.41
-10.55 -10.20 2.42
-10.39 -10.45 2.42
-10.22 -10.70 2.43
-9.83 -10.71 2.39
-9.61 -10.91 2.39
-9.40 -11.11 2.39
-9.17 -11.30 2.39
-8.95 -11.48 2.39
-8.72 -11.66 2.39
-8.49 -11.84 2.39
-8.25 -12.01 2.39
-8.01 -12.18 2.39
-7.77 -12.34 2.39
-7.52 -12.50 2.39
-7.27 -12.65 2.39
-7.02 -12.80 2.39
-6.76 -12.94 2.39
-6.50 -13.08 2.39
-6.24 -13.21 2.39
-5.97 -13.34 2.39
-5.85 -13.79 2.45
-5.67 -14.16 2.49
-5.39 -14.28 2.49
-5.10 -14.39 2.49
-4.82 -14.49 2.49
-4.52 -14.59 2.49
-4.23 -14.68 2.49
-3.94 -14.77 2.49
-3.64 -14.85 2.49
-3.34 -14.92 2.49
-3.04 -14.99 2.49
-2.74 -15.05 2.49
-2.44 -15.11 2.49
-2.14 -15.16 2.49
-1.83 -15.20 2.49
-1.53 -15.24 2.49
-1.22 -15.27 2.49
-0.92 -15.30 2.49
-0.61 -15.32 2.49
-0.30 -15.33 2.49
0.00 -13.42 2.49
0.27 -13.42 2.49
0.54 -13.42 2.49
0.81 -13.41 2.49
1.08 -13.39 2.49
1.35 -13.37 2.49
1.62 -13.34 2.49
1.89 -13.31 2.49
2.15 -13.27 2.49
2.32 -12.68 2.39
2.57 -12.63 2.39
2.83 -12.58 2.39
3.08 -12.52 2.39
2.55 -9.55 1.83
2.54 -8.78 1.70
3.83 -12.32 2.39
4.08 -12.24 2.39
4.32 -12.16 2.39
4.56 -12.07 2.39
4.81 -11.98 2.39
5.05 -11.88 2.39
5.28 -11.78 2.39
5.52 -11.67 2.39
5.75 -11.56 2.39
5.98 -11.44 2.39
4.90 -8.92 1.89
5.08 -8.83 1.89
6.67 -11.08 2.39
6.89 -10.94 2.39
7.11 -10.80 2.39
7.33 -10.66 2.39
7.54 -10.51 2.39
7.75 -10.35 2.39
7.95 -10.20 2.39
8.16 -10.04 2.39
8.36 -9.87 2.39
8.55 -9.70 2.39
8.75 -9.53 2.39
8.94 -9.35 2.39
9.12 -9.17 2.39
9.30 -8.98 2.39
9.48 -8.79 2.39
9.66 -8.60 2.39
9.83 -8.41 2.39
9.99 -8.21 2.39
10.15 -8.00 2.39
10.31 -7.80 2.39
10.47 -7.59 2.39
10.62 -7.38 2.39
10.76 -7.16 2.39
10.90 -6.94 2.39
11.04 -6.72 2.39
11.17 -6.50 2.39
11.30 -6.27 2.39
11.42 -6.05 2.39
11.54 -5.82 2.39
11.65 -5.58 2.39
11.76 -5.35 2.39
11.86 -5.11 2.39
11.96 -4.87 2.39
12.05 -4.63 2.39
12.14 -4.38 2.39
12.23 -4.14 2.39
12.30 -3.89 2.39
12.38 -3.64 2.39
12.45 -3.39 2.39
12.51 -3.14 2.39
12.57 -2.89 2.39
12.62 -2.64 2.39
12.67 -2.38 2.39
12.71 -2.13 2.39
12.75 -1.87 2.39
12.78 -1.62 2.39
12.81 -1.36 2.39
12.83 -1.10 2.39
12.85 -0.84 2.39
12.86 -0.59 2.39
12.87 -0.33 2.39
12.87 -0.07 2.39
12.86 0.19 2.39
12.85 0.45 2.39
12.84 0.70 2.39
12.82 0.96 2.39
12.79 1.22 2.39
12.76 1.47 2.39
12.73 1.73 2.39
12.69 1.98 2.39
12.64 2.24 2.39
12.59 2.49 2.39
11.96 2.62 2.28
11.96 2.87 2.29
11.96 3.12 2.31
11.96 3.38 2.32
11.96 3.64 2.33
11.96 3.91 2.35
11.96 4.17 2.37
11.96 4.44 2.38
11.91 4.70 2.39
11.81 4.94 2.39
11.71 5.17 2.39
11.60 5.40 2.39
11.48 5.63 2.39
11.36 5.86 2.39
11.24 6.09 2.39
10.97 6.23 2.36
10.47 6.23 2.28
10.26 6.39 2.27
10.26 6.68 2.30
10.26 6.97 2.33
10.26 7.28 2.36
10.25 7.58 2.39
10.10 7.79 2.39
9.94 7.99 2.39
9.77 8.18 2.39
9.60 8.37 2.39
9.43 8.56 2.39
9.25 8.75 2.39
9.07 8.93 2.39
8.89 9.10 2.39
8.70 9.28 2.39
8.51 9.45 2.39
8.32 9.61 2.39
8.12 9.78 2.39
7.92 9.93 2.39
7.72 10.09 2.39
7.51 10.24 2.39
7.30 10.38 2.39
7.09 10.52 2.39
6.87 10.66 2.39
6.66 10.79 2.39
6.44 10.92 2.39
6.21 11.05 2.39
5.98 11.15 2.39
5.76 11.27 2.39
5.53 11.38 2.39
5.30 11.48 2.39
5.06 11.58 2.39
4.83 11.68 2.39
4.59 11.77 2.39
4.35 11.86 2.39
4.11 11.94 2.39
3.87 12.02 2.39
3.63 12.09 2.39
3.38 12.16 2.39
3.14 12.22 2.39
2.89 12.28 2.39
2.64 12.33 2.39
2.39 12.38 2.39
2.15 12.42 2.39
1.98 12.99 2.49
1.71 13.03 2.49
1.45 13.06 2.49
1.19 13.08 2.49
0.93 13.10 2.49
0.66 13.11 2.49
0.40 13.12 2.49
0.14 13.12 2.49
-0.13 13.12 2.49
-0.39 13.11 2.49
-0.65 13.10 2.49
-0.92 13.08 2.49
-1.18 13.06 2.49
-1.44 13.03 2.49
-1.70 12.99 2.49
-1.96 12.96 2.49
-2.22 12.91 2.49
-2.48 12.86 2.49
-2.74 12.81 2.49
-2.99 12.75 2.49
-3.25 12.68 2.49
-3.50 12.61 2.49
-3.75 12.54 2.49
-4.00 12.46 2.49
-4.25 12.38 2.49
-4.50 12.29 2.49
-4.75 12.19 2.49
-4.99 12.09 2.49
-5.23 11.99 2.49
-5.47 11.88 2.49
-5.71 11.77 2.49
-5.91 11.59 2.48
-5.92 11.06 2.39
-6.14 10.93 2.39
-6.36 10.80 2.39
-6.57 10.67 2.39
-6.78 10.54 2.39
-6.99 10.40 2.39
-7.20 10.26 2.39
-7.41 10.11 2.39
-7.61 9.96 2.39
-7.81 9.80 2.39
-8.00 9.64 2.39
-8.19 9.48 2.39
-8.38 9.31 2.39
-8.57 9.14 2.39
-8.75 8.97 2.39
-8.93 8.79 2.39
-9.10 8.61 2.39
-9.27 8.43 2.39
-9.44 8.24 2.39
-9.60 8.05 2.39
-9.77 7.85 2.39
-10.61 8.19 2.56
-10.78 7.98 2.56
-10.95 7.77 2.56
-11.06 7.52 2.55
-11.17 7.27 2.54
-11.24 7.00 2.53
-11.31 6.73 2.51
-11.38 6.47 2.50
-11.44 6.20 2.48
-11.50 5.94 2.47
-11.59 5.69 2.46
-11.68 5.45 2.46
-11.76 5.20 2.45
-11.83 4.95 2.44
-11.90 4.70 2.44
-11.96 4.45 2.43
-11.90 4.15 2.40
-11.76 3.84 2.36
-11.62 3.54 2.31
-11.52 3.26 2.28
-11.53 3.01 2.27
-11.54 2.77 2.26
-11.54 2.53 2.25
-11.54 2.29 2.24
-11.55 2.05 2.23
-11.54 1.81 2.22
-11.52 1.57 2.21
-11.49 1.33 2.20
-11.48 1.09 2.19
-11.47 0.86 2.19
-11.46 0.63 2.18
-11.45 0.40 2.18
-11.43 0.17 2.17
-11.42 -0.06 2.17
-11.40 -0.29 2.17
-11.41 -0.52 2.17
-11.41 -0.75 2.17
-11.43 -0.98 2.18
-11.45 -1.22 2.18
-11.46 -1.45 2.19
-11.47 -1.69 2.20
-11.49 -1.93 2.21
-11.50 -2.17 2.22
-11.49 -2.40 2.22
-11.48 -2.64 2.23
-11.47 -2.88 2.24
-11.46 -3.13 2.25
-11.44 -3.37 2.26
-11.42 -3.62 2.27
-11.41 -3.86 2.28
-11.39 -4.11 2.29
-11.37 -4.37 2.30
-11.36 -4.63 2.32
-11.35 -4.89 2.33
-11.31 -5.15 2.35
-11.27 -5.40 2.36
-11.22 -5.66 2.37
-11.18 -5.92 2.39
-11.13 -6.19 2.40
-11.08 -6.46 2.42
-11.03 -6.73 2.44
-10.98 -7.00 2.45
-10.93 -7.28 2.47
-10.80 -7.51 2.48
-10.66 -7.74 2.48
-10.52 -7.97 2.48
-10.38 -8.19 2.49
-9.82 -8.07 2.39
-9.66 -8.27 2.39
-9.49 -8.47 2.39
-9.32 -8.66 2.39
-9.15 -8.85 2.39
-8.98 -9.03 2.39
-8.79 -9.21 2.39
-8.61 -9.39 2.39
-8.42 -9.56 2.39
-8.23 -9.73 2.39
-8.04 -9.90 2.39
-7.84 -10.06 2.39
-7.64 -10.22 2.39
-7.43 -10.37 2.39
-7.23 -10.52 2.39
-7.02 -10.67 2.39
-6.80 -10.81 2.39
-6.59 -10.95 2.39
-6.37 -11.08 2.39
-6.14 -11.21 2.39
-5.92 -11.34 2.39
-5.85 -11.78 2.46
-5.70 -12.07 2.49
-5.46 -12.19 2.49
-5.21 -12.30 2.49
-4.97 -12.40 2.49
-4.72 -12.50 2.49
-4.47 -12.60 2.49
-4.22 -12.69 2.49
-3.96 -12.77 2.49
-3.70 -12.85 2.49
-3.45 -12.93 2.49
-3.19 -13.00 2.49
-2.93 -13.06 2.49
-2.66 -13.12 2.49
-2.40 -13.18 2.49
-2.14 -13.23 2.49
-1.87 -13.27 2.49
-1.61 -13.31 2.49
-1.34 -13.34 2.49
-1.07 -13.37 2.49
-0.80 -13.39 2.49
-0.53 -13.41 2.49
-0.26 -13.42 2.49
0.00 -11.92 2.49
0.24 -11.92 2.49
0.48 -11.92 2.49
0.72 -11.91 2.49
0.96 -11.89 2.49
1.20 -11.87 2.49
1.44 -11.85 2.49
1.68 -11.82 2.49
1.91 -11.78 2.49
2.15 -11.74 2.49
2.29 -11.22 2.39
2.51 -11.17 2.39
2.73 -11.12 2.39
2.96 -11.06 2.39
2.54 -8.78 1.91
3.40 -10.94 2.39
3.62 -10.87 2.39
3.84 -10.80 2.39
4.05 -10.72 2.39
4.27 -10.64 2.39
4.48 -10.55 2.39
4.69 -10.46 2.39
4.90 -10.36 2.39
5.11 -10.26 2.39
5.31 -10.16 2.39
5.52 -10.05 2.39
5.66 -9.83 2.37
5.85 -9.72 2.37
6.11 -9.70 2.39
6.31 -9.59 2.39
6.50 -9.46 2.39
6.69 -9.33 2.39
6.88 -9.19 2.39
7.06 -9.05 2.39
7.24 -8.91 2.39
7.42 -8.76 2.39
7.59 -8.61 2.39
7.77 -8.46 2.39
7.93 -8.30 2.39
8.10 -8.14 2.39
8.26 -7.98 2.39
8.42 -7.81 2.39
8.57 -7.64 2.39
8.72 -7.46 2.39
8.87 -7.29 2.39
9.02 -7.11 2.39
9.16 -6.92 2.39
9.29 -6.74 2.39
9.42 -6.55 2.39
9.55 -6.36 2.39
9.68 -6.17 2.39
9.80 -5.97 2.39
9.92 -5.77 2.39
10.03 -5.57 2.39
10.14 -5.37 2.39
10.24 -5.16 2.39
8.15 -3.90 1.89
8.22 -3.74 1.89
8.29 -3.57 1.89
10.62 -4.32 2.39
10.70 -4.11 2.39
10.78 -3.89 2.39
10.86 -3.68 2.39
10.93 -3.46 2.39
10.99 -3.24 2.39
11.05 -3.01 2.39
11.11 -2.79 2.39
11.16 -2.57 2.39
11.21 -2.34 2.39
11.25 -2.12 2.39
11.29 -1.89 2.39
11.32 -1.66 2.39
11.35 -1.44 2.39
11.38 -1.21 2.39
11.40 -0.98 2.39
11.41 -0.75 2.39
11.42 -0.52 2.39
11.43 -0.29 2.39
11.43 -0.06 2.39
11.43 0.17 2.39
11.42 0.40 2.39
11.41 0.63 2.39
11.39 0.85 2.39
11.37 1.08 2.39
11.34 1.31 2.39
11.31 1.54 2.39
11.27 1.76 2.39
11.23 1.99 2.39
11.19 2.21 2.39
11.14 2.44 2.39
11.09 2.66 2.39
11.03 2.88 2.39
10.96 3.10 2.39
10.90 3.32 2.39
10.83 3.54 2.39
10.75 3.75 2.39
10.67 3.96 2.39
10.59 4.18 2.39
10.50 4.39 2.39
10.40 4.60 2.39
10.31 4.80 2.39
10.21 5.01 2.39
10.10 5.21 2.39
9.99 5.41 2.39
9.88 5.61 2.39
9.76 5.80 2.39
9.64 6.00 2.39
9.51 6.19 2.39
9.39 6.37 2.39
9.25 6.56 2.39
9.12 6.74 2.39
8.98 6.92 2.39
8.83 7.10 2.39
8.69 7.27 2.39
8.54 7.44 2.39
8.38 7.61 2.39
8.23 7.78 2.39
8.07 7.94 2.39
7.90 8.10 2.39
7.74 8.25 2.39
7.57 8.40 2.39
7.40 8.55 2.39
7.22 8.69 2.39
7.04 8.84 2.39
6.86 8.97 2.39
6.68 9.11 2.39
6.49 9.24 2.39
6.31 9.36 2.39
6.11 9.47 2.39
5.92 9.59 2.39
5.72 9.71 2.39
5.52 9.82 2.39
5.32 9.92 2.39
5.12 10.02 2.39
4.92 10.12 2.39
4.71 10.22 2.39
4.51 10.31 2.39
4.30 10.39 2.39
4.09 10.47 2.39
3.87 10.55 2.39
3.66 10.63 2.39
3.45 10.69 2.39
3.23 10.76 2.39
3.01 10.82 2.39
2.79 10.87 2.39
2.57 10.93 2.39
2.35 10.97 2.39
2.14 11.08 2.41
1.99 11.53 2.49
1.76 11.57 2.49
1.53 11.60 2.49
1.29 11.62 2.49
1.06 11.64 2.49
0.83 11.66 2.49
0.59 11.67 2.49
0.36 11.68 2.49
0.12 11.68 2.49
-0.11 11.68 2.49
-0.35 11.67 2.49
-0.58 11.66 2.49
-0.82 11.65 2.49
-1.05 11.63 2.49
-1.28 11.60 2.49
-1.51 11.57 2.49
-1.75 11.54 2.49
-1.98 11.50 2.49
-2.21 11.45 2.49
-2.44 11.40 2.49
-2.66 11.35 2.49
-2.89 11.29 2.49
-3.12 11.23 2.49
-3.34 11.17 2.49
-3.57 11.10 2.49
-3.79 11.02 2.49
-4.01 10.94 2.49
-4.23 10.86 2.49
-4.44 10.77 2.49
-4.66 10.68 2.49
-4.87 10.58 2.49
-5.08 10.48 2.49
-5.29 10.37 2.49
-5.50 10.27 2.49
-5.70 10.15 2.49
-5.90 10.04 2.49
-5.91 9.60 2.42
-6.04 9.38 2.39
-6.23 9.26 2.39
-6.41 9.13 2.39
-6.60 9.00 2.39
-6.77 8.87 2.39
-6.95 8.73 2.39
-7.12 8.59 2.39
-7.30 8.44 2.39
-7.46 8.30 2.39
-7.63 8.14 2.39
-7.79 7.99 2.39
-7.95 7.83 2.39
-8.11 7.67 2.39
-8.26 7.51 2.39
-8.41 7.34 2.39
-8.55 7.17 2.39
-8.70 7.00 2.39
-8.84 6.82 2.39
-8.97 6.64 2.39
-9.10 6.46 2.39
-9.23 6.28 2.39
-9.36 6.09 2.39
-9.48 5.90 2.39
-9.60 5.71 2.39
-9.71 5.52 2.39
-9.82 5.32 2.39
-10.64 5.49 2.56
-10.72 5.26 2.56
-10.81 5.04 2.55
-10.91 4.82 2.55
-10.99 4.60 2.55
-11.05 4.37 2.54
-11.12 4.13 2.54
-11.17 3.90 2.53
-11.23 3.67 2.53
-11.15 3.40 2.49
-11.13 3.15 2.47
-11.13 2.91 2.46
-11.14 2.67 2.45
-11.15 2.44 2.44
-11.15 2.21 2.43
-11.16 1.98 2.42
-11.16 1.75 2.41
-11.16 1.52 2.40
-11.14 1.29 2.39
-11.13 1.06 2.39
-11.12 0.83 2.38
-11.11 0.61 2.37
-11.10 0.39 2.37
-11.09 0.16 2.37
-11.07 -0.06 2.36
-11.06 -0.28 2.36
-11.04 -0.50 2.36
-11.03 -0.73 2.36
-11.05 -0.95 2.36
-11.06 -1.18 2.37
-11.07 -1.40 2.38
-11.09 -1.63 2.39
-11.10 -1.86 2.40
-11.11 -2.09 2.41
-11.11 -2.33 2.42
-11.12 -2.56 2.43
-11.11 -2.79 2.44
-11.10 -3.03 2.45
-11.08 -3.26 2.46
-11.06 -3.50 2.47
-11.04 -3.74 2.48
-11.02 -3.98 2.49
-11.00 -4.23 2.50
-10.97 -4.47 2.52
-10.95 -4.72 2.53
-10.89 -4.96 2.54
-10.81 -5.18 2.54
-10.72 -5.41 2.55
-10.63 -5.63 2.55
-9.86 -5.48 2.39
-9.75 -5.68 2.39
-9.63 -5.87 2.39
-9.52 -6.07 2.39
-9.39 -6.26 2.39
-9.27 -6.45 2.39
-9.14 -6.64 2.39
-9.01 -6.82 2.39
-8.87 -7.00 2.39
-8.73 -7.18 2.39
-8.59 -7.36 2.39
-8.44 -7.53 2.39
-8.29 -7.70 2.39
-8.14 -7.87 2.39
-7.98 -8.03 2.39
-7.82 -8.19 2.39
-7.66 -8.35 2.39
-7.49 -8.50 2.39
-7.32 -8.65 2.39
-7.14 -8.80 2.39
-6.97 -8.94 2.39
-6.79 -9.08 2.39
-6.61 -9.22 2.39
-6.42 -9.36 2.39
-6.24 -9.48 2.39
-6.05 -9.61 2.39
-5.87 -9.76 2.40
-5.86 -10.20 2.48
-5.70 -10.39 2.49
-5.49 -10.51 2.49
-5.28 -10.62 2.49
-5.06 -10.73 2.49
-4.85 -10.83 2.49
-4.63 -10.93 2.49
-4.41 -11.02 2.49
-4.19 -11.11 2.49
-3.97 -11.19 2.49
-3.74 -11.27 2.49
-3.52 -11.35 2.49
-3.29 -11.42 2.49
-3.06 -11.49 2.49
-2.83 -11.55 2.49
-2.60 -11.61 2.49
-2.37 -11.66 2.49
-2.13 -11.71 2.49
-1.90 -11.75 2.49
-1.66 -11.79 2.49
-1.43 -11.82 2.49
-1.19 -11.85 2.49
-0.95 -11.87 2.49
-0.71 -11.89 2.49
-0.47 -11.91 2.49
-0.23 -11.92 2.49
0.00 -10.71 2.49
0.22 -10.71 2.49
0.43 -10.71 2.49
0.65 -10.70 2.49
0.86 -10.68 2.49
1.08 -10.67 2.49
1.29 -10.64 2.49
1.51 -10.62 2.49
1.72 -10.59 2.49
1.93 -10.55 2.49
2.14 -10.51 2.49
2.26 -10.04 2.39
2.46 -9.99 2.39
2.66 -9.94 2.39
2.54 -8.78 2.12
3.05 -9.83 2.39
3.25 -9.76 2.39
3.45 -9.70 2.39
3.64 -9.63 2.39
3.83 -9.55 2.39
4.03 -9.48 2.39
4.21 -9.39 2.39
4.40 -9.31 2.39
4.59 -9.22 2.39
4.77 -9.13 2.39
4.90 -8.93 2.37
5.08 -8.83 2.37
5.31 -8.82 2.39
5.49 -8.72 2.39
5.66 -8.60 2.39
5.84 -8.49 2.39
6.01 -8.37 2.39
6.17 -8.25 2.39
6.34 -8.13 2.39
6.51 -8.00 2.39
6.66 -7.87 2.39
6.82 -7.74 2.39
6.98 -7.60 2.39
7.13 -7.46 2.39
7.27 -7.31 2.39
7.42 -7.16 2.39
7.56 -7.01 2.39
7.70 -6.86 2.39
7.84 -6.70 2.39
7.97 -6.55 2.39
8.10 -6.38 2.39
8.22 -6.22 2.39
8.35 -6.05 2.39
8.47 -5.88 2.39
8.58 -5.71 2.39
8.69 -5.54 2.39
8.80 -5.36 2.39
8.91 -5.19 2.39
9.01 -5.01 2.39
9.11 -4.82 2.39
9.20 -4.64 2.39
9.29 -4.45 2.39
9.38 -4.27 2.39
7.60 -3.28 1.92
7.63 -3.11 1.92
9.62 -3.69 2.39
9.69 -3.50 2.39
9.75 -3.30 2.39
9.82 -3.11 2.39
9.88 -2.91 2.39
9.93 -2.71 2.39
9.98 -2.51 2.39
10.03 -2.31 2.39
10.07 -2.11 2.39
10.11 -1.90 2.39
10.14 -1.70 2.39
10.17 -1.50 2.39
10.20 -1.29 2.39
10.22 -1.09 2.39
10.24 -0.88 2.39
10.25 -0.67 2.39
10.26 -0.47 2.39
10.27 -0.26 2.39
10.27 -0.06 2.39
10.27 0.15 2.39
10.26 0.36 2.39
10.25 0.56 2.39
10.23 0.77 2.39
10.22 0.97 2.39
10.19 1.18 2.39
10.16 1.38 2.39
10.13 1.58 2.39
10.10 1.79 2.39
10.06 1.99 2.39
10.01 2.19 2.39
9.96 2.39 2.39
9.91 2.59 2.39
9.86 2.79 2.39
9.80 2.98 2.39
9.73 3.18 2.39
9.66 3.37 2.39
9.59 3.56 2.39
9.52 3.75 2.39
9.44 3.94 2.39
9.35 4.13 2.39
9.27 4.32 2.39
9.18 4.50 2.39
9.08 4.68 2.39
8.98 4.86 2.39
8.88 5.04 2.39
8.78 5.22 2.39
8.67 5.39 2.39
8.56 5.56 2.39
8.44 5.73 2.39
8.32 5.90 2.39
8.20 6.06 2.39
8.07 6.22 2.39
7.95 6.38 2.39
7.81 6.54 2.39
7.68 6.69 2.39
7.54 6.85 2.39
7.40 6.99 2.39
7.26 7.14 2.39
7.11 7.28 2.39
6.96 7.42 2.39
6.81 7.56 2.39
6.65 7.69 2.39
6.50 7.82 2.39
6.34 7.95 2.39
6.17 8.07 2.39
6.00 8.18 2.39
5.84 8.30 2.39
5.67 8.41 2.39
5.50 8.52 2.39
5.32 8.63 2.39
5.15 8.73 2.39
4.97 8.83 2.39
4.79 8.93 2.39
4.61 9.02 2.39
4.43 9.11 2.39
4.24 9.19 2.39
4.05 9.27 2.39
3.87 9.35 2.39
3.68 9.43 2.39
3.49 9.50 2.39
3.29 9.56 2.39
3.10 9.62 2.39
2.91 9.68 2.39
2.71 9.74 2.39
2.51 9.79 2.39
2.33 9.89 2.40
2.14 9.99 2.42
2.00 10.34 2.49
1.79 10.38 2.49
1.58 10.41 2.49
1.37 10.44 2.49
1.16 10.46 2.49
0.95 10.48 2.49
0.74 10.50 2.49
0.53 10.51 2.49
0.32 10.51 2.49
0.11 10.52 2.49
-0.10 10.51 2.49
-0.31 10.51 2.49
-0.52 10.50 2.49
-0.73 10.48 2.49
-0.94 10.47 2.49
-1.15 10.44 2.49
-1.36 10.42 2.49
-1.57 10.39 2.49
-1.78 10.35 2.49
-1.99 10.31 2.49
-2.19 10.27 2.49
-2.40 10.22 2.49
-2.60 10.17 2.49
-2.81 10.11 2.49
-3.01 10.05 2.49
-3.21 9.99 2.49
-3.41 9.92 2.49
-3.61 9.85 2.49
-3.80 9.78 2.49
-4.00 9.70 2.49
-4.19 9.61 2.49
-4.39 9.53 2.49
-4.58 9.44 2.49
-4.76 9.34 2.49
-4.95 9.24 2.49
-5.13 9.14 2.49
-5.32 9.04 2.49
-5.50 8.93 2.49
-5.68 8.82 2.49
-5.85 8.70 2.49
-5.90 8.41 2.44
-5.94 8.11 2.39
-6.11 8.00 2.40
-6.26 7.86 2.39
-6.42 7.73 2.39
-6.57 7.60 2.39
-6.72 7.47 2.39
-6.87 7.33 2.39
-7.02 7.19 2.39
-7.16 7.05 2.39
-7.30 6.91 2.39
-7.44 6.76 2.39
-7.57 6.61 2.39
-7.70 6.45 2.39
-7.83 6.30 2.39
-7.96 6.14 2.39
-8.08 5.98 2.39
-8.20 5.82 2.39
-8.31 5.65 2.39
-8.43 5.48 2.39
-8.53 5.31 2.39
-8.64 5.14 2.39
-8.74 4.97 2.39
-8.84 4.79 2.39
-8.94 4.61 2.39
-9.03 4.43 2.39
-9.12 4.25 2.39
-9.20 4.07 2.39
-9.28 3.88 2.39
-9.36 3.70 2.39
-9.43 3.51 2.39
-9.50 3.32 2.39
-9.57 3.13 2.39
-9.63 2.93 2.39
-9.69 2.74 2.39
-9.74 2.55 2.39
-9.79 2.35 2.39
-9.84 2.15 2.39
-9.88 1.96 2.39
-10.45 1.85 2.52
-10.46 1.64 2.51
-10.47 1.42 2.51
-10.48 1.21 2.50
-10.52 1.00 2.51
-10.53 0.79 2.50
-10.50 0.58 2.49
-10.48 0.36 2.48
-10.45 0.15 2.48
-10.41 -0.06 2.47
-10.38 -0.27 2.46
-10.34 -0.47 2.45
-10.30 -0.68 2.44
-10.30 -0.89 2.45
-10.31 -1.10 2.45
-10.32 -1.31 2.46
-10.34 -1.52 2.47
-10.37 -1.74 2.49
-10.39 -1.96 2.50
-9.90 -2.07 2.39
-9.85 -2.27 2.39
-9.81 -2.47 2.39
-9.76 -2.67 2.39
-9.71 -2.86 2.39
-9.65 -3.06 2.39
-9.59 -3.25 2.39
-9.52 -3.44 2.39
-9.45 -3.63 2.39
-9.38 -3.82 2.39
-9.30 -4.01 2.39
-9.22 -4.20 2.39
-9.14 -4.38 2.39
-9.05 -4.57 2.39
-8.96 -4.75 2.39
-8.87 -4.93 2.39
-8.77 -5.11 2.39
-8.67 -5.29 2.39
-8.56 -5.46 2.39
-8.45 -5.63 2.39
-8.34 -5.80 2.39
-8.22 -5.97 2.39
-8.10 -6.13 2.39
-7.98 -6.30 2.39
-7.85 -6.46 2.39
-7.72 -6.62 2.39
-7.59 -6.77 2.39
-7.46 -6.92 2.39
-7.32 -7.07 2.39
-7.18 -7.22 2.39
-7.03 -7.37 2.39
-6.88 -7.51 2.39
-6.73 -7.65 2.39
-6.58 -7.78 2.39
-6.42 -7.91 2.39
-6.27 -8.04 2.39
-6.10 -8.17 2.39
-5.94 -8.29 2.39
-5.86 -8.54 2.43
-5.85 -8.90 2.49
-5.67 -9.01 2.49
-5.49 -9.13 2.49
-5.31 -9.24 2.49
-5.12 -9.35 2.49
-4.93 -9.45 2.49
-4.74 -9.55 2.49
-4.55 -9.64 2.49
-4.36 -9.74 2.49
-4.16 -9.82 2.49
-3.97 -9.91 2.49
-3.77 -9.99 2.49
-3.57 -10.06 2.49
-3.37 -10.13 2.49
-3.16 -10.20 2.49
-2.96 -10.27 2.49
-2.75 -10.33 2.49
-2.54 -10.38 2.49
-2.34 -10.43 2.49
-2.13 -10.48 2.49
-1.92 -10.52 2.49
-1.71 -10.56 2.49
-1.49 -10.59 2.49
-1.28 -10.62 2.49
-1.07 -10.65 2.49
-0.85 -10.67 2.49
-0.64 -10.69 2.49
-0.42 -10.70 2.49
-0.21 -10.71 2.49
0.00 -9.72 2.49
0.20 -9.72 2.49
0.39 -9.71 2.49
0.59 -9.70 2.49
0.78 -9.69 2.49
0.98 -9.67 2.49
1.17 -9.65 2.49
1.37 -9.63 2.49
1.56 -9.60 2.49
1.75 -9.57 2.49
1.94 -9.53 2.49
2.13 -9.49 2.49
2.23 -9.06 2.39
2.41 -9.01 2.39
2.54 -8.78 2.34
2.77 -8.91 2.39
2.95 -8.85 2.39
3.13 -8.79 2.39
3.30 -8.73 2.39
3.48 -8.66 2.39
3.65 -8.59 2.39
3.82 -8.52 2.39
3.99 -8.44 2.39
4.16 -8.36 2.39
4.33 -8.27 2.39
4.49 -8.19 2.39
4.66 -8.10 2.39
4.82 -8.00 2.39
4.98 -7.90 2.39
5.14 -7.80 2.39
5.29 -7.70 2.39
5.45 -7.59 2.39
5.60 -7.48 2.39
5.75 -7.37 2.39
5.89 -7.25 2.39
6.04 -7.13 2.39
6.18 -7.01 2.39
6.32 -6.89 2.39
6.46 -6.76 2.39
6.60 -6.63 2.39
5.30 -5.12 1.89
5.40 -5.01 1.89
5.50 -4.90 1.89
5.60 -4.79 1.89
7.23 -5.94 2.39
7.34 -5.79 2.39
7.46 -5.64 2.39
7.57 -5.49 2.39
7.68 -5.34 2.39
7.78 -5.18 2.39
7.88 -5.02 2.39
7.98 -4.86 2.39
8.08 -4.70 2.39
8.17 -4.54 2.39
8.26 -4.37 2.39
8.34 -4.21 2.39
8.43 -4.04 2.39
8.50 -3.87 2.39
8.58 -3.70 2.39
7.84 -3.19 2.17
8.72 -3.35 2.39
8.78 -3.17 2.39
8.85 -3.00 2.39
8.90 -2.82 2.39
8.96 -2.64 2.39
9.01 -2.46 2.39
9.05 -2.28 2.39
9.09 -2.09 2.39
9.13 -1.91 2.39
9.17 -1.73 2.39
9.20 -1.54 2.39
9.23 -1.36 2.39
9.25 -1.17 2.39
9.27 -0.99 2.39
9.29 -0.80 2.39
9.30 -0.61 2.39
9.31 -0.43 2.39
9.32 -0.24 2.39
9.32 -0.05 2.39
9.31 0.14 2.39
9.31 0.32 2.39
9.30 0.51 2.39
9.28 0.69 2.39
9.27 0.88 2.39
9.25 1.07 2.39
9.22 1.25 2.39
9.19 1.44 2.39
9.16 1.62 2.39
9.12 1.80 2.39
9.08 1.99 2.39
9.04 2.17 2.39
8.99 2.35 2.39
8.94 2.53 2.39
8.89 2.71 2.39
8.83 2.88 2.39
8.77 3.06 2.39
8.70 3.23 2.39
8.64 3.41 2.39
8.56 3.58 2.39
8.49 3.75 2.39
8.41 3.92 2.39
8.33 4.08 2.39
8.24 4.25 2.39
8.15 4.41 2.39
8.06 4.57 2.39
7.97 4.73 2.39
7.87 4.89 2.39
7.77 5.05 2.39
7.66 5.20 2.39
7.55 5.35 2.39
7.44 5.50 2.39
7.33 5.65 2.39
7.21 5.79 2.39
7.09 5.94 2.39
6.97 6.08 2.39
6.85 6.21 2.39
6.72 6.35 2.39
6.59 6.48 2.39
6.46 6.61 2.39
6.32 6.74 2.39
6.18 6.86 2.39
6.03 6.97 2.39
5.89 7.09 2.39
5.75 7.21 2.39
5.60 7.32 2.39
5.45 7.43 2.39
5.30 7.53 2.39
5.15 7.64 2.39
4.99 7.74 2.39
4.83 7.84 2.39
4.67 7.93 2.39
4.51 8.02 2.39
4.35 8.11 2.39
4.19 8.19 2.39
4.02 8.27 2.39
3.85 8.35 2.39
3.68 8.42 2.39
3.51 8.49 2.39
3.34 8.56 2.39
3.17 8.62 2.39
2.99 8.68 2.39
2.82 8.74 2.39
2.64 8.79 2.39
2.46 8.84 2.39
2.28 8.89 2.39
2.14 9.09 2.43
2.01 9.36 2.49
1.82 9.39 2.49
1.63 9.43 2.49
1.44 9.46 2.49
1.25 9.48 2.49
1.06 9.50 2.49
0.87 9.52 2.49
0.68 9.53 2.49
0.48 9.54 2.49
0.29 9.55 2.49
0.10 9.55 2.49
-0.09 9.55 2.49
-0.28 9.55 2.49
-0.47 9.54 2.49
-0.67 9.52 2.49
-0.86 9.51 2.49
-1.05 9.49 2.49
-1.24 9.46 2.49
-1.43 9.44 2.49
-1.62 9.40 2.49
-1.80 9.37 2.49
-1.99 9.33 2.49
-2.18 9.29 2.49
-2.37 9.24 2.49
-2.55 9.19 2.49
-2.73 9.13 2.49
-2.92 9.08 2.49
-3.10 9.02 2.49
-3.28 8.95 2.49
-3.46 8.88 2.49
-3.63 8.81 2.49
-3.81 8.74 2.49
-3.98 8.66 2.49
-4.16 8.57 2.49
-4.33 8.49 2.49
-4.50 8.40 2.49
-4.67 8.31 2.49
-4.83 8.21 2.49
-4.99 8.11 2.49
-5.16 8.01 2.49
-5.32 7.90 2.49
-5.47 7.80 2.49
-5.63 7.68 2.49
-5.78 7.57 2.49
-5.90 7.41 2.48
-5.90 7.12 2.42
-5.97 6.91 2.39
-6.11 6.79 2.39
-6.24 6.66 2.39
-6.37 6.54 2.39
-6.51 6.41 2.39
-6.63 6.28 2.39
-6.76 6.14 2.39
-6.88 6.00 2.39
-7.00 5.87 2.39
-7.12 5.72 2.39
-7.23 5.58 2.39
-7.34 5.43 2.39
-7.45 5.29 2.39
-7.55 5.13 2.39
-7.66 4.98 2.39
-7.75 4.83 2.39
-7.85 4.67 2.39
-7.94 4.51 2.39
-8.03 4.35 2.39
-8.12 4.19 2.39
-8.20 4.03 2.39
-8.28 3.86 2.39
-8.36 3.70 2.39
-8.43 3.53 2.39
-8.50 3.36 2.39
-8.57 3.19 2.39
-8.63 3.01 2.39
-8.69 2.84 2.39
-8.75 2.67 2.39
-8.80 2.49 2.39
-8.85 2.31 2.39
-8.90 2.13 2.39
-8.94 1.96 2.39
-8.98 1.78 2.39
-9.01 1.60 2.39
-9.04 1.41 2.39
-9.07 1.23 2.39
-9.10 1.05 2.39
-9.12 0.87 2.39
-9.13 0.68 2.39
-9.15 0.50 2.39
-9.16 0.32 2.39
-9.16 0.13 2.39
-9.17 -0.05 2.39
-9.16 -0.24 2.39
-9.16 -0.42 2.39
-9.15 -0.60 2.39
-9.14 -0.79 2.39
-9.12 -0.97 2.39
-9.10 -1.15 2.39
-9.08 -1.34 2.39
-9.05 -1.52 2.39
-9.02 -1.70 2.39
-8.99 -1.88 2.39
-8.95 -2.06 2.39
-8.91 -2.24 2.39
-8.86 -2.42 2.39
-8.81 -2.60 2.39
-8.76 -2.78 2.39
-8.71 -2.95 2.39
-8.65 -3.13 2.39
-8.58 -3.30 2.39
-8.52 -3.47 2.39
-8.45 -3.64 2.39
-8.38 -3.81 2.39
-8.30 -3.98 2.39
-8.22 -4.15 2.39
-8.14 -4.31 2.39
-8.05 -4.48 2.39
-7.96 -4.64 2.39
-7.87 -4.80 2.39
-7.77 -4.96 2.39
-7.67 -5.11 2.39
-7.57 -5.27 2.39
-7.46 -5.42 2.39
-7.36 -5.57 2.39
-7.24 -5.72 2.39
-7.13 -5.86 2.39
-7.01 -6.01 2.39
-6.89 -6.15 2.39
-6.77 -6.29 2.39
-6.64 -6.42 2.39
-6.51 -6.56 2.39
-6.38 -6.69 2.39
-6.25 -6.81 2.39
-6.11 -6.94 2.39
-5.97 -7.06 2.39
-5.87 -7.24 2.41
-5.86 -7.53 2.47
-5.78 -7.73 2.49
-5.62 -7.85 2.49
-5.47 -7.96 2.49
-5.31 -8.07 2.49
-5.14 -8.18 2.49
-4.98 -8.28 2.49
-4.81 -8.38 2.49
-4.65 -8.48 2.49
-4.48 -8.57 2.49
-4.30 -8.66 2.49
-4.13 -8.75 2.49
-3.95 -8.83 2.49
-3.78 -8.91 2.49
-3.60 -8.99 2.49
-3.42 -9.06 2.49
-3.24 -9.13 2.49
-3.05 -9.19 2.49
-2.87 -9.26 2.49
-2.68 -9.31 2.49
-2.50 -9.37 2.49
-2.31 -9.42 2.49
-2.12 -9.46 2.49
-1.93 -9.51 2.49
-1.74 -9.54 2.49
-1.55 -9.58 2.49
-1.35 -9.61 2.49
-1.16 -9.64 2.49
-0.97 -9.66 2.49
-0.77 -9.68 2.49
-0.58 -9.69 2.49
-0.38 -9.71 2.49
-0.19 -9.71 2.49
0.00 -8.88 2.49
0.18 -8.88 2.49
0.36 -8.88 2.49
0.54 -8.87 2.49
0.72 -8.86 2.49
0.89 -8.84 2.49
1.07 -8.82 2.49
1.25 -8.80 2.49
1.43 -8.77 2.49
1.60 -8.75 2.49
1.78 -8.71 2.49
1.95 -8.68 2.49
2.12 -8.64 2.49
2.20 -8.24 2.39
2.37 -8.22 2.40
2.53 -8.14 2.39
2.70 -8.09 2.39
2.86 -8.04 2.39
3.02 -7.98 2.39
3.18 -7.92 2.39
3.34 -7.85 2.39
3.49 -7.78 2.39
3.65 -7.71 2.39
3.80 -7.64 2.39
3.96 -7.56 2.39
4.11 -7.48 2.39
4.26 -7.40 2.39
4.40 -7.31 2.39
4.55 -7.22 2.39
4.69 -7.13 2.39
4.84 -7.03 2.39
4.98 -6.94 2.39
5.11 -6.83 2.39
5.25 -6.73 2.39
5.38 -6.62 2.39
5.52 -6.51 2.39
5.65 -6.40 2.39
5.77 -6.29 2.39
5.90 -6.17 2.39
6.02 -6.05 2.39
6.14 -5.93 2.39
5.01 -4.64 1.91
5.07 -4.52 1.90
5.14 -4.40 1.89
6.60 -5.42 2.39
6.71 -5.29 2.39
6.81 -5.15 2.39
6.92 -5.02 2.39
7.02 -4.88 2.39
7.11 -4.73 2.39
7.20 -4.59 2.39
7.29 -4.44 2.39
7.38 -4.30 2.39
7.47 -4.15 2.39
7.55 -4.00 2.39
7.63 -3.84 2.39
7.70 -3.69 2.39
7.77 -3.54 2.39
7.84 -3.38 2.39
7.81 -3.18 2.37
7.93 -3.05 2.38
8.03 -2.90 2.39
8.08 -2.74 2.39
8.14 -2.58 2.39
8.19 -2.41 2.39
8.23 -2.25 2.39
8.27 -2.08 2.39
8.31 -1.91 2.39
8.35 -1.75 2.39
8.38 -1.58 2.39
8.41 -1.41 2.39
8.43 -1.24 2.39
8.46 -1.07 2.39
8.48 -0.90 2.39
8.49 -0.73 2.39
8.50 -0.56 2.39
8.51 -0.39 2.39
8.52 -0.22 2.39
8.52 -0.05 2.39
8.51 0.12 2.39
8.51 0.29 2.39
8.50 0.46 2.39
8.49 0.63 2.39
8.47 0.80 2.39
8.45 0.97 2.39
8.43 1.14 2.39
8.40 1.31 2.39
8.37 1.48 2.39
8.34 1.65 2.39
8.30 1.81 2.39
8.26 1.98 2.39
8.22 2.15 2.39
8.18 2.31 2.39
8.13 2.47 2.39
8.07 2.63 2.39
8.02 2.80 2.39
7.96 2.96 2.39
7.90 3.11 2.39
7.83 3.27 2.39
7.76 3.43 2.39
7.69 3.58 2.39
7.61 3.73 2.39
7.54 3.89 2.39
7.46 4.03 2.39
7.37 4.18 2.39
7.28 4.33 2.39
7.19 4.47 2.39
7.10 4.62 2.39
7.01 4.76 2.39
6.91 4.90 2.39
6.81 5.03 2.39
6.70 5.17 2.39
6.60 5.30 2.39
6.49 5.43 2.39
6.38 5.56 2.39
6.26 5.68 2.39
6.14 5.80 2.39
6.02 5.92 2.39
5.90 6.04 2.39
5.77 6.15 2.39
5.65 6.27 2.39
5.52 6.38 2.39
5.39 6.49 2.39
5.26 6.59 2.39
5.12 6.70 2.39
4.99 6.80 2.39
4.85 6.89 2.39
4.71 6.99 2.39
4.57 7.08 2.39
4.42 7.17 2.39
4.28 7.25 2.39
4.13 7.34 2.39
3.98 7.42 2.39
3.83 7.49 2.39
3.68 7.57 2.39
3.52 7.64 2.39
3.37 7.71 2.39
3.21 7.77 2.39
3.06 7.83 2.39
2.90 7.89 2.39
2.74 7.95 2.39
2.58 8.00 2.39
2.42 8.05 2.39
2.25 8.09 2.39
2.14 8.34 2.45
2.01 8.52 2.49
1.84 8.56 2.49
1.66 8.60 2.49
1.49 8.63 2.49
1.32 8.65 2.49
1.14 8.68 2.49
0.97 8.70 2.49
0.79 8.71 2.49
0.62 8.72 2.49
0.44 8.73 2.49
0.27 8.74 2.49
0.09 8.74 2.49
-0.08 8.74 2.49
-0.26 8.74 2.49
-0.43 8.73 2.49
-0.61 8.72 2.49
-0.78 8.70 2.49
-0.96 8.68 2.49
-1.13 8.66 2.49
-1.31 8.64 2.49
-1.48 8.61 2.49
-1.65 8.57 2.49
-1.82 8.54 2.49
-1.99 8.50 2.49
-2.16 8.46 2.49
-2.33 8.41 2.49
-2.50 8.36 2.49
-2.67 8.31 2.49
-2.84 8.25 2.49
-3.00 8.19 2.49
-3.16 8.13 2.49
-3.33 8.06 2.49
-3.49 8.00 2.49
-3.65 7.92 2.49
-3.81 7.85 2.49
-3.96 7.77 2.49
-4.12 7.69 2.49
-4.27 7.60 2.49
-4.42 7.52 2.49
-4.57 7.43 2.49
-4.72 7.33 2.49
-4.87 7.24 2.49
-5.01 7.14 2.49
-5.15 7.03 2.49
-5.29 6.93 2.49
-5.43 6.82 2.49
-5.57 6.71 2.49
-5.70 6.60 2.49
-5.83 6.48 2.49
-5.90 6.30 2.47
-5.90 6.05 2.42
-5.95 5.87 2.39
-6.07 5.74 2.39
-6.19 5.62 2.39
-6.30 5.50 2.39
-6.41 5.37 2.39
-6.51 5.24 2.39
-6.62 5.11 2.39
-6.72 4.97 2.39
-6.82 4.84 2.39
-6.91 4.70 2.39
-7.01 4.56 2.39
-7.10 4.42 2.39
-7.19 4.28 2.39
-7.27 4.13 2.39
-7.35 3.98 2.39
-7.43 3.84 2.39
-7.51 3.69 2.39
-7.58 3.53 2.39
-7.65 3.38 2.39
-7.72 3.23 2.39
-7.78 3.07 2.39
-7.84 2.92 2.39
-7.90 2.76 2.39
-7.96 2.60 2.39
-8.01 2.44 2.39
-8.06 2.28 2.39
-8.10 2.12 2.39
-8.14 1.95 2.39
-8.18 1.79 2.39
-8.22 1.62 2.39
-8.25 1.46 2.39
-8.28 1.29 2.39
-8.30 1.13 2.39
-8.32 0.96 2.39
-8.34 0.79 2.39
-8.36 0.63 2.39
-8.37 0.46 2.39
-8.38 0.29 2.39
-8.38 0.12 2.39
-8.39 -0.05 2.39
-8.39 -0.22 2.39
-8.38 -0.38 2.39
-8.37 -0.55 2.39
-8.36 -0.72 2.39
-8.35 -0.89 2.39
-8.33 -1.06 2.39
-8.31 -1.22 2.39
-8.28 -1.39 2.39
-8.25 -1.56 2.39
-8.22 -1.72 2.39
-8.19 -1.89 2.39
-8.15 -2.05 2.39
-8.11 -2.22 2.39
-8.06 -2.38 2.39
-8.02 -2.54 2.39
-7.97 -2.70 2.39
-7.91 -2.86 2.39
-7.85 -3.02 2.39
-7.79 -3.18 2.39
-7.73 -3.33 2.39
-7.66 -3.49 2.39
-7.59 -3.64 2.39
-7.52 -3.80 2.39
-7.44 -3.95 2.39
-7.36 -4.10 2.39
-7.28 -4.24 2.39
-7.20 -4.39 2.39
-7.11 -4.53 2.39
-7.02 -4.68 2.39
-6.92 -4.82 2.39
-6.83 -4.96 2.39
-6.73 -5.09 2.39
-6.62 -5.23 2.39
-6.52 -5.36 2.39
-6.41 -5.49 2.39
-6.30 -5.62 2.39
-6.19 -5.75 2.39
-6.08 -5.88 2.39
-5.96 -6.00 2.39
-5.88 -6.16 2.41
-5.87 -6.40 2.46
-5.83 -6.62 2.49
-5.70 -6.74 2.49
-5.56 -6.85 2.49
-5.42 -6.96 2.49
-5.28 -7.07 2.49
-5.14 -7.18 2.49
-5.00 -7.28 2.49
-4.85 -7.38 2.49
-4.70 -7.48 2.49
-4.55 -7.57 2.49
-4.40 -7.67 2.49
-4.25 -7.75 2.49
-4.09 -7.84 2.49
-3.93 -7.92 2.49
-3.78 -8.00 2.49
-3.61 -8.08 2.49
-3.45 -8.15 2.49
-3.29 -8.22 2.49
-3.12 -8.28 2.49
-2.96 -8.35 2.49
-2.79 -8.41 2.49
-2.62 -8.46 2.49
-2.45 -8.51 2.49
-2.28 -8.56 2.49
-2.11 -8.61 2.49
-1.94 -8.65 2.49
-1.76 -8.69 2.49
-1.59 -8.72 2.49
-1.41 -8.76 2.49
-1.24 -8.78 2.49
-1.06 -8.81 2.49
-0.88 -8.83 2.49
-0.71 -8.85 2.49
-0.53 -8.86 2.49
-0.35 -8.87 2.49
-0.17 -8.88 2.49
0.00 -8.17 2.49
0.17 -8.17 2.49
0.33 -8.16 2.49
0.50 -8.16 2.49
0.66 -8.15 2.49
0.82 -8.13 2.49
0.99 -8.12 2.49
1.15 -8.10 2.49
1.31 -8.07 2.49
1.47 -8.04 2.49
1.63 -8.01 2.49
1.79 -7.98 2.49
1.95 -7.94 2.49
2.11 -7.90 2.49
2.19 -7.58 2.40
2.33 -7.49 2.39
2.48 -7.44 2.39
2.63 -7.39 2.39
2.78 -7.34 2.39
2.92 -7.28 2.39
3.07 -7.22 2.39
3.21 -7.16 2.39
3.36 -7.09 2.39
3.50 -7.03 2.39
3.64 -6.95 2.39
3.78 -6.88 2.39
3.91 -6.80 2.39
4.05 -6.72 2.39
4.18 -6.64 2.39
4.32 -6.56 2.39
4.45 -6.47 2.39
4.58 -6.38 2.39
4.70 -6.29 2.39
4.83 -6.19 2.39
4.95 -6.09 2.39
5.07 -5.99 2.39
5.19 -5.89 2.39
5.31 -5.78 2.39
5.42 -5.68 2.39
5.54 -5.57 2.39
5.59 -5.40 2.37
5.71 -5.29 2.37
4.97 -4.43 2.03
5.97 -5.10 2.39
6.07 -4.98 2.39
6.16 -4.86 2.39
6.27 -4.74 2.39
6.36 -4.61 2.39
6.45 -4.49 2.39
6.54 -4.35 2.39
6.63 -4.22 2.39
6.71 -4.09 2.39
6.79 -3.95 2.39
6.87 -3.82 2.39
6.94 -3.68 2.39
7.01 -3.54 2.39
7.08 -3.39 2.39
7.15 -3.25 2.39
7.21 -3.11 2.39
7.27 -2.96 2.39
7.33 -2.82 2.39
7.38 -2.67 2.39
7.44 -2.52 2.39
7.48 -2.37 2.39
7.53 -2.22 2.39
7.57 -2.07 2.39
7.61 -1.91 2.39
7.65 -1.76 2.39
7.68 -1.61 2.39
7.71 -1.45 2.39
7.74 -1.30 2.39
7.76 -1.14 2.39
7.78 -0.99 2.39
7.80 -0.83 2.39
7.81 -0.67 2.39
7.82 -0.52 2.39
7.83 -0.36 2.39
7.83 -0.20 2.39
7.83 -0.04 2.39
7.83 0.11 2.39
7.83 0.27 2.39
7.82 0.43 2.39
7.81 0.58 2.39
7.79 0.74 2.39
7.78 0.90 2.39
7.76 1.05 2.39
7.73 1.21 2.39
7.70 1.36 2.39
7.67 1.52 2.39
7.64 1.67 2.39
7.60 1.82 2.39
7.57 1.97 2.39
7.52 2.12 2.39
7.48 2.27 2.39
7.43 2.42 2.39
7.38 2.57 2.39
7.32 2.72 2.39
7.27 2.86 2.39
7.21 3.01 2.39
7.14 3.15 2.39
7.08 3.29 2.39
7.01 3.44 2.39
6.94 3.57 2.39
6.86 3.71 2.39
6.78 3.85 2.39
6.70 3.98 2.39
6.62 4.12 2.39
6.54 4.25 2.39
6.45 4.38 2.39
6.36 4.50 2.39
6.26 4.63 2.39
6.16 4.75 2.39
6.06 4.87 2.39
5.96 4.99 2.39
5.86 5.11 2.39
5.76 5.22 2.39
5.65 5.34 2.39
5.54 5.45 2.39
5.43 5.56 2.39
5.32 5.66 2.39
5.20 5.77 2.39
5.08 5.87 2.39
4.96 5.97 2.39
4.84 6.07 2.39
4.72 6.16 2.39
4.59 6.25 2.39
4.46 6.34 2.39
4.33 6.43 2.39
4.20 6.52 2.39
4.07 6.60 2.39
3.94 6.68 2.39
3.80 6.75 2.39
3.66 6.83 2.39
3.53 6.90 2.39
3.39 6.97 2.39
3.25 7.03 2.39
3.10 7.09 2.39
2.96 7.15 2.39
2.81 7.21 2.39
2.67 7.26 2.39
2.52 7.31 2.39
2.37 7.36 2.39
2.23 7.41 2.39
2.14 7.70 2.47
2.01 7.81 2.49
1.85 7.85 2.49
1.69 7.88 2.49
1.53 7.91 2.49
1.37 7.94 2.49
1.21 7.97 2.49
1.05 7.99 2.49
0.89 8.01 2.49
0.73 8.02 2.49
0.57 8.03 2.49
0.41 8.04 2.49
0.25 8.05 2.49
0.09 8.05 2.49
-0.08 8.05 2.49
-0.24 8.05 2.49
-0.40 8.04 2.49
-0.56 8.03 2.49
-0.72 8.01 2.49
-0.88 8.00 2.49
-1.04 7.98 2.49
-1.20 7.95 2.49
-1.36 7.93 2.49
-1.52 7.90 2.49
-1.68 7.86 2.49
-1.84 7.83 2.49
-1.99 7.79 2.49
-2.15 7.75 2.49
-2.30 7.70 2.49
-2.46 7.65 2.49
-2.61 7.60 2.49
-2.76 7.55 2.49
-2.91 7.49 2.49
-3.06 7.43 2.49
-3.21 7.36 2.49
-3.36 7.30 2.49
-3.50 7.23 2.49
-3.65 7.16 2.49
-3.79 7.08 2.49
-3.93 7.00 2.49
-4.07 6.92 2.49
-4.21 6.84 2.49
-4.35 6.75 2.49
-4.48 6.66 2.49
-4.61 6.57 2.49
-4.75 6.48 2.49
-4.87 6.38 2.49
-5.00 6.28 2.49
-5.13 6.18 2.49
-5.25 6.08 2.49
-5.37 5.97 2.49
-5.49 5.86 2.49
-5.61 5.75 2.49
-5.72 5.64 2.49
-5.83 5.52 2.49
-5.90 5.36 2.47
-5.90 5.15 2.43
-5.91 4.95 2.39
-6.00 4.83 2.39
-6.11 4.71 2.40
-6.19 4.58 2.39
-6.28 4.46 2.39
-6.37 4.33 2.39
-6.45 4.20 2.39
-6.54 4.07 2.39
-6.62 3.94 2.39
-6.70 3.80 2.39
-6.77 3.67 2.39
-6.84 3.53 2.39
-6.91 3.39 2.39
-6.98 3.26 2.39
-7.05 3.11 2.39
-7.11 2.97 2.39
-7.17 2.83 2.39
-7.22 2.69 2.39
-7.28 2.54 2.39
-7.33 2.39 2.39
-7.37 2.25 2.39
-7.42 2.10 2.39
-7.46 1.95 2.39
-7.50 1.80 2.39
-7.53 1.65 2.39
-7.57 1.50 2.39
-7.60 1.34 2.39
-7.62 1.19 2.39
-7.65 1.04 2.39
-7.67 0.88 2.39
-7.68 0.73 2.39
-7.70 0.58 2.39
-7.71 0.42 2.39
-7.72 0.27 2.39
-7.72 0.11 2.39
-7.72 -0.04 2.39
-7.72 -0.20 2.39
-7.72 -0.35 2.39
-7.71 -0.51 2.39
-7.70 -0.66 2.39
-7.69 -0.82 2.39
-7.67 -0.97 2.39
-7.65 -1.13 2.39
-7.63 -1.28 2.39
-7.60 -1.43 2.39
-7.57 -1.59 2.39
-7.54 -1.74 2.39
-7.50 -1.89 2.39
-7.47 -2.04 2.39
-7.42 -2.19 2.39
-7.38 -2.34 2.39
-7.33 -2.49 2.39
-7.28 -2.63 2.39
-7.23 -2.78 2.39
-7.17 -2.93 2.39
-7.12 -3.07 2.39
-7.05 -3.21 2.39
-6.99 -3.35 2.39
-6.92 -3.49 2.39
-6.85 -3.63 2.39
-6.78 -3.77 2.39
-6.70 -3.91 2.39
-6.62 -4.04 2.39
-6.54 -4.17 2.39
-6.46 -4.31 2.39
-6.37 -4.44 2.39
-6.28 -4.56 2.39
-6.19 -4.69 2.39
-6.10 -4.81 2.39
-6.00 -4.94 2.39
-5.90 -5.06 2.39
-5.87 -5.24 2.42
-5.87 -5.45 2.46
-5.83 -5.64 2.49
-5.72 -5.76 2.49
-5.60 -5.87 2.49
-5.48 -5.98 2.49
-5.36 -6.09 2.49
-5.24 -6.20 2.49
-5.12 -6.31 2.49
-4.99 -6.41 2.49
-4.86 -6.51 2.49
-4.73 -6.61 2.49
-4.60 -6.70 2.49
-4.46 -6.79 2.49
-4.33 -6.88 2.49
-4.19 -6.97 2.49
-4.05 -7.05 2.49
-3.91 -7.14 2.49
-3.76 -7.21 2.49
-3.62 -7.29 2.49
-3.47 -7.36 2.49
-3.33 -7.43 2.49
-3.18 -7.50 2.49
-3.03 -7.56 2.49
-2.87 -7.62 2.49
-2.72 -7.68 2.49
-2.57 -7.73 2.49
-2.41 -7.79 2.49
-2.26 -7.83 2.49
-2.10 -7.88 2.49
-1.94 -7.92 2.49
-1.78 -7.96 2.49
-1.62 -7.99 2.49
-1.46 -8.03 2.49
-1.30 -8.06 2.49
-1.14 -8.08 2.49
-0.98 -8.10 2.49
-0.81 -8.12 2.49
-0.65 -8.14 2.49
-0.49 -8.15 2.49
-0.32 -8.16 2.49
-0.16 -8.17 2.49
0.00 -7.56 2.49
0.16 -7.55 2.49
0.31 -7.55 2.49
0.46 -7.54 2.49
0.61 -7.53 2.49
0.76 -7.52 2.49
0.91 -7.51 2.49
1.06 -7.49 2.49
1.21 -7.46 2.49
1.36 -7.44 2.49
1.51 -7.41 2.49
1.66 -7.38 2.49
1.81 -7.35 2.49
1.96 -7.31 2.49
2.10 -7.27 2.49
2.18 -7.02 2.42
2.29 -6.88 2.39
2.43 -6.84 2.39
2.57 -6.79 2.39
2.70 -6.73 2.39
2.84 -6.68 2.39
2.97 -6.62 2.39
3.10 -6.56 2.39
3.23 -6.50 2.39
3.36 -6.43 2.39
3.49 -6.36 2.39
3.62 -6.29 2.39
3.75 -6.22 2.39
3.87 -6.14 2.39
3.99 -6.06 2.39
4.11 -5.98 2.39
4.23 -5.90 2.39
4.35 -5.81 2.39
4.47 -5.72 2.39
4.58 -5.63 2.39
4.69 -5.54 2.39
4.80 -5.45 2.39
4.91 -5.35 2.39
5.02 -5.25 2.39
5.12 -5.15 2.39
5.22 -5.04 2.39
5.32 -4.94 2.39
4.97 -4.43 2.19
5.52 -4.72 2.39
5.61 -4.61 2.39
5.70 -4.49 2.39
5.79 -4.38 2.39
5.88 -4.26 2.39
5.96 -4.14 2.39
6.04 -4.02 2.39
6.12 -3.90 2.39
6.20 -3.78 2.39
6.28 -3.66 2.39
6.35 -3.53 2.39
6.42 -3.40 2.39
6.49 -3.27 2.39
6.55 -3.14 2.39
6.61 -3.01 2.39
6.67 -2.87 2.39
6.73 -2.74 2.39
6.78 -2.60 2.39
6.83 -2.47 2.39
6.88 -2.33 2.39
6.92 -2.19 2.39
6.96 -2.05 2.39
7.00 -1.91 2.39
7.04 -1.77 2.39
7.07 -1.63 2.39
7.10 -1.49 2.39
7.13 -1.34 2.39
7.15 -1.20 2.39
7.18 -1.06 2.39
7.19 -0.91 2.39
7.21 -0.77 2.39
7.22 -0.62 2.39
7.23 -0.48 2.39
7.24 -0.33 2.39
7.25 -0.19 2.39
7.25 -0.04 2.39
7.24 0.10 2.39
7.24 0.25 2.39
7.23 0.39 2.39
7.22 0.54 2.39
7.21 0.68 2.39
7.19 0.83 2.39
7.17 0.97 2.39
7.15 1.12 2.39
7.13 1.26 2.39
7.10 1.40 2.39
7.07 1.54 2.39
7.03 1.68 2.39
7.00 1.83 2.39
6.96 1.96 2.39
6.92 2.10 2.39
6.87 2.24 2.39
6.82 2.38 2.39
6.77 2.51 2.39
6.72 2.65 2.39
6.67 2.78 2.39
6.61 2.92 2.39
6.55 3.05 2.39
6.48 3.18 2.39
6.42 3.31 2.39
6.35 3.43 2.39
6.28 3.56 2.39
6.20 3.69 2.39
6.12 3.80 2.39
6.04 3.93 2.39
5.96 4.04 2.39
5.88 4.16 2.39
5.79 4.28 2.39
5.70 4.39 2.39
5.61 4.51 2.39
5.52 4.62 2.39
5.42 4.73 2.39
5.33 4.83 2.39
5.23 4.94 2.39
5.13 5.04 2.39
5.02 5.14 2.39
4.92 5.24 2.39
4.81 5.34 2.39
4.70 5.43 2.39
4.59 5.52 2.39
4.48 5.61 2.39
4.37 5.70 2.39
4.25 5.79 2.39
4.13 5.87 2.39
4.01 5.95 2.39
3.89 6.03 2.39
3.77 6.11 2.39
3.64 6.18 2.39
3.52 6.25 2.39
3.39 6.32 2.39
3.26 6.38 2.39
3.13 6.45 2.39
3.00 6.51 2.39
2.87 6.57 2.39
2.74 6.62 2.39
2.61 6.67 2.39
2.47 6.72 2.39
2.34 6.78 2.40
2.20 6.81 2.39
2.15 7.14 2.49
2.00 7.19 2.49
1.86 7.23 2.49
1.71 7.27 2.49
1.57 7.30 2.49
1.42 7.33 2.49
1.27 7.35 2.49
1.12 7.37 2.49
0.98 7.39 2.49
0.83 7.41 2.49
0.68 7.43 2.49
0.53 7.44 2.49
0.38 7.45 2.49
0.23 7.45 2.49
0.08 7.45 2.49
-0.07 7.45 2.49
-0.22 7.45 2.49
-0.37 7.44 2.49
-0.52 7.43 2.49
-0.67 7.42 2.49
-0.82 7.40 2.49
-0.97 7.38 2.49
-1.11 7.36 2.49
-1.26 7.34 2.49
-1.41 7.31 2.49
-1.55 7.28 2.49
-1.70 7.25 2.49
-1.84 7.21 2.49
-1.99 7.17 2.49
-2.13 7.13 2.49
-2.28 7.08 2.49
-2.42 7.04 2.49
-2.56 6.99 2.49
-2.70 6.93 2.49
-2.84 6.88 2.49
-2.97 6.82 2.49
-3.11 6.76 2.49
-3.24 6.69 2.49
-3.38 6.63 2.49
-3.51 6.56 2.49
-3.64 6.48 2.49
-3.77 6.41 2.49
-3.90 6.33 2.49
-4.02 6.25 2.49
-4.15 6.17 2.49
-4.27 6.09 2.49
-4.39 6.00 2.49
-4.51 5.91 2.49
-4.63 5.82 2.49
-4.75 5.72 2.49
-4.86 5.63 2.49
-4.97 5.53 2.49
-5.08 5.43 2.49
-5.19 5.32 2.49
-5.30 5.22 2.49
-5.40 5.11 2.49
-5.50 5.00 2.49
-5.60 4.89 2.49
-5.70 4.78 2.49
-5.79 4.66 2.49
-5.89 4.54 2.49
-5.89 4.36 2.46
-5.90 4.18 2.43
-5.90 4.01 2.39
-5.98 3.89 2.39
-6.05 3.77 2.39
-6.13 3.65 2.39
-6.20 3.52 2.39
-6.27 3.40 2.39
-6.34 3.27 2.39
-6.40 3.14 2.39
-6.46 3.01 2.39
-6.52 2.88 2.39
-6.58 2.75 2.39
-6.64 2.62 2.39
-6.69 2.49 2.39
-6.74 2.35 2.39
-6.78 2.22 2.39
-6.83 2.08 2.39
-6.87 1.94 2.39
-6.91 1.80 2.39
-6.94 1.66 2.39
-6.97 1.52 2.39
-7.00 1.38 2.39
-7.03 1.24 2.39
-7.06 1.10 2.39
-7.08 0.96 2.39
-7.10 0.82 2.39
-7.11 0.68 2.39
-7.13 0.53 2.39
-7.14 0.39 2.39
-7.14 0.25 2.39
-7.15 0.10 2.39
-7.15 -0.04 2.39
-7.15 -0.18 2.39
-7.14 -0.33 2.39
-7.14 -0.47 2.39
-7.13 -0.61 2.39
-7.11 -0.76 2.39
-7.10 -0.90 2.39
-7.08 -1.04 2.39
-7.06 -1.19 2.39
-7.03 -1.33 2.39
-7.01 -1.47 2.39
-6.98 -1.61 2.39
-6.95 -1.75 2.39
-6.91 -1.89 2.39
-6.87 -2.03 2.39
-6.83 -2.17 2.39
-6.79 -2.30 2.39
-6.74 -2.44 2.39
-6.69 -2.57 2.39
-6.64 -2.71 2.39
-6.58 -2.84 2.39
-6.53 -2.97 2.39
-6.47 -3.10 2.39
-6.41 -3.23 2.39
-6.34 -3.36 2.39
-6.27 -3.49 2.39
-6.20 -3.62 2.39
-6.13 -3.74 2.39
-6.05 -3.86 2.39
-5.98 -3.99 2.39
-5.90 -4.11 2.39
-5.88 -4.27 2.42
-5.87 -4.45 2.45
-5.87 -4.64 2.49
-5.79 -4.77 2.49
-5.70 -4.88 2.49
-5.60 -5.00 2.49
-5.50 -5.11 2.49
-5.40 -5.22 2.49
-5.29 -5.33 2.49
-5.18 -5.43 2.49
-5.07 -5.54 2.49
-4.96 -5.64 2.49
-4.85 -5.74 2.49
-4.73 -5.84 2.49
-4.62 -5.93 2.49
-4.50 -6.02 2.49
-4.38 -6.11 2.49
-4.25 -6.20 2.49
-4.13 -6.29 2.49
-4.00 -6.37 2.49
-3.88 -6.45 2.49
-3.75 -6.53 2.49
-3.61 -6.60 2.49
-3.48 -6.67 2.49
-3.35 -6.74 2.49
-3.21 -6.81 2.49
-3.08 -6.88 2.49
-2.94 -6.94 2.49
-2.80 -7.00 2.49
-2.66 -7.05 2.49
-2.52 -7.10 2.49
-2.37 -7.15 2.49
-2.23 -7.20 2.49
-2.09 -7.25 2.49
-1.94 -7.29 2.49
-1.79 -7.33 2.49
-1.65 -7.36 2.49
-1.50 -7.39 2.49
-1.35 -7.42 2.49
-1.20 -7.45 2.49
-1.05 -7.47 2.49
-0.90 -7.50 2.49
-0.75 -7.51 2.49
-0.60 -7.53 2.49
-0.45 -7.54 2.49
-0.30 -7.55 2.49
-0.15 -7.55 2.49
0.00 -7.02 2.49
0.15 -7.02 2.49
0.29 -7.02 2.49
0.43 -7.01 2.49
0.57 -7.00 2.49
0.71 -6.99 2.49
0.85 -6.97 2.49
0.99 -6.96 2.49
1.13 -6.94 2.49
1.27 -6.91 2.49
1.40 -6.89 2.49
1.54 -6.86 2.49
1.68 -6.83 2.49
1.82 -6.79 2.49
1.95 -6.75 2.49
2.09 -6.71 2.49
2.18 -6.54 2.45
2.26 -6.35 2.39
2.39 -6.31 2.39
2.51 -6.26 2.39
2.64 -6.21 2.39
2.76 -6.15 2.39
2.88 -6.10 2.39
3.01 -6.04 2.39
3.13 -5.98 2.39
3.25 -5.91 2.39
3.36 -5.85 2.39
3.48 -5.78 2.39
3.60 -5.71 2.39
3.71 -5.63 2.39
3.82 -5.56 2.39
3.93 -5.48 2.39
4.04 -5.40 2.39
4.15 -5.32 2.39
4.25 -5.23 2.39
4.36 -5.15 2.39
4.46 -5.06 2.39
4.56 -4.97 2.39
4.66 -4.88 2.39
4.76 -4.78 2.39
4.85 -4.69 2.39
4.89 -4.54 2.37
4.97 -4.43 2.36
5.07 -4.34 2.37
5.16 -4.24 2.37
5.30 -4.18 2.39
5.38 -4.07 2.39
5.46 -3.96 2.39
5.54 -3.85 2.39
5.61 -3.74 2.39
5.69 -3.62 2.39
5.76 -3.51 2.39
5.83 -3.39 2.39
5.89 -3.27 2.39
5.96 -3.16 2.39
6.02 -3.04 2.39
6.08 -2.91 2.39
6.14 -2.79 2.39
6.20 -2.67 2.39
6.25 -2.55 2.39
6.30 -2.42 2.39
6.34 -2.29 2.39
6.39 -2.16 2.39
6.43 -2.04 2.39
6.47 -1.91 2.39
6.51 -1.78 2.39
6.54 -1.65 2.39
6.57 -1.51 2.39
6.60 -1.38 2.39
6.62 -1.25 2.39
6.65 -1.12 2.39
6.67 -0.98 2.39
6.69 -0.85 2.39
6.70 -0.71 2.39
6.71 -0.58 2.39
6.72 -0.44 2.39
6.73 -0.31 2.39
6.73 -0.17 2.39
6.73 -0.04 2.39
6.73 0.10 2.39
6.73 0.23 2.39
6.72 0.37 2.39
6.71 0.50 2.39
6.70 0.64 2.39
6.68 0.77 2.39
6.67 0.90 2.39
6.65 1.04 2.39
6.62 1.17 2.39
6.60 1.30 2.39
6.57 1.43 2.39
6.54 1.57 2.39
6.50 1.70 2.39
