ply
format ascii 1.0
element vertex 2904
property float32 x
property float32 y
property float32 z
end_header
1.40 19.94 2.49
1.00 19.96 2.49
0.60 19.98 2.49
0.20 20.00 2.49
-0.20 20.00 2.49
-0.61 20.00 2.49
-1.01 19.99 2.49
-1.41 19.97 2.49
-1.81 19.94 2.49
-2.21 19.91 2.49
-2.61 19.86 2.49
-3.01 19.81 2.49
-3.41 19.76 2.49
-3.81 19.69 2.49
-4.20 19.62 2.49
-4.60 19.54 2.49
-4.99 19.45 2.49
-5.38 19.36 2.49
-5.76 19.20 2.49
-5.91 18.35 2.39
-6.28 18.24 2.39
-6.65 18.12 2.39
-7.01 17.99 2.39
-7.38 17.85 2.39
-7.74 17.71 2.39
-8.10 17.56 2.39
-8.45 17.41 2.39
-8.81 17.25 2.39
-9.16 17.08 2.39
-9.50 16.88 2.39
-9.61 16.31 2.33
-9.70 15.73 2.28
-9.78 15.17 2.22
-9.83 14.60 2.17
-9.90 14.08 2.12
-9.99 13.62 2.07
-10.08 13.18 2.04
-10.14 12.72 2.00
-10.21 12.30 1.96
-10.30 11.90 1.93
-10.37 11.52 1.90
-10.45 11.14 1.87
-10.52 10.77 1.84
-10.58 10.41 1.81
-10.65 10.07 1.79
-10.71 9.73 1.76
-10.78 9.39 1.74
-10.83 9.06 1.72
-10.96 8.81 1.71
-11.07 8.53 1.70
-11.15 8.25 1.68
-11.24 7.96 1.67
-11.32 7.68 1.66
-11.39 7.41 1.64
-11.46 7.13 1.63
-11.51 6.84 1.62
-11.56 6.56 1.60
-11.60 6.28 1.59
-11.65 6.01 1.58
-11.69 5.74 1.57
-11.74 5.47 1.56
-11.78 5.20 1.55
-11.81 4.93 1.53
-11.83 4.67 1.52
-11.85 4.40 1.51
-11.87 4.14 1.50
-11.89 3.88 1.49
-11.91 3.63 1.49
-11.93 3.37 1.48
-11.95 3.12 1.47
-11.96 2.87 1.46
-11.97 2.62 1.46
-11.98 2.37 1.45
-11.99 2.12 1.44
-11.99 1.87 1.44
-12.01 1.63 1.43
-12.02 1.39 1.43
-12.03 1.14 1.43
-12.05 0.90 1.43
-12.07 0.66 1.42
-12.10 0.42 1.42
-12.12 0.17 1.43
-12.14 -0.07 1.43
-12.16 -0.31 1.43
-12.18 -0.56 1.43
-12.20 -0.81 1.43
-12.22 -1.05 1.43
-12.26 -1.31 1.44
-12.30 -1.56 1.45
-12.34 -1.82 1.45
-12.40 -2.08 1.47
-12.47 -2.35 1.48
-12.54 -2.63 1.49
-12.62 -2.91 1.50
-12.64 -3.18 1.51
-12.63 -3.45 1.52
-12.64 -3.73 1.53
-12.70 -4.02 1.54
-12.76 -4.33 1.56
-12.82 -4.64 1.58
-12.88 -4.95 1.59
-12.88 -5.25 1.60
-12.86 -5.55 1.61
-12.87 -5.86 1.63
-12.87 -6.17 1.64
-12.87 -6.49 1.66
-12.87 -6.82 1.67
-12.85 -7.14 1.69
-12.79 -7.45 1.70
-12.73 -7.76 1.71
-12.67 -8.08 1.72
-12.61 -8.40 1.73
-12.55 -8.73 1.75
-12.48 -9.06 1.76
-12.46 -9.43 1.78
-12.43 -9.81 1.81
-12.39 -10.19 1.83
-12.32 -10.55 1.85
-12.25 -10.92 1.87
-12.18 -11.31 1.89
-12.11 -11.70 1.92
-12.04 -12.11 1.94
-11.97 -12.53 1.97
-11.85 -12.91 1.99
-11.75 -13.34 2.02
-11.74 -13.87 2.06
-11.72 -14.43 2.11
-11.70 -15.01 2.16
-11.69 -15.64 2.21
-11.71 -16.33 2.27
-11.91 -17.33 2.38
-11.83 -17.98 2.43
-11.74 -18.64 2.49
-11.76 -19.55 2.58
-11.44 -19.90 2.59
-10.18 -18.57 2.39
-9.81 -18.77 2.39
-9.44 -18.97 2.39
-9.06 -19.16 2.39
-8.67 -19.34 2.39
-8.28 -19.52 2.39
-7.89 -19.68 2.39
-7.50 -19.84 2.39
-7.10 -19.99 2.39
-6.99 -21.00 2.49
-6.56 -21.14 2.49
-6.14 -21.27 2.49
-5.71 -21.39 2.49
-5.28 -21.50 2.49
-4.85 -21.60 2.49
-4.41 -21.69 2.49
-3.98 -21.78 2.49
-3.54 -21.85 2.49
-3.10 -21.92 2.49
-2.66 -21.97 2.49
-2.22 -22.02 2.49
-1.78 -22.06 2.49
-1.33 -22.08 2.49
-0.89 -22.10 2.49
-0.45 -22.11 2.49
-0.00 -18.38 2.49
0.37 -18.38 2.49
0.73 -18.36 2.49
1.10 -18.34 2.49
1.47 -18.31 2.49
1.76 -17.51 2.39
2.11 -17.47 2.39
2.46 -17.42 2.39
2.81 -17.36 2.39
3.15 -17.29 2.39
3.50 -17.22 2.39
3.84 -17.14 2.39
4.18 -17.05 2.39
4.52 -16.96 2.39
4.86 -16.86 2.39
5.19 -16.75 2.39
5.53 -16.64 2.39
5.86 -16.54 2.39
6.19 -16.41 2.39
6.52 -16.27 2.39
6.84 -16.13 2.39
7.16 -15.98 2.39
7.47 -15.83 2.39
7.78 -15.66 2.39
8.09 -15.50 2.39
8.40 -15.32 2.39
8.70 -15.14 2.39
8.99 -14.95 2.39
9.29 -14.76 2.39
9.57 -14.56 2.39
9.86 -14.36 2.39
10.14 -14.15 2.39
10.41 -13.93 2.39
10.68 -13.71 2.39
10.95 -13.49 2.39
11.21 -13.25 2.39
11.46 -13.02 2.39
11.71 -12.78 2.39
11.96 -12.53 2.39
12.20 -12.28 2.39
12.43 -12.02 2.39
12.66 -11.76 2.39
12.89 -11.50 2.39
13.10 -11.23 2.39
13.32 -10.95 2.39
13.52 -10.67 2.39
13.72 -10.39 2.39
13.92 -10.11 2.39
14.11 -9.82 2.39
14.29 -9.52 2.39
14.46 -9.23 2.39
14.63 -8.93 2.39
14.80 -8.63 2.39
14.77 -8.22 2.37
14.79 -7.85 2.35
14.82 -7.48 2.33
14.75 -7.08 2.30
14.76 -6.72 2.28
14.77 -6.37 2.26
14.78 -6.03 2.25
14.79 -5.69 2.23
14.73 -5.33 2.21
14.75 -5.00 2.20
14.76 -4.68 2.18
14.77 -4.36 2.17
14.77 -4.04 2.17
14.78 -3.72 2.16
14.73 -3.40 2.14
14.74 -3.09 2.14
14.76 -2.79 2.13
14.78 -2.48 2.13
14.79 -2.18 2.13
14.81 -1.88 2.12
14.77 -1.58 2.11
14.79 -1.28 2.11
14.81 -0.98 2.12
14.82 -0.68 2.12
14.84 -0.39 2.12
14.80 -0.09 2.12
14.80 0.21 2.12
14.81 0.51 2.12
14.81 0.81 2.13
14.82 1.11 2.13
14.77 1.40 2.13
14.77 1.70 2.14
14.78 2.00 2.14
14.78 2.31 2.15
14.79 2.61 2.16
14.74 2.91 2.17
14.75 3.22 2.18
14.75 3.53 2.19
14.76 3.85 2.20
14.77 4.17 2.22
14.71 4.48 2.22
14.71 4.80 2.24
14.71 5.13 2.26
14.71 5.46 2.28
14.71 5.80 2.29
14.67 6.13 2.31
14.73 6.51 2.34
14.80 6.89 2.37
14.78 7.25 2.39
14.62 7.54 2.39
14.45 7.82 2.39
14.29 8.11 2.39
14.11 8.39 2.39
13.93 8.67 2.39
13.75 8.94 2.39
13.56 9.21 2.39
13.36 9.47 2.39
13.16 9.73 2.39
12.95 9.99 2.39
12.74 10.24 2.39
12.53 10.49 2.39
12.31 10.73 2.39
12.09 10.97 2.39
11.86 11.21 2.39
11.62 11.44 2.39
11.39 11.67 2.39
11.15 11.89 2.39
10.90 12.10 2.39
10.65 12.32 2.39
10.40 12.52 2.39
10.14 12.72 2.39
9.88 12.92 2.39
9.61 13.11 2.39
9.35 13.30 2.39
2.33 3.46 0.61
8.80 13.65 2.39
8.52 13.82 2.39
8.24 13.99 2.39
7.95 14.15 2.39
7.67 14.30 2.39
7.38 14.45 2.39
7.08 14.59 2.39
6.79 14.73 2.39
6.49 14.86 2.39
6.18 14.96 2.39
5.88 15.08 2.39
5.57 15.20 2.39
5.26 15.30 2.39
4.96 15.40 2.39
4.64 15.50 2.39
4.33 15.59 2.39
4.02 15.67 2.39
3.70 15.75 2.39
3.38 15.82 2.39
3.07 15.89 2.39
2.75 15.94 2.39
2.43 16.00 2.39
2.19 16.74 2.49
1.86 16.78 2.49
1.52 16.81 2.49
1.18 16.84 2.49
0.84 16.86 2.49
0.51 16.88 2.49
0.17 16.89 2.49
-0.17 16.89 2.49
-0.51 16.89 2.49
-0.85 16.88 2.49
-1.19 16.86 2.49
-1.53 16.84 2.49
-1.87 16.81 2.49
-2.21 16.77 2.49
-2.54 16.73 2.49
-2.88 16.68 2.49
-3.22 16.63 2.49
-3.55 16.56 2.49
-3.88 16.49 2.49
-4.22 16.42 2.49
-4.55 16.34 2.49
-4.88 16.25 2.49
-5.20 16.15 2.49
-5.53 16.05 2.49
-5.82 15.86 2.48
-5.92 15.18 2.39
-6.23 15.06 2.39
-6.53 14.94 2.39
-6.83 14.82 2.39
-7.13 14.68 2.39
-7.43 14.54 2.39
-7.72 14.40 2.39
-8.02 14.25 2.39
-8.31 14.09 2.39
-8.59 13.93 2.39
-8.88 13.77 2.39
-9.16 13.59 2.39
-9.41 13.38 2.39
-9.50 12.94 2.34
-9.57 12.51 2.29
-9.64 12.09 2.25
-9.72 11.70 2.21
-9.81 11.33 2.18
-9.89 10.97 2.15
-9.96 10.62 2.11
-10.03 10.27 2.08
-10.10 9.94 2.05
-10.17 9.61 2.03
-10.24 9.29 2.00
-10.29 8.97 1.98
-10.34 8.65 1.95
-10.44 8.38 1.93
-10.59 8.16 1.93
-10.74 7.94 1.93
-10.88 7.71 1.92
-11.03 7.49 1.92
-11.11 7.22 1.91
-11.17 6.94 1.89
-11.22 6.67 1.87
-11.27 6.39 1.86
-11.32 6.12 1.84
-11.36 5.86 1.83
-11.41 5.59 1.82
-11.45 5.33 1.81
-11.49 5.07 1.80
-11.52 4.81 1.78
-11.54 4.55 1.77
-11.56 4.29 1.76
-11.59 4.04 1.75
-11.61 3.79 1.74
-11.63 3.54 1.73
-11.65 3.29 1.72
-11.67 3.04 1.71
-11.68 2.80 1.70
-11.69 2.55 1.69
-11.69 2.31 1.69
-11.70 2.07 1.68
-11.71 1.83 1.67
-11.72 1.59 1.67
-11.73 1.35 1.67
-11.74 1.11 1.66
-11.76 0.88 1.66
-11.78 0.64 1.66
-11.81 0.41 1.66
-11.83 0.17 1.66
-11.85 -0.07 1.66
-11.87 -0.31 1.66
-11.89 -0.55 1.67
-11.90 -0.79 1.67
-11.92 -1.03 1.67
-11.96 -1.27 1.68
-11.99 -1.52 1.69
-12.03 -1.77 1.70
-12.07 -2.03 1.71
-12.12 -2.29 1.72
-12.19 -2.55 1.73
-12.25 -2.82 1.75
-12.29 -3.10 1.76
-12.29 -3.36 1.77
-12.28 -3.62 1.78
-12.27 -3.89 1.78
-12.29 -4.17 1.80
-12.34 -4.46 1.82
-12.40 -4.77 1.84
-12.44 -5.07 1.86
-12.41 -5.35 1.87
-12.38 -5.64 1.88
-12.36 -5.93 1.89
-12.34 -6.23 1.91
-12.34 -6.54 1.92
-12.33 -6.86 1.94
-12.30 -7.17 1.96
-12.24 -7.46 1.97
-12.17 -7.76 1.98
-12.11 -8.07 2.00
-12.04 -8.37 2.01
-11.97 -8.69 2.03
-11.90 -9.01 2.05
-11.86 -9.36 2.07
-11.83 -9.72 2.10
-11.79 -10.10 2.12
-11.76 -10.48 2.15
-11.71 -10.87 2.18
-11.63 -11.24 2.21
-11.55 -11.62 2.24
-11.48 -12.02 2.27
-11.40 -12.42 2.30
-11.22 -12.73 2.31
-11.03 -13.03 2.33
-10.86 -13.37 2.35
-10.72 -13.76 2.38
-10.59 -14.17 2.41
-10.24 -14.29 2.39
-9.96 -14.49 2.39
-9.67 -14.70 2.39
-9.37 -14.89 2.39
-9.08 -15.08 2.39
-8.77 -15.26 2.39
-8.43 -15.38 2.38
-8.10 -15.50 2.37
-7.79 -15.66 2.37
-7.53 -15.93 2.39
-7.21 -16.08 2.39
-6.89 -16.23 2.39
-6.56 -16.37 2.39
-6.41 -16.97 2.46
-6.16 -17.34 2.49
-5.81 -17.46 2.49
-5.46 -17.57 2.49
-5.10 -17.68 2.49
-4.75 -17.78 2.49
-4.39 -17.87 2.49
-4.03 -17.96 2.49
-3.67 -18.03 2.49
-3.31 -18.10 2.49
-2.94 -18.17 2.49
-2.58 -18.22 2.49
-2.21 -18.27 2.49
-1.85 -18.31 2.49
-1.48 -18.34 2.49
-1.11 -18.36 2.49
-0.74 -18.38 2.49
-0.37 -18.38 2.49
-0.00 -15.72 2.49
0.31 -15.71 2.49
0.63 -15.70 2.49
0.94 -15.68 2.49
1.26 -15.66 2.49
1.57 -15.62 2.49
1.80 -14.94 2.39
2.10 -14.90 2.39
2.40 -14.85 2.39
2.70 -14.79 2.39
2.99 -14.73 2.39
3.29 -14.66 2.39
3.58 -14.59 2.39
3.87 -14.51 2.39
4.16 -14.42 2.39
4.44 -14.33 2.39
4.73 -14.24 2.39
5.01 -14.13 2.39
5.29 -14.02 2.39
5.57 -13.91 2.39
5.85 -13.81 2.39
6.13 -13.68 2.39
6.40 -13.55 2.39
6.66 -13.41 2.39
6.93 -13.27 2.39
7.19 -13.12 2.39
7.45 -12.97 2.39
7.70 -12.81 2.39
7.95 -12.64 2.39
8.20 -12.47 2.39
8.44 -12.30 2.39
8.68 -12.12 2.39
8.92 -11.94 2.39
9.15 -11.75 2.39
9.38 -11.56 2.39
9.60 -11.36 2.39
9.82 -11.16 2.39
10.04 -10.95 2.39
10.25 -10.74 2.39
10.46 -10.53 2.39
10.66 -10.31 2.39
10.86 -10.09 2.39
11.05 -9.86 2.39
11.24 -9.63 2.39
11.42 -9.40 2.39
11.60 -9.16 2.39
11.77 -8.92 2.39
11.94 -8.67 2.39
12.10 -8.43 2.39
12.26 -8.18 2.39
12.41 -7.92 2.39
12.56 -7.67 2.39
12.70 -7.41 2.39
12.84 -7.15 2.39
12.97 -6.88 2.39
13.10 -6.62 2.39
13.22 -6.35 2.39
13.33 -6.08 2.39
13.44 -5.80 2.39
13.55 -5.53 2.39
13.64 -5.25 2.39
13.74 -4.97 2.39
13.82 -4.69 2.39
13.90 -4.41 2.39
13.98 -4.13 2.39
14.05 -3.84 2.39
14.11 -3.56 2.39
14.17 -3.27 2.39
14.22 -2.98 2.39
14.27 -2.70 2.39
14.31 -2.41 2.39
14.34 -2.12 2.39
14.37 -1.83 2.39
14.40 -1.54 2.39
14.41 -1.25 2.39
14.42 -0.96 2.39
14.43 -0.67 2.39
14.43 -0.38 2.39
14.42 -0.09 2.39
14.41 0.20 2.39
14.39 0.49 2.39
14.37 0.78 2.39
14.34 1.07 2.39
14.31 1.35 2.39
14.27 1.64 2.39
14.22 1.93 2.39
14.17 2.21 2.39
14.11 2.49 2.39
14.05 2.77 2.39
13.98 3.05 2.39
13.91 3.33 2.39
13.83 3.61 2.39
13.75 3.88 2.39
13.66 4.15 2.39
13.56 4.42 2.39
13.46 4.69 2.39
13.36 4.96 2.39
13.25 5.22 2.39
13.13 5.48 2.39
13.01 5.74 2.39
12.89 6.00 2.39
12.75 6.25 2.39
12.62 6.51 2.39
12.48 6.75 2.39
12.33 7.00 2.39
12.18 7.24 2.39
12.03 7.48 2.39
11.87 7.72 2.39
11.71 7.95 2.39
11.54 8.18 2.39
11.37 8.41 2.39
11.19 8.63 2.39
11.01 8.85 2.39
10.83 9.06 2.39
10.64 9.27 2.39
10.44 9.48 2.39
10.25 9.69 2.39
10.05 9.89 2.39
9.84 10.08 2.39
9.63 10.27 2.39
9.42 10.46 2.39
9.21 10.64 2.39
8.99 10.82 2.39
8.77 11.00 2.39
8.54 11.17 2.39
8.31 11.33 2.39
8.08 11.50 2.39
2.33 3.46 0.71
7.61 11.80 2.39
7.37 11.95 2.39
7.12 12.09 2.39
6.88 12.23 2.39
6.63 12.37 2.39
6.38 12.49 2.39
6.12 12.60 2.39
5.86 12.72 2.39
5.60 12.83 2.39
5.34 12.94 2.39
5.08 13.04 2.39
4.82 13.14 2.39
4.55 13.23 2.39
4.29 13.32 2.39
4.02 13.41 2.39
3.75 13.48 2.39
3.48 13.55 2.39
3.20 13.62 2.39
2.93 13.68 2.39
2.65 13.74 2.39
2.38 13.83 2.40
2.19 14.43 2.49
1.90 14.47 2.49
1.61 14.51 2.49
1.32 14.54 2.49
1.02 14.57 2.49
0.73 14.59 2.49
0.44 14.60 2.49
0.14 14.61 2.49
-0.15 14.61 2.49
-0.44 14.61 2.49
-0.74 14.60 2.49
-1.03 14.58 2.49
-1.32 14.56 2.49
-1.62 14.53 2.49
-1.91 14.50 2.49
-2.20 14.47 2.49
-2.49 14.42 2.49
-2.78 14.37 2.49
-3.07 14.32 2.49
-3.36 14.26 2.49
-3.64 14.19 2.49
-3.93 14.12 2.49
-4.21 14.04 2.49
-4.50 13.96 2.49
-4.78 13.87 2.49
-5.06 13.78 2.49
-5.34 13.68 2.49
-5.61 13.58 2.49
-5.86 13.41 2.49
-5.90 12.80 2.39
-6.16 12.68 2.39
-6.42 12.56 2.39
-6.67 12.44 2.39
-6.93 12.31 2.39
-7.17 12.17 2.39
-7.42 12.03 2.39
-7.67 11.89 2.39
-7.91 11.74 2.39
-8.15 11.58 2.39
-8.38 11.42 2.39
-8.61 11.26 2.39
-8.84 11.09 2.39
-9.07 10.91 2.39
-9.29 10.74 2.39
-9.44 10.47 2.37
-9.51 10.14 2.34
-9.59 9.81 2.31
-9.66 9.50 2.28
-9.73 9.19 2.25
-9.79 8.88 2.22
-9.84 8.58 2.19
-9.89 8.27 2.16
-9.96 8.00 2.14
-10.10 7.79 2.13
-10.25 7.57 2.13
-10.39 7.36 2.13
-10.53 7.14 2.12
-10.58 6.87 2.11
-10.65 6.62 2.09
-10.77 6.40 2.09
-10.89 6.18 2.09
-11.01 5.95 2.08
-11.09 5.71 2.07
-11.13 5.46 2.06
-11.18 5.20 2.05
-11.21 4.95 2.03
-11.24 4.69 2.02
-11.26 4.44 2.01
-11.29 4.19 1.99
-11.31 3.94 1.98
-11.33 3.69 1.97
-11.35 3.45 1.96
-11.37 3.21 1.95
-11.39 2.97 1.94
-11.40 2.73 1.93
-11.41 2.49 1.92
-11.42 2.25 1.92
-11.43 2.02 1.91
-11.44 1.78 1.90
-11.44 1.55 1.90
-11.45 1.32 1.89
-11.46 1.08 1.89
-11.48 0.85 1.89
-11.50 0.62 1.89
-11.53 0.39 1.89
-11.55 0.16 1.89
-11.57 -0.07 1.89
-11.59 -0.30 1.89
-11.60 -0.54 1.90
-11.62 -0.77 1.90
-11.64 -1.01 1.90
-11.67 -1.25 1.91
-11.70 -1.49 1.92
-11.74 -1.73 1.93
-11.77 -1.98 1.94
-11.80 -2.23 1.95
-11.84 -2.48 1.96
-11.91 -2.75 1.98
-11.97 -3.01 2.00
-11.96 -3.27 2.01
-11.95 -3.53 2.02
-11.94 -3.78 2.02
-11.93 -4.05 2.03
-11.91 -4.31 2.05
-11.94 -4.59 2.06
-11.99 -4.89 2.09
-12.00 -5.18 2.11
-11.97 -5.45 2.12
-11.94 -5.73 2.13
-11.90 -6.01 2.14
-11.87 -6.29 2.16
-11.84 -6.58 2.18
-11.82 -6.89 2.20
-11.79 -7.19 2.22
-11.72 -7.48 2.23
-11.65 -7.77 2.24
-11.58 -8.06 2.26
-11.51 -8.35 2.28
-11.43 -8.66 2.29
-11.35 -8.96 2.31
-11.24 -9.24 2.33
-11.14 -9.54 2.34
-11.03 -9.84 2.36
-10.92 -10.14 2.38
-10.81 -10.45 2.40
-10.69 -10.75 2.42
-10.56 -11.06 2.44
-10.14 -11.06 2.39
-9.92 -11.26 2.39
-9.70 -11.46 2.39
-9.47 -11.66 2.39
-9.24 -11.85 2.39
-9.00 -12.04 2.39
-8.76 -12.22 2.39
-8.52 -12.40 2.39
-8.27 -12.57 2.39
-8.02 -12.74 2.39
-7.76 -12.90 2.39
-7.50 -13.05 2.39
-7.24 -13.20 2.39
-6.98 -13.35 2.39
-6.71 -13.49 2.39
-6.44 -13.62 2.39
-6.35 -14.17 2.46
-6.14 -14.47 2.49
-5.85 -14.60 2.49
-5.56 -14.71 2.49
-5.26 -14.82 2.49
-4.96 -14.93 2.49
-4.66 -15.02 2.49
-4.36 -15.11 2.49
-4.06 -15.20 2.49
-3.75 -15.28 2.49
-3.45 -15.35 2.49
-3.14 -15.42 2.49
-2.83 -15.48 2.49
-2.52 -15.53 2.49
-2.20 -15.58 2.49
-1.89 -15.62 2.49
-1.58 -15.65 2.49
-1.26 -15.68 2.49
-0.95 -15.70 2.49
-0.63 -15.71 2.49
-0.32 -15.72 2.49
-0.00 -13.72 2.49
0.27 -13.71 2.49
0.55 -13.70 2.49
0.82 -13.68 2.49
1.09 -13.66 2.49
1.37 -13.64 2.49
1.64 -13.60 2.49
1.83 -13.00 2.39
2.09 -12.96 2.39
2.35 -12.91 2.39
2.61 -12.86 2.39
2.87 -12.80 2.39
3.12 -12.74 2.39
3.38 -12.67 2.39
3.63 -12.59 2.39
3.88 -12.51 2.39
4.13 -12.43 2.39
4.37 -12.34 2.39
4.62 -12.24 2.39
4.86 -12.14 2.39
5.10 -12.04 2.39
5.34 -11.93 2.39
5.58 -11.82 2.39
5.82 -11.71 2.39
6.05 -11.59 2.39
6.28 -11.46 2.39
6.50 -11.33 2.39
6.73 -11.19 2.39
6.95 -11.05 2.39
7.16 -10.90 2.39
7.38 -10.75 2.39
7.59 -10.59 2.39
7.79 -10.43 2.39
8.00 -10.27 2.39
8.20 -10.10 2.39
8.39 -9.93 2.39
8.59 -9.76 2.39
8.78 -9.58 2.39
8.96 -9.39 2.39
9.14 -9.21 2.39
9.32 -9.02 2.39
9.49 -8.82 2.39
9.66 -8.62 2.39
9.83 -8.42 2.39
9.99 -8.22 2.39
10.15 -8.01 2.39
10.30 -7.80 2.39
10.45 -7.59 2.39
10.59 -7.37 2.39
10.73 -7.16 2.39
10.86 -6.93 2.39
10.99 -6.71 2.39
11.12 -6.49 2.39
11.24 -6.26 2.39
11.36 -6.03 2.39
11.47 -5.79 2.39
11.57 -5.56 2.39
11.67 -5.32 2.39
11.77 -5.08 2.39
11.86 -4.84 2.39
11.95 -4.60 2.39
12.03 -4.36 2.39
12.11 -4.11 2.39
12.18 -3.87 2.39
12.25 -3.62 2.39
12.31 -3.37 2.39
12.37 -3.12 2.39
12.42 -2.87 2.39
12.47 -2.62 2.39
12.51 -2.36 2.39
12.54 -2.11 2.39
12.58 -1.86 2.39
12.60 -1.60 2.39
12.62 -1.35 2.39
12.64 -1.10 2.39
12.65 -0.84 2.39
12.66 -0.59 2.39
12.66 -0.33 2.39
12.65 -0.08 2.39
12.64 0.18 2.39
12.63 0.43 2.39
12.61 0.68 2.39
12.59 0.94 2.39
12.56 1.19 2.39
12.52 1.44 2.39
12.48 1.69 2.39
12.44 1.94 2.39
12.39 2.19 2.39
12.34 2.43 2.39
12.28 2.68 2.39
12.22 2.92 2.39
12.15 3.17 2.39
12.07 3.41 2.39
12.00 3.65 2.39
11.91 3.88 2.39
11.83 4.12 2.39
11.73 4.35 2.39
11.64 4.59 2.39
11.54 4.82 2.39
11.43 5.05 2.39
11.32 5.27 2.39
11.21 5.49 2.39
11.09 5.72 2.39
10.97 5.93 2.39
10.84 6.15 2.39
10.71 6.36 2.39
10.58 6.58 2.39
10.44 6.78 2.39
10.29 6.99 2.39
10.15 7.19 2.39
10.00 7.39 2.39
9.84 7.59 2.39
9.68 7.78 2.39
9.52 7.97 2.39
9.36 8.16 2.39
9.19 8.34 2.39
9.01 8.52 2.39
8.84 8.69 2.39
8.66 8.87 2.39
8.47 9.04 2.39
8.29 9.20 2.39
8.10 9.36 2.39
7.91 9.52 2.39
7.71 9.68 2.39
7.51 9.83 2.39
7.31 9.97 2.39
7.11 10.11 2.39
2.33 3.46 0.81
6.69 10.39 2.39
6.48 10.52 2.39
6.27 10.64 2.39
6.04 10.75 2.39
5.83 10.87 2.39
5.61 10.98 2.39
5.38 11.09 2.39
5.16 11.19 2.39
4.93 11.29 2.39
4.70 11.39 2.39
4.47 11.48 2.39
4.24 11.57 2.39
4.01 11.65 2.39
3.77 11.73 2.39
3.54 11.80 2.39
3.30 11.87 2.39
3.06 11.93 2.39
2.82 11.99 2.39
2.58 12.04 2.39
2.35 12.17 2.41
2.17 12.59 2.48
1.93 12.70 2.49
1.67 12.74 2.49
1.41 12.77 2.49
1.16 12.80 2.49
0.90 12.82 2.49
0.64 12.84 2.49
0.38 12.85 2.49
0.13 12.86 2.49
-0.13 12.86 2.49
-0.39 12.85 2.49
-0.65 12.85 2.49
-0.91 12.83 2.49
-1.17 12.81 2.49
-1.42 12.79 2.49
-1.68 12.76 2.49
-1.94 12.73 2.49
-2.19 12.69 2.49
-2.45 12.65 2.49
-2.70 12.60 2.49
-2.95 12.54 2.49
-3.21 12.49 2.49
-3.46 12.42 2.49
-3.71 12.35 2.49
-3.96 12.28 2.49
-4.20 12.20 2.49
-4.45 12.12 2.49
-4.69 12.03 2.49
-4.94 11.94 2.49
-5.18 11.84 2.49
-5.42 11.74 2.49
-5.65 11.64 2.49
-5.89 11.52 2.49
-5.91 11.02 2.41
-6.09 10.82 2.39
-6.31 10.70 2.39
-6.53 10.58 2.39
-6.74 10.45 2.39
-6.95 10.32 2.39
-7.16 10.18 2.39
-7.37 10.04 2.39
-7.57 9.89 2.39
-7.77 9.74 2.39
-7.97 9.59 2.39
-8.17 9.43 2.39
-8.36 9.27 2.39
-8.55 9.11 2.39
-8.73 8.94 2.39
-8.92 8.77 2.39
-9.10 8.59 2.39
-9.27 8.41 2.39
-9.42 8.21 2.39
-9.47 7.92 2.36
-9.52 7.65 2.33
-9.66 7.44 2.32
-9.79 7.24 2.32
-9.90 7.01 2.31
-9.95 6.75 2.29
-10.00 6.49 2.27
-10.04 6.24 2.25
-10.12 6.01 2.24
-10.24 5.80 2.23
-10.35 5.60 2.23
-10.46 5.39 2.23
-10.56 5.17 2.23
-10.64 4.95 2.22
-10.69 4.71 2.21
-10.76 4.49 2.20
-10.82 4.26 2.20
-10.88 4.04 2.19
-10.94 3.81 2.19
-11.00 3.58 2.18
-11.05 3.36 2.18
-11.11 3.13 2.17
-11.12 2.90 2.16
-11.14 2.66 2.15
-11.15 2.43 2.14
-11.16 2.20 2.14
-11.17 1.97 2.13
-11.17 1.74 2.12
-11.18 1.51 2.12
-11.19 1.28 2.11
-11.19 1.06 2.10
-11.22 0.83 2.10
-11.24 0.61 2.10
-11.26 0.38 2.10
-11.28 0.16 2.11
-11.30 -0.07 2.11
-11.31 -0.30 2.11
-11.33 -0.52 2.11
-11.35 -0.75 2.12
-11.36 -0.98 2.12
-11.39 -1.22 2.13
-11.43 -1.45 2.14
-11.46 -1.69 2.15
-11.49 -1.93 2.16
-11.52 -2.18 2.17
-11.55 -2.42 2.19
-11.58 -2.67 2.20
-11.63 -2.93 2.22
-11.64 -3.18 2.23
-11.63 -3.43 2.24
-11.62 -3.69 2.25
-11.61 -3.94 2.26
-11.59 -4.20 2.28
-11.58 -4.45 2.29
-11.56 -4.72 2.30
-11.59 -5.00 2.33
-11.57 -5.27 2.34
-11.54 -5.54 2.36
-11.51 -5.81 2.37
-11.47 -6.08 2.39
-11.43 -6.36 2.40
-11.39 -6.64 2.42
-11.35 -6.92 2.44
-11.30 -7.21 2.46
-11.16 -7.44 2.46
-11.02 -7.67 2.46
-10.88 -7.90 2.46
-10.73 -8.13 2.47
-10.25 -8.09 2.39
-10.09 -8.30 2.39
-9.93 -8.50 2.39
-9.76 -8.70 2.39
-9.58 -8.90 2.39
-9.41 -9.09 2.39
-9.23 -9.28 2.39
-9.04 -9.47 2.39
-8.85 -9.65 2.39
-8.66 -9.83 2.39
-8.46 -10.01 2.39
-8.27 -10.18 2.39
-8.06 -10.35 2.39
-7.86 -10.51 2.39
-7.64 -10.67 2.39
-7.43 -10.82 2.39
-7.21 -10.97 2.39
-7.00 -11.12 2.39
-6.77 -11.26 2.39
-6.55 -11.39 2.39
-6.32 -11.52 2.39
-6.31 -12.08 2.48
-6.11 -12.28 2.49
-5.86 -12.40 2.49
-5.61 -12.52 2.49
-5.36 -12.63 2.49
-5.10 -12.74 2.49
-4.85 -12.84 2.49
-4.59 -12.93 2.49
-4.33 -13.02 2.49
-4.07 -13.11 2.49
-3.81 -13.19 2.49
-3.54 -13.26 2.49
-3.27 -13.33 2.49
-3.01 -13.39 2.49
-2.74 -13.45 2.49
-2.47 -13.50 2.49
-2.20 -13.55 2.49
-1.92 -13.59 2.49
-1.65 -13.63 2.49
-1.38 -13.65 2.49
-1.10 -13.68 2.49
-0.83 -13.70 2.49
-0.55 -13.71 2.49
-0.28 -13.72 2.49
-0.00 -12.15 2.49
0.24 -12.15 2.49
0.48 -12.14 2.49
0.73 -12.13 2.49
0.97 -12.11 2.49
1.21 -12.08 2.49
1.45 -12.06 2.49
1.70 -12.02 2.49
1.86 -11.49 2.39
2.08 -11.44 2.39
2.31 -11.40 2.39
2.54 -11.35 2.39
2.77 -11.29 2.39
2.99 -11.23 2.39
3.22 -11.16 2.39
3.44 -11.09 2.39
3.66 -11.02 2.39
3.88 -10.94 2.39
4.09 -10.86 2.39
4.31 -10.77 2.39
4.52 -10.68 2.39
4.73 -10.58 2.39
4.94 -10.48 2.39
5.15 -10.37 2.39
5.36 -10.26 2.39
5.56 -10.15 2.39
5.76 -10.03 2.39
5.96 -9.93 2.39
6.16 -9.80 2.39
6.35 -9.67 2.39
6.54 -9.54 2.39
6.73 -9.40 2.39
6.91 -9.26 2.39
7.09 -9.11 2.39
7.27 -8.96 2.39
7.45 -8.81 2.39
7.62 -8.66 2.39
7.79 -8.50 2.39
7.95 -8.34 2.39
8.11 -8.17 2.39
8.27 -8.00 2.39
8.43 -7.83 2.39
8.58 -7.66 2.39
8.72 -7.48 2.39
8.87 -7.30 2.39
9.01 -7.12 2.39
9.14 -6.93 2.39
9.28 -6.74 2.39
9.40 -6.55 2.39
9.53 -6.36 2.39
9.65 -6.16 2.39
9.76 -5.96 2.39
9.88 -5.76 2.39
9.98 -5.56 2.39
10.09 -5.35 2.39
10.19 -5.15 2.39
10.28 -4.94 2.39
10.37 -4.73 2.39
10.46 -4.52 2.39
10.54 -4.30 2.39
10.62 -4.09 2.39
10.69 -3.87 2.39
10.76 -3.66 2.39
10.83 -3.44 2.39
10.89 -3.22 2.39
10.94 -3.00 2.39
11.00 -2.77 2.39
11.04 -2.55 2.39
11.08 -2.33 2.39
11.12 -2.10 2.39
11.16 -1.88 2.39
11.18 -1.65 2.39
11.21 -1.43 2.39
11.23 -1.20 2.39
11.24 -0.98 2.39
11.25 -0.75 2.39
11.26 -0.52 2.39
11.26 -0.30 2.39
11.26 -0.07 2.39
11.25 0.16 2.39
11.24 0.38 2.39
11.22 0.61 2.39
11.20 0.83 2.39
11.18 1.06 2.39
11.15 1.28 2.39
11.11 1.50 2.39
11.08 1.72 2.39
11.03 1.94 2.39
10.99 2.16 2.39
10.93 2.38 2.39
10.88 2.60 2.39
10.82 2.82 2.39
10.75 3.03 2.39
10.68 3.25 2.39
10.61 3.46 2.39
10.54 3.67 2.39
10.45 3.88 2.39
10.37 4.09 2.39
10.28 4.29 2.39
10.19 4.49 2.39
10.09 4.70 2.39
9.99 4.90 2.39
9.88 5.09 2.39
9.78 5.29 2.39
9.66 5.48 2.39
9.55 5.67 2.39
9.43 5.86 2.39
9.30 6.05 2.39
9.18 6.23 2.39
9.05 6.41 2.39
8.91 6.59 2.39
8.77 6.76 2.39
8.63 6.93 2.39
8.49 7.10 2.39
8.34 7.27 2.39
8.19 7.43 2.39
8.04 7.59 2.39
7.88 7.75 2.39
7.72 7.91 2.39
7.56 8.06 2.39
7.39 8.21 2.39
7.22 8.35 2.39
7.05 8.49 2.39
6.88 8.63 2.39
6.70 8.76 2.39
6.52 8.89 2.39
6.34 9.02 2.39
2.33 3.46 0.91
5.96 9.25 2.39
5.78 9.37 2.39
5.59 9.48 2.39
5.39 9.59 2.39
5.20 9.69 2.39
5.00 9.80 2.39
4.80 9.89 2.39
4.60 9.99 2.39
4.40 10.07 2.39
4.20 10.16 2.39
3.99 10.24 2.39
3.78 10.32 2.39
3.58 10.39 2.39
3.37 10.46 2.39
3.15 10.53 2.39
2.94 10.59 2.39
2.73 10.64 2.39
2.51 10.70 2.39
2.30 10.74 2.39
2.14 11.09 2.46
1.95 11.30 2.49
1.72 11.33 2.49
1.49 11.37 2.49
1.26 11.39 2.49
1.03 11.42 2.49
0.80 11.44 2.49
0.57 11.45 2.49
0.34 11.46 2.49
0.11 11.47 2.49
-0.12 11.47 2.49
-0.35 11.47 2.49
-0.58 11.46 2.49
-0.81 11.45 2.49
-1.04 11.43 2.49
-1.27 11.41 2.49
-1.50 11.38 2.49
-1.73 11.35 2.49
-1.96 11.32 2.49
-2.18 11.28 2.49
-2.41 11.24 2.49
-2.64 11.19 2.49
-2.86 11.14 2.49
-3.09 11.08 2.49
-3.31 11.02 2.49
-3.53 10.95 2.49
-3.75 10.88 2.49
-3.97 10.81 2.49
-4.19 10.73 2.49
-4.40 10.65 2.49
-4.62 10.56 2.49
-4.83 10.47 2.49
-5.04 10.37 2.49
-5.25 10.27 2.49
-5.46 10.17 2.49
-5.66 10.06 2.49
-5.87 9.95 2.49
-5.93 9.61 2.44
-6.01 9.31 2.39
-6.20 9.19 2.39
-6.38 9.07 2.39
-6.57 8.94 2.39
-6.75 8.81 2.39
-6.93 8.68 2.39
-7.10 8.54 2.39
-7.28 8.40 2.39
-7.45 8.26 2.39
-7.62 8.11 2.39
-7.78 7.96 2.39
-7.94 7.81 2.39
-8.10 7.65 2.39
-8.26 7.49 2.39
-8.41 7.33 2.39
-8.56 7.16 2.39
-8.71 6.99 2.39
-8.85 6.82 2.39
-8.99 6.64 2.39
-9.13 6.46 2.39
-9.26 6.28 2.39
-9.39 6.10 2.39
-9.52 5.91 2.39
-9.56 5.68 2.37
-9.65 5.47 2.37
-9.76 5.27 2.36
-9.86 5.08 2.36
-9.92 4.86 2.35
-9.97 4.64 2.34
-10.02 4.42 2.33
-10.07 4.20 2.32
-10.13 3.99 2.31
-10.19 3.78 2.31
-10.24 3.57 2.30
-10.30 3.35 2.30
-10.35 3.14 2.29
-10.41 2.93 2.29
-10.47 2.72 2.29
-10.52 2.52 2.29
-10.55 2.30 2.28
-10.57 2.08 2.28
-10.59 1.87 2.27
-10.60 1.65 2.26
-10.62 1.43 2.26
-10.63 1.22 2.25
-10.64 1.00 2.25
-10.68 0.79 2.25
-10.71 0.58 2.26
-10.76 0.36 2.26
-10.80 0.15 2.27
-10.83 -0.07 2.28
-10.87 -0.29 2.28
-10.91 -0.51 2.29
-10.94 -0.73 2.30
-10.97 -0.95 2.31
-11.00 -1.18 2.32
-11.08 -1.41 2.34
-11.16 -1.65 2.36
-11.21 -1.89 2.38
-11.24 -2.13 2.39
-11.27 -2.37 2.40
-11.29 -2.61 2.42
-11.32 -2.85 2.44
-11.34 -3.10 2.45
-11.33 -3.35 2.46
-11.32 -3.59 2.47
-11.30 -3.84 2.48
-11.29 -4.09 2.50
-11.27 -4.34 2.51
-11.25 -4.59 2.53
-11.20 -4.84 2.53
-11.14 -5.08 2.54
-11.05 -5.31 2.54
-10.97 -5.54 2.55
-10.19 -5.41 2.39
-10.08 -5.61 2.39
-9.97 -5.82 2.39
-9.86 -6.02 2.39
-9.74 -6.22 2.39
-9.62 -6.41 2.39
-9.49 -6.61 2.39
-9.36 -6.80 2.39
-9.23 -6.99 2.39
-9.09 -7.18 2.39
-8.95 -7.36 2.39
-8.80 -7.54 2.39
-8.65 -7.72 2.39
-8.50 -7.89 2.39
-8.34 -8.06 2.39
-8.18 -8.23 2.39
-8.02 -8.40 2.39
-7.85 -8.56 2.39
-7.68 -8.72 2.39
-7.50 -8.87 2.39
-7.33 -9.02 2.39
-7.15 -9.17 2.39
-6.96 -9.31 2.39
-6.78 -9.45 2.39
-6.59 -9.59 2.39
-6.39 -9.72 2.39
-6.28 -9.98 2.42
-6.26 -10.41 2.49
-6.05 -10.53 2.49
-5.84 -10.65 2.49
-5.63 -10.77 2.49
-5.41 -10.88 2.49
-5.19 -10.99 2.49
-4.97 -11.09 2.49
-4.75 -11.19 2.49
-4.52 -11.29 2.49
-4.30 -11.38 2.49
-4.07 -11.46 2.49
-3.84 -11.54 2.49
-3.61 -11.62 2.49
-3.37 -11.69 2.49
-3.14 -11.75 2.49
-2.90 -11.81 2.49
-2.66 -11.87 2.49
-2.43 -11.92 2.49
-2.19 -11.97 2.49
-1.95 -12.01 2.49
-1.70 -12.04 2.49
-1.46 -12.07 2.49
-1.22 -12.10 2.49
-0.98 -12.12 2.49
-0.73 -12.14 2.49
-0.49 -12.15 2.49
-0.25 -12.15 2.49
-0.00 -10.90 2.49
0.22 -10.90 2.49
0.43 -10.89 2.49
0.65 -10.88 2.49
0.87 -10.86 2.49
1.09 -10.84 2.49
1.30 -10.81 2.49
1.52 -10.78 2.49
1.74 -10.75 2.49
1.87 -10.27 2.39
2.07 -10.22 2.39
2.28 -10.18 2.39
2.48 -10.13 2.39
2.68 -10.07 2.39
2.88 -10.02 2.39
3.08 -9.95 2.39
3.28 -9.89 2.39
3.48 -9.82 2.39
3.67 -9.74 2.39
3.87 -9.66 2.39
4.06 -9.58 2.39
4.25 -9.49 2.39
4.44 -9.40 2.39
4.62 -9.31 2.39
4.81 -9.21 2.39
4.99 -9.11 2.39
5.17 -9.01 2.39
5.35 -8.90 2.39
5.52 -8.78 2.39
5.69 -8.67 2.39
5.87 -8.56 2.39
6.04 -8.44 2.39
6.21 -8.31 2.39
6.37 -8.18 2.39
6.53 -8.05 2.39
6.69 -7.91 2.39
6.84 -7.77 2.39
6.99 -7.63 2.39
7.14 -7.49 2.39
7.29 -7.34 2.39
7.43 -7.19 2.39
7.57 -7.03 2.39
7.70 -6.88 2.39
7.84 -6.72 2.39
7.96 -6.56 2.39
8.09 -6.39 2.39
8.21 -6.23 2.39
8.33 -6.06 2.39
8.45 -5.89 2.39
8.56 -5.71 2.39
8.67 -5.54 2.39
8.77 -5.36 2.39
8.87 -5.18 2.39
8.97 -5.00 2.39
9.07 -4.81 2.39
9.16 -4.63 2.39
9.24 -4.44 2.39
9.32 -4.25 2.39
9.40 -4.06 2.39
9.48 -3.87 2.39
9.55 -3.68 2.39
9.61 -3.48 2.39
9.68 -3.29 2.39
9.74 -3.09 2.39
9.79 -2.89 2.39
9.84 -2.70 2.39
9.89 -2.50 2.39
9.93 -2.30 2.39
9.97 -2.10 2.39
10.00 -1.89 2.39
10.03 -1.69 2.39
10.06 -1.49 2.39
10.08 -1.29 2.39
10.10 -1.08 2.39
10.12 -0.88 2.39
10.13 -0.68 2.39
10.13 -0.47 2.39
10.13 -0.27 2.39
10.13 -0.06 2.39
10.13 0.14 2.39
10.12 0.34 2.39
10.10 0.54 2.39
10.08 0.75 2.39
10.06 0.95 2.39
10.04 1.15 2.39
10.01 1.35 2.39
9.97 1.55 2.39
9.93 1.75 2.39
9.89 1.95 2.39
9.85 2.14 2.39
9.80 2.34 2.39
9.74 2.54 2.39
9.68 2.73 2.39
9.62 2.92 2.39
9.56 3.11 2.39
9.49 3.30 2.39
9.42 3.49 2.39
9.34 3.68 2.39
9.26 3.86 2.39
9.18 4.05 2.39
9.09 4.23 2.39
9.00 4.41 2.39
8.91 4.59 2.39
8.81 4.76 2.39
8.71 4.94 2.39
8.60 5.11 2.39
8.49 5.28 2.39
8.38 5.45 2.39
8.27 5.61 2.39
8.15 5.77 2.39
8.03 5.94 2.39
7.91 6.09 2.39
7.78 6.25 2.39
7.65 6.40 2.39
7.52 6.55 2.39
7.38 6.70 2.39
7.25 6.84 2.39
7.10 6.99 2.39
6.96 7.13 2.39
6.81 7.26 2.39
6.66 7.40 2.39
6.51 7.53 2.39
6.36 7.65 2.39
6.20 7.78 2.39
6.04 7.89 2.39
5.87 8.01 2.39
5.71 8.12 2.39
2.33 3.46 1.01
5.38 8.34 2.39
5.21 8.45 2.39
5.04 8.55 2.39
4.86 8.65 2.39
4.69 8.74 2.39
4.51 8.83 2.39
4.33 8.92 2.39
4.15 9.00 2.39
3.97 9.08 2.39
3.78 9.16 2.39
3.60 9.24 2.39
3.41 9.30 2.39
3.22 9.37 2.39
3.04 9.43 2.39
2.84 9.49 2.39
2.65 9.55 2.39
2.46 9.60 2.39
2.27 9.65 2.39
2.12 9.91 2.45
1.96 10.15 2.49
1.75 10.19 2.49
1.55 10.22 2.49
1.34 10.25 2.49
1.14 10.27 2.49
0.93 10.30 2.49
0.72 10.31 2.49
0.52 10.33 2.49
0.31 10.34 2.49
0.10 10.34 2.49
-0.11 10.34 2.49
-0.31 10.34 2.49
-0.52 10.33 2.49
-0.73 10.32 2.49
-0.94 10.31 2.49
-1.15 10.29 2.49
-1.35 10.26 2.49
-1.56 10.24 2.49
-1.76 10.20 2.49
-1.97 10.17 2.49
-2.17 10.13 2.49
-2.38 10.09 2.49
-2.58 10.04 2.49
-2.78 9.99 2.49
-2.98 9.93 2.49
-3.18 9.87 2.49
-3.38 9.81 2.49
-3.58 9.74 2.49
-3.78 9.67 2.49
-3.97 9.60 2.49
-4.16 9.52 2.49
-4.35 9.43 2.49
-4.55 9.35 2.49
-4.73 9.26 2.49
-4.92 9.16 2.49
-5.11 9.07 2.49
-5.29 8.97 2.49
-5.47 8.86 2.49
-5.65 8.75 2.49
-5.83 8.64 2.49
-5.95 8.46 2.48
-5.97 8.13 2.41
-6.08 7.94 2.39
-6.24 7.82 2.39
-6.40 7.70 2.39
-6.56 7.57 2.39
-6.71 7.44 2.39
-6.86 7.31 2.39
-7.01 7.17 2.39
-7.15 7.03 2.39
-7.30 6.89 2.39
-7.44 6.74 2.39
-7.58 6.60 2.39
-7.71 6.45 2.39
-7.84 6.29 2.39
-7.97 6.14 2.39
-8.10 5.98 2.39
-8.22 5.82 2.39
-8.34 5.65 2.39
-8.45 5.49 2.39
-8.57 5.32 2.39
-8.68 5.15 2.39
-8.78 4.98 2.39
-8.89 4.80 2.39
-8.99 4.63 2.39
-9.08 4.45 2.39
-9.17 4.27 2.39
-9.26 4.08 2.39
-9.35 3.90 2.39
-9.43 3.71 2.39
-9.51 3.52 2.39
-9.58 3.33 2.39
-9.65 3.14 2.39
-9.72 2.95 2.39
-9.78 2.75 2.39
-9.84 2.56 2.39
-9.89 2.36 2.39
-9.94 2.16 2.39
-9.99 1.97 2.39
-10.02 1.76 2.39
-10.04 1.56 2.38
-10.05 1.36 2.38
-10.06 1.15 2.37
-10.08 0.95 2.37
-10.11 0.75 2.37
-10.15 0.55 2.38
-10.18 0.34 2.38
-10.20 0.14 2.39
-10.24 -0.07 2.39
-10.27 -0.27 2.40
-10.30 -0.48 2.41
-10.33 -0.69 2.41
-10.35 -0.90 2.42
-10.38 -1.11 2.43
-10.40 -1.33 2.44
-10.42 -1.54 2.45
-10.14 -1.71 2.39
-10.11 -1.91 2.39
-10.07 -2.12 2.39
-10.03 -2.32 2.39
-9.99 -2.52 2.39
-9.94 -2.72 2.39
-9.89 -2.92 2.39
-9.83 -3.12 2.39
-9.77 -3.32 2.39
-9.71 -3.52 2.39
-9.64 -3.71 2.39
-9.57 -3.91 2.39
-9.49 -4.10 2.39
-9.41 -4.29 2.39
-9.33 -4.48 2.39
-9.24 -4.67 2.39
-9.15 -4.85 2.39
-9.05 -5.04 2.39
-8.95 -5.22 2.39
-8.85 -5.40 2.39
-8.74 -5.58 2.39
-8.63 -5.76 2.39
-8.52 -5.93 2.39
-8.40 -6.10 2.39
-8.28 -6.27 2.39
-8.16 -6.44 2.39
-8.03 -6.60 2.39
-7.90 -6.77 2.39
-7.76 -6.93 2.39
-7.62 -7.08 2.39
-7.48 -7.24 2.39
-7.34 -7.39 2.39
-7.19 -7.53 2.39
-7.04 -7.68 2.39
-6.89 -7.82 2.39
-6.73 -7.96 2.39
-6.57 -8.10 2.39
-6.41 -8.23 2.39
-6.26 -8.37 2.40
-6.25 -8.73 2.46
-6.16 -8.97 2.49
-5.98 -9.10 2.49
-5.80 -9.22 2.49
-5.62 -9.33 2.49
-5.43 -9.45 2.49
-5.24 -9.56 2.49
-5.05 -9.66 2.49
-4.85 -9.76 2.49
-4.66 -9.86 2.49
-4.46 -9.95 2.49
-4.26 -10.04 2.49
-4.06 -10.12 2.49
-3.85 -10.20 2.49
-3.65 -10.28 2.49
-3.44 -10.35 2.49
-3.23 -10.42 2.49
-3.02 -10.48 2.49
-2.81 -10.54 2.49
-2.60 -10.59 2.49
-2.39 -10.64 2.49
-2.18 -10.69 2.49
-1.96 -10.73 2.49
-1.75 -10.77 2.49
-1.53 -10.80 2.49
-1.31 -10.83 2.49
-1.09 -10.85 2.49
-0.88 -10.87 2.49
-0.66 -10.89 2.49
-0.44 -10.90 2.49
-0.22 -10.90 2.49
-0.00 -9.87 2.49
0.19 -9.87 2.49
0.39 -9.86 2.49
0.59 -9.85 2.49
0.79 -9.84 2.49
0.98 -9.82 2.49
1.18 -9.79 2.49
1.38 -9.77 2.49
1.57 -9.74 2.49
1.77 -9.70 2.49
1.88 -9.26 2.39
2.06 -9.22 2.39
2.25 -9.18 2.39
2.43 -9.13 2.39
2.61 -9.07 2.39
2.79 -9.02 2.39
2.97 -8.96 2.39
3.15 -8.89 2.39
3.33 -8.83 2.39
3.50 -8.76 2.39
3.68 -8.68 2.39
3.85 -8.60 2.39
4.02 -8.52 2.39
4.19 -8.44 2.39
4.35 -8.35 2.39
4.52 -8.26 2.39
4.68 -8.16 2.39
4.84 -8.06 2.39
5.00 -7.96 2.39
5.16 -7.86 2.39
5.31 -7.75 2.39
5.47 -7.64 2.39
5.62 -7.52 2.39
5.76 -7.41 2.39
5.92 -7.30 2.39
6.06 -7.17 2.39
6.20 -7.05 2.39
6.34 -6.92 2.39
6.47 -6.79 2.39
6.60 -6.65 2.39
6.73 -6.52 2.39
6.86 -6.38 2.39
6.98 -6.24 2.39
7.10 -6.09 2.39
7.22 -5.95 2.39
7.34 -5.80 2.39
7.45 -5.65 2.39
7.56 -5.49 2.39
7.66 -5.34 2.39
7.76 -5.18 2.39
7.86 -5.02 2.39
7.96 -4.86 2.39
8.05 -4.70 2.39
8.14 -4.53 2.39
8.22 -4.37 2.39
8.31 -4.20 2.39
8.38 -4.03 2.39
8.46 -3.86 2.39
8.53 -3.69 2.39
8.60 -3.51 2.39
8.66 -3.34 2.39
8.72 -3.16 2.39
8.78 -2.99 2.39
8.84 -2.81 2.39
8.89 -2.63 2.39
8.93 -2.45 2.39
8.97 -2.27 2.39
9.01 -2.09 2.39
9.05 -1.90 2.39
9.08 -1.72 2.39
9.11 -1.54 2.39
9.13 -1.35 2.39
9.15 -1.17 2.39
9.17 -0.98 2.39
9.19 -0.80 2.39
9.19 -0.62 2.39
9.20 -0.43 2.39
9.20 -0.25 2.39
9.20 -0.06 2.39
9.20 0.12 2.39
9.19 0.31 2.39
9.18 0.49 2.39
9.16 0.68 2.39
9.14 0.86 2.39
9.12 1.04 2.39
9.09 1.23 2.39
9.06 1.41 2.39
9.02 1.59 2.39
8.99 1.77 2.39
8.95 1.95 2.39
8.90 2.13 2.39
8.85 2.30 2.39
8.80 2.48 2.39
8.74 2.65 2.39
8.69 2.83 2.39
8.62 3.00 2.39
8.56 3.17 2.39
8.49 3.34 2.39
8.42 3.51 2.39
8.34 3.68 2.39
8.26 3.84 2.39
8.18 4.01 2.39
8.10 4.17 2.39
8.01 4.33 2.39
7.92 4.49 2.39
7.82 4.64 2.39
7.72 4.80 2.39
7.62 4.95 2.39
7.52 5.10 2.39
7.41 5.25 2.39
7.30 5.40 2.39
7.19 5.54 2.39
7.08 5.68 2.39
6.96 5.82 2.39
6.84 5.96 2.39
6.71 6.09 2.39
6.59 6.22 2.39
6.46 6.35 2.39
6.33 6.48 2.39
6.20 6.60 2.39
6.05 6.72 2.39
5.92 6.84 2.39
5.78 6.95 2.39
5.63 7.06 2.39
5.49 7.18 2.39
5.34 7.28 2.39
5.19 7.39 2.39
2.33 3.46 1.11
4.89 7.59 2.39
4.74 7.68 2.39
4.58 7.78 2.39
4.42 7.86 2.39
4.26 7.95 2.39
4.10 8.03 2.39
3.94 8.11 2.39
3.78 8.19 2.39
3.61 8.26 2.39
3.44 8.33 2.39
3.27 8.40 2.39
3.10 8.46 2.39
2.93 8.52 2.39
2.76 8.58 2.39
2.59 8.63 2.39
2.41 8.68 2.39
2.24 8.73 2.39
2.10 8.95 2.44
1.97 9.19 2.49
1.78 9.23 2.49
1.60 9.27 2.49
1.41 9.30 2.49
1.22 9.32 2.49
1.03 9.35 2.49
0.85 9.37 2.49
0.66 9.38 2.49
0.47 9.39 2.49
0.28 9.40 2.49
0.09 9.41 2.49
-0.10 9.41 2.49
-0.29 9.40 2.49
-0.48 9.40 2.49
-0.66 9.39 2.49
-0.85 9.37 2.49
-1.04 9.36 2.49
-1.23 9.33 2.49
-1.42 9.31 2.49
-1.60 9.28 2.49
-1.79 9.25 2.49
-1.98 9.21 2.49
-2.16 9.17 2.49
-2.35 9.13 2.49
-2.53 9.08 2.49
-2.71 9.03 2.49
-2.90 8.98 2.49
-3.08 8.92 2.49
-3.26 8.86 2.49
-3.43 8.79 2.49
-3.61 8.73 2.49
-3.79 8.65 2.49
-3.96 8.58 2.49
-4.13 8.50 2.49
-4.30 8.42 2.49
-4.47 8.33 2.49
-4.64 8.24 2.49
-4.81 8.15 2.49
-4.97 8.06 2.49
-5.14 7.96 2.49
-5.30 7.85 2.49
-5.46 7.75 2.49
-5.61 7.64 2.49
-5.77 7.53 2.49
-5.92 7.41 2.49
-5.98 7.18 2.46
-5.99 6.91 2.40
-6.10 6.76 2.39
-6.24 6.64 2.39
-6.37 6.52 2.39
-6.50 6.39 2.39
-6.63 6.26 2.39
-6.76 6.13 2.39
-6.88 5.99 2.39
-7.01 5.86 2.39
-7.13 5.72 2.39
-7.24 5.58 2.39
-7.36 5.43 2.39
-7.47 5.28 2.39
-7.58 5.14 2.39
-7.68 4.98 2.39
-7.78 4.83 2.39
-7.88 4.68 2.39
-7.98 4.52 2.39
-8.07 4.36 2.39
-8.16 4.20 2.39
-8.25 4.04 2.39
-8.33 3.87 2.39
-8.41 3.71 2.39
-8.49 3.54 2.39
-8.56 3.37 2.39
-8.63 3.20 2.39
-8.70 3.03 2.39
-8.76 2.85 2.39
-8.82 2.68 2.39
-8.88 2.50 2.39
-8.93 2.32 2.39
-8.98 2.14 2.39
-9.03 1.96 2.39
-9.07 1.78 2.39
-9.11 1.60 2.39
-9.14 1.42 2.39
-9.17 1.24 2.39
-9.20 1.05 2.39
-9.22 0.87 2.39
-9.24 0.68 2.39
-9.26 0.50 2.39
-9.27 0.31 2.39
-9.28 0.13 2.39
-9.29 -0.06 2.39
-9.29 -0.25 2.39
-9.29 -0.43 2.39
-9.28 -0.62 2.39
-9.27 -0.81 2.39
-9.26 -0.99 2.39
-9.24 -1.18 2.39
-9.22 -1.36 2.39
-9.19 -1.55 2.39
-9.16 -1.74 2.39
-9.13 -1.92 2.39
-9.10 -2.10 2.39
-9.06 -2.29 2.39
-9.01 -2.47 2.39
-8.96 -2.65 2.39
-8.91 -2.83 2.39
-8.86 -3.01 2.39
-8.80 -3.19 2.39
-8.74 -3.37 2.39
-8.67 -3.54 2.39
-8.60 -3.72 2.39
-8.53 -3.89 2.39
-8.45 -4.06 2.39
-8.37 -4.23 2.39
-8.29 -4.40 2.39
-8.20 -4.57 2.39
-8.11 -4.73 2.39
-8.02 -4.90 2.39
-7.92 -5.06 2.39
-7.82 -5.22 2.39
-7.72 -5.38 2.39
-7.61 -5.53 2.39
-7.50 -5.69 2.39
-7.39 -5.84 2.39
-7.27 -5.99 2.39
-7.15 -6.13 2.39
-7.03 -6.28 2.39
-6.91 -6.42 2.39
-6.78 -6.56 2.39
-6.65 -6.69 2.39
-6.51 -6.83 2.39
-6.38 -6.96 2.39
-6.24 -7.09 2.39
-6.24 -7.38 2.45
-6.21 -7.65 2.49
-6.06 -7.77 2.49
-5.90 -7.90 2.49
-5.74 -8.01 2.49
-5.58 -8.13 2.49
-5.42 -8.24 2.49
-5.25 -8.35 2.49
-5.09 -8.46 2.49
-4.92 -8.56 2.49
-4.74 -8.65 2.49
-4.57 -8.75 2.49
-4.39 -8.84 2.49
-4.22 -8.93 2.49
-4.04 -9.01 2.49
-3.86 -9.09 2.49
-3.67 -9.17 2.49
-3.49 -9.24 2.49
-3.30 -9.31 2.49
-3.12 -9.37 2.49
-2.93 -9.43 2.49
-2.74 -9.49 2.49
-2.55 -9.55 2.49
-2.36 -9.59 2.49
-2.16 -9.64 2.49
-1.97 -9.68 2.49
-1.78 -9.72 2.49
-1.58 -9.75 2.49
-1.38 -9.78 2.49
-1.19 -9.81 2.49
-0.99 -9.83 2.49
-0.79 -9.85 2.49
-0.60 -9.86 2.49
-0.40 -9.87 2.49
-0.20 -9.87 2.49
-0.00 -9.01 2.49
0.18 -9.01 2.49
0.36 -9.01 2.49
0.54 -9.00 2.49
0.72 -8.98 2.49
0.90 -8.96 2.49
1.08 -8.94 2.49
1.26 -8.92 2.49
1.43 -8.89 2.49
1.61 -8.86 2.49
1.79 -8.82 2.49
1.88 -8.42 2.39
2.05 -8.38 2.39
2.22 -8.33 2.39
2.38 -8.29 2.39
2.55 -8.23 2.39
2.71 -8.18 2.39
2.88 -8.12 2.39
3.04 -8.06 2.39
3.20 -8.00 2.39
3.36 -7.93 2.39
3.51 -7.86 2.39
3.67 -7.78 2.39
3.82 -7.71 2.39
3.98 -7.62 2.39
4.13 -7.54 2.39
4.28 -7.45 2.39
4.42 -7.37 2.39
4.57 -7.27 2.39
4.71 -7.18 2.39
4.85 -7.08 2.39
4.99 -6.98 2.39
5.13 -6.87 2.39
5.26 -6.77 2.39
5.40 -6.66 2.39
5.53 -6.55 2.39
5.66 -6.43 2.39
5.78 -6.31 2.39
5.91 -6.20 2.39
6.03 -6.08 2.39
6.15 -5.96 2.39
6.27 -5.83 2.39
6.38 -5.70 2.39
6.49 -5.57 2.39
6.60 -5.44 2.39
6.70 -5.30 2.39
6.81 -5.16 2.39
6.90 -5.02 2.39
7.00 -4.88 2.39
7.09 -4.74 2.39
7.18 -4.59 2.39
7.27 -4.45 2.39
7.36 -4.30 2.39
7.44 -4.15 2.39
7.52 -3.99 2.39
7.59 -3.84 2.39
7.66 -3.69 2.39
7.73 -3.53 2.39
7.80 -3.37 2.39
7.86 -3.21 2.39
7.92 -3.05 2.39
7.98 -2.89 2.39
8.03 -2.73 2.39
8.08 -2.57 2.39
8.13 -2.40 2.39
8.17 -2.24 2.39
8.21 -2.07 2.39
8.24 -1.91 2.39
8.28 -1.74 2.39
8.31 -1.57 2.39
8.33 -1.41 2.39
8.35 -1.24 2.39
8.37 -1.07 2.39
8.39 -0.90 2.39
8.40 -0.73 2.39
8.41 -0.56 2.39
8.42 -0.39 2.39
8.42 -0.23 2.39
8.42 -0.06 2.39
8.41 0.11 2.39
8.41 0.28 2.39
8.40 0.45 2.39
8.38 0.62 2.39
8.36 0.79 2.39
8.34 0.95 2.39
8.32 1.12 2.39
8.29 1.29 2.39
8.26 1.45 2.39
8.23 1.62 2.39
8.19 1.78 2.39
8.15 1.94 2.39
8.10 2.11 2.39
8.06 2.27 2.39
8.01 2.43 2.39
7.95 2.59 2.39
7.90 2.75 2.39
7.84 2.90 2.39
7.77 3.06 2.39
7.71 3.21 2.39
7.64 3.37 2.39
7.57 3.52 2.39
7.49 3.67 2.39
7.41 3.82 2.39
7.33 3.96 2.39
7.25 4.11 2.39
7.16 4.25 2.39
7.07 4.39 2.39
6.98 4.53 2.39
6.89 4.67 2.39
6.79 4.81 2.39
6.69 4.94 2.39
6.59 5.07 2.39
6.48 5.20 2.39
6.37 5.33 2.39
6.26 5.46 2.39
6.15 5.58 2.39
6.03 5.69 2.39
5.91 5.81 2.39
5.79 5.93 2.39
5.67 6.04 2.39
5.55 6.15 2.39
5.42 6.26 2.39
5.29 6.37 2.39
5.16 6.47 2.39
5.03 6.57 2.39
4.90 6.67 2.39
4.76 6.77 2.39
2.33 3.46 1.21
2.30 3.57 1.23
4.34 7.04 2.39
4.20 7.12 2.39
4.05 7.21 2.39
3.91 7.28 2.39
3.76 7.36 2.39
3.61 7.43 2.39
3.46 7.50 2.39
3.31 7.57 2.39
3.15 7.64 2.39
3.00 7.70 2.39
2.84 7.76 2.39
2.69 7.81 2.39
2.53 7.86 2.39
2.37 7.91 2.39
2.21 7.96 2.39
2.09 8.15 2.44
1.97 8.39 2.49
1.80 8.42 2.49
1.63 8.46 2.49
1.46 8.49 2.49
1.29 8.52 2.49
1.12 8.54 2.49
0.95 8.56 2.49
0.78 8.58 2.49
0.60 8.60 2.49
0.43 8.61 2.49
0.26 8.61 2.49
0.08 8.62 2.49
-0.09 8.62 2.49
-0.26 8.62 2.49
-0.44 8.61 2.49
-0.61 8.60 2.49
-0.78 8.59 2.49
-0.96 8.57 2.49
-1.13 8.55 2.49
-1.30 8.53 2.49
-1.47 8.50 2.49
-1.64 8.47 2.49
-1.81 8.44 2.49
-1.98 8.40 2.49
-2.15 8.36 2.49
-2.32 8.32 2.49
-2.49 8.27 2.49
-2.65 8.22 2.49
-2.82 8.17 2.49
-2.98 8.11 2.49
-3.15 8.05 2.49
-3.31 7.99 2.49
-3.47 7.93 2.49
-3.63 7.86 2.49
-3.79 7.78 2.49
-3.94 7.71 2.49
-4.10 7.63 2.49
-4.25 7.55 2.49
-4.40 7.46 2.49
-4.56 7.38 2.49
-4.70 7.29 2.49
-4.85 7.19 2.49
-5.00 7.10 2.49
-5.14 7.00 2.49
-5.28 6.89 2.49
-5.42 6.79 2.49
-5.56 6.68 2.49
-5.69 6.57 2.49
-5.83 6.46 2.49
-5.96 6.34 2.49
-5.99 6.13 2.46
-6.01 5.90 2.41
-6.07 5.73 2.39
-6.19 5.61 2.39
-6.30 5.49 2.39
-6.41 5.36 2.39
-6.52 5.23 2.39
-6.63 5.10 2.39
-6.73 4.97 2.39
-6.84 4.84 2.39
-6.93 4.70 2.39
-7.03 4.56 2.39
-7.12 4.42 2.39
-7.21 4.28 2.39
-7.30 4.13 2.39
-7.39 3.99 2.39
-7.47 3.84 2.39
-7.55 3.69 2.39
-7.62 3.54 2.39
-7.70 3.39 2.39
-7.77 3.24 2.39
-7.83 3.08 2.39
-7.90 2.92 2.39
-7.96 2.77 2.39
-8.02 2.61 2.39
-8.07 2.45 2.39
-8.12 2.29 2.39
-8.17 2.12 2.39
-8.21 1.96 2.39
-8.26 1.79 2.39
-8.29 1.63 2.39
-8.33 1.46 2.39
-8.36 1.30 2.39
-8.39 1.13 2.39
-8.41 0.96 2.39
-8.43 0.79 2.39
-8.45 0.62 2.39
-8.47 0.45 2.39
-8.48 0.28 2.39
-8.49 0.11 2.39
-8.49 -0.06 2.39
-8.49 -0.23 2.39
-8.49 -0.40 2.39
-8.48 -0.57 2.39
-8.47 -0.74 2.39
-8.46 -0.91 2.39
-8.44 -1.08 2.39
-8.43 -1.25 2.39
-8.40 -1.42 2.39
-8.38 -1.59 2.39
-8.35 -1.76 2.39
-8.31 -1.92 2.39
-8.28 -2.09 2.39
-8.24 -2.26 2.39
-8.19 -2.42 2.39
-8.14 -2.59 2.39
-8.09 -2.75 2.39
-8.04 -2.91 2.39
-7.98 -3.08 2.39
-7.92 -3.24 2.39
-7.86 -3.40 2.39
-7.79 -3.55 2.39
-7.72 -3.71 2.39
-7.65 -3.87 2.39
-7.57 -4.02 2.39
-7.49 -4.17 2.39
-7.41 -4.32 2.39
-7.33 -4.47 2.39
-7.24 -4.62 2.39
-7.15 -4.77 2.39
-7.05 -4.91 2.39
-6.95 -5.05 2.39
-6.85 -5.19 2.39
-6.75 -5.33 2.39
-6.64 -5.47 2.39
-6.53 -5.60 2.39
-6.42 -5.73 2.39
-6.31 -5.86 2.39
-6.22 -6.02 2.40
-6.22 -6.26 2.45
-6.21 -6.50 2.49
-6.07 -6.63 2.49
-5.94 -6.75 2.49
-5.81 -6.87 2.49
-5.67 -6.99 2.49
-5.53 -7.10 2.49
-5.39 -7.21 2.49
-5.24 -7.32 2.49
-5.10 -7.42 2.49
-4.95 -7.52 2.49
-4.80 -7.62 2.49
-4.64 -7.72 2.49
-4.49 -7.81 2.49
-4.33 -7.90 2.49
-4.17 -7.99 2.49
-4.01 -8.07 2.49
-3.85 -8.15 2.49
-3.69 -8.23 2.49
-3.52 -8.30 2.49
-3.35 -8.37 2.49
-3.19 -8.44 2.49
-3.02 -8.50 2.49
-2.85 -8.56 2.49
-2.67 -8.61 2.49
-2.50 -8.67 2.49
-2.33 -8.71 2.49
-2.15 -8.76 2.49
-1.98 -8.80 2.49
-1.80 -8.84 2.49
-1.62 -8.87 2.49
-1.44 -8.90 2.49
-1.26 -8.93 2.49
-1.09 -8.95 2.49
-0.91 -8.97 2.49
-0.73 -8.99 2.49
-0.55 -9.00 2.49
-0.36 -9.01 2.49
-0.18 -9.01 2.49
-0.00 -8.28 2.49
0.16 -8.28 2.49
0.33 -8.28 2.49
0.49 -8.27 2.49
0.66 -8.25 2.49
0.82 -8.24 2.49
0.99 -8.22 2.49
1.15 -8.20 2.49
1.32 -8.17 2.49
1.48 -8.14 2.49
1.64 -8.11 2.49
1.80 -8.04 2.49
1.89 -7.70 2.39
2.04 -7.66 2.39
2.19 -7.62 2.39
2.34 -7.57 2.39
2.49 -7.52 2.39
2.64 -7.47 2.39
2.79 -7.41 2.39
2.94 -7.35 2.39
3.08 -7.29 2.39
3.23 -7.22 2.39
3.37 -7.15 2.39
3.51 -7.08 2.39
3.65 -7.01 2.39
3.79 -6.93 2.39
3.93 -6.85 2.39
4.07 -6.77 2.39
4.20 -6.69 2.39
4.33 -6.60 2.39
4.46 -6.51 2.39
4.59 -6.42 2.39
4.72 -6.32 2.39
4.84 -6.22 2.39
4.96 -6.12 2.39
5.08 -6.02 2.39
5.20 -5.91 2.39
5.32 -5.81 2.39
5.43 -5.70 2.39
5.54 -5.59 2.39
5.65 -5.47 2.39
5.76 -5.35 2.39
5.86 -5.24 2.39
5.97 -5.12 2.39
6.07 -5.00 2.39
6.16 -4.88 2.39
6.26 -4.75 2.39
6.35 -4.62 2.39
6.44 -4.49 2.39
6.53 -4.36 2.39
6.61 -4.23 2.39
6.69 -4.09 2.39
6.77 -3.95 2.39
6.84 -3.82 2.39
6.91 -3.68 2.39
6.98 -3.53 2.39
7.05 -3.39 2.39
7.11 -3.25 2.39
7.18 -3.10 2.39
7.23 -2.96 2.39
7.29 -2.81 2.39
7.34 -2.66 2.39
7.39 -2.51 2.39
7.43 -2.36 2.39
7.48 -2.21 2.39
7.52 -2.06 2.39
7.55 -1.91 2.39
7.59 -1.76 2.39
7.62 -1.60 2.39
7.64 -1.45 2.39
7.67 -1.30 2.39
7.69 -1.14 2.39
7.71 -0.99 2.39
7.72 -0.83 2.39
7.74 -0.68 2.39
7.74 -0.52 2.39
7.75 -0.36 2.39
7.75 -0.21 2.39
7.75 -0.05 2.39
7.75 0.10 2.39
7.74 0.26 2.39
7.73 0.41 2.39
7.72 0.57 2.39
7.70 0.72 2.39
7.68 0.88 2.39
7.66 1.03 2.39
7.64 1.18 2.39
7.61 1.34 2.39
7.58 1.49 2.39
7.54 1.64 2.39
7.50 1.79 2.39
7.46 1.94 2.39
7.42 2.09 2.39
7.37 2.24 2.39
7.32 2.38 2.39
7.27 2.53 2.39
7.22 2.67 2.39
7.16 2.82 2.39
7.10 2.96 2.39
7.04 3.10 2.39
6.97 3.24 2.39
6.90 3.38 2.39
6.83 3.52 2.39
6.76 3.65 2.39
6.68 3.78 2.39
6.60 3.92 2.39
6.52 4.05 2.39
6.43 4.18 2.39
6.35 4.30 2.39
6.26 4.43 2.39
6.16 4.55 2.39
6.07 4.67 2.39
5.96 4.79 2.39
5.87 4.90 2.39
5.76 5.02 2.39
5.66 5.13 2.39
5.56 5.25 2.39
5.45 5.35 2.39
5.34 5.46 2.39
5.23 5.57 2.39
5.11 5.67 2.39
5.00 5.77 2.39
4.88 5.87 2.39
4.76 5.96 2.39
4.64 6.06 2.39
4.51 6.15 2.39
4.39 6.24 2.39
2.33 3.46 1.31
2.29 3.56 1.33
4.00 6.49 2.39
3.87 6.57 2.39
3.74 6.64 2.39
3.60 6.71 2.39
3.47 6.78 2.39
3.33 6.85 2.39
3.19 6.92 2.39
3.05 6.98 2.39
2.91 7.04 2.39
2.77 7.09 2.39
2.62 7.15 2.39
2.48 7.20 2.39
2.33 7.25 2.39
2.19 7.29 2.39
2.08 7.48 2.44
1.97 7.69 2.49
1.82 7.73 2.49
1.66 7.77 2.49
1.50 7.80 2.49
1.35 7.83 2.49
1.19 7.85 2.49
1.03 7.87 2.49
0.87 7.89 2.49
0.71 7.91 2.49
0.56 7.92 2.49
0.40 7.93 2.49
0.24 7.94 2.49
0.08 7.94 2.49
-0.08 7.94 2.49
-0.24 7.94 2.49
-0.40 7.94 2.49
-0.56 7.93 2.49
-0.72 7.92 2.49
-0.88 7.90 2.49
-1.04 7.88 2.49
-1.20 7.86 2.49
-1.36 7.84 2.49
-1.51 7.81 2.49
-1.67 7.78 2.49
-1.83 7.74 2.49
-1.98 7.71 2.49
-2.14 7.67 2.49
-2.29 7.62 2.49
-2.45 7.58 2.49
-2.60 7.53 2.49
-2.75 7.48 2.49
-2.90 7.42 2.49
-3.05 7.36 2.49
-3.20 7.30 2.49
-3.34 7.24 2.49
-3.49 7.17 2.49
-3.63 7.10 2.49
-3.78 7.03 2.49
-3.92 6.96 2.49
-4.06 6.88 2.49
-4.20 6.80 2.49
-4.33 6.71 2.49
-4.47 6.63 2.49
-4.60 6.54 2.49
-4.74 6.44 2.49
-4.87 6.35 2.49
-4.99 6.25 2.49
-5.12 6.15 2.49
-5.25 6.05 2.49
-5.37 5.95 2.49
-5.49 5.84 2.49
-5.61 5.73 2.49
-5.72 5.62 2.49
-5.84 5.50 2.49
-5.95 5.39 2.49
-6.01 5.23 2.48
-6.02 5.03 2.43
-6.03 4.83 2.40
-6.11 4.70 2.39
-6.20 4.58 2.39
-6.30 4.45 2.39
-6.39 4.33 2.39
-6.47 4.20 2.39
-6.56 4.07 2.39
-6.64 3.94 2.39
-6.72 3.81 2.39
-6.80 3.67 2.39
-6.88 3.54 2.39
-6.95 3.40 2.39
-7.02 3.26 2.39
-7.09 3.12 2.39
-7.15 2.98 2.39
-7.21 2.84 2.39
-7.27 2.69 2.39
-7.33 2.55 2.39
-7.38 2.40 2.39
-7.43 2.25 2.39
-7.48 2.10 2.39
-7.52 1.95 2.39
-7.56 1.80 2.39
-7.60 1.65 2.39
-7.63 1.50 2.39
-7.67 1.35 2.39
-7.69 1.19 2.39
-7.72 1.04 2.39
-7.74 0.88 2.39
-7.76 0.73 2.39
-7.78 0.57 2.39
-7.79 0.42 2.39
-7.80 0.26 2.39
-7.81 0.10 2.39
-7.81 -0.05 2.39
-7.81 -0.21 2.39
-7.81 -0.37 2.39
-7.80 -0.52 2.39
-7.80 -0.68 2.39
-7.78 -0.84 2.39
-7.77 -0.99 2.39
-7.75 -1.15 2.39
-7.73 -1.31 2.39
-7.70 -1.46 2.39
-7.68 -1.62 2.39
-7.65 -1.77 2.39
-7.61 -1.92 2.39
-7.57 -2.08 2.39
-7.53 -2.23 2.39
-7.49 -2.38 2.39
-7.44 -2.53 2.39
-7.39 -2.68 2.39
-7.34 -2.83 2.39
-7.29 -2.98 2.39
-7.23 -3.12 2.39
-7.17 -3.27 2.39
-7.10 -3.41 2.39
-7.03 -3.56 2.39
-6.96 -3.70 2.39
-6.89 -3.84 2.39
-6.81 -3.98 2.39
-6.74 -4.11 2.39
-6.65 -4.25 2.39
-6.57 -4.38 2.39
-6.48 -4.52 2.39
-6.40 -4.65 2.39
-6.30 -4.77 2.39
-6.20 -4.90 2.39
-6.20 -5.10 2.43
-6.20 -5.31 2.47
-6.16 -5.50 2.49
-6.05 -5.62 2.49
-5.94 -5.74 2.49
-5.82 -5.86 2.49
-5.70 -5.98 2.49
-5.58 -6.09 2.49
-5.46 -6.20 2.49
-5.34 -6.31 2.49
-5.21 -6.42 2.49
-5.08 -6.53 2.49
-4.95 -6.63 2.49
-4.82 -6.73 2.49
-4.68 -6.82 2.49
-4.55 -6.92 2.49
-4.41 -7.01 2.49
-4.27 -7.09 2.49
-4.12 -7.18 2.49
-3.98 -7.26 2.49
-3.83 -7.34 2.49
-3.69 -7.42 2.49
-3.54 -7.49 2.49
-3.39 -7.56 2.49
-3.24 -7.63 2.49
-3.08 -7.69 2.49
-2.93 -7.75 2.49
-2.77 -7.81 2.49
-2.61 -7.86 2.49
-2.46 -7.91 2.49
-2.30 -7.96 2.49
-2.14 -8.01 2.49
-1.98 -8.05 2.49
-1.82 -8.09 2.49
-1.65 -8.12 2.49
-1.49 -8.15 2.49
-1.33 -8.18 2.49
-1.16 -8.21 2.49
-1.00 -8.23 2.49
-0.83 -8.24 2.49
-0.67 -8.26 2.49
-0.50 -8.27 2.49
-0.34 -8.28 2.49
-0.17 -8.28 2.49
-0.00 -7.66 2.49
0.15 -7.65 2.49
0.30 -7.65 2.49
0.46 -7.64 2.49
0.61 -7.63 2.49
0.76 -7.61 2.49
0.91 -7.60 2.49
1.07 -7.57 2.49
1.22 -7.55 2.49
1.37 -7.52 2.49
1.52 -7.49 2.49
1.67 -7.46 2.49
1.81 -7.40 2.49
1.88 -7.08 2.39
2.02 -7.04 2.39
2.16 -7.00 2.39
2.30 -6.95 2.39
2.44 -6.90 2.39
2.58 -6.85 2.39
2.72 -6.79 2.39
2.85 -6.74 2.39
2.98 -6.68 2.39
3.12 -6.61 2.39
3.25 -6.55 2.39
3.38 -6.48 2.39
3.51 -6.41 2.39
3.63 -6.34 2.39
3.76 -6.26 2.39
3.88 -6.18 2.39
4.00 -6.10 2.39
4.12 -6.02 2.39
4.24 -5.93 2.39
4.36 -5.84 2.39
4.47 -5.75 2.39
4.59 -5.66 2.39
4.70 -5.57 2.39
4.81 -5.47 2.39
4.91 -5.37 2.39
5.02 -5.27 2.39
5.12 -5.17 2.39
5.22 -5.06 2.39
5.32 -4.95 2.39
5.42 -4.84 2.39
5.51 -4.73 2.39
5.60 -4.62 2.39
5.69 -4.50 2.39
5.78 -4.39 2.39
5.86 -4.27 2.39
5.95 -4.15 2.39
6.03 -4.03 2.39
6.11 -3.91 2.39
6.19 -3.78 2.39
6.26 -3.66 2.39
6.33 -3.53 2.39
6.40 -3.40 2.39
6.46 -3.27 2.39
6.52 -3.14 2.39
6.58 -3.01 2.39
6.64 -2.87 2.39
6.69 -2.74 2.39
6.74 -2.60 2.39
6.79 -2.47 2.39
6.84 -2.33 2.39
6.88 -2.19 2.39
6.92 -2.05 2.39
6.95 -1.91 2.39
6.99 -1.77 2.39
7.02 -1.63 2.39
7.05 -1.49 2.39
7.07 -1.34 2.39
7.10 -1.20 2.39
7.12 -1.06 2.39
7.13 -0.91 2.39
7.15 -0.77 2.39
7.16 -0.63 2.39
7.17 -0.48 2.39
7.17 -0.34 2.39
7.17 -0.19 2.39
7.17 -0.05 2.39
7.17 0.09 2.39
7.17 0.24 2.39
7.16 0.38 2.39
7.14 0.52 2.39
7.13 0.67 2.39
7.11 0.81 2.39
7.09 0.95 2.39
7.07 1.10 2.39
7.04 1.24 2.39
7.01 1.38 2.39
6.98 1.52 2.39
6.95 1.66 2.39
6.91 1.80 2.39
6.87 1.93 2.39
6.83 2.07 2.39
6.78 2.21 2.39
6.73 2.34 2.39
6.68 2.47 2.39
6.63 2.61 2.39
6.57 2.74 2.39
6.52 2.87 2.39
6.45 3.00 2.39
6.39 3.13 2.39
6.33 3.25 2.39
6.26 3.38 2.39
6.19 3.50 2.39
6.11 3.63 2.39
6.03 3.74 2.39
5.95 3.86 2.39
5.87 3.98 2.39
5.79 4.10 2.39
5.70 4.21 2.39
5.61 4.32 2.39
5.53 4.43 2.39
5.43 4.54 2.39
5.34 4.65 2.39
5.24 4.76 2.39
5.15 4.86 2.39
5.05 4.96 2.39
4.94 5.06 2.39
4.84 5.16 2.39
4.74 5.25 2.39
4.63 5.35 2.39
4.52 5.44 2.39
4.41 5.52 2.39
4.29 5.61 2.39
4.18 5.70 2.39
4.06 5.78 2.39
2.32 3.44 1.40
2.26 3.50 1.41
3.71 6.01 2.39
3.58 6.08 2.39
3.46 6.15 2.39
3.34 6.22 2.39
3.21 6.29 2.39
3.08 6.35 2.39
2.95 6.41 2.39
2.82 6.47 2.39
2.69 6.52 2.39
2.56 6.57 2.39
2.43 6.62 2.39
2.30 6.67 2.39
2.16 6.71 2.39
2.07 6.89 2.44
1.97 7.09 2.49
1.83 7.13 2.49
1.68 7.16 2.49
1.54 7.19 2.49
1.39 7.22 2.49
1.25 7.25 2.49
1.10 7.27 2.49
0.96 7.30 2.49
0.81 7.31 2.49
0.66 7.33 2.49
0.51 7.34 2.49
0.37 7.35 2.49
0.22 7.36 2.49
0.07 7.36 2.49
-0.08 7.36 2.49
-0.23 7.36 2.49
-0.37 7.35 2.49
-0.52 7.34 2.49
-0.67 7.33 2.49
-0.82 7.32 2.49
-0.96 7.30 2.49
-1.11 7.28 2.49
-1.26 7.26 2.49
-1.40 7.23 2.49
-1.55 7.21 2.49
-1.69 7.17 2.49
-1.84 7.14 2.49
-1.98 7.10 2.49
-2.12 7.06 2.49
-2.27 7.02 2.49
-2.41 6.97 2.49
-2.55 6.93 2.49
-2.69 6.88 2.49
-2.82 6.82 2.49
-2.96 6.76 2.49
-3.10 6.71 2.49
-3.23 6.64 2.49
-3.37 6.58 2.49
-3.50 6.51 2.49
-3.63 6.44 2.49
-3.76 6.37 2.49
-3.89 6.29 2.49
-4.02 6.22 2.49
-4.14 6.14 2.49
-4.26 6.05 2.49
-4.39 5.97 2.49
-4.51 5.88 2.49
-4.63 5.79 2.49
-4.74 5.70 2.49
-4.86 5.60 2.49
-4.97 5.51 2.49
-5.08 5.41 2.49
-5.19 5.31 2.49
-5.30 5.20 2.49
-5.40 5.10 2.49
-5.51 4.99 2.49
-5.61 4.88 2.49
-5.71 4.77 2.49
-5.80 4.65 2.49
-5.90 4.54 2.49
-5.99 4.42 2.49
-6.03 4.26 2.47
-6.03 4.09 2.44
-6.04 3.92 2.41
-6.07 3.77 2.39
-6.15 3.65 2.39
-6.22 3.52 2.39
-6.30 3.40 2.39
-6.37 3.27 2.39
-6.43 3.15 2.39
-6.50 3.02 2.39
-6.56 2.89 2.39
-6.62 2.76 2.39
-6.67 2.62 2.39
-6.73 2.49 2.39
-6.78 2.35 2.39
-6.83 2.22 2.39
-6.87 2.08 2.39
-6.92 1.94 2.39
-6.96 1.81 2.39
-7.00 1.67 2.39
-7.03 1.53 2.39
-7.06 1.39 2.39
-7.09 1.24 2.39
-7.12 1.10 2.39
-7.14 0.96 2.39
-7.16 0.82 2.39
-7.18 0.67 2.39
-7.20 0.53 2.39
-7.21 0.38 2.39
-7.22 0.24 2.39
-7.22 0.09 2.39
-7.23 -0.05 2.39
-7.23 -0.20 2.39
-7.22 -0.34 2.39
-7.22 -0.49 2.39
-7.21 -0.63 2.39
