ply
format ascii 1.0
element vertex 2932
property float32 x
property float32 y
property float32 z
end_header
5.50 -12.93 1.85
5.49 -12.23 1.77
5.57 -11.76 1.71
5.70 -11.44 1.68
5.86 -11.19 1.66
6.04 -11.00 1.65
6.24 -10.84 1.65
6.46 -10.73 1.65
6.70 -10.64 1.65
6.97 -10.59 1.66
7.28 -10.58 1.69
7.60 -10.59 1.71
7.96 -10.63 1.74
8.32 -10.67 1.77
8.70 -10.69 1.81
9.07 -10.71 1.84
9.46 -10.72 1.87
9.86 -10.73 1.91
10.27 -10.75 1.95
10.71 -10.76 1.99
11.16 -10.78 2.03
11.64 -10.79 2.08
12.13 -10.81 2.13
12.65 -10.83 2.18
13.20 -10.84 2.24
13.44 -10.59 2.24
13.20 -9.98 2.17
13.39 -9.71 2.17
13.58 -9.44 2.17
13.77 -9.16 2.17
13.94 -8.88 2.17
14.11 -8.60 2.17
14.28 -8.31 2.17
13.76 -7.65 2.07
13.72 -7.27 2.04
13.67 -6.90 2.01
13.67 -6.55 2.00
13.68 -6.22 1.98
13.69 -5.90 1.96
13.74 -5.60 1.96
13.81 -5.31 1.95
14.12 -5.10 1.98
15.15 -5.13 2.11
15.30 -4.85 2.12
15.31 -4.51 2.11
15.32 -4.19 2.10
15.37 -3.87 2.10
15.42 -3.56 2.10
15.47 -3.24 2.10
15.51 -2.93 2.10
9.89 -1.66 1.33
9.91 -1.46 1.33
10.21 -1.30 1.37
10.22 -1.09 1.37
10.23 -0.88 1.37
10.23 -0.68 1.37
10.24 -0.47 1.37
10.23 -0.27 1.37
10.22 -0.06 1.37
10.21 0.14 1.37
10.19 0.35 1.37
10.17 0.55 1.37
10.15 0.75 1.37
10.12 0.96 1.37
10.09 1.16 1.37
10.05 1.36 1.37
9.74 1.52 1.33
9.69 1.71 1.33
9.84 1.94 1.36
12.31 2.68 1.71
11.36 2.72 1.59
10.53 2.74 1.48
9.81 2.77 1.39
9.18 2.79 1.31
8.61 2.81 1.24
8.11 2.82 1.18
7.65 2.84 1.12
7.24 2.85 1.07
7.01 2.92 1.04
6.83 3.01 1.03
14.27 6.64 2.17
14.11 6.91 2.17
13.95 7.18 2.17
13.79 7.45 2.17
13.44 7.61 2.14
13.28 7.88 2.14
13.11 8.14 2.15
13.51 8.77 2.24
13.31 9.02 2.24
13.10 9.27 2.24
12.90 9.52 2.24
12.68 9.76 2.24
12.47 10.00 2.24
12.24 10.23 2.24
12.02 10.46 2.24
11.79 10.68 2.24
11.57 10.92 2.25
11.40 11.20 2.26
11.23 11.48 2.28
11.06 11.77 2.29
10.87 12.05 2.31
10.69 12.33 2.32
10.49 12.61 2.34
10.29 12.88 2.35
9.91 12.93 2.33
9.49 12.91 2.29
9.13 12.96 2.27
8.75 12.97 2.25
8.36 12.95 2.22
8.03 12.99 2.20
7.66 12.97 2.17
7.34 13.01 2.16
7.00 13.03 2.14
6.66 13.00 2.12
5.98 12.28 1.98
5.77 12.49 2.00
6.60 15.06 2.39
6.29 15.17 2.39
5.97 15.27 2.39
5.66 15.37 2.39
5.34 15.46 2.39
5.02 15.54 2.39
4.70 15.62 2.39
4.38 15.69 2.39
4.06 15.76 2.39
3.74 15.82 2.39
3.42 15.87 2.39
3.09 15.91 2.39
2.77 15.95 2.39
2.55 16.68 2.49
2.21 16.71 2.49
1.87 16.73 2.49
1.54 16.74 2.49
1.20 16.75 2.49
0.86 16.75 2.49
0.52 16.75 2.49
0.19 16.74 2.49
-0.15 16.72 2.49
-0.49 16.70 2.49
-0.82 16.67 2.49
-1.15 16.63 2.49
-1.49 16.59 2.49
-1.82 16.54 2.49
-2.15 16.49 2.49
-2.48 16.43 2.49
-2.22 12.95 1.97
-2.33 12.15 1.86
-2.37 11.11 1.71
-2.40 10.23 1.58
-2.50 9.77 1.52
-2.71 9.78 1.53
-2.92 9.79 1.54
-3.14 9.79 1.55
-3.36 9.80 1.57
-3.59 9.81 1.58
-3.82 9.81 1.59
-4.05 9.82 1.61
-4.28 9.83 1.63
-6.53 14.20 2.37
-6.87 14.19 2.39
-7.16 14.04 2.39
-7.43 13.89 2.39
-7.71 13.73 2.39
-7.98 13.57 2.39
-8.25 13.40 2.39
-8.51 13.23 2.39
-8.77 13.05 2.39
-9.03 12.87 2.39
-9.29 12.68 2.39
-10.36 13.57 2.60
-10.80 13.57 2.64
-11.88 14.32 2.83
-12.79 14.81 2.98
-13.13 14.59 2.99
-13.48 14.39 3.00
-9.62 9.87 2.10
-9.64 9.50 2.06
-14.56 13.77 3.05
-14.85 13.49 3.06
-15.07 13.15 3.05
-15.32 12.84 3.04
-15.57 12.52 3.04
-15.81 12.20 3.04
-16.04 11.87 3.04
-9.72 6.90 1.81
-16.49 11.21 3.03
-9.75 6.35 1.77
-16.93 10.54 3.03
-17.17 10.21 3.04
-17.39 9.88 3.04
-9.77 5.29 1.69
-9.79 5.05 1.67
-18.03 8.85 3.05
-18.22 8.49 3.05
-18.40 8.13 3.05
-18.58 7.76 3.05
-18.75 7.40 3.05
-18.92 7.03 3.06
-9.84 3.43 1.58
-9.84 3.21 1.57
-9.85 3.00 1.56
-9.86 2.78 1.55
-9.86 2.57 1.54
-6.21 -0.54 0.93
-10.05 -2.97 1.54
-10.05 -3.19 1.55
-10.06 -3.42 1.56
-10.07 -3.65 1.57
-10.08 -3.88 1.58
-19.51 -8.43 3.10
-19.37 -8.84 3.10
-19.37 -9.31 3.12
-19.41 -9.81 3.16
-10.13 -5.38 1.66
-10.14 -5.65 1.68
-18.85 -11.00 3.15
-18.03 -11.01 3.05
-10.17 -6.50 1.74
-17.39 -11.61 3.01
-17.35 -12.10 3.04
-17.31 -12.59 3.07
-17.04 -12.92 3.06
-16.50 -13.05 3.01
-10.23 -8.42 1.89
-15.54 -13.34 2.92
-10.26 -9.16 1.96
-15.35 -14.28 2.98
-10.28 -9.95 2.03
-10.30 -10.38 2.07
-14.68 -15.40 3.01
-10.33 -11.28 2.16
-13.95 -15.86 2.98
-10.36 -12.27 2.26
-11.53 -14.23 2.58
-11.41 -14.67 2.61
-10.19 -13.66 2.39
-9.93 -13.89 2.39
-9.66 -14.10 2.39
-9.39 -14.32 2.39
-9.12 -14.52 2.39
-8.84 -14.73 2.39
-8.55 -14.92 2.39
-8.26 -15.11 2.39
-7.97 -15.30 2.39
-7.35 -14.82 2.29
-7.25 -15.40 2.35
-6.77 -15.16 2.29
-6.76 -15.98 2.39
-6.46 -16.17 2.40
-6.39 -16.99 2.49
-6.06 -17.14 2.49
-5.72 -17.28 2.49
-5.38 -17.42 2.49
-5.04 -17.54 2.49
-4.69 -17.67 2.49
-4.34 -17.78 2.49
-3.99 -17.89 2.49
-3.64 -17.99 2.49
-3.28 -18.08 2.49
-2.92 -18.17 2.49
-2.56 -18.25 2.49
-2.20 -18.32 2.49
-1.83 -18.38 2.49
-1.46 -18.44 2.49
-1.09 -18.48 2.49
-0.72 -18.52 2.49
-0.35 -18.56 2.49
0.02 -15.86 2.49
0.34 -15.88 2.49
0.66 -15.88 2.49
0.98 -15.88 2.49
1.30 -15.87 2.49
1.61 -15.83 2.49
1.82 -14.91 2.35
2.16 -15.15 2.39
2.38 -14.62 2.31
2.77 -15.08 2.39
3.07 -15.03 2.39
3.38 -14.98 2.39
3.68 -14.92 2.39
3.98 -14.85 2.39
4.28 -14.78 2.39
4.58 -14.70 2.39
4.88 -14.61 2.39
5.17 -14.52 2.39
5.46 -14.42 2.39
5.51 -13.72 2.29
5.50 -12.92 2.18
5.49 -12.23 2.08
5.57 -11.76 2.01
5.70 -11.44 1.98
5.86 -11.19 1.95
6.04 -11.00 1.94
6.24 -10.84 1.93
6.46 -10.73 1.93
6.71 -10.64 1.94
6.97 -10.59 1.96
7.28 -10.58 1.98
7.61 -10.59 2.01
7.96 -10.63 2.05
8.32 -10.67 2.09
8.70 -10.69 2.12
9.07 -10.71 2.16
9.46 -10.72 2.20
9.86 -10.73 2.25
10.09 -10.56 2.25
10.30 -10.35 2.25
10.11 -9.76 2.17
10.36 -9.61 2.18
10.54 -9.39 2.18
10.72 -9.17 2.17
10.88 -8.94 2.17
11.05 -8.71 2.17
11.21 -8.48 2.17
11.36 -8.24 2.16
11.51 -8.00 2.16
11.81 -7.86 2.19
12.31 -7.85 2.25
12.47 -7.60 2.25
12.62 -7.35 2.25
12.77 -7.10 2.26
12.91 -6.84 2.26
13.04 -6.58 2.26
13.17 -6.32 2.26
13.29 -6.05 2.26
13.40 -5.78 2.26
13.50 -5.50 2.26
13.59 -5.23 2.26
12.99 -4.70 2.14
13.06 -4.43 2.14
13.32 -4.22 2.17
13.40 -3.95 2.17
13.46 -3.68 2.17
13.52 -3.41 2.17
13.58 -3.13 2.17
13.62 -2.86 2.17
14.16 -2.67 2.25
14.25 -2.40 2.25
11.32 -1.67 1.79
14.32 -1.82 2.26
14.34 -1.53 2.26
8.95 -0.78 1.41
8.90 -0.59 1.40
8.85 -0.41 1.39
8.80 -0.23 1.38
8.76 -0.05 1.37
8.71 0.12 1.37
8.74 0.30 1.38
8.80 0.48 1.39
8.87 0.66 1.40
14.17 1.34 2.25
14.12 1.62 2.25
14.06 1.90 2.24
14.00 2.18 2.24
13.94 2.46 2.24
13.45 2.65 2.17
12.32 2.68 2.00
11.37 2.72 1.86
10.54 2.74 1.73
9.82 2.77 1.63
9.18 2.79 1.53
8.62 2.81 1.45
8.11 2.82 1.37
7.66 2.84 1.31
7.25 2.85 1.25
6.87 2.86 1.19
6.52 2.87 1.15
6.21 2.89 1.10
6.19 3.03 1.11
12.15 6.25 2.20
11.79 6.37 2.16
11.66 6.60 2.17
11.52 6.83 2.17
11.38 7.06 2.17
11.23 7.28 2.17
11.08 7.51 2.18
10.69 7.56 2.13
10.56 7.79 2.14
10.42 8.02 2.15
10.28 8.24 2.15
10.80 9.02 2.30
10.66 9.28 2.32
10.52 9.53 2.33
10.37 9.78 2.34
10.21 10.03 2.35
10.05 10.27 2.37
9.89 10.52 2.38
9.72 10.77 2.40
9.54 11.00 2.41
9.30 11.18 2.41
9.07 11.35 2.41
8.82 11.51 2.41
8.58 11.67 2.41
8.33 11.83 2.41
8.08 11.97 2.41
7.83 12.12 2.41
7.58 12.26 2.41
7.32 12.39 2.41
7.06 12.52 2.41
6.80 12.65 2.41
6.49 12.68 2.39
5.99 12.30 2.30
5.79 12.52 2.32
5.70 13.00 2.39
5.43 13.10 2.39
5.16 13.19 2.39
4.89 13.27 2.39
4.61 13.35 2.39
4.34 13.43 2.39
4.07 13.50 2.39
3.79 13.56 2.39
3.51 13.62 2.39
3.23 13.67 2.39
2.96 13.72 2.39
2.68 13.76 2.39
2.50 14.39 2.49
2.21 14.42 2.49
1.92 14.45 2.49
1.62 14.47 2.49
1.33 14.49 2.49
1.04 14.50 2.49
0.75 14.50 2.49
0.46 14.50 2.49
0.16 14.49 2.49
-0.13 14.48 2.49
-0.42 14.46 2.49
-0.71 14.44 2.49
-1.00 14.41 2.49
-1.29 14.37 2.49
-1.57 14.33 2.49
-1.86 14.29 2.49
-2.14 14.24 2.49
-2.22 12.95 2.28
-2.33 12.16 2.15
-2.37 11.11 1.97
-2.38 10.15 1.81
-2.50 9.77 1.75
-2.71 9.78 1.77
-2.92 9.79 1.78
-3.14 9.79 1.79
-3.36 9.80 1.81
-3.59 9.81 1.82
-3.81 9.81 1.84
-4.05 9.82 1.85
-4.28 9.83 1.87
-5.72 12.44 2.39
-5.96 12.31 2.39
-6.21 12.19 2.39
-6.45 12.05 2.39
-6.69 11.92 2.39
-6.92 11.78 2.39
-7.16 11.63 2.39
-7.39 11.48 2.39
-7.61 11.33 2.39
-7.84 11.17 2.39
-8.06 11.01 2.39
-8.28 10.84 2.39
-8.49 10.67 2.39
-8.70 10.50 2.39
-8.91 10.32 2.39
-9.12 10.14 2.39
-9.32 9.95 2.39
-9.52 9.76 2.39
-10.68 10.52 2.63
-11.02 10.43 2.66
-12.33 11.21 2.92
-9.68 8.45 2.25
-13.17 11.04 3.02
-13.40 10.77 3.02
-13.61 10.50 3.02
-13.82 10.23 3.02
-9.72 6.90 2.09
-14.22 9.66 3.01
-9.75 6.34 2.04
-14.57 9.07 3.01
-14.79 8.80 3.01
-15.00 8.52 3.02
-9.77 5.29 1.95
-15.36 7.92 3.02
-15.54 7.62 3.03
-15.71 7.32 3.03
-15.87 7.01 3.03
-16.02 6.69 3.03
-16.16 6.37 3.03
-16.30 6.05 3.04
-16.43 5.73 3.04
-9.86 3.22 1.81
-16.68 5.07 3.04
-9.86 2.78 1.79
-16.90 4.41 3.04
-17.00 4.07 3.04
-17.09 3.73 3.04
-17.18 3.39 3.04
-17.26 3.05 3.04
-17.36 2.70 3.05
-17.46 2.36 3.05
-9.92 1.14 1.73
-17.64 1.67 3.07
-9.92 0.74 1.72
-17.79 0.96 3.08
-17.82 0.60 3.08
-17.82 0.25 3.08
-17.78 -0.11 3.07
-17.73 -0.47 3.05
-9.97 -0.46 1.72
-17.68 -1.18 3.05
-6.21 -0.54 1.07
-17.87 -1.92 3.08
-17.95 -2.29 3.10
-18.02 -2.67 3.12
-18.08 -3.05 3.14
-10.02 -1.90 1.74
-17.84 -3.75 3.11
-10.02 -2.32 1.75
-17.13 -4.33 3.01
-16.90 -4.63 2.98
-16.90 -5.00 3.00
-16.95 -5.39 3.02
-17.03 -5.79 3.05
-17.10 -6.20 3.08
-10.08 -3.88 1.83
-17.18 -7.02 3.14
-17.14 -7.41 3.15
-17.12 -7.82 3.17
-17.09 -8.22 3.19
-17.06 -8.63 3.22
-10.13 -5.38 1.93
-16.05 -8.95 3.08
-15.51 -9.06 3.01
-15.26 -9.33 2.99
-15.22 -9.73 3.02
-15.16 -10.13 3.05
-15.10 -10.53 3.07
-14.92 -10.86 3.07
-14.54 -11.04 3.04
-14.17 -11.21 3.00
-10.23 -8.43 2.20
-12.91 -11.08 2.82
-10.26 -9.17 2.28
-11.33 -10.54 2.56
-10.28 -9.96 2.36
-10.22 -10.30 2.39
-10.02 -10.52 2.39
-9.82 -10.73 2.39
-9.61 -10.94 2.39
-9.41 -11.15 2.39
-9.19 -11.35 2.39
-8.97 -11.55 2.39
-8.75 -11.74 2.39
-8.53 -11.93 2.39
-8.30 -12.11 2.39
-8.06 -12.29 2.39
-7.82 -12.47 2.39
-7.58 -12.64 2.39
-7.34 -12.80 2.39
-7.07 -12.93 2.39
-6.74 -12.94 2.36
-6.58 -13.27 2.39
-6.37 -13.53 2.41
-6.32 -14.14 2.49
-6.04 -14.29 2.49
-5.76 -14.42 2.49
-5.47 -14.55 2.49
-5.19 -14.68 2.49
-4.90 -14.80 2.49
-4.61 -14.91 2.49
-4.31 -15.02 2.49
-4.01 -15.12 2.49
-3.71 -15.21 2.49
-3.41 -15.30 2.49
-3.11 -15.39 2.49
-2.80 -15.46 2.49
-2.49 -15.53 2.49
-2.18 -15.60 2.49
-1.87 -15.65 2.49
-1.56 -15.71 2.49
-1.25 -15.75 2.49
-0.93 -15.79 2.49
-0.62 -15.82 2.49
-0.30 -15.84 2.49
0.02 -13.83 2.49
0.30 -13.84 2.49
0.57 -13.84 2.49
0.85 -13.84 2.49
1.13 -13.83 2.49
1.41 -13.81 2.49
1.68 -13.75 2.49
1.88 -13.20 2.39
2.15 -13.16 2.39
2.41 -13.13 2.39
2.68 -13.09 2.39
2.94 -13.04 2.39
3.20 -12.99 2.39
3.47 -12.93 2.39
3.73 -12.86 2.39
3.99 -12.79 2.39
4.24 -12.72 2.39
4.50 -12.64 2.39
4.76 -12.55 2.39
5.01 -12.46 2.39
5.26 -12.36 2.39
5.49 -12.23 2.39
5.57 -11.76 2.31
5.70 -11.44 2.27
5.86 -11.19 2.25
6.04 -11.00 2.23
6.24 -10.84 2.22
6.47 -10.72 2.22
6.71 -10.64 2.23
6.97 -10.59 2.25
7.28 -10.58 2.28
7.61 -10.59 2.31
7.87 -10.51 2.33
8.04 -10.30 2.32
7.94 -9.76 2.23
8.10 -9.56 2.22
8.34 -9.45 2.23
8.50 -9.26 2.23
8.66 -9.06 2.22
8.82 -8.86 2.22
8.97 -8.66 2.21
9.12 -8.46 2.20
9.27 -8.26 2.20
9.41 -8.05 2.19
9.55 -7.84 2.19
9.89 -7.80 2.23
10.28 -7.77 2.28
10.41 -7.55 2.28
10.53 -7.32 2.27
10.65 -7.09 2.27
10.76 -6.86 2.26
10.87 -6.63 2.26
10.98 -6.39 2.25
11.08 -6.16 2.25
11.20 -5.94 2.25
11.31 -5.71 2.25
11.42 -5.48 2.25
11.52 -5.25 2.25
11.62 -5.01 2.25
11.36 -4.63 2.18
11.44 -4.40 2.18
11.51 -4.16 2.18
11.57 -3.93 2.18
11.64 -3.69 2.18
11.69 -3.45 2.18
11.75 -3.21 2.17
11.80 -2.97 2.17
11.84 -2.73 2.17
12.34 -2.59 2.26
12.39 -2.34 2.26
12.42 -2.09 2.26
11.32 -1.67 2.05
12.47 -1.59 2.25
12.49 -1.34 2.25
12.50 -1.08 2.25
12.50 -0.83 2.25
12.51 -0.58 2.25
12.51 -0.33 2.25
12.51 -0.08 2.25
12.50 0.17 2.25
12.48 0.42 2.25
8.89 0.48 1.61
12.42 0.92 2.25
12.38 1.17 2.25
12.33 1.41 2.25
12.28 1.66 2.25
12.22 1.90 2.24
12.16 2.14 2.24
12.11 2.38 2.24
12.05 2.62 2.24
11.38 2.72 2.13
10.55 2.74 1.99
9.83 2.77 1.86
9.19 2.79 1.76
8.63 2.81 1.66
8.12 2.82 1.57
7.66 2.84 1.50
7.25 2.85 1.43
6.87 2.86 1.37
6.53 2.87 1.31
6.21 2.88 1.26
6.19 3.03 1.27
10.14 5.22 2.10
10.04 5.42 2.11
9.93 5.62 2.11
9.82 5.82 2.11
10.19 6.32 2.22
9.82 6.37 2.17
9.71 6.57 2.18
9.59 6.78 2.18
9.47 6.98 2.19
9.34 7.19 2.20
9.22 7.39 2.20
9.09 7.59 2.21
8.95 7.78 2.22
8.81 7.98 2.23
8.67 8.17 2.23
8.53 8.37 2.24
8.96 9.15 2.41
8.77 9.32 2.41
8.57 9.49 2.41
8.37 9.64 2.41
8.16 9.80 2.41
7.95 9.95 2.41
7.74 10.10 2.41
7.53 10.24 2.41
7.32 10.37 2.41
7.10 10.51 2.41
6.88 10.64 2.41
6.66 10.76 2.41
6.39 10.81 2.39
6.16 10.92 2.39
5.94 11.03 2.39
5.71 11.14 2.39
5.48 11.24 2.39
5.24 11.33 2.39
5.01 11.42 2.39
4.77 11.51 2.39
4.54 11.59 2.39
4.30 11.67 2.39
4.06 11.74 2.39
3.82 11.81 2.39
3.58 11.87 2.39
3.34 11.93 2.39
3.09 11.98 2.39
2.85 12.03 2.39
2.60 12.07 2.39
2.46 12.63 2.49
2.20 12.67 2.49
1.95 12.70 2.49
1.69 12.72 2.49
1.43 12.74 2.49
1.18 12.76 2.49
0.92 12.77 2.49
0.66 12.77 2.49
0.40 12.77 2.49
0.15 12.77 2.49
-0.11 12.76 2.49
-0.37 12.74 2.49
-0.62 12.72 2.49
-0.88 12.70 2.49
-1.13 12.67 2.49
-1.38 12.63 2.49
-1.64 12.59 2.49
-1.89 12.55 2.49
-2.14 12.50 2.49
-2.39 12.45 2.49
-2.38 11.16 2.25
-2.32 9.94 2.01
-2.49 9.77 1.99
-2.71 9.78 2.00
-2.92 9.79 2.02
-3.14 9.79 2.03
-3.36 9.80 2.05
-3.59 9.81 2.06
-3.81 9.82 2.08
-4.05 9.82 2.10
-4.28 9.83 2.12
-5.26 11.45 2.49
-5.49 11.33 2.49
-5.56 10.92 2.43
-5.69 10.64 2.39
-5.90 10.52 2.39
-5.94 10.11 2.33
-5.99 9.74 2.27
-6.41 9.97 2.35
-6.54 9.73 2.33
-6.57 9.36 2.27
-7.11 9.72 2.39
-7.31 9.57 2.39
-7.50 9.42 2.39
-7.68 9.26 2.39
-7.87 9.11 2.39
-8.05 8.95 2.39
-8.23 8.78 2.39
-8.40 8.61 2.39
-8.57 8.44 2.39
-8.74 8.27 2.39
-8.91 8.09 2.39
-9.07 7.91 2.39
-9.22 7.73 2.39
-9.38 7.54 2.39
-9.53 7.35 2.39
-9.68 7.16 2.39
-9.72 6.90 2.37
-11.17 7.59 2.68
-11.49 7.47 2.72
-9.76 6.07 2.28
-9.76 5.81 2.25
-12.43 7.06 2.84
-9.77 5.29 2.20
-13.04 6.72 2.91
-13.23 6.49 2.92
-13.42 6.25 2.93
-13.61 6.01 2.95
-9.82 4.10 2.11
-13.96 5.51 2.97
-14.13 5.25 2.98
-14.29 4.98 2.99
-14.45 4.71 3.00
-14.59 4.44 3.01
-9.86 2.78 2.02
-14.86 3.87 3.03
-14.99 3.58 3.04
-15.09 3.29 3.05
-15.18 2.99 3.05
-15.26 2.69 3.05
-15.33 2.39 3.05
-15.39 2.08 3.05
-15.45 1.77 3.06
-15.50 1.46 3.06
-9.92 0.74 1.95
-15.56 0.84 3.06
-15.56 0.53 3.05
-15.59 0.21 3.05
-9.96 -0.06 1.95
-15.64 -0.42 3.06
-15.66 -0.73 3.06
-15.68 -1.05 3.07
-6.21 -0.54 1.22
-15.75 -1.69 3.09
-15.72 -2.01 3.09
-15.68 -2.32 3.08
-10.01 -1.69 1.97
-15.57 -2.95 3.08
-15.46 -3.25 3.06
-10.03 -2.32 1.99
-15.45 -3.91 3.09
-15.45 -4.24 3.10
-15.44 -4.57 3.11
-15.43 -4.91 3.13
-10.07 -3.43 2.05
-15.35 -5.57 3.15
-10.08 -3.89 2.08
-15.08 -6.17 3.13
-14.93 -6.46 3.12
-14.74 -6.73 3.11
-14.48 -6.97 3.08
-14.21 -7.19 3.05
-10.13 -5.38 2.19
-13.57 -7.57 2.97
-13.33 -7.79 2.95
-10.16 -6.21 2.27
-12.04 -7.70 2.72
-11.38 -7.61 2.60
-11.26 -7.85 2.61
-11.14 -8.11 2.62
-10.05 -7.63 2.39
-9.90 -7.84 2.39
-9.76 -8.04 2.39
-9.60 -8.25 2.39
-9.45 -8.45 2.39
-9.29 -8.65 2.39
-9.12 -8.84 2.39
-8.95 -9.03 2.39
-8.78 -9.22 2.39
-8.60 -9.41 2.39
-8.42 -9.59 2.39
-8.24 -9.77 2.39
-8.05 -9.94 2.39
-7.86 -10.11 2.39
-7.27 -9.76 2.27
-7.19 -10.07 2.31
-7.13 -10.42 2.35
-6.69 -10.21 2.27
-6.62 -10.56 2.31
-6.63 -11.06 2.39
-6.41 -11.20 2.39
-6.30 -11.53 2.43
-6.23 -11.97 2.49
-6.00 -12.11 2.49
-5.76 -12.24 2.49
-5.52 -12.37 2.49
-5.27 -12.49 2.49
-5.03 -12.60 2.49
-4.78 -12.72 2.49
-4.53 -12.82 2.49
-4.28 -12.93 2.49
-4.02 -13.02 2.49
-3.76 -13.11 2.49
-3.50 -13.20 2.49
-3.24 -13.28 2.49
-2.98 -13.36 2.49
-2.71 -13.43 2.49
-2.44 -13.49 2.49
-2.17 -13.55 2.49
-1.90 -13.61 2.49
-1.63 -13.66 2.49
-1.36 -13.70 2.49
-1.08 -13.74 2.49
-0.81 -13.77 2.49
-0.53 -13.79 2.49
-0.26 -13.81 2.49
0.02 -12.24 2.49
0.26 -12.25 2.49
0.51 -12.25 2.49
0.76 -12.25 2.49
1.00 -12.24 2.49
1.25 -12.22 2.49
1.49 -12.20 2.49
1.73 -12.14 2.49
1.90 -11.65 2.39
2.14 -11.61 2.39
2.37 -11.58 2.39
2.60 -11.53 2.39
2.84 -11.49 2.39
3.07 -11.43 2.39
3.30 -11.38 2.39
3.53 -11.31 2.39
3.75 -11.25 2.39
3.98 -11.17 2.39
4.21 -11.10 2.39
4.43 -11.02 2.39
4.65 -10.93 2.39
4.87 -10.84 2.39
5.09 -10.74 2.39
5.31 -10.64 2.39
5.52 -10.54 2.39
5.73 -10.43 2.39
5.98 -10.38 2.41
6.19 -10.27 2.41
6.40 -10.14 2.41
6.41 -9.72 2.34
6.57 -9.54 2.32
6.72 -9.36 2.31
6.88 -9.18 2.30
7.03 -9.01 2.29
7.18 -8.83 2.28
7.33 -8.65 2.27
7.47 -8.47 2.27
7.61 -8.29 2.26
7.75 -8.10 2.25
7.88 -7.92 2.24
8.01 -7.73 2.23
8.33 -7.73 2.28
8.78 -7.82 2.36
8.93 -7.64 2.36
9.07 -7.45 2.35
9.20 -7.26 2.35
9.33 -7.06 2.35
9.46 -6.86 2.34
9.58 -6.66 2.34
9.70 -6.46 2.34
9.82 -6.26 2.34
9.93 -6.05 2.34
10.03 -5.84 2.33
10.11 -5.62 2.32
10.20 -5.40 2.32
10.27 -5.18 2.31
10.35 -4.97 2.31
10.06 -4.58 2.22
10.13 -4.37 2.22
10.20 -4.16 2.22
10.27 -3.95 2.22
10.33 -3.74 2.21
10.38 -3.52 2.21
10.44 -3.31 2.21
10.49 -3.10 2.21
10.54 -2.88 2.21
10.59 -2.67 2.21
10.94 -2.53 2.27
10.97 -2.30 2.27
11.00 -2.08 2.27
11.03 -1.86 2.26
11.06 -1.63 2.26
11.08 -1.41 2.26
11.10 -1.19 2.26
11.11 -0.97 2.26
11.12 -0.74 2.26
11.13 -0.52 2.27
11.14 -0.30 2.27
11.14 -0.07 2.27
11.14 0.15 2.27
11.12 0.37 2.27
8.89 0.48 1.82
11.08 0.82 2.27
11.06 1.04 2.27
11.03 1.26 2.27
11.00 1.48 2.27
10.97 1.70 2.27
10.94 1.92 2.28
10.90 2.14 2.28
10.86 2.36 2.28
10.82 2.58 2.29
10.56 2.74 2.24
9.83 2.77 2.10
9.20 2.79 1.98
8.63 2.81 1.87
8.12 2.82 1.78
7.67 2.84 1.69
7.25 2.85 1.61
6.88 2.86 1.54
6.53 2.87 1.48
6.21 2.88 1.42
6.19 3.03 1.43
9.12 4.69 2.13
9.03 4.87 2.13
8.93 5.05 2.14
8.83 5.23 2.14
8.73 5.41 2.14
8.64 5.60 2.15
8.54 5.78 2.16
9.02 6.37 2.31
8.67 6.39 2.26
8.46 6.50 2.24
8.35 6.69 2.25
8.24 6.88 2.26
8.13 7.06 2.27
8.01 7.25 2.28
7.88 7.43 2.28
7.76 7.61 2.29
7.63 7.79 2.30
7.50 7.97 2.31
7.36 8.14 2.33
7.22 8.32 2.34
7.08 8.49 2.35
7.08 8.85 2.41
6.89 8.98 2.41
6.70 9.11 2.41
6.51 9.23 2.41
6.28 9.29 2.39
6.08 9.40 2.39
5.89 9.51 2.39
5.69 9.62 2.39
5.49 9.72 2.39
5.29 9.82 2.39
5.09 9.92 2.39
4.88 10.01 2.39
4.67 10.09 2.39
4.47 10.18 2.39
4.26 10.25 2.39
4.05 10.33 2.39
3.83 10.40 2.39
3.62 10.46 2.39
3.41 10.52 2.39
3.19 10.58 2.39
2.98 10.63 2.39
2.76 10.68 2.39
2.54 10.73 2.39
2.42 11.23 2.49
2.20 11.27 2.49
1.97 11.30 2.49
1.74 11.33 2.49
1.51 11.35 2.49
1.28 11.37 2.49
1.05 11.38 2.49
0.82 11.39 2.49
0.59 11.40 2.49
0.36 11.40 2.49
0.13 11.40 2.49
-0.10 11.39 2.49
-0.33 11.38 2.49
-0.55 11.36 2.49
-0.78 11.34 2.49
-1.01 11.31 2.49
-1.23 11.28 2.49
-1.46 11.25 2.49
-1.69 11.21 2.49
-1.91 11.17 2.49
-2.13 11.12 2.49
-2.35 11.07 2.49
-2.32 9.94 2.25
-2.51 9.83 2.24
-2.73 9.86 2.26
-3.23 10.82 2.49
-3.44 10.75 2.49
-3.66 10.67 2.49
-3.87 10.59 2.49
-3.91 10.06 2.39
-4.10 9.96 2.38
-4.50 10.33 2.49
-4.70 10.23 2.49
-4.91 10.13 2.49
-5.11 10.03 2.49
-5.31 9.92 2.49
-5.50 9.81 2.49
-5.60 9.53 2.45
-5.65 9.18 2.39
-5.83 9.06 2.39
-5.98 8.90 2.38
-5.99 8.54 2.32
-6.04 8.25 2.27
-6.43 8.42 2.35
-6.58 8.27 2.35
-6.60 7.96 2.30
-6.68 7.73 2.27
-7.20 8.00 2.39
-7.36 7.85 2.39
-7.51 7.70 2.39
-7.67 7.55 2.39
-7.82 7.39 2.39
-7.96 7.24 2.39
-8.11 7.08 2.39
-8.25 6.91 2.39
-8.39 6.74 2.39
-8.52 6.57 2.39
-8.65 6.40 2.39
-8.78 6.23 2.39
-8.91 6.05 2.39
-9.03 5.87 2.39
-9.15 5.69 2.39
-9.26 5.51 2.39
-9.37 5.32 2.39
-9.48 5.13 2.39
-9.58 4.94 2.39
-9.68 4.75 2.39
-9.78 4.55 2.39
-10.42 4.60 2.52
-10.55 4.40 2.53
-10.67 4.21 2.54
-10.79 4.00 2.55
-10.90 3.80 2.55
-11.09 3.62 2.58
-9.86 3.00 2.28
-9.86 2.78 2.26
-9.88 2.57 2.25
-13.10 3.13 2.97
-13.21 2.88 2.98
-13.30 2.62 2.99
-13.40 2.36 3.00
-13.50 2.10 3.01
-13.59 1.83 3.02
-13.68 1.57 3.03
-13.77 1.30 3.04
-9.92 0.73 2.19
-13.90 0.75 3.06
-13.94 0.47 3.06
-13.97 0.19 3.06
-14.00 -0.09 3.07
-14.02 -0.37 3.07
-14.04 -0.66 3.08
-6.21 -0.42 1.36
-6.18 -0.54 1.35
-14.04 -1.51 3.08
-14.01 -1.79 3.08
-13.97 -2.07 3.08
-13.91 -2.35 3.07
-13.84 -2.63 3.07
-13.77 -2.90 3.06
-10.03 -2.32 2.24
-13.68 -3.46 3.06
-10.05 -2.76 2.26
-10.05 -2.98 2.27
-13.32 -4.24 3.03
-12.42 -4.23 2.84
-12.07 -4.38 2.78
-10.08 -3.89 2.33
-11.62 -4.76 2.71
-11.38 -4.93 2.67
-11.21 -5.12 2.65
-10.02 -4.82 2.39
-9.93 -5.03 2.39
-9.83 -5.23 2.39
-9.74 -5.43 2.39
-9.63 -5.63 2.39
-9.53 -5.83 2.39
-9.42 -6.03 2.39
-9.31 -6.22 2.39
-9.19 -6.41 2.39
-9.07 -6.60 2.39
-8.94 -6.79 2.39
-8.81 -6.98 2.39
-8.68 -7.16 2.39
-8.54 -7.34 2.39
-8.40 -7.52 2.39
-8.26 -7.69 2.39
-8.11 -7.87 2.39
-7.96 -8.03 2.39
-7.80 -8.20 2.39
-7.26 -7.94 2.27
-7.13 -8.12 2.28
-7.14 -8.47 2.33
-7.03 -8.69 2.35
-6.62 -8.53 2.27
-6.56 -8.81 2.31
-6.58 -9.21 2.37
-6.45 -9.42 2.39
-6.26 -9.56 2.39
-6.24 -9.96 2.46
-6.14 -10.25 2.49
-5.94 -10.38 2.49
-5.73 -10.50 2.49
-5.53 -10.63 2.49
-5.32 -10.75 2.49
-5.11 -10.86 2.49
-4.89 -10.97 2.49
-4.68 -11.08 2.49
-4.46 -11.18 2.49
-4.24 -11.28 2.49
-4.01 -11.38 2.49
-3.79 -11.46 2.49
-3.56 -11.55 2.49
-3.33 -11.63 2.49
-3.10 -11.70 2.49
-2.87 -11.77 2.49
-2.63 -11.84 2.49
-2.40 -11.90 2.49
-2.16 -11.96 2.49
-1.92 -12.01 2.49
-1.68 -12.06 2.49
-1.44 -12.10 2.49
-1.20 -12.13 2.49
-0.96 -12.17 2.49
-0.71 -12.19 2.49
-0.47 -12.21 2.49
-0.23 -12.23 2.49
0.02 -10.97 2.49
0.24 -10.98 2.49
0.46 -10.98 2.49
0.68 -10.97 2.49
0.90 -10.97 2.49
1.12 -10.95 2.49
1.34 -10.93 2.49
1.56 -10.91 2.49
1.78 -10.86 2.49
1.92 -10.40 2.39
2.12 -10.37 2.39
2.33 -10.33 2.39
2.54 -10.29 2.39
2.75 -10.24 2.39
2.95 -10.19 2.39
3.16 -10.13 2.39
3.36 -10.07 2.39
3.57 -10.01 2.39
3.77 -9.94 2.39
3.97 -9.86 2.39
4.17 -9.78 2.39
4.36 -9.70 2.39
4.56 -9.62 2.39
4.75 -9.53 2.39
4.94 -9.43 2.39
5.13 -9.33 2.39
5.32 -9.23 2.39
5.50 -9.13 2.39
5.69 -9.02 2.39
5.86 -8.89 2.39
6.01 -8.73 2.38
6.15 -8.57 2.36
6.29 -8.40 2.35
6.43 -8.24 2.34
6.56 -8.07 2.33
6.69 -7.90 2.32
6.82 -7.73 2.31
7.04 -7.67 2.33
7.42 -7.76 2.40
7.57 -7.61 2.40
7.72 -7.45 2.40
7.87 -7.30 2.40
8.01 -7.14 2.40
8.15 -6.98 2.40
8.29 -6.81 2.40
8.43 -6.65 2.41
8.56 -6.48 2.41
8.69 -6.31 2.41
8.82 -6.13 2.41
8.94 -5.95 2.41
9.05 -5.77 2.41
9.14 -5.57 2.40
9.22 -5.37 2.39
9.30 -5.17 2.39
9.38 -4.97 2.38
9.00 -4.54 2.26
9.08 -4.36 2.26
9.15 -4.17 2.26
9.22 -3.98 2.26
9.29 -3.79 2.26
9.35 -3.60 2.25
9.41 -3.40 2.25
9.46 -3.21 2.25
9.51 -3.02 2.25
9.56 -2.82 2.25
9.60 -2.63 2.24
10.06 -2.54 2.34
10.09 -2.33 2.34
10.13 -2.13 2.34
10.16 -1.92 2.33
10.18 -1.72 2.33
9.67 -1.43 2.21
10.23 -1.30 2.33
10.25 -1.10 2.33
10.26 -0.89 2.33
10.27 -0.69 2.33
10.28 -0.48 2.33
10.29 -0.27 2.34
10.29 -0.07 2.34
10.28 0.14 2.34
10.27 0.34 2.34
8.89 0.48 2.03
10.24 0.75 2.34
10.22 0.96 2.34
10.19 1.16 2.34
10.17 1.37 2.34
10.14 1.57 2.34
10.11 1.77 2.35
10.08 1.98 2.35
10.04 2.18 2.35
10.00 2.38 2.36
9.96 2.58 2.36
9.84 2.77 2.35
9.20 2.79 2.21
6.56 2.13 1.58
6.40 2.22 1.56
6.36 2.35 1.56
6.41 2.52 1.59
6.88 2.86 1.72
6.54 2.87 1.65
6.22 2.88 1.58
6.19 3.03 1.59
8.35 4.29 2.17
8.27 4.46 2.18
8.20 4.63 2.18
8.11 4.81 2.19
8.03 4.98 2.20
7.94 5.15 2.20
7.86 5.31 2.21
7.76 5.48 2.21
7.67 5.65 2.22
7.57 5.81 2.23
8.04 6.44 2.41
7.71 6.43 2.35
7.46 6.48 2.31
7.35 6.64 2.32
7.23 6.81 2.33
7.11 6.97 2.34
6.99 7.14 2.35
6.87 7.30 2.36
6.74 7.46 2.37
6.61 7.62 2.38
6.48 7.77 2.39
6.33 7.91 2.39
6.16 8.03 2.39
6.00 8.14 2.39
5.83 8.25 2.39
5.65 8.36 2.39
5.48 8.46 2.39
5.30 8.57 2.39
5.13 8.66 2.39
4.95 8.76 2.39
4.77 8.85 2.39
4.58 8.93 2.39
4.40 9.01 2.39
4.21 9.09 2.39
4.03 9.17 2.39
3.84 9.24 2.39
3.65 9.30 2.39
3.46 9.37 2.39
3.27 9.43 2.39
3.07 9.48 2.39
2.88 9.54 2.39
2.68 9.58 2.39
2.49 9.63 2.39
2.39 10.09 2.49
2.19 10.12 2.49
1.98 10.16 2.49
1.78 10.19 2.49
1.57 10.21 2.49
1.36 10.24 2.49
1.16 10.25 2.49
0.95 10.27 2.49
0.74 10.28 2.49
0.54 10.28 2.49
0.33 10.28 2.49
0.12 10.28 2.49
-0.09 10.28 2.49
-0.29 10.27 2.49
-0.50 10.25 2.49
-0.70 10.23 2.49
-0.91 10.21 2.49
-1.11 10.18 2.49
-1.32 10.15 2.49
-1.52 10.12 2.49
-1.72 10.08 2.49
-1.92 10.04 2.49
-2.12 9.99 2.49
-2.32 9.94 2.49
-2.52 9.89 2.49
-2.72 9.83 2.49
-2.91 9.77 2.49
-3.11 9.71 2.49
-3.30 9.64 2.49
-3.49 9.57 2.49
-3.69 9.49 2.49
-3.87 9.41 2.49
-4.06 9.33 2.49
-4.25 9.24 2.49
-4.43 9.15 2.49
-4.61 9.06 2.49
-4.79 8.96 2.49
-4.97 8.86 2.49
-5.15 8.76 2.49
-5.32 8.65 2.49
-5.49 8.54 2.49
-5.64 8.39 2.49
-5.66 8.06 2.42
-5.75 7.85 2.39
-5.90 7.73 2.39
-6.03 7.57 2.38
-6.03 7.28 2.33
-6.05 7.00 2.28
-6.17 6.86 2.27
-6.54 6.98 2.35
-6.64 6.81 2.34
-6.65 6.55 2.30
-6.70 6.34 2.27
-7.19 6.54 2.39
-7.32 6.39 2.39
-7.45 6.24 2.39
-7.58 6.09 2.39
-7.70 5.94 2.39
-7.82 5.78 2.39
-7.93 5.63 2.39
-8.05 5.47 2.39
-8.16 5.30 2.39
-8.26 5.14 2.39
-8.37 4.97 2.39
-8.47 4.81 2.39
-8.56 4.64 2.39
-8.66 4.46 2.39
-8.75 4.29 2.39
-8.83 4.11 2.39
-8.92 3.94 2.39
-9.00 3.76 2.39
-9.08 3.58 2.39
-9.15 3.39 2.39
-9.22 3.21 2.39
-9.28 3.03 2.39
-9.35 2.84 2.39
-9.41 2.65 2.39
-9.46 2.46 2.39
-9.51 2.27 2.39
-9.56 2.08 2.39
-9.61 1.89 2.39
-9.65 1.70 2.39
-9.69 1.50 2.39
-9.72 1.31 2.39
-9.75 1.12 2.39
-9.77 0.92 2.39
-9.80 0.72 2.39
-9.82 0.53 2.39
-9.83 0.33 2.39
-9.84 0.13 2.39
-9.85 -0.07 2.39
-9.85 -0.27 2.39
-9.85 -0.46 2.39
-6.21 -0.42 1.51
-6.18 -0.54 1.50
-9.82 -1.06 2.39
-9.81 -1.26 2.39
-9.79 -1.45 2.39
-9.76 -1.65 2.39
-9.74 -1.85 2.39
-9.70 -2.05 2.39
-9.67 -2.24 2.39
-9.63 -2.44 2.39
-9.59 -2.63 2.39
-9.54 -2.83 2.39
-9.49 -3.02 2.39
-9.43 -3.21 2.39
-9.37 -3.41 2.39
-9.31 -3.60 2.39
-9.24 -3.79 2.39
-9.17 -3.97 2.39
-9.10 -4.16 2.39
-9.02 -4.35 2.39
-8.94 -4.53 2.39
-8.86 -4.71 2.39
-8.77 -4.90 2.39
-8.68 -5.08 2.39
-8.58 -5.25 2.39
-8.48 -5.43 2.39
-8.38 -5.60 2.39
-8.27 -5.78 2.39
-8.16 -5.95 2.39
-8.05 -6.11 2.39
-7.93 -6.28 2.39
-7.81 -6.44 2.39
-7.68 -6.61 2.39
-7.17 -6.42 2.27
-7.08 -6.60 2.28
-7.09 -6.88 2.32
-7.04 -7.11 2.35
-6.90 -7.26 2.35
-6.52 -7.14 2.27
-6.52 -7.43 2.32
-6.53 -7.75 2.37
-6.43 -7.95 2.39
-6.27 -8.08 2.39
-6.20 -8.32 2.42
-6.20 -8.69 2.49
-6.04 -8.83 2.49
-5.87 -8.96 2.49
-5.69 -9.08 2.49
-5.51 -9.21 2.49
-5.33 -9.32 2.49
-5.15 -9.44 2.49
-4.96 -9.55 2.49
-4.78 -9.65 2.49
-4.58 -9.76 2.49
-4.39 -9.85 2.49
-4.20 -9.95 2.49
-4.00 -10.04 2.49
-3.80 -10.13 2.49
-3.60 -10.21 2.49
-3.40 -10.29 2.49
-3.19 -10.37 2.49
-2.99 -10.44 2.49
-2.78 -10.50 2.49
-2.57 -10.56 2.49
-2.36 -10.62 2.49
-2.15 -10.68 2.49
-1.94 -10.73 2.49
-1.72 -10.77 2.49
-1.51 -10.81 2.49
-1.29 -10.85 2.49
-1.07 -10.88 2.49
-0.86 -10.91 2.49
-0.64 -10.93 2.49
-0.42 -10.95 2.49
-0.20 -10.96 2.49
0.02 -9.93 2.49
0.22 -9.94 2.49
0.42 -9.94 2.49
0.62 -9.93 2.49
0.82 -9.92 2.49
1.02 -9.91 2.49
1.21 -9.89 2.49
1.41 -9.87 2.49
1.61 -9.85 2.49
1.81 -9.82 2.49
1.92 -9.38 2.39
2.11 -9.35 2.39
2.30 -9.31 2.39
2.49 -9.26 2.39
2.67 -9.21 2.39
2.86 -9.16 2.39
3.04 -9.11 2.39
3.23 -9.05 2.39
3.41 -8.99 2.39
3.59 -8.92 2.39
3.77 -8.85 2.39
3.95 -8.77 2.39
4.12 -8.70 2.39
4.30 -8.61 2.39
4.47 -8.53 2.39
4.64 -8.44 2.39
4.81 -8.35 2.39
4.98 -8.25 2.39
5.14 -8.15 2.39
5.31 -8.05 2.39
5.47 -7.94 2.39
5.63 -7.83 2.39
5.78 -7.72 2.39
5.95 -7.62 2.40
6.14 -7.55 2.41
6.29 -7.42 2.41
6.44 -7.30 2.41
6.58 -7.17 2.41
6.72 -7.03 2.41
6.86 -6.90 2.41
7.00 -6.76 2.41
7.13 -6.61 2.41
7.26 -6.47 2.41
7.39 -6.32 2.41
7.51 -6.17 2.41
7.63 -6.02 2.41
7.75 -5.86 2.41
7.86 -5.70 2.41
7.97 -5.54 2.41
8.08 -5.38 2.41
8.18 -5.22 2.41
8.29 -5.05 2.41
8.38 -4.88 2.41
8.10 -4.50 2.30
8.18 -4.34 2.30
8.25 -4.16 2.30
8.32 -3.99 2.29
8.39 -3.82 2.29
8.45 -3.65 2.29
8.51 -3.47 2.29
8.57 -3.30 2.28
8.63 -3.12 2.28
8.68 -2.95 2.28
8.72 -2.77 2.28
8.77 -2.59 2.28
9.14 -2.50 2.36
9.33 -2.35 2.40
9.36 -2.16 2.40
9.40 -1.97 2.40
9.42 -1.78 2.39
9.45 -1.59 2.39
9.47 -1.40 2.39
9.49 -1.21 2.39
9.51 -1.02 2.39
9.52 -0.83 2.39
9.53 -0.64 2.39
9.54 -0.45 2.39
9.55 -0.26 2.39
9.55 -0.07 2.40
8.88 0.12 2.23
8.89 0.30 2.23
9.52 0.51 2.40
9.51 0.70 2.40
9.49 0.89 2.40
9.47 1.08 2.40
9.45 1.27 2.40
9.42 1.46 2.41
9.39 1.65 2.41
9.36 1.83 2.41
9.33 2.02 2.41
9.29 2.21 2.42
9.23 2.39 2.41
9.17 2.58 2.41
9.11 2.76 2.41
6.43 2.09 1.71
6.28 2.18 1.69
6.25 2.31 1.69
6.26 2.46 1.71
6.89 2.86 1.90
6.54 2.87 1.82
6.22 2.88 1.75
6.19 3.02 1.76
7.73 3.97 2.22
7.66 4.13 2.22
7.58 4.29 2.23
7.51 4.44 2.23
7.43 4.60 2.24
7.35 4.76 2.24
7.26 4.91 2.25
7.18 5.07 2.26
7.09 5.22 2.26
7.00 5.37 2.27
6.90 5.52 2.28
6.80 5.67 2.28
7.05 6.12 2.41
6.92 6.25 2.41
6.78 6.39 2.41
6.62 6.48 2.40
6.45 6.58 2.39
6.33 6.72 2.39
6.19 6.84 2.39
6.04 6.96 2.39
5.90 7.07 2.39
5.75 7.18 2.39
5.60 7.29 2.39
5.45 7.39 2.39
5.29 7.49 2.39
5.14 7.59 2.39
4.98 7.69 2.39
4.82 7.78 2.39
4.66 7.87 2.39
4.50 7.95 2.39
4.33 8.04 2.39
4.17 8.11 2.39
4.00 8.19 2.39
3.83 8.26 2.39
3.66 8.33 2.39
3.49 8.40 2.39
3.32 8.46 2.39
3.14 8.52 2.39
2.97 8.57 2.39
2.80 8.62 2.39
2.63 8.71 2.40
2.44 8.71 2.39
2.36 9.13 2.49
2.18 9.17 2.49
1.99 9.21 2.49
1.81 9.24 2.49
1.62 9.27 2.49
1.43 9.29 2.49
1.24 9.31 2.49
1.05 9.33 2.49
0.87 9.34 2.49
0.68 9.35 2.49
0.49 9.36 2.49
0.30 9.36 2.49
0.11 9.36 2.49
-0.08 9.35 2.49
-0.26 9.34 2.49
-0.45 9.33 2.49
-0.64 9.31 2.49
-0.83 9.29 2.49
-1.01 9.27 2.49
-1.20 9.24 2.49
-1.38 9.21 2.49
-1.57 9.18 2.49
-1.75 9.14 2.49
-1.93 9.10 2.49
-2.11 9.06 2.49
-2.30 9.01 2.49
-2.47 8.95 2.49
-2.65 8.90 2.49
-2.83 8.84 2.49
-3.01 8.78 2.49
-3.18 8.71 2.49
-3.36 8.64 2.49
-3.53 8.57 2.49
-3.70 8.50 2.49
-3.87 8.42 2.49
-4.03 8.34 2.49
-4.20 8.25 2.49
-4.36 8.16 2.49
-4.53 8.07 2.49
-4.69 7.98 2.49
-4.85 7.88 2.49
-5.00 7.78 2.49
-5.16 7.67 2.49
-5.31 7.57 2.49
-5.46 7.46 2.49
-5.61 7.35 2.49
-5.68 7.14 2.46
-5.70 6.87 2.41
-5.79 6.70 2.39
-5.92 6.58 2.39
-6.05 6.46 2.39
-6.07 6.22 2.35
-6.28 6.18 2.38
-6.43 6.09 2.39
-6.55 5.96 2.39
-6.67 5.82 2.39
-6.79 5.69 2.39
-6.90 5.55 2.39
-7.01 5.41 2.39
-7.12 5.27 2.39
-7.23 5.13 2.39
-7.33 4.98 2.39
-7.43 4.83 2.39
-7.53 4.68 2.39
-7.62 4.53 2.39
-7.71 4.38 2.39
-7.80 4.22 2.39
-7.89 4.06 2.39
-7.97 3.91 2.39
-8.05 3.75 2.39
-8.12 3.58 2.39
-8.20 3.42 2.39
-8.27 3.26 2.39
-8.33 3.09 2.39
-8.40 2.92 2.39
-8.46 2.75 2.39
-8.51 2.59 2.39
-8.57 2.41 2.39
-8.62 2.24 2.39
-8.66 2.07 2.39
-8.71 1.90 2.39
-8.75 1.72 2.39
-8.79 1.54 2.39
-8.82 1.37 2.39
-8.85 1.19 2.39
-8.88 1.01 2.39
-8.90 0.84 2.39
-8.92 0.66 2.39
-8.93 0.48 2.39
-8.95 0.30 2.39
-8.96 0.12 2.39
-8.96 -0.06 2.39
-8.96 -0.24 2.39
-8.96 -0.42 2.39
-6.21 -0.42 1.66
-6.18 -0.54 1.65
-8.94 -0.96 2.39
-8.92 -1.15 2.39
-8.90 -1.33 2.39
-8.88 -1.50 2.39
-8.86 -1.68 2.39
-8.83 -1.86 2.39
-8.79 -2.04 2.39
-8.76 -2.22 2.39
-8.72 -2.40 2.39
-8.67 -2.57 2.39
-8.63 -2.75 2.39
-8.58 -2.92 2.39
-8.52 -3.10 2.39
-8.46 -3.27 2.39
-8.40 -3.44 2.39
-8.34 -3.61 2.39
-8.27 -3.78 2.39
-8.20 -3.95 2.39
-8.13 -4.12 2.39
-8.05 -4.29 2.39
-7.97 -4.45 2.39
-7.88 -4.61 2.39
-7.79 -4.77 2.39
-7.70 -4.93 2.39
-7.61 -5.09 2.39
-7.51 -5.25 2.39
-7.41 -5.40 2.39
-7.31 -5.56 2.39
-7.20 -5.71 2.39
-6.92 -5.71 2.33
-6.65 -5.72 2.28
-6.51 -5.83 2.27
-6.47 -6.04 2.30
-6.48 -6.29 2.34
-6.50 -6.56 2.39
-6.37 -6.70 2.39
-6.24 -6.83 2.39
-6.15 -7.02 2.41
-6.16 -7.31 2.47
-6.08 -7.52 2.49
-5.93 -7.65 2.49
-5.78 -7.77 2.49
-5.63 -7.90 2.49
-5.48 -8.01 2.49
-5.32 -8.13 2.49
-5.16 -8.24 2.49
-5.00 -8.35 2.49
-4.83 -8.46 2.49
-4.67 -8.56 2.49
-4.50 -8.66 2.49
-4.33 -8.75 2.49
-4.15 -8.85 2.49
-3.98 -8.93 2.49
-3.80 -9.02 2.49
-3.62 -9.10 2.49
-3.44 -9.18 2.49
-3.26 -9.25 2.49
-3.08 -9.33 2.49
-2.89 -9.39 2.49
-2.71 -9.46 2.49
-2.52 -9.52 2.49
-2.33 -9.57 2.49
-2.14 -9.62 2.49
-1.95 -9.67 2.49
-1.75 -9.72 2.49
-1.56 -9.76 2.49
-1.36 -9.79 2.49
-1.17 -9.82 2.49
-0.97 -9.85 2.49
-0.77 -9.88 2.49
-0.58 -9.90 2.49
-0.38 -9.91 2.49
-0.18 -9.93 2.49
0.02 -9.06 2.49
0.20 -9.07 2.49
0.38 -9.07 2.49
0.56 -9.06 2.49
0.75 -9.05 2.49
0.93 -9.04 2.49
1.11 -9.03 2.49
1.29 -9.01 2.49
1.47 -8.98 2.49
1.65 -8.96 2.49
1.83 -8.93 2.49
1.93 -8.52 2.39
2.10 -8.49 2.39
2.27 -8.45 2.39
2.44 -8.40 2.39
2.61 -8.36 2.39
2.78 -8.31 2.39
2.94 -8.25 2.39
3.11 -8.19 2.39
3.27 -8.13 2.39
3.44 -8.07 2.39
3.60 -8.00 2.39
3.76 -7.93 2.39
3.92 -7.85 2.39
4.08 -7.78 2.39
4.23 -7.69 2.39
4.39 -7.61 2.39
4.54 -7.52 2.39
4.69 -7.43 2.39
4.84 -7.34 2.39
4.98 -7.24 2.39
5.13 -7.14 2.39
5.27 -7.04 2.39
5.41 -6.93 2.39
5.55 -6.82 2.39
5.69 -6.71 2.39
5.82 -6.60 2.39
5.99 -6.53 2.41
6.12 -6.40 2.41
6.25 -6.28 2.41
6.37 -6.15 2.41
6.50 -6.03 2.41
6.62 -5.89 2.41
6.73 -5.76 2.41
6.85 -5.63 2.41
6.96 -5.49 2.41
7.07 -5.35 2.41
7.18 -5.21 2.41
7.28 -5.06 2.41
7.38 -4.92 2.41
7.48 -4.77 2.41
7.31 -4.46 2.33
7.39 -4.31 2.33
7.46 -4.15 2.33
7.54 -4.00 2.32
7.60 -3.84 2.32
7.67 -3.68 2.32
7.73 -3.52 2.32
7.79 -3.36 2.31
7.85 -3.20 2.31
7.90 -3.04 2.31
7.96 -2.88 2.31
8.00 -2.72 2.31
8.05 -2.56 2.31
8.34 -2.47 2.38
8.53 -2.34 2.42
8.57 -2.16 2.42
8.60 -1.99 2.41
8.63 -1.82 2.41
8.67 -1.64 2.41
8.70 -1.47 2.42
8.72 -1.29 2.42
8.75 -1.12 2.42
8.76 -0.94 2.42
8.78 -0.77 2.42
8.79 -0.59 2.42
8.80 -0.41 2.42
8.80 -0.24 2.42
8.80 -0.06 2.42
8.80 0.11 2.42
8.79 0.29 2.42
8.77 0.47 2.42
8.75 0.64 2.42
8.73 0.82 2.42
8.71 0.99 2.42
8.68 1.16 2.42
8.64 1.34 2.42
8.61 1.51 2.42
8.57 1.68 2.42
8.53 1.85 2.42
8.48 2.02 2.42
8.43 2.18 2.42
8.38 2.35 2.41
8.32 2.52 2.41
6.44 2.09 1.88
6.29 2.18 1.85
6.24 2.30 1.85
6.27 2.46 1.87
6.89 2.86 2.08
6.54 2.87 1.99
6.23 2.88 1.91
6.19 3.02 1.92
7.18 3.69 2.26
7.12 3.83 2.26
7.05 3.98 2.27
6.98 4.13 2.27
6.90 4.27 2.28
6.83 4.42 2.28
6.75 4.56 2.29
6.67 4.70 2.29
6.58 4.85 2.30
6.50 4.99 2.31
6.44 5.15 2.32
6.44 5.37 2.36
6.44 5.59 2.41
6.28 5.68 2.39
6.16 5.80 2.39
6.04 5.92 2.39
5.92 6.03 2.39
5.79 6.14 2.39
5.66 6.25 2.39
5.53 6.36 2.39
5.40 6.47 2.39
5.26 6.57 2.39
5.12 6.67 2.39
4.99 6.76 2.39
4.85 6.86 2.39
4.70 6.95 2.39
4.56 7.03 2.39
4.41 7.12 2.39
4.27 7.20 2.39
4.12 7.28 2.39
3.97 7.36 2.39
3.82 7.43 2.39
3.66 7.50 2.39
3.51 7.56 2.39
3.35 7.63 2.39
3.20 7.69 2.39
3.04 7.74 2.39
2.88 7.80 2.39
2.72 7.85 2.39
2.56 7.90 2.39
2.41 7.96 2.40
2.34 8.33 2.49
2.17 8.37 2.49
2.00 8.40 2.49
1.83 8.44 2.49
1.66 8.46 2.49
1.48 8.49 2.49
1.31 8.51 2.49
1.14 8.53 2.49
0.97 8.55 2.49
0.80 8.56 2.49
0.62 8.57 2.49
0.45 8.58 2.49
0.28 8.58 2.49
0.10 8.58 2.49
-0.07 8.57 2.49
-0.24 8.56 2.49
-0.41 8.55 2.49
-0.58 8.54 2.49
-0.76 8.52 2.49
-0.93 8.50 2.49
-1.10 8.48 2.49
-1.27 8.45 2.49
-1.44 8.42 2.49
-1.60 8.38 2.49
-1.77 8.34 2.49
-1.94 8.30 2.49
-2.10 8.26 2.49
-2.27 8.21 2.49
-2.43 8.16 2.49
-2.60 8.11 2.49
-2.76 8.05 2.49
-2.92 7.99 2.49
-3.08 7.93 2.49
-3.23 7.86 2.49
-3.39 7.79 2.49
-3.55 7.72 2.49
-3.70 7.65 2.49
-3.85 7.57 2.49
-4.00 7.49 2.49
-4.15 7.40 2.49
-4.30 7.32 2.49
-4.44 7.23 2.49
-4.59 7.14 2.49
-4.73 7.04 2.49
-4.87 6.94 2.49
-5.01 6.84 2.49
-5.14 6.74 2.49
-5.28 6.63 2.49
-5.41 6.53 2.49
-5.54 6.41 2.49
-5.67 6.30 2.49
-5.72 6.10 2.46
-5.73 5.88 2.42
-5.79 5.70 2.39
-5.90 5.58 2.39
-6.01 5.46 2.39
-6.12 5.34 2.39
-6.23 5.22 2.39
-6.33 5.09 2.39
-6.43 4.96 2.39
-6.53 4.83 2.39
-6.63 4.70 2.39
-6.72 4.57 2.39
-6.82 4.43 2.39
-6.91 4.29 2.39
-6.99 4.16 2.39
-7.08 4.01 2.39
-7.16 3.87 2.39
-7.23 3.73 2.39
-7.31 3.58 2.39
-7.38 3.44 2.39
-7.45 3.29 2.39
-7.52 3.14 2.39
-7.58 2.99 2.39
-7.64 2.83 2.39
-7.70 2.68 2.39
-7.76 2.53 2.39
-7.80 2.37 2.39
-7.85 2.21 2.39
-7.90 2.05 2.39
-7.94 1.90 2.39
-7.98 1.74 2.39
-8.02 1.58 2.39
-8.06 1.42 2.39
-8.09 1.25 2.39
-8.11 1.09 2.39
-8.14 0.93 2.39
-8.16 0.76 2.39
-8.18 0.60 2.39
-8.19 0.44 2.39
-8.20 0.27 2.39
-8.21 0.11 2.39
-8.22 -0.06 2.39
-8.22 -0.22 2.39
-8.22 -0.39 2.39
-6.20 -0.42 1.81
-6.18 -0.54 1.80
-8.19 -0.89 2.39
-8.18 -1.05 2.39
-8.16 -1.22 2.39
-8.14 -1.38 2.39
-8.11 -1.54 2.39
-8.09 -1.71 2.39
-8.06 -1.87 2.39
-8.02 -2.04 2.39
-7.98 -2.20 2.39
-7.94 -2.36 2.39
-7.90 -2.52 2.39
-7.85 -2.68 2.39
-7.80 -2.84 2.39
-7.75 -3.00 2.39
-7.69 -3.16 2.39
-7.64 -3.31 2.39
-7.57 -3.47 2.39
-7.51 -3.62 2.39
-7.44 -3.77 2.39
-7.37 -3.93 2.39
-7.29 -4.08 2.39
-7.21 -4.22 2.39
-7.13 -4.37 2.39
-7.05 -4.52 2.39
-6.96 -4.66 2.39
-6.87 -4.81 2.39
-6.78 -4.95 2.39
-6.68 -5.09 2.39
-6.59 -5.22 2.39
-6.49 -5.36 2.39
-6.38 -5.49 2.39
-6.29 -5.64 2.40
-6.17 -5.75 2.39
-6.12 -5.94 2.42
-6.12 -6.19 2.46
-6.07 -6.39 2.49
-5.95 -6.52 2.49
-5.82 -6.64 2.49
-5.69 -6.76 2.49
-5.56 -6.88 2.49
-5.42 -7.00 2.49
-5.29 -7.11 2.49
-5.15 -7.22 2.49
-5.00 -7.33 2.49
-4.86 -7.43 2.49
-4.71 -7.53 2.49
-4.57 -7.63 2.49
-4.42 -7.73 2.49
-4.26 -7.82 2.49
-4.11 -7.91 2.49
-3.95 -8.00 2.49
-3.79 -8.08 2.49
-3.63 -8.16 2.49
-3.47 -8.24 2.49
-3.31 -8.31 2.49
-3.14 -8.39 2.49
-2.98 -8.45 2.49
-2.81 -8.52 2.49
-2.64 -8.58 2.49
-2.47 -8.64 2.49
-2.30 -8.69 2.49
-2.12 -8.74 2.49
-1.95 -8.79 2.49
-1.77 -8.83 2.49
-1.60 -8.87 2.49
-1.42 -8.91 2.49
-1.24 -8.94 2.49
-1.06 -8.97 2.49
-0.88 -8.99 2.49
-0.70 -9.01 2.49
-0.52 -9.03 2.49
-0.34 -9.05 2.49
-0.16 -9.06 2.49
0.02 -8.33 2.49
0.19 -8.33 2.49
0.35 -8.33 2.49
0.52 -8.32 2.49
0.69 -8.32 2.49
0.85 -8.30 2.49
1.02 -8.29 2.49
1.19 -8.27 2.49
1.35 -8.25 2.49
1.52 -8.22 2.49
1.68 -8.20 2.49
1.85 -8.16 2.49
1.93 -7.79 2.39
2.09 -7.77 2.40
2.24 -7.72 2.39
2.40 -7.67 2.39
2.55 -7.63 2.39
2.70 -7.58 2.39
2.85 -7.52 2.39
3.01 -7.47 2.39
3.16 -7.41 2.39
3.30 -7.34 2.39
3.45 -7.28 2.39
3.60 -7.21 2.39
3.74 -7.14 2.39
3.88 -7.06 2.39
4.03 -6.99 2.39
4.17 -6.91 2.39
4.30 -6.82 2.39
4.44 -6.74 2.39
4.57 -6.65 2.39
4.71 -6.55 2.39
4.84 -6.46 2.39
4.97 -6.36 2.39
5.09 -6.26 2.39
5.22 -6.16 2.39
5.34 -6.05 2.39
5.46 -5.95 2.39
5.58 -5.84 2.39
5.70 -5.72 2.39
5.81 -5.61 2.39
5.92 -5.49 2.39
6.09 -5.42 2.41
6.19 -5.30 2.42
6.30 -5.18 2.42
6.40 -5.05 2.42
6.51 -4.92 2.42
6.60 -4.79 2.42
6.70 -4.66 2.42
6.62 -4.41 2.36
6.70 -4.27 2.35
6.77 -4.13 2.35
6.84 -3.99 2.35
6.91 -3.85 2.35
6.98 -3.70 2.34
7.05 -3.56 2.34
7.11 -3.41 2.34
7.17 -3.27 2.34
7.22 -3.12 2.34
7.28 -2.97 2.33
7.33 -2.82 2.33
7.38 -2.67 2.33
7.42 -2.52 2.33
7.68 -2.44 2.40
7.78 -2.30 2.41
7.82 -2.14 2.41
7.85 -1.98 2.41
7.89 -1.83 2.41
7.92 -1.67 2.41
7.95 -1.51 2.41
7.98 -1.35 2.41
8.00 -1.19 2.41
8.02 -1.03 2.41
8.04 -0.87 2.41
8.05 -0.70 2.42
8.07 -0.54 2.42
8.07 -0.38 2.42
8.08 -0.22 2.42
8.08 -0.06 2.42
8.07 0.10 2.42
8.07 0.27 2.42
8.05 0.43 2.42
8.04 0.59 2.42
8.01 0.75 2.42
7.99 0.91 2.42
7.97 1.07 2.42
7.94 1.22 2.42
7.91 1.38 2.42
7.87 1.54 2.42
7.84 1.70 2.42
7.80 1.85 2.42
7.75 2.01 2.42
7.70 2.16 2.42
7.65 2.31 2.42
6.45 2.09 2.05
6.30 2.18 2.02
6.27 2.31 2.02
6.27 2.46 2.04
6.89 2.86 2.26
6.55 2.87 2.17
6.23 2.88 2.08
6.19 3.02 2.09
6.71 3.44 2.29
6.65 3.58 2.30
6.58 3.71 2.30
6.51 3.85 2.31
6.45 3.99 2.31
6.45 4.17 2.34
6.45 4.36 2.38
6.44 4.54 2.41
6.30 4.64 2.39
6.20 4.76 2.39
6.10 4.88 2.39
6.00 5.00 2.39
5.89 5.11 2.39
5.78 5.22 2.39
5.67 5.34 2.39
5.56 5.44 2.39
5.45 5.55 2.39
5.33 5.65 2.39
5.21 5.76 2.39
5.09 5.85 2.39
4.97 5.95 2.39
4.85 6.05 2.39
4.72 6.14 2.39
4.59 6.23 2.39
4.46 6.31 2.39
4.33 6.40 2.39
4.20 6.48 2.39
4.07 6.56 2.39
3.93 6.63 2.39
3.79 6.70 2.39
3.66 6.77 2.39
3.52 6.84 2.39
3.38 6.91 2.39
3.23 6.97 2.39
3.09 7.03 2.39
2.95 7.08 2.39
2.80 7.13 2.39
2.66 7.18 2.39
2.51 7.23 2.39
2.38 7.34 2.41
2.31 7.63 2.49
2.16 7.67 2.49
2.00 7.71 2.49
1.84 7.74 2.49
1.69 7.77 2.49
1.53 7.80 2.49
1.37 7.83 2.49
1.21 7.85 2.49
1.05 7.87 2.49
0.89 7.88 2.49
0.73 7.89 2.49
0.58 7.90 2.49
0.42 7.91 2.49
0.26 7.91 2.49
0.10 7.91 2.49
-0.06 7.90 2.49
-0.22 7.90 2.49
-0.38 7.89 2.49
-0.54 7.87 2.49
-0.70 7.86 2.49
-0.85 7.84 2.49
-1.01 7.82 2.49
-1.17 7.79 2.49
-1.32 7.76 2.49
-1.48 7.73 2.49
-1.63 7.70 2.49
-1.79 7.66 2.49
-1.94 7.62 2.49
-2.09 7.58 2.49
-2.24 7.53 2.49
-2.39 7.48 2.49
-2.54 7.43 2.49
-2.69 7.37 2.49
-2.84 7.31 2.49
-2.98 7.25 2.49
-3.13 7.19 2.49
-3.27 7.12 2.49
-3.41 7.06 2.49
-3.55 6.98 2.49
-3.69 6.91 2.49
-3.83 6.83 2.49
-3.97 6.75 2.49
-4.10 6.67 2.49
-4.23 6.58 2.49
-4.36 6.50 2.49
-4.49 6.41 2.49
-4.62 6.31 2.49
-4.75 6.22 2.49
-4.87 6.12 2.49
-4.99 6.02 2.49
-5.11 5.92 2.49
-5.23 5.81 2.49
-5.35 5.71 2.49
-5.46 5.60 2.49
-5.57 5.49 2.49
-5.68 5.37 2.49
-5.75 5.22 2.48
-5.75 5.02 2.44
-5.77 4.83 2.40
-5.84 4.70 2.39
-5.96 4.59 2.40
-6.03 4.46 2.39
-6.12 4.34 2.39
-6.21 4.21 2.39
-6.29 4.09 2.39
-6.37 3.96 2.39
-6.45 3.83 2.39
-6.53 3.70 2.39
-6.60 3.57 2.39
-6.67 3.44 2.39
-6.74 3.30 2.39
-6.81 3.17 2.39
-6.88 3.03 2.39
-6.94 2.89 2.39
-7.00 2.75 2.39
-7.05 2.61 2.39
-7.10 2.47 2.39
-7.16 2.33 2.39
-7.20 2.19 2.39
-7.25 2.04 2.39
-7.29 1.90 2.39
-7.33 1.75 2.39
-7.37 1.60 2.39
-7.40 1.45 2.39
-7.43 1.30 2.39
-7.46 1.16 2.39
-7.48 1.01 2.39
-7.51 0.85 2.39
-7.52 0.70 2.39
-7.54 0.55 2.39
-7.55 0.40 2.39
-7.56 0.25 2.39
-7.57 0.10 2.39
-7.58 -0.06 2.39
-7.58 -0.21 2.39
-7.57 -0.36 2.39
-6.20 -0.42 1.96
-6.18 -0.54 1.95
-7.55 -0.82 2.39
-7.54 -0.97 2.39
-7.52 -1.12 2.39
-7.50 -1.27 2.39
-7.48 -1.43 2.39
-7.45 -1.58 2.39
-7.42 -1.73 2.39
-7.39 -1.88 2.39
-7.36 -2.03 2.39
-7.32 -2.18 2.39
-7.28 -2.32 2.39
-7.24 -2.47 2.39
-7.19 -2.62 2.39
-7.14 -2.76 2.39
-7.09 -2.91 2.39
-7.03 -3.05 2.39
-6.98 -3.20 2.39
-6.91 -3.34 2.39
-6.85 -3.48 2.39
-6.78 -3.62 2.39
-6.72 -3.76 2.39
-6.64 -3.89 2.39
-6.57 -4.03 2.39
-6.49 -4.16 2.39
-6.41 -4.30 2.39
-6.33 -4.43 2.39
-6.26 -4.57 2.40
-6.15 -4.68 2.39
-6.09 -4.83 2.40
-6.08 -5.03 2.44
-6.09 -5.24 2.48
-6.02 -5.40 2.49
-5.92 -5.52 2.49
-5.81 -5.65 2.49
-5.70 -5.77 2.49
-5.59 -5.88 2.49
-5.47 -6.00 2.49
-5.36 -6.11 2.49
-5.24 -6.22 2.49
-5.11 -6.33 2.49
-4.99 -6.44 2.49
-4.86 -6.54 2.49
-4.73 -6.64 2.49
-4.60 -6.74 2.49
-4.47 -6.84 2.49
-4.33 -6.93 2.49
-4.20 -7.02 2.49
-4.06 -7.11 2.49
-3.92 -7.19 2.49
-3.78 -7.28 2.49
-3.63 -7.36 2.49
-3.49 -7.43 2.49
-3.34 -7.51 2.49
-3.19 -7.58 2.49
-3.04 -7.65 2.49
-2.89 -7.71 2.49
-2.73 -7.77 2.49
-2.58 -7.83 2.49
-2.42 -7.89 2.49
-2.27 -7.94 2.49
-2.11 -7.99 2.49
-1.95 -8.03 2.49
-1.79 -8.08 2.49
-1.63 -8.12 2.49
-1.47 -8.15 2.49
-1.30 -8.18 2.49
-1.14 -8.21 2.49
-0.98 -8.24 2.49
-0.81 -8.26 2.49
-0.65 -8.28 2.49
-0.48 -8.30 2.49
-0.31 -8.31 2.49
-0.15 -8.32 2.49
0.02 -7.69 2.49
0.17 -7.69 2.49
0.33 -7.69 2.49
0.48 -7.69 2.49
0.64 -7.68 2.49
0.79 -7.67 2.49
0.94 -7.66 2.49
1.10 -7.64 2.49
1.25 -7.62 2.49
1.40 -7.60 2.49
1.56 -7.57 2.49
1.71 -7.54 2.49
1.86 -7.51 2.49
1.93 -7.16 2.39
2.07 -7.12 2.39
2.21 -7.08 2.39
2.35 -7.04 2.39
2.50 -6.99 2.39
2.64 -6.95 2.39
2.78 -6.89 2.39
2.91 -6.84 2.39
3.05 -6.78 2.39
3.19 -6.72 2.39
3.32 -6.66 2.39
3.45 -6.59 2.39
3.59 -6.52 2.39
3.72 -6.45 2.39
3.85 -6.37 2.39
3.97 -6.30 2.39
4.10 -6.22 2.39
4.22 -6.14 2.39
4.35 -6.05 2.39
4.47 -5.96 2.39
4.59 -5.87 2.39
4.70 -5.78 2.39
4.82 -5.69 2.39
4.93 -5.59 2.39
5.04 -5.49 2.39
5.15 -5.39 2.39
5.26 -5.28 2.39
5.36 -5.18 2.39
5.46 -5.07 2.39
5.57 -4.96 2.39
5.66 -4.85 2.39
5.76 -4.73 2.39
5.85 -4.61 2.39
5.94 -4.50 2.39
6.00 -4.36 2.38
6.08 -4.23 2.38
6.16 -4.10 2.38
6.23 -3.97 2.37
6.30 -3.84 2.37
6.37 -3.71 2.37
6.43 -3.58 2.37
6.50 -3.45 2.36
6.56 -3.31 2.36
6.62 -3.18 2.36
6.67 -3.04 2.36
6.72 -2.90 2.36
6.77 -2.77 2.35
6.82 -2.63 2.35
6.87 -2.49 2.35
7.09 -2.41 2.41
7.13 -2.27 2.41
7.17 -2.12 2.41
7.21 -1.98 2.41
7.24 -1.83 2.41
7.28 -1.69 2.41
7.31 -1.54 2.41
7.34 -1.39 2.41
7.36 -1.24 2.41
7.38 -1.10 2.41
7.40 -0.95 2.41
7.42 -0.80 2.41
7.43 -0.65 2.41
7.44 -0.50 2.41
7.45 -0.35 2.41
7.45 -0.20 2.42
7.45 -0.05 2.42
7.45 0.09 2.42
7.44 0.24 2.42
7.43 0.39 2.42
7.42 0.54 2.42
7.40 0.69 2.42
7.38 0.84 2.42
7.36 0.98 2.42
7.34 1.13 2.42
7.31 1.28 2.42
7.28 1.42 2.42
7.24 1.57 2.42
7.20 1.71 2.42
7.16 1.85 2.42
7.12 1.99 2.42
7.07 2.13 2.41
6.46 2.09 2.22
6.31 2.18 2.19
6.28 2.31 2.19
6.28 2.46 2.21
6.67 2.77 2.37
6.46 2.83 2.31
6.23 2.88 2.25
6.19 3.02 2.26
6.46 3.31 2.39
6.45 3.47 2.41
6.37 3.59 2.41
6.25 3.69 2.39
6.17 3.82 2.39
6.09 3.94 2.39
6.01 4.05 2.39
5.92 4.17 2.39
5.83 4.29 2.39
5.74 4.40 2.39
5.65 4.51 2.39
5.55 4.62 2.39
5.45 4.73 2.39
5.35 4.83 2.39
5.25 4.93 2.39
5.15 5.04 2.39
5.04 5.13 2.39
4.93 5.23 2.39
4.82 5.33 2.39
4.71 5.42 2.39
4.60 5.51 2.39
4.49 5.59 2.39
4.37 5.68 2.39
4.25 5.76 2.39
4.13 5.84 2.39
4.01 5.92 2.39
3.89 6.00 2.39
3.77 6.07 2.39
3.64 6.14 2.39
3.51 6.21 2.39
3.39 6.27 2.39
3.26 6.33 2.39
3.13 6.39 2.39
3.00 6.45 2.39
2.86 6.51 2.39
2.73 6.56 2.39
2.60 6.61 2.39
2.46 6.65 2.39
2.36 6.80 2.43
2.28 7.03 2.49
2.14 7.07 2.49
2.00 7.11 2.49
1.85 7.14 2.49
1.71 7.17 2.49
1.56 7.20 2.49
1.42 7.23 2.49
1.27 7.25 2.49
1.12 7.27 2.49
0.98 7.29 2.49
0.83 7.30 2.49
0.68 7.31 2.49
0.53 7.32 2.49
0.39 7.33 2.49
0.24 7.33 2.49
0.09 7.33 2.49
-0.06 7.33 2.49
-0.20 7.32 2.49
-0.35 7.31 2.49
-0.50 7.30 2.49
-0.64 7.28 2.49
-0.79 7.27 2.49
-0.93 7.25 2.49
-1.08 7.22 2.49
-1.22 7.20 2.49
-1.37 7.17 2.49
-1.51 7.14 2.49
-1.65 7.10 2.49
-1.80 7.06 2.49
-1.94 7.02 2.49
-2.08 6.98 2.49
-2.22 6.94 2.49
-2.36 6.89 2.49
-2.49 6.84 2.49
-2.63 6.78 2.49
-2.77 6.73 2.49
-2.90 6.67 2.49
-3.03 6.61 2.49
-3.16 6.54 2.49
-3.29 6.48 2.49
-3.42 6.41 2.49
-3.55 6.33 2.49
-3.68 6.26 2.49
-3.80 6.18 2.49
-3.93 6.11 2.49
-4.05 6.02 2.49
-4.17 5.94 2.49
-4.28 5.86 2.49
-4.40 5.77 2.49
-4.52 5.68 2.49
-4.63 5.58 2.49
-4.74 5.49 2.49
-4.85 5.39 2.49
-4.96 5.29 2.49
-5.06 5.19 2.49
-5.17 5.09 2.49
-5.27 4.98 2.49
-5.37 4.88 2.49
-5.46 4.77 2.49
-5.56 4.66 2.49
-5.65 4.54 2.49
-5.74 4.43 2.49
-5.78 4.27 2.47
-5.78 4.10 2.44
-5.80 3.94 2.41
-5.83 3.79 2.39
-5.91 3.67 2.39
-5.99 3.56 2.40
-6.05 3.43 2.39
-6.12 3.31 2.39
-6.19 3.19 2.39
-6.25 3.06 2.39
-6.32 2.94 2.39
-6.38 2.81 2.39
-6.43 2.68 2.39
-6.49 2.55 2.39
-6.54 2.42 2.39
-6.59 2.29 2.39
-6.63 2.16 2.39
-6.68 2.03 2.39
-6.72 1.89 2.39
-6.76 1.76 2.39
-6.80 1.62 2.39
-6.83 1.48 2.39
-6.86 1.35 2.39
-6.89 1.21 2.39
-6.91 1.07 2.39
-6.94 0.93 2.39
-6.96 0.79 2.39
-6.97 0.65 2.39
-6.99 0.51 2.39
-7.00 0.37 2.39
-7.01 0.23 2.39
-7.02 0.09 2.39
-7.02 -0.05 2.39
-7.02 -0.19 2.39
-7.02 -0.34 2.39
-6.20 -0.42 2.11
-6.18 -0.54 2.11
-7.00 -0.76 2.39
-6.98 -0.90 2.39
-6.97 -1.04 2.39
-6.95 -1.18 2.39
-6.93 -1.32 2.39
-6.90 -1.46 2.39
-6.88 -1.60 2.39
-6.85 -1.74 2.39
-6.82 -1.88 2.39
-6.78 -2.02 2.39
-6.74 -2.15 2.39
-6.70 -2.29 2.39
-6.66 -2.43 2.39
-6.61 -2.56 2.39
-6.56 -2.70 2.39
-6.51 -2.83 2.39
-6.46 -2.96 2.39
-6.40 -3.09 2.39
-6.34 -3.22 2.39
-6.28 -3.35 2.39
-6.22 -3.48 2.39
-6.15 -3.61 2.39
-6.08 -3.73 2.39
-6.05 -3.88 2.41
-6.05 -4.06 2.44
-6.06 -4.24 2.47
-6.03 -4.40 2.49
-5.94 -4.52 2.49
-5.85 -4.65 2.49
-5.76 -4.77 2.49
-5.67 -4.88 2.49
-5.57 -5.00 2.49
-5.48 -5.11 2.49
-5.38 -5.23 2.49
-5.27 -5.34 2.49
-5.17 -5.45 2.49
-5.06 -5.55 2.49
-4.95 -5.66 2.49
-4.84 -5.76 2.49
-4.73 -5.86 2.49
-4.61 -5.96 2.49
-4.50 -6.05 2.49
-4.38 -6.15 2.49
-4.26 -6.24 2.49
-4.13 -6.33 2.49
-4.01 -6.41 2.49
-3.88 -6.49 2.49
-3.75 -6.58 2.49
-3.62 -6.65 2.49
-3.49 -6.73 2.49
-3.36 -6.80 2.49
-3.22 -6.87 2.49
-3.09 -6.94 2.49
-2.95 -7.01 2.49
-2.81 -7.07 2.49
-2.67 -7.13 2.49
-2.53 -7.19 2.49
-2.38 -7.24 2.49
-2.24 -7.29 2.49
-2.09 -7.34 2.49
-1.95 -7.38 2.49
-1.80 -7.43 2.49
-1.65 -7.46 2.49
-1.50 -7.50 2.49
-1.35 -7.53 2.49
-1.20 -7.56 2.49
-1.05 -7.59 2.49
-0.90 -7.61 2.49
-0.75 -7.64 2.49
-0.60 -7.65 2.49
-0.44 -7.67 2.49
-0.29 -7.68 2.49
-0.13 -7.69 2.49
0.02 -7.14 2.49
0.16 -7.14 2.49
0.31 -7.14 2.49
0.45 -7.14 2.49
0.59 -7.13 2.49
0.73 -7.12 2.49
0.88 -7.11 2.49
1.02 -7.09 2.49
1.16 -7.07 2.49
1.30 -7.05 2.49
1.44 -7.02 2.49
1.59 -7.00 2.49
1.73 -6.97 2.49
1.87 -6.93 2.49
1.93 -6.63 2.40
2.05 -6.57 2.39
2.19 -6.53 2.39
2.32 -6.49 2.39
2.45 -6.44 2.39
2.58 -6.40 2.39
2.70 -6.34 2.39
2.83 -6.29 2.39
2.96 -6.23 2.39
3.08 -6.17 2.39
3.21 -6.11 2.39
3.33 -6.05 2.39
3.45 -5.98 2.39
3.57 -5.91 2.39
3.69 -5.84 2.39
3.80 -5.77 2.39
3.92 -5.69 2.39
4.03 -5.61 2.39
4.14 -5.53 2.39
4.25 -5.45 2.39
4.36 -5.36 2.39
4.47 -5.27 2.39
4.57 -5.18 2.39
4.68 -5.09 2.39
4.78 -5.00 2.39
4.88 -4.90 2.39
4.97 -4.80 2.39
5.07 -4.70 2.39
5.16 -4.60 2.39
5.25 -4.50 2.39
5.34 -4.39 2.39
5.43 -4.28 2.39
5.51 -4.17 2.39
5.59 -4.06 2.39
5.67 -3.95 2.39
5.75 -3.83 2.39
5.82 -3.71 2.39
5.88 -3.59 2.39
5.95 -3.47 2.38
6.01 -3.34 2.38
6.07 -3.22 2.38
6.13 -3.10 2.38
6.18 -2.97 2.38
6.23 -2.84 2.37
6.28 -2.71 2.37
6.33 -2.59 2.37
6.38 -2.46 2.37
6.53 -2.37 2.41
6.57 -2.24 2.41
6.62 -2.10 2.41
6.65 -1.97 2.41
6.69 -1.84 2.41
6.72 -1.70 2.41
6.76 -1.57 2.41
6.78 -1.43 2.41
6.81 -1.29 2.41
6.83 -1.16 2.41
6.85 -1.02 2.41
6.87 -0.88 2.41
6.89 -0.74 2.41
6.90 -0.61 2.41
6.91 -0.47 2.41
6.91 -0.33 2.41
6.92 -0.19 2.42
6.92 -0.05 2.42
6.91 0.09 2.41
6.91 0.22 2.41
6.90 0.36 2.41
6.88 0.50 2.41
6.87 0.64 2.41
6.85 0.77 2.41
6.83 0.91 2.41
6.81 1.05 2.41
6.78 1.18 2.41
6.75 1.32 2.41
6.72 1.45 2.41
6.68 1.58 2.41
6.65 1.72 2.41
6.61 1.85 2.41
6.56 1.98 2.41
6.48 2.10 2.40
6.33 2.19 2.36
6.29 2.32 2.36
6.29 2.46 2.38
6.31 2.62 2.41
6.20 2.72 2.39
6.14 2.84 2.39
6.08 2.96 2.39
6.02 3.08 2.39
5.95 3.20 2.39
5.88 3.32 2.39
5.81 3.43 2.39
5.73 3.54 2.39
5.66 3.66 2.39
5.58 3.77 2.39
5.50 3.87 2.39
5.42 3.98 2.39
5.33 4.09 2.39
5.25 4.19 2.39
5.16 4.29 2.39
5.07 4.39 2.39
4.98 4.49 2.39
4.88 4.59 2.39
4.79 4.68 2.39
4.69 4.77 2.39
4.59 4.86 2.39
4.49 4.95 2.39
4.38 5.03 2.39
4.28 5.12 2.39
4.17 5.20 2.39
4.06 5.28 2.39
3.95 5.36 2.39
3.84 5.43 2.39
3.73 5.50 2.39
3.62 5.57 2.39
3.50 5.64 2.39
3.39 5.71 2.39
3.27 5.77 2.39
3.15 5.83 2.39
3.03 5.89 2.39
2.91 5.95 2.39
2.79 6.00 2.39
2.67 6.05 2.39
2.55 6.11 2.40
2.42 6.15 2.39
2.34 6.32 2.44
2.26 6.50 2.49
2.13 6.54 2.49
1.99 6.58 2.49
1.86 6.61 2.49
1.73 6.64 2.49
1.59 6.67 2.49
1.46 6.70 2.49
1.32 6.72 2.49
1.18 6.75 2.49
1.05 6.77 2.49
0.91 6.78 2.49
0.77 6.79 2.49
0.64 6.81 2.49
0.50 6.81 2.49
0.36 6.82 2.49
0.22 6.82 2.49
0.09 6.82 2.49
-0.05 6.82 2.49
-0.19 6.81 2.49
-0.32 6.80 2.49
-0.46 6.79 2.49
