ply
format ascii 1.0
element vertex 2944
property float32 x
property float32 y
property float32 z
end_header
2.33 25.73 2.39
1.82 25.77 2.39
1.36 26.91 2.49
0.82 26.92 2.49
0.28 26.92 2.49
-0.26 26.90 2.49
-0.80 26.87 2.49
-1.33 26.83 2.49
-1.87 26.77 2.49
-2.40 26.70 2.49
-2.93 26.61 2.49
-3.46 26.52 2.49
-3.99 26.40 2.49
-4.51 26.28 2.49
-5.02 26.14 2.49
-5.54 25.99 2.49
-6.05 25.83 2.49
-6.28 24.59 2.39
-6.75 24.41 2.39
-7.23 24.22 2.39
-7.69 24.02 2.39
-8.15 23.80 2.39
-8.61 23.58 2.39
-9.06 23.34 2.39
-9.50 23.10 2.39
-9.93 22.84 2.39
-9.89 20.48 2.19
-9.92 19.51 2.11
-9.91 18.58 2.04
-9.90 17.68 1.97
-9.88 16.85 1.90
-9.86 16.08 1.85
-9.85 15.36 1.79
-9.84 14.68 1.74
-9.82 14.05 1.69
-9.76 13.38 1.64
-9.80 12.88 1.61
-9.79 12.35 1.57
-9.78 11.84 1.54
-9.77 11.36 1.51
-9.76 10.90 1.48
-9.75 10.46 1.45
-9.75 10.04 1.43
-9.74 9.64 1.40
-9.73 9.25 1.38
-9.72 8.88 1.36
-9.72 8.52 1.34
-9.71 8.18 1.32
-9.70 7.85 1.30
-9.70 7.53 1.29
-9.69 7.21 1.27
-9.69 6.91 1.26
-9.68 6.62 1.25
-9.67 6.34 1.23
-9.67 6.06 1.22
-9.66 5.79 1.21
-9.59 5.49 1.20
-9.65 5.27 1.19
-9.65 5.02 1.19
-9.64 4.77 1.18
-9.64 4.53 1.17
-9.63 4.30 1.17
-9.63 4.06 1.16
-9.63 3.84 1.16
-9.62 3.61 1.15
-9.62 3.39 1.15
-9.61 3.18 1.15
-9.61 2.96 1.14
-9.60 2.75 1.14
-9.60 2.54 1.14
-9.60 2.34 1.14
-9.59 2.13 1.14
-9.59 1.93 1.14
-9.58 1.73 1.14
-9.54 1.53 1.13
-9.58 1.34 1.14
-9.57 1.14 1.14
-9.57 0.95 1.14
-9.56 0.75 1.15
-9.56 0.56 1.15
-9.56 0.37 1.15
-9.55 0.17 1.16
-9.55 -0.02 1.16
-9.55 -0.21 1.17
-9.54 -0.40 1.17
-9.54 -0.59 1.18
-9.53 -0.79 1.18
-9.53 -0.98 1.19
-9.53 -1.17 1.20
-9.52 -1.37 1.21
-9.52 -1.56 1.21
-9.52 -1.76 1.22
-9.51 -1.95 1.23
-9.51 -2.15 1.24
-9.50 -2.35 1.25
-9.43 -2.54 1.25
-9.50 -2.76 1.27
-9.49 -2.97 1.29
-9.49 -3.18 1.30
-9.48 -3.39 1.31
-9.48 -3.61 1.33
-9.48 -3.82 1.34
-9.47 -4.04 1.36
-9.47 -4.27 1.37
-9.46 -4.50 1.39
-9.46 -4.73 1.41
-9.45 -4.97 1.43
-9.45 -5.21 1.45
-9.44 -5.46 1.47
-9.44 -5.71 1.49
-9.43 -5.97 1.51
-9.43 -6.24 1.53
-9.37 -6.48 1.55
-9.42 -6.79 1.59
-9.41 -7.08 1.61
-9.41 -7.38 1.64
-9.40 -7.68 1.67
-9.39 -8.00 1.70
-9.39 -8.32 1.74
-9.38 -8.66 1.77
-9.37 -9.01 1.81
-9.37 -9.37 1.85
-9.36 -9.75 1.89
-9.35 -10.14 1.93
-9.29 -10.49 1.97
-9.34 -10.98 2.03
-9.33 -11.43 2.08
-9.28 -11.85 2.13
-9.25 -12.32 2.18
-9.23 -13.98 2.39
-8.93 -14.14 2.39
-8.63 -14.29 2.39
-8.33 -14.44 2.39
-8.03 -14.58 2.39
-7.72 -14.72 2.39
-7.41 -14.85 2.39
-7.10 -14.98 2.39
-6.79 -15.10 2.39
-6.48 -15.22 2.39
-6.16 -15.33 2.39
-5.85 -15.43 2.39
-5.53 -15.54 2.39
-5.43 -16.27 2.48
-5.11 -16.40 2.49
-4.77 -16.49 2.49
-4.44 -16.57 2.49
-4.10 -16.65 2.49
-3.76 -16.72 2.49
-3.42 -16.79 2.49
-3.08 -16.85 2.49
-2.74 -16.90 2.49
-2.40 -16.95 2.49
-2.06 -16.99 2.49
-1.72 -17.03 2.49
-1.37 -17.06 2.49
-1.03 -17.09 2.49
-0.68 -17.11 2.49
-0.34 -17.12 2.49
0.01 -14.79 2.49
0.30 -14.79 2.49
0.60 -14.78 2.49
0.90 -14.78 2.49
1.20 -14.76 2.49
1.50 -14.75 2.49
1.80 -14.72 2.49
2.09 -14.70 2.49
2.39 -14.66 2.49
2.64 -14.34 2.44
2.86 -13.98 2.39
3.15 -13.93 2.39
3.43 -13.88 2.39
3.71 -13.82 2.39
3.99 -13.76 2.39
4.28 -13.70 2.39
4.56 -13.62 2.39
4.84 -13.55 2.39
5.12 -13.47 2.39
5.40 -13.38 2.39
5.67 -13.29 2.39
5.95 -13.20 2.39
6.22 -13.09 2.39
6.38 -12.76 2.34
6.23 -11.85 2.20
5.79 -10.50 1.96
5.88 -10.18 1.92
6.07 -10.03 1.91
6.34 -10.01 1.93
5.63 -8.51 1.66
5.60 -8.10 1.59
5.79 -8.03 1.60
6.03 -8.02 1.62
6.28 -8.01 1.64
6.54 -8.00 1.66
5.57 -6.54 1.38
5.61 -6.32 1.35
5.62 -6.09 1.32
5.69 -5.92 1.30
5.88 -5.88 1.32
6.11 -5.86 1.34
6.33 -5.83 1.36
6.60 -5.84 1.39
6.87 -5.84 1.41
7.23 -5.90 1.46
10.88 -8.51 2.15
5.85 -4.39 1.14
5.85 -4.21 1.12
5.85 -4.03 1.10
5.93 -3.92 1.10
6.03 -3.81 1.10
6.25 -3.77 1.12
6.48 -3.74 1.14
6.78 -3.73 1.18
7.06 -3.71 1.21
12.75 -6.36 2.15
5.62 -2.67 0.94
5.65 -2.54 0.93
5.68 -2.42 0.92
5.64 -2.27 0.91
5.79 -2.20 0.92
5.81 -2.07 0.91
5.98 -2.00 0.93
6.37 -1.99 0.98
6.81 -1.98 1.04
10.85 -2.91 1.64
10.85 -2.68 1.62
10.84 -2.45 1.61
10.84 -2.22 1.60
10.83 -1.99 1.58
10.83 -1.77 1.57
10.83 -1.55 1.56
5.93 -0.73 0.85
5.72 -0.58 0.81
5.81 -0.48 0.82
5.80 -0.36 0.82
5.84 -0.24 0.82
5.80 -0.12 0.81
6.31 -0.01 0.88
10.79 0.20 1.49
10.96 0.42 1.51
16.26 0.96 2.24
16.30 1.29 2.24
16.33 1.62 2.24
16.36 1.96 2.24
16.38 2.29 2.24
6.66 1.07 0.91
5.91 1.07 0.81
5.91 1.19 0.81
5.76 1.28 0.79
5.78 1.41 0.79
5.77 1.53 0.79
5.82 1.67 0.80
5.85 1.80 0.80
16.25 5.37 2.24
16.20 5.72 2.24
16.14 6.06 2.24
16.07 6.41 2.24
16.00 6.76 2.24
6.62 2.95 0.93
6.35 2.98 0.90
5.99 2.97 0.85
5.73 2.98 0.82
5.45 2.97 0.79
5.37 3.07 0.78
5.23 3.13 0.77
5.07 3.18 0.75
5.22 3.42 0.78
5.24 3.58 0.79
11.47 8.18 1.75
10.60 7.89 1.63
10.13 7.86 1.58
6.88 5.56 1.09
6.59 5.55 1.06
6.31 5.53 1.02
6.03 5.50 0.99
5.82 5.53 0.98
5.78 5.72 0.98
5.65 5.82 0.98
5.72 6.13 1.01
6.77 7.55 1.22
6.51 7.57 1.20
6.38 7.72 1.20
6.22 7.84 1.19
6.20 8.15 1.22
6.18 8.46 1.24
10.90 15.57 2.25
10.44 15.57 2.21
10.06 15.68 2.20
9.82 15.99 2.21
9.56 16.29 2.22
9.30 16.60 2.23
9.03 16.90 2.24
8.75 17.20 2.25
8.46 17.50 2.27
8.17 17.79 2.28
7.87 18.09 2.29
5.95 14.46 1.82
5.61 14.44 1.80
5.50 15.04 1.86
6.60 19.23 2.35
6.26 19.50 2.37
5.91 19.78 2.39
5.52 19.91 2.39
5.13 20.03 2.39
4.73 20.14 2.39
4.32 20.24 2.39
3.92 20.34 2.39
3.51 20.42 2.39
3.11 20.49 2.39
2.70 20.55 2.39
2.28 20.60 2.39
1.89 20.83 2.41
1.52 21.57 2.49
1.09 21.59 2.49
0.66 21.60 2.49
0.22 21.60 2.49
-0.21 21.59 2.49
-0.64 21.57 2.49
-1.07 21.54 2.49
-1.50 21.49 2.49
-1.93 21.44 2.49
-2.35 21.38 2.49
-2.78 21.30 2.49
-3.20 21.22 2.49
-3.62 21.13 2.49
-4.04 21.02 2.49
-4.45 20.91 2.49
-4.86 20.79 2.49
-5.27 20.65 2.49
-5.67 20.51 2.49
-6.07 20.36 2.49
-6.20 19.36 2.39
-6.57 19.19 2.39
-6.94 19.02 2.39
-7.30 18.84 2.39
-7.66 18.65 2.39
-8.02 18.45 2.39
-8.37 18.25 2.39
-8.71 18.04 2.39
-9.05 17.82 2.39
-9.38 17.59 2.39
-9.70 17.35 2.39
-10.02 17.11 2.39
-9.80 15.29 2.20
-9.79 14.62 2.13
-9.82 14.06 2.09
-9.76 13.38 2.02
-9.80 12.89 1.98
-9.79 12.36 1.93
-9.78 11.85 1.89
-9.77 11.37 1.85
-9.76 10.91 1.81
-9.75 10.47 1.78
-9.75 10.05 1.75
-9.74 9.65 1.71
-9.73 9.26 1.69
-9.72 8.89 1.66
-9.72 8.53 1.63
-9.71 8.19 1.61
-9.70 7.85 1.59
-9.70 7.53 1.57
-9.69 7.22 1.55
-9.69 6.92 1.53
-9.68 6.63 1.51
-9.67 6.34 1.50
-9.67 6.07 1.48
-9.66 5.80 1.47
-9.60 5.50 1.45
-9.65 5.28 1.45
-9.65 5.02 1.44
-9.64 4.78 1.43
-9.64 4.54 1.42
-9.63 4.30 1.41
-9.63 4.07 1.40
-9.63 3.84 1.39
-9.62 3.62 1.39
-9.62 3.40 1.38
-9.61 3.18 1.38
-9.61 2.97 1.37
-9.60 2.76 1.37
-9.60 2.55 1.37
-9.60 2.34 1.36
-9.59 2.14 1.36
-9.59 1.94 1.36
-9.58 1.74 1.36
-9.55 1.53 1.36
-9.58 1.34 1.36
-9.57 1.15 1.36
-9.57 0.95 1.36
-9.56 0.76 1.37
-9.56 0.56 1.37
-9.56 0.37 1.37
-9.55 0.18 1.38
-9.55 -0.01 1.38
-9.55 -0.20 1.39
-9.54 -0.40 1.39
-9.54 -0.59 1.40
-9.53 -0.78 1.40
-9.53 -0.97 1.41
-9.53 -1.17 1.42
-9.52 -1.36 1.43
-9.52 -1.56 1.44
-9.52 -1.75 1.44
-9.51 -1.95 1.45
-9.51 -2.15 1.47
-9.50 -2.35 1.48
-9.43 -2.53 1.48
-9.50 -2.76 1.50
-9.49 -2.96 1.51
-9.49 -3.17 1.53
-9.48 -3.38 1.54
-9.48 -3.60 1.56
-9.48 -3.82 1.58
-9.47 -4.04 1.59
-9.47 -4.26 1.61
-9.46 -4.49 1.63
-9.46 -4.73 1.65
-9.45 -4.96 1.67
-9.45 -5.21 1.69
-9.44 -5.45 1.72
-9.44 -5.71 1.74
-9.43 -5.97 1.77
-9.43 -6.23 1.79
-9.38 -6.47 1.81
-9.42 -6.79 1.85
-9.41 -7.07 1.88
-9.41 -7.37 1.92
-9.40 -7.68 1.95
-9.39 -7.99 1.99
-8.70 -7.70 1.88
-8.52 -7.86 1.88
-8.37 -8.04 1.88
-8.35 -8.35 1.92
-8.34 -8.68 1.96
-9.29 -10.48 2.29
-9.44 -11.09 2.39
-9.19 -11.26 2.39
-8.95 -11.42 2.39
-8.70 -11.58 2.39
-8.45 -11.73 2.39
-8.20 -11.88 2.39
-7.95 -12.03 2.39
-7.69 -12.17 2.39
-7.44 -12.30 2.39
-7.18 -12.43 2.39
-6.92 -12.56 2.39
-6.65 -12.68 2.39
-6.39 -12.80 2.39
-6.12 -12.91 2.39
-5.86 -13.02 2.39
-5.59 -13.12 2.39
-5.48 -13.62 2.46
-5.26 -13.88 2.49
-4.98 -13.98 2.49
-4.69 -14.06 2.49
-4.41 -14.15 2.49
-4.12 -14.22 2.49
-3.83 -14.30 2.49
-3.54 -14.36 2.49
-3.25 -14.43 2.49
-2.95 -14.48 2.49
-2.66 -14.54 2.49
-2.37 -14.58 2.49
-2.07 -14.63 2.49
-1.78 -14.67 2.49
-1.48 -14.70 2.49
-1.18 -14.73 2.49
-0.89 -14.75 2.49
-0.59 -14.77 2.49
-0.29 -14.78 2.49
0.01 -12.99 2.49
0.27 -12.99 2.49
0.53 -12.99 2.49
0.79 -12.98 2.49
1.05 -12.97 2.49
1.32 -12.95 2.49
1.58 -12.93 2.49
1.84 -12.91 2.49
2.10 -12.88 2.49
2.36 -12.84 2.49
2.54 -12.42 2.41
2.76 -12.23 2.39
3.01 -12.18 2.39
3.26 -12.13 2.39
3.51 -12.08 2.39
3.76 -12.02 2.39
4.00 -11.95 2.39
4.25 -11.88 2.39
4.49 -11.81 2.39
4.73 -11.73 2.39
4.98 -11.65 2.39
5.22 -11.56 2.39
5.46 -11.47 2.39
5.70 -11.38 2.39
5.93 -11.28 2.39
5.80 -10.51 2.24
5.88 -10.16 2.19
6.08 -10.03 2.18
6.34 -10.01 2.20
5.62 -8.49 1.89
5.69 -8.23 1.85
5.80 -8.03 1.83
6.03 -8.01 1.85
6.29 -8.01 1.87
6.56 -8.02 1.90
5.56 -6.53 1.57
5.60 -6.31 1.54
5.62 -6.08 1.51
5.69 -5.91 1.49
5.89 -5.88 1.51
6.11 -5.85 1.53
6.35 -5.84 1.56
6.60 -5.84 1.59
6.87 -5.83 1.62
7.24 -5.90 1.68
10.00 -7.82 2.27
5.84 -4.38 1.30
5.85 -4.21 1.28
5.85 -4.03 1.26
5.91 -3.90 1.25
6.03 -3.81 1.26
6.25 -3.77 1.29
6.49 -3.74 1.32
6.78 -3.73 1.36
10.92 -5.72 2.15
11.06 -5.52 2.15
5.61 -2.66 1.08
5.60 -2.52 1.06
5.63 -2.39 1.06
5.60 -2.25 1.04
5.71 -2.16 1.05
5.80 -2.07 1.05
5.97 -1.99 1.07
6.37 -1.98 1.13
6.81 -1.97 1.20
10.85 -2.91 1.90
10.85 -2.67 1.88
10.84 -2.44 1.87
10.84 -2.21 1.85
10.83 -1.99 1.84
10.15 -1.65 1.71
5.84 -0.83 0.98
5.65 -0.69 0.94
5.68 -0.58 0.94
5.70 -0.46 0.94
5.73 -0.35 0.94
5.73 -0.23 0.94
5.80 -0.12 0.94
6.00 -0.00 0.97
10.79 0.21 1.74
10.33 0.41 1.66
10.33 0.61 1.66
10.35 0.82 1.66
14.00 1.40 2.24
14.01 1.68 2.24
14.02 1.97 2.24
6.05 0.97 0.97
5.82 1.06 0.93
5.83 1.18 0.93
5.65 1.26 0.90
5.67 1.39 0.91
5.70 1.52 0.92
5.71 1.64 0.92
5.86 1.81 0.95
13.91 4.61 2.25
13.86 4.90 2.25
13.81 5.20 2.25
13.75 5.49 2.25
13.69 5.79 2.26
6.59 2.94 1.09
6.22 2.93 1.04
5.89 2.92 0.99
5.52 2.87 0.93
5.41 2.96 0.92
5.25 3.01 0.90
5.16 3.10 0.89
5.08 3.19 0.89
5.06 3.32 0.89
5.12 3.50 0.91
11.43 8.16 2.06
10.64 7.93 1.95
10.16 7.89 1.88
6.86 5.55 1.29
6.57 5.54 1.25
6.32 5.54 1.22
6.02 5.50 1.18
5.82 5.54 1.16
5.68 5.62 1.15
5.63 5.80 1.16
5.66 6.07 1.19
6.76 7.55 1.45
6.49 7.55 1.42
6.36 7.70 1.42
6.22 7.84 1.42
6.19 8.14 1.45
6.28 8.61 1.51
9.09 13.00 2.24
8.88 13.26 2.25
8.67 13.52 2.26
8.45 13.77 2.27
8.22 14.03 2.28
8.37 14.95 2.40
8.08 15.14 2.40
7.79 15.32 2.40
7.49 15.49 2.40
7.15 15.58 2.39
6.78 15.57 2.36
5.95 14.46 2.18
5.61 14.44 2.15
5.50 15.04 2.22
5.58 16.28 2.39
5.26 16.40 2.39
4.93 16.51 2.39
4.61 16.62 2.39
4.28 16.72 2.39
3.94 16.81 2.39
3.61 16.89 2.39
3.27 16.97 2.39
2.93 17.03 2.39
2.59 17.09 2.39
2.25 17.14 2.39
1.95 17.56 2.44
1.63 17.96 2.49
1.27 17.99 2.49
0.91 18.01 2.49
0.55 18.02 2.49
0.19 18.02 2.49
-0.17 18.01 2.49
-0.53 18.00 2.49
-0.89 17.97 2.49
-1.25 17.94 2.49
-1.61 17.90 2.49
-1.96 17.85 2.49
-2.32 17.79 2.49
-2.67 17.72 2.49
-3.02 17.65 2.49
-3.37 17.57 2.49
-3.72 17.47 2.49
-4.06 17.38 2.49
-4.40 17.27 2.49
-4.74 17.15 2.49
-5.07 17.03 2.49
-5.40 16.90 2.49
-5.73 16.76 2.49
-6.06 16.62 2.49
-6.11 15.78 2.39
-6.42 15.63 2.39
-6.71 15.47 2.39
-7.01 15.30 2.39
-7.30 15.13 2.39
-7.59 14.95 2.39
-7.87 14.77 2.39
-8.14 14.57 2.39
-8.41 14.38 2.39
-8.68 14.17 2.39
-8.94 13.96 2.39
-9.20 13.75 2.39
-9.45 13.53 2.39
-9.69 13.31 2.39
-9.93 13.08 2.39
-9.71 11.31 2.18
-9.71 10.86 2.14
-9.75 10.48 2.11
-9.75 10.06 2.07
-9.74 9.66 2.03
-9.73 9.27 1.99
-9.72 8.90 1.96
-9.72 8.54 1.93
-9.71 8.20 1.90
-9.70 7.86 1.88
-9.70 7.54 1.85
-9.69 7.23 1.83
-9.69 6.93 1.80
-9.68 6.63 1.78
-9.67 6.35 1.76
-9.67 6.07 1.75
-9.66 5.80 1.73
-9.60 5.51 1.70
-9.65 5.28 1.70
-9.65 5.03 1.69
-9.64 4.79 1.67
-9.64 4.55 1.66
-9.63 4.31 1.65
-9.63 4.08 1.64
-9.63 3.85 1.63
-9.62 3.63 1.62
-9.62 3.41 1.62
-9.61 3.19 1.61
-9.61 2.98 1.61
-9.60 2.76 1.60
-9.60 2.56 1.60
-9.60 2.35 1.59
-9.59 2.15 1.59
-9.59 1.94 1.59
-9.58 1.74 1.59
-9.57 1.54 1.58
-9.58 1.35 1.58
-9.57 1.15 1.59
-9.57 0.96 1.59
-9.57 0.76 1.59
-9.56 0.57 1.59
-9.56 0.38 1.59
-9.55 0.19 1.60
-9.55 -0.01 1.60
-9.55 -0.20 1.61
-9.54 -0.39 1.61
-9.54 -0.58 1.62
-9.54 -0.77 1.62
-9.53 -0.97 1.63
-9.53 -1.16 1.64
-9.52 -1.35 1.65
-9.52 -1.55 1.66
-9.52 -1.75 1.67
-9.51 -1.94 1.68
-9.51 -2.14 1.69
-9.50 -2.34 1.70
-9.43 -2.53 1.70
-9.50 -2.75 1.73
-9.49 -2.96 1.74
-9.49 -3.17 1.76
-9.48 -3.38 1.78
-9.48 -3.59 1.79
-9.48 -3.81 1.81
-9.47 -4.03 1.83
-9.47 -4.26 1.85
-9.46 -4.49 1.87
-9.46 -4.72 1.90
-9.45 -4.96 1.92
-9.45 -5.20 1.94
-9.44 -5.45 1.97
-8.87 -5.36 1.88
-8.74 -5.52 1.88
-8.61 -5.68 1.88
-8.47 -5.84 1.88
-9.40 -6.77 2.12
-9.36 -7.03 2.14
-9.35 -7.32 2.18
-8.46 -7.49 2.09
-9.48 -8.74 2.39
-9.28 -8.91 2.39
-8.46 -8.46 2.22
-8.89 -9.24 2.39
-8.68 -9.40 2.39
-8.48 -9.56 2.39
-8.27 -9.71 2.39
-8.06 -9.86 2.39
-7.85 -10.01 2.39
-7.63 -10.15 2.39
-7.41 -10.28 2.39
-7.19 -10.42 2.39
-6.97 -10.55 2.39
-6.75 -10.67 2.39
-6.53 -10.79 2.39
-6.30 -10.91 2.39
-6.07 -11.02 2.39
-5.84 -11.13 2.39
-5.61 -11.23 2.39
-5.52 -11.62 2.45
-5.37 -11.92 2.49
-5.12 -12.02 2.49
-4.87 -12.11 2.49
-4.62 -12.19 2.49
-4.38 -12.28 2.49
-4.12 -12.35 2.49
-3.87 -12.43 2.49
-3.62 -12.50 2.49
-3.36 -12.56 2.49
-3.11 -12.62 2.49
-2.85 -12.68 2.49
-2.60 -12.73 2.49
-2.34 -12.77 2.49
-2.08 -12.82 2.49
-1.82 -12.85 2.49
-1.56 -12.89 2.49
-1.30 -12.92 2.49
-1.04 -12.94 2.49
-0.78 -12.96 2.49
-0.52 -12.97 2.49
-0.26 -12.98 2.49
0.01 -11.57 2.49
0.24 -11.57 2.49
0.47 -11.57 2.49
0.71 -11.56 2.49
0.94 -11.55 2.49
1.17 -11.54 2.49
1.41 -11.52 2.49
1.64 -11.49 2.49
1.87 -11.47 2.49
2.11 -11.43 2.49
2.34 -11.40 2.49
2.51 -11.08 2.43
2.68 -10.84 2.39
2.90 -10.80 2.39
3.13 -10.75 2.39
3.34 -10.69 2.39
3.56 -10.63 2.39
3.78 -10.57 2.39
4.00 -10.51 2.39
4.21 -10.43 2.39
4.43 -10.36 2.39
4.64 -10.28 2.39
4.86 -10.20 2.39
5.07 -10.11 2.39
5.28 -10.02 2.39
5.49 -9.93 2.39
5.69 -9.83 2.39
5.90 -9.73 2.39
6.11 -9.63 2.39
5.63 -8.49 2.13
5.70 -8.23 2.09
5.80 -8.02 2.06
6.06 -8.04 2.09
6.27 -7.98 2.11
6.30 -7.69 2.06
5.56 -6.51 1.77
5.60 -6.30 1.74
5.63 -6.08 1.71
5.71 -5.93 1.69
5.89 -5.88 1.71
6.11 -5.85 1.73
6.35 -5.84 1.76
6.60 -5.83 1.80
6.94 -5.88 1.85
8.90 -7.25 2.33
5.84 -4.56 1.50
5.83 -4.37 1.47
5.84 -4.20 1.45
5.86 -4.03 1.43
5.91 -3.90 1.42
6.03 -3.80 1.42
6.23 -3.76 1.45
6.49 -3.74 1.49
6.80 -3.74 1.54
10.25 -5.36 2.29
10.34 -5.15 2.28
5.60 -2.65 1.22
5.61 -2.52 1.21
5.64 -2.39 1.20
5.60 -2.25 1.18
5.68 -2.15 1.18
5.80 -2.06 1.20
6.05 -2.01 1.24
6.37 -1.98 1.29
6.86 -1.98 1.38
10.85 -2.90 2.16
10.85 -2.67 2.14
10.84 -2.44 2.12
10.84 -2.21 2.11
10.83 -1.98 2.09
10.14 -1.64 1.95
5.84 -0.83 1.12
5.65 -0.68 1.07
5.67 -0.57 1.07
5.65 -0.46 1.06
5.67 -0.34 1.06
5.70 -0.23 1.06
5.72 -0.12 1.06
5.99 -0.00 1.11
10.34 0.21 1.91
10.33 0.41 1.90
10.32 0.62 1.90
10.32 0.83 1.89
12.15 1.22 2.23
12.13 1.46 2.22
12.11 1.71 2.22
6.04 0.98 1.11
5.82 1.06 1.07
5.83 1.18 1.07
5.64 1.26 1.04
5.60 1.37 1.03
5.69 1.52 1.05
5.67 1.63 1.05
5.69 1.76 1.06
12.34 4.09 2.30
12.30 4.36 2.30
12.25 4.62 2.30
12.20 4.88 2.31
12.15 5.15 2.31
6.56 2.94 1.25
6.20 2.92 1.19
5.86 2.91 1.14
5.51 2.87 1.08
5.33 2.92 1.05
5.25 3.01 1.04
5.16 3.10 1.03
4.99 3.14 1.01
4.94 3.24 1.01
5.10 3.49 1.05
5.07 3.62 1.06
10.63 7.93 2.25
10.20 7.93 2.19
6.90 5.59 1.50
6.59 5.56 1.45
6.31 5.55 1.41
6.02 5.51 1.37
5.82 5.54 1.35
5.68 5.62 1.34
5.61 5.79 1.34
5.64 6.06 1.38
6.76 7.55 1.68
6.52 7.59 1.66
6.40 7.75 1.66
6.21 7.84 1.65
6.20 8.16 1.69
6.26 8.59 1.75
8.00 11.44 2.29
7.81 11.66 2.30
7.61 11.88 2.31
7.41 12.09 2.32
7.21 12.30 2.33
7.00 12.51 2.34
6.79 12.72 2.35
6.57 12.92 2.36
6.34 13.13 2.37
6.11 13.32 2.38
5.86 13.48 2.39
5.60 13.61 2.39
5.33 13.73 2.39
5.06 13.85 2.39
4.78 13.96 2.39
4.51 14.06 2.39
4.23 14.16 2.39
3.95 14.25 2.39
3.66 14.33 2.39
3.38 14.41 2.39
3.09 14.48 2.39
2.80 14.54 2.39
2.51 14.60 2.39
2.22 14.65 2.39
1.99 15.19 2.47
1.70 15.36 2.49
1.40 15.39 2.49
1.09 15.42 2.49
0.78 15.43 2.49
0.47 15.44 2.49
0.16 15.44 2.49
-0.15 15.44 2.49
-0.45 15.43 2.49
-0.76 15.41 2.49
-1.07 15.38 2.49
-1.38 15.35 2.49
-1.68 15.31 2.49
-1.99 15.26 2.49
-2.29 15.20 2.49
-2.59 15.14 2.49
-2.89 15.07 2.49
-3.19 15.00 2.49
-3.48 14.91 2.49
-3.77 14.82 2.49
-4.06 14.73 2.49
-4.35 14.63 2.49
-4.64 14.52 2.49
-4.92 14.40 2.49
-5.20 14.28 2.49
-5.48 14.15 2.49
-5.75 14.02 2.49
-6.02 13.88 2.49
-6.03 13.17 2.39
-6.28 13.02 2.39
-6.52 12.87 2.39
-6.77 12.71 2.39
-7.01 12.55 2.39
-7.24 12.39 2.39
-7.47 12.21 2.39
-7.70 12.04 2.39
-7.92 11.86 2.39
-8.14 11.67 2.39
-8.36 11.48 2.39
-8.57 11.29 2.39
-8.77 11.09 2.39
-8.97 10.89 2.39
-9.17 10.68 2.39
-9.36 10.47 2.39
-9.54 10.26 2.39
-9.72 10.04 2.39
-9.90 9.82 2.39
-9.65 8.16 2.18
-9.65 7.82 2.15
-9.66 7.52 2.13
-9.69 7.24 2.11
-9.69 6.94 2.08
-9.68 6.64 2.06
-9.67 6.36 2.03
-9.67 6.08 2.01
-9.66 5.81 1.99
-9.60 5.51 1.96
-9.65 5.29 1.96
-9.65 5.04 1.94
-9.64 4.79 1.92
-9.64 4.55 1.91
-9.63 4.32 1.90
-9.63 4.08 1.88
-9.63 3.86 1.87
-9.62 3.63 1.86
-9.62 3.41 1.85
-9.61 3.20 1.85
-9.61 2.98 1.84
-9.60 2.77 1.83
-9.60 2.56 1.83
-9.60 2.36 1.82
-9.59 2.15 1.82
-9.59 1.95 1.81
-9.58 1.75 1.81
-9.58 1.35 1.81
-9.57 1.16 1.81
-9.57 0.96 1.81
-9.57 0.77 1.81
-9.56 0.58 1.81
-9.56 0.38 1.82
-9.55 0.19 1.82
-9.55 -0.00 1.82
-9.55 -0.19 1.83
-9.54 -0.38 1.83
-9.54 -0.58 1.84
-9.54 -0.77 1.85
-9.53 -0.96 1.85
-9.53 -1.15 1.86
-9.52 -1.35 1.87
-9.52 -1.54 1.88
-9.52 -1.74 1.89
-9.51 -1.94 1.90
-9.51 -2.14 1.92
-9.50 -2.34 1.93
-9.43 -2.52 1.93
-9.50 -2.74 1.96
-9.49 -2.95 1.98
-8.93 -2.98 1.88
-8.85 -3.15 1.88
-9.48 -3.59 2.03
-9.48 -3.81 2.05
-9.47 -4.03 2.07
-9.47 -4.25 2.09
-9.45 -4.47 2.11
-9.42 -4.69 2.13
-8.51 -4.46 1.95
-8.42 -4.63 1.96
-8.41 -4.85 1.98
-8.41 -5.07 2.01
-8.41 -5.31 2.04
-8.61 -5.68 2.12
-9.39 -6.47 2.35
-9.40 -6.76 2.39
-9.24 -6.93 2.39
-9.08 -7.10 2.39
-8.92 -7.27 2.39
-8.76 -7.44 2.39
-8.46 -7.48 2.35
-8.42 -7.75 2.39
-8.25 -7.91 2.39
-8.07 -8.06 2.39
-7.90 -8.21 2.39
-7.72 -8.35 2.39
-7.54 -8.49 2.39
-7.35 -8.63 2.39
-7.17 -8.76 2.39
-6.98 -8.89 2.39
-6.79 -9.02 2.39
-6.60 -9.14 2.39
-6.40 -9.26 2.39
-6.21 -9.38 2.39
-6.01 -9.49 2.39
-5.81 -9.60 2.39
-5.61 -9.70 2.39
-5.55 -10.06 2.45
-5.43 -10.33 2.49
-5.21 -10.43 2.49
-5.00 -10.52 2.49
-4.78 -10.61 2.49
-4.56 -10.70 2.49
-4.34 -10.78 2.49
-4.12 -10.86 2.49
-3.90 -10.93 2.49
-3.67 -11.00 2.49
-3.45 -11.07 2.49
-3.22 -11.13 2.49
-3.00 -11.19 2.49
-2.77 -11.24 2.49
-2.54 -11.29 2.49
-2.31 -11.34 2.49
-2.08 -11.38 2.49
-1.85 -11.42 2.49
-1.62 -11.45 2.49
-1.39 -11.48 2.49
-1.16 -11.51 2.49
-0.93 -11.53 2.49
-0.69 -11.55 2.49
-0.46 -11.56 2.49
-0.23 -11.57 2.49
0.01 -10.43 2.49
0.22 -10.43 2.49
0.43 -10.42 2.49
0.64 -10.42 2.49
0.85 -10.41 2.49
1.06 -10.39 2.49
1.27 -10.37 2.49
1.48 -10.35 2.49
1.69 -10.32 2.49
1.90 -10.30 2.49
2.11 -10.26 2.49
2.32 -10.22 2.49
2.48 -10.03 2.45
2.62 -9.72 2.39
2.82 -9.67 2.39
3.01 -9.62 2.39
3.21 -9.57 2.39
3.40 -9.51 2.39
3.60 -9.45 2.39
3.79 -9.39 2.39
3.99 -9.32 2.39
4.18 -9.25 2.39
4.37 -9.17 2.39
4.56 -9.09 2.39
4.75 -9.01 2.39
4.94 -8.93 2.39
5.12 -8.84 2.39
5.31 -8.74 2.39
5.49 -8.65 2.39
5.63 -8.49 2.37
5.70 -8.23 2.33
5.76 -7.97 2.28
6.06 -8.03 2.33
6.27 -7.97 2.34
6.30 -7.68 2.29
5.61 -6.57 1.99
5.62 -6.32 1.95
5.63 -6.08 1.90
5.71 -5.92 1.88
5.90 -5.88 1.90
6.14 -5.87 1.94
6.30 -5.79 1.95
6.70 -5.91 2.03
6.98 -5.92 2.08
8.18 -6.65 2.39
5.85 -4.57 1.68
5.80 -4.34 1.63
5.81 -4.17 1.61
5.82 -4.00 1.59
5.91 -3.89 1.58
5.99 -3.77 1.58
6.23 -3.75 1.62
6.49 -3.73 1.67
6.75 -3.70 1.71
9.42 -4.92 2.35
5.60 -2.78 1.38
5.59 -2.64 1.36
5.62 -2.52 1.35
5.64 -2.39 1.35
5.60 -2.24 1.32
5.69 -2.15 1.33
5.83 -2.07 1.35
6.05 -2.01 1.39
6.38 -1.98 1.45
6.87 -1.98 1.55
10.29 -2.74 2.30
10.35 -2.54 2.29
10.40 -2.33 2.29
10.45 -2.12 2.28
10.48 -1.91 2.27
10.12 -1.63 2.18
5.84 -0.82 1.25
5.64 -0.68 1.20
5.66 -0.57 1.20
5.66 -0.45 1.20
5.68 -0.34 1.20
5.71 -0.23 1.20
5.73 -0.11 1.20
5.98 0.00 1.25
10.33 0.21 2.15
10.33 0.42 2.14
10.32 0.63 2.14
10.32 0.83 2.14
10.65 1.08 2.20
10.64 1.29 2.20
10.62 1.51 2.20
6.04 0.98 1.25
5.81 1.06 1.20
5.56 1.13 1.15
5.63 1.26 1.17
5.61 1.38 1.17
5.65 1.51 1.18
5.68 1.64 1.19
5.70 1.77 1.20
11.13 3.70 2.35
11.17 3.96 2.37
11.12 4.20 2.37
11.08 4.44 2.37
11.04 4.68 2.38
6.63 2.97 1.44
6.17 2.91 1.35
5.89 2.93 1.30
5.51 2.88 1.22
5.34 2.93 1.19
5.22 3.00 1.18
4.99 3.00 1.13
4.98 3.13 1.14
4.94 3.25 1.15
5.03 3.45 1.18
5.08 3.64 1.21
9.98 7.45 2.40
7.26 5.65 1.77
6.91 5.60 1.71
6.59 5.57 1.65
6.31 5.55 1.61
6.02 5.51 1.56
5.85 5.57 1.54
5.62 5.57 1.51
5.59 5.77 1.53
5.60 6.01 1.56
5.52 6.17 1.57
6.53 7.60 1.89
6.39 7.75 1.90
6.29 7.94 1.91
6.21 8.17 1.93
6.27 8.61 2.00
7.13 10.20 2.33
6.96 10.39 2.34
6.78 10.58 2.35
6.60 10.77 2.36
6.41 10.95 2.37
6.22 11.13 2.38
6.03 11.31 2.39
5.81 11.44 2.39
5.58 11.56 2.39
5.36 11.68 2.39
5.13 11.80 2.39
4.90 11.91 2.39
4.66 12.01 2.39
4.42 12.11 2.39
4.18 12.21 2.39
3.94 12.30 2.39
3.70 12.38 2.39
3.45 12.46 2.39
3.20 12.53 2.39
2.95 12.60 2.39
2.70 12.66 2.39
2.45 12.71 2.39
2.19 12.76 2.39
2.02 13.36 2.49
1.76 13.40 2.49
1.49 13.43 2.49
1.22 13.46 2.49
0.95 13.48 2.49
0.68 13.49 2.49
0.41 13.50 2.49
0.14 13.50 2.49
-0.13 13.50 2.49
-0.40 13.49 2.49
-0.67 13.47 2.49
-0.93 13.45 2.49
-1.20 13.42 2.49
-1.47 13.38 2.49
-1.73 13.34 2.49
-2.00 13.30 2.49
-2.26 13.24 2.49
-2.52 13.19 2.49
-2.78 13.12 2.49
-3.04 13.05 2.49
-3.30 12.97 2.49
-3.56 12.89 2.49
-3.81 12.81 2.49
-4.06 12.71 2.49
-4.31 12.61 2.49
-4.55 12.51 2.49
-4.79 12.40 2.49
-5.03 12.28 2.49
-5.27 12.16 2.49
-5.51 12.04 2.49
-5.74 11.91 2.49
-5.96 11.77 2.49
-5.98 11.25 2.41
-6.14 11.01 2.39
-6.35 10.87 2.39
-6.56 10.72 2.39
-6.76 10.57 2.39
-6.95 10.41 2.39
-7.15 10.25 2.39
-7.34 10.09 2.39
-7.52 9.92 2.39
-7.70 9.75 2.39
-7.88 9.57 2.39
-8.06 9.40 2.39
-8.23 9.21 2.39
-8.39 9.03 2.39
-8.55 8.84 2.39
-8.71 8.65 2.39
-8.86 8.45 2.39
-9.01 8.26 2.39
-9.15 8.06 2.39
-9.29 7.85 2.39
-9.42 7.65 2.39
-9.55 7.44 2.39
-9.67 7.23 2.39
-9.79 7.02 2.39
-9.91 6.81 2.39
-9.61 5.27 2.20
-9.59 5.02 2.18
-9.59 4.77 2.16
-8.59 4.06 1.92
-8.58 3.85 1.91
-8.58 3.65 1.90
-8.58 3.45 1.89
-8.59 3.25 1.88
-8.62 3.06 1.88
-8.66 2.88 1.88
-8.69 2.70 1.88
-8.86 2.56 1.91
-9.60 2.57 2.06
-9.60 2.36 2.05
-9.59 2.16 2.05
-9.59 1.96 2.04
-9.58 1.76 2.04
-9.58 1.56 2.04
-9.58 1.36 2.04
-8.82 1.07 1.88
-8.82 0.89 1.88
-8.81 0.71 1.88
-8.80 0.54 1.88
-8.79 0.36 1.88
-8.77 0.18 1.88
-8.75 0.00 1.88
-8.73 -0.17 1.88
-8.72 -0.35 1.88
-9.54 -0.57 2.06
-9.54 -0.76 2.07
-9.53 -0.96 2.08
-9.53 -1.15 2.09
-9.52 -1.34 2.10
-9.52 -1.54 2.11
-9.50 -1.73 2.12
-8.48 -1.72 1.90
-8.47 -1.90 1.91
-8.47 -2.08 1.92
-8.47 -2.26 1.94
-8.46 -2.44 1.95
-8.46 -2.62 1.97
-8.45 -2.81 1.98
-8.45 -3.00 2.00
-8.45 -3.19 2.02
-9.66 -4.33 2.39
-9.56 -4.52 2.39
-9.44 -4.70 2.39
-9.33 -4.88 2.39
-8.56 -4.70 2.22
-9.09 -5.23 2.39
-8.96 -5.40 2.39
-8.83 -5.57 2.39
-8.62 -5.68 2.36
-8.57 -5.90 2.39
-8.44 -6.06 2.39
-8.30 -6.22 2.39
-8.16 -6.37 2.39
-8.01 -6.52 2.39
-7.87 -6.67 2.39
-7.72 -6.82 2.39
-7.57 -6.96 2.39
-7.41 -7.10 2.39
-7.26 -7.24 2.39
-7.10 -7.37 2.39
-6.94 -7.50 2.39
-6.78 -7.63 2.39
-6.61 -7.76 2.39
-6.45 -7.88 2.39
-6.28 -8.00 2.39
-6.11 -8.11 2.39
-5.94 -8.22 2.39
-5.76 -8.33 2.39
-5.59 -8.44 2.39
-5.57 -8.79 2.46
-5.46 -9.01 2.49
-5.27 -9.11 2.49
-5.08 -9.21 2.49
-4.89 -9.30 2.49
-4.70 -9.39 2.49
-4.50 -9.47 2.49
-4.31 -9.55 2.49
-4.11 -9.63 2.49
-3.91 -9.71 2.49
-3.71 -9.78 2.49
-3.51 -9.84 2.49
-3.31 -9.91 2.49
-3.11 -9.97 2.49
-2.91 -10.03 2.49
-2.70 -10.08 2.49
-2.50 -10.13 2.49
-2.29 -10.17 2.49
-2.08 -10.21 2.49
-1.88 -10.25 2.49
-1.67 -10.29 2.49
-1.46 -10.32 2.49
-1.25 -10.34 2.49
-1.04 -10.37 2.49
-0.83 -10.39 2.49
-0.62 -10.40 2.49
-0.41 -10.41 2.49
-0.20 -10.42 2.49
0.01 -9.48 2.49
0.20 -9.48 2.49
0.39 -9.47 2.49
0.58 -9.47 2.49
0.77 -9.46 2.49
0.96 -9.44 2.49
1.15 -9.43 2.49
1.35 -9.40 2.49
1.54 -9.38 2.49
1.73 -9.35 2.49
1.92 -9.32 2.49
2.11 -9.29 2.49
2.29 -9.25 2.49
2.47 -9.15 2.47
2.56 -8.78 2.39
2.74 -8.74 2.39
2.92 -8.69 2.39
3.09 -8.64 2.39
3.27 -8.58 2.39
3.45 -8.52 2.39
3.62 -8.46 2.39
3.80 -8.39 2.39
3.97 -8.32 2.39
4.14 -8.25 2.39
4.31 -8.18 2.39
4.48 -8.10 2.39
4.65 -8.02 2.39
4.82 -7.93 2.39
4.98 -7.84 2.39
5.15 -7.75 2.39
5.31 -7.66 2.39
5.47 -7.56 2.39
5.63 -7.46 2.39
5.79 -7.35 2.39
5.94 -7.25 2.39
5.57 -6.51 2.18
5.61 -6.30 2.14
5.64 -6.08 2.10
5.70 -5.91 2.08
5.90 -5.87 2.10
6.14 -5.86 2.14
6.26 -5.75 2.14
6.26 -5.51 2.09
6.25 -5.29 2.05
6.24 -5.07 2.01
6.26 -4.88 1.98
5.81 -4.35 1.81
5.84 -4.18 1.79
5.84 -4.01 1.76
5.92 -3.89 1.75
5.99 -3.77 1.75
6.23 -3.75 1.80
6.49 -3.73 1.84
6.81 -3.73 1.91
8.68 -4.53 2.40
5.62 -2.79 1.53
5.58 -2.63 1.51
5.60 -2.51 1.50
5.55 -2.35 1.46
5.60 -2.24 1.46
5.68 -2.14 1.47
5.71 -2.02 1.46
6.00 -1.99 1.52
6.44 -1.99 1.62
6.88 -1.98 1.72
9.51 -2.53 2.36
9.56 -2.34 2.35
9.61 -2.15 2.35
9.65 -1.95 2.34
9.68 -1.76 2.33
9.71 -1.56 2.33
5.63 -0.79 1.34
5.63 -0.67 1.33
5.65 -0.56 1.33
5.67 -0.45 1.33
5.69 -0.34 1.33
5.71 -0.22 1.33
5.74 -0.11 1.34
6.36 0.01 1.48
9.90 0.21 2.29
9.90 0.41 2.29
9.90 0.61 2.29
9.89 0.81 2.28
9.89 1.00 2.28
9.89 1.21 2.28
9.89 1.41 2.28
6.04 0.98 1.39
5.82 1.07 1.34
5.55 1.13 1.29
5.59 1.26 1.30
5.61 1.38 1.30
5.66 1.52 1.32
5.69 1.64 1.33
5.71 1.78 1.34
10.14 3.38 2.39
10.10 3.59 2.39
10.05 3.80 2.39
10.00 4.01 2.39
9.94 4.22 2.40
6.62 2.97 1.60
6.22 2.94 1.52
5.88 2.92 1.45
5.51 2.88 1.37
5.31 2.91 1.33
5.22 3.00 1.32
4.99 3.00 1.27
4.96 3.12 1.28
4.94 3.25 1.29
5.05 3.46 1.33
5.10 3.65 1.36
8.89 6.64 2.40
8.77 6.83 2.40
6.89 5.59 1.91
6.57 5.55 1.85
6.33 5.57 1.81
6.02 5.51 1.75
5.81 5.54 1.72
5.64 5.60 1.70
5.58 5.76 1.71
5.61 6.03 1.76
6.20 6.94 1.98
6.07 7.08 1.98
6.00 7.27 2.00
6.00 7.58 2.05
5.99 7.89 2.10
5.99 8.22 2.15
6.52 9.33 2.40
6.34 9.47 2.40
6.11 9.55 2.39
5.93 9.68 2.39
5.74 9.80 2.39
5.55 9.93 2.39
5.35 10.05 2.39
5.16 10.16 2.39
4.96 10.27 2.39
4.76 10.38 2.39
4.55 10.48 2.39
4.34 10.57 2.39
4.14 10.67 2.39
3.92 10.75 2.39
3.71 10.84 2.39
3.50 10.91 2.39
3.28 10.99 2.39
3.06 11.06 2.39
2.84 11.12 2.39
2.62 11.18 2.39
2.40 11.23 2.39
2.17 11.28 2.39
2.03 11.81 2.49
1.80 11.85 2.49
1.56 11.89 2.49
1.32 11.92 2.49
1.08 11.94 2.49
0.84 11.96 2.49
0.61 11.97 2.49
0.37 11.98 2.49
0.13 11.98 2.49
-0.11 11.98 2.49
-0.35 11.97 2.49
-0.59 11.96 2.49
-0.83 11.94 2.49
-1.06 11.91 2.49
-1.30 11.88 2.49
-1.54 11.85 2.49
-1.77 11.81 2.49
-2.01 11.76 2.49
-2.24 11.71 2.49
-2.47 11.65 2.49
-2.70 11.59 2.49
-2.93 11.52 2.49
-3.16 11.45 2.49
-3.38 11.38 2.49
-3.60 11.30 2.49
-3.82 11.21 2.49
-4.04 11.12 2.49
-4.26 11.02 2.49
-4.47 10.92 2.49
-4.68 10.82 2.49
-4.89 10.71 2.49
-5.10 10.59 2.49
-5.30 10.47 2.49
-5.50 10.35 2.49
-5.70 10.22 2.49
-5.89 10.09 2.49
-5.95 9.74 2.43
-6.01 9.41 2.39
-6.19 9.28 2.39
-6.36 9.13 2.39
-6.53 8.99 2.39
-6.70 8.84 2.39
-6.86 8.69 2.39
-7.02 8.54 2.39
-7.18 8.38 2.39
-7.33 8.22 2.39
-7.48 8.06 2.39
-7.62 7.89 2.39
-7.76 7.72 2.39
-7.90 7.55 2.39
-8.04 7.37 2.39
-8.16 7.20 2.39
-8.29 7.02 2.39
-8.41 6.84 2.39
-8.53 6.65 2.39
-8.64 6.47 2.39
-8.75 6.28 2.39
-8.85 6.09 2.39
-8.95 5.90 2.39
-9.05 5.71 2.39
-9.14 5.51 2.39
-9.23 5.32 2.39
-9.31 5.12 2.39
-9.39 4.92 2.39
-9.47 4.72 2.39
-9.54 4.52 2.39
-8.67 3.90 2.15
-8.89 3.78 2.19
-9.73 3.91 2.39
-9.78 3.71 2.39
-9.83 3.50 2.39
-8.65 2.89 2.09
-8.56 1.22 2.02
-8.53 1.04 2.02
-8.53 0.87 2.02
-8.52 0.70 2.02
-8.52 0.52 2.02
-8.52 0.35 2.02
-8.51 0.18 2.02
-8.51 0.01 2.03
-8.51 -0.16 2.03
-8.50 -0.33 2.03
-9.72 -1.56 2.39
-9.66 -1.75 2.39
-9.60 -1.94 2.39
-8.57 -1.91 2.14
-9.48 -2.32 2.39
-9.41 -2.50 2.39
-9.34 -2.69 2.39
-9.26 -2.87 2.39
-8.71 -2.89 2.26
-9.10 -3.23 2.39
-9.02 -3.40 2.39
-8.93 -3.57 2.39
-8.84 -3.75 2.39
-8.74 -3.92 2.39
-8.65 -4.08 2.39
-8.55 -4.25 2.39
-8.44 -4.41 2.39
-8.34 -4.57 2.39
-8.23 -4.73 2.39
-8.12 -4.89 2.39
-8.00 -5.04 2.39
-7.89 -5.19 2.39
-7.77 -5.34 2.39
-7.64 -5.49 2.39
-7.52 -5.63 2.39
-7.39 -5.77 2.39
-7.26 -5.91 2.39
-7.13 -6.05 2.39
-7.00 -6.18 2.39
-6.86 -6.31 2.39
-6.72 -6.44 2.39
-6.58 -6.56 2.39
-6.44 -6.69 2.39
-6.30 -6.81 2.39
-6.15 -6.92 2.39
-6.00 -7.04 2.39
-5.85 -7.15 2.39
-5.70 -7.26 2.39
-5.59 -7.43 2.41
-5.59 -7.74 2.47
-5.46 -7.89 2.49
-5.29 -7.99 2.49
-5.13 -8.09 2.49
-4.96 -8.18 2.49
-4.79 -8.27 2.49
-4.61 -8.36 2.49
-4.44 -8.44 2.49
-4.27 -8.53 2.49
-4.09 -8.60 2.49
-3.91 -8.68 2.49
-3.73 -8.75 2.49
-3.56 -8.82 2.49
-3.37 -8.88 2.49
-3.19 -8.95 2.49
-3.01 -9.00 2.49
-2.83 -9.06 2.49
-2.64 -9.11 2.49
-2.46 -9.16 2.49
-2.27 -9.20 2.49
-2.08 -9.24 2.49
-1.90 -9.28 2.49
-1.71 -9.32 2.49
-1.52 -9.35 2.49
-1.33 -9.38 2.49
-1.14 -9.40 2.49
-0.95 -9.42 2.49
-0.76 -9.44 2.49
-0.57 -9.45 2.49
-0.38 -9.46 2.49
-0.19 -9.47 2.49
0.01 -8.68 2.49
0.18 -8.68 2.49
0.36 -8.67 2.49
0.53 -8.67 2.49
0.71 -8.66 2.49
0.88 -8.64 2.49
1.06 -8.63 2.49
1.23 -8.61 2.49
1.41 -8.59 2.49
1.58 -8.56 2.49
1.76 -8.53 2.49
1.93 -8.50 2.49
2.10 -8.47 2.49
2.27 -8.43 2.49
2.44 -8.39 2.49
2.51 -8.00 2.39
2.67 -7.95 2.39
2.83 -7.90 2.39
2.99 -7.85 2.39
3.16 -7.79 2.39
3.32 -7.74 2.39
3.47 -7.68 2.39
3.63 -7.61 2.39
3.79 -7.54 2.39
3.95 -7.47 2.39
4.10 -7.40 2.39
4.25 -7.33 2.39
4.41 -7.25 2.39
4.56 -7.17 2.39
4.71 -7.08 2.39
4.85 -6.99 2.39
5.00 -6.90 2.39
5.15 -6.81 2.39
5.29 -6.72 2.39
5.43 -6.62 2.39
5.56 -6.50 2.38
5.60 -6.29 2.34
5.64 -6.08 2.30
5.70 -5.90 2.27
5.89 -5.86 2.30
6.13 -5.86 2.34
6.26 -5.74 2.34
6.25 -5.51 2.29
6.25 -5.28 2.25
6.25 -5.07 2.21
5.83 -4.54 2.02
5.81 -4.34 1.98
5.83 -4.18 1.96
5.86 -4.02 1.93
5.91 -3.88 1.92
6.00 -3.77 1.92
6.22 -3.73 1.96
6.36 -3.65 1.98
6.44 -3.52 1.98
7.91 -4.12 2.40
5.63 -2.79 1.69
5.57 -2.63 1.65
5.50 -2.46 1.61
5.60 -2.37 1.62
5.60 -2.24 1.61
5.69 -2.14 1.62
5.72 -2.02 1.61
6.05 -2.00 1.69
6.44 -1.99 1.78
7.13 -2.05 1.96
8.82 -2.34 2.40
8.88 -2.17 2.40
8.93 -1.99 2.40
8.97 -1.81 2.39
9.01 -1.63 2.39
5.63 -0.90 1.49
5.65 -0.79 1.48
5.61 -0.67 1.47
5.60 -0.55 1.46
5.65 -0.45 1.46
5.65 -0.33 1.46
5.70 -0.22 1.47
5.72 -0.11 1.47
6.35 0.01 1.63
9.23 0.20 2.36
9.24 0.39 2.36
9.25 0.57 2.36
9.25 0.76 2.36
9.25 0.95 2.35
9.25 1.13 2.35
9.24 1.32 2.35
6.03 0.99 1.54
5.61 1.03 1.43
5.63 1.15 1.44
5.60 1.26 1.44
5.62 1.39 1.44
5.60 1.50 1.44
5.67 1.64 1.47
5.70 1.78 1.48
9.19 3.07 2.40
9.15 3.26 2.40
9.10 3.45 2.40
9.05 3.64 2.40
9.00 3.83 2.40
6.50 2.92 1.74
6.23 2.95 1.69
5.88 2.93 1.60
5.50 2.88 1.51
5.32 2.92 1.47
5.14 2.96 1.44
4.96 2.99 1.40
4.94 3.11 1.41
4.95 3.26 1.43
4.92 3.38 1.44
5.07 3.64 1.50
8.01 5.99 2.40
7.90 6.16 2.40
6.88 5.58 2.12
6.57 5.55 2.05
6.23 5.49 1.98
6.01 5.51 1.94
5.85 5.59 1.92
5.66 5.62 1.89
5.57 5.76 1.90
5.67 6.10 1.97
6.02 6.74 2.14
6.01 7.01 2.18
6.01 7.29 2.23
6.00 7.59 2.28
5.99 7.90 2.33
5.98 8.21 2.39
5.82 8.34 2.39
5.66 8.46 2.39
5.49 8.58 2.39
5.33 8.70 2.39
5.16 8.81 2.39
4.98 8.92 2.39
4.81 9.03 2.39
4.63 9.13 2.39
4.45 9.23 2.39
4.27 9.32 2.39
4.09 9.41 2.39
3.90 9.50 2.39
3.71 9.58 2.39
3.52 9.66 2.39
3.33 9.73 2.39
3.14 9.80 2.39
2.94 9.87 2.39
2.75 9.93 2.39
2.55 9.99 2.39
2.35 10.04 2.39
2.15 10.09 2.39
2.03 10.57 2.49
1.82 10.61 2.49
1.61 10.64 2.49
1.40 10.67 2.49
1.19 10.70 2.49
0.97 10.72 2.49
0.76 10.74 2.49
0.54 10.75 2.49
0.33 10.76 2.49
0.11 10.76 2.49
-0.10 10.76 2.49
-0.31 10.75 2.49
-0.53 10.74 2.49
-0.74 10.72 2.49
-0.96 10.70 2.49
-1.17 10.67 2.49
-1.38 10.64 2.49
-1.59 10.60 2.49
-1.80 10.56 2.49
-2.01 10.52 2.49
-2.22 10.47 2.49
-2.42 10.42 2.49
-2.63 10.36 2.49
-2.83 10.29 2.49
-3.04 10.23 2.49
-3.24 10.15 2.49
-3.43 10.08 2.49
-3.63 10.00 2.49
-3.83 9.91 2.49
-4.02 9.82 2.49
-4.21 9.73 2.49
-4.40 9.63 2.49
-4.58 9.53 2.49
-4.77 9.43 2.49
-4.95 9.32 2.49
-5.13 9.20 2.49
-5.30 9.09 2.49
-5.47 8.97 2.49
-5.64 8.84 2.49
-5.81 8.72 2.49
-5.92 8.51 2.47
-5.93 8.16 2.40
-6.03 7.97 2.39
-6.18 7.83 2.39
-6.32 7.70 2.39
-6.47 7.56 2.39
-6.60 7.41 2.39
-6.74 7.27 2.39
-6.87 7.12 2.39
-7.00 6.97 2.39
-7.12 6.81 2.39
-7.25 6.66 2.39
-7.36 6.50 2.39
-7.48 6.34 2.39
-7.59 6.18 2.39
-7.70 6.01 2.39
-7.80 5.84 2.39
-7.90 5.68 2.39
-8.00 5.51 2.39
-8.09 5.33 2.39
-8.18 5.16 2.39
-8.26 4.99 2.39
-8.34 4.81 2.39
-8.42 4.63 2.39
-8.49 4.45 2.39
-8.56 4.27 2.39
-8.63 4.09 2.39
-8.68 3.91 2.38
-8.75 3.73 2.39
-8.80 3.54 2.39
-8.85 3.36 2.39
-8.90 3.18 2.39
-8.65 2.89 2.31
-8.97 2.80 2.38
-9.02 2.62 2.39
-9.05 2.43 2.39
-9.07 2.25 2.39
-9.10 2.06 2.39
-9.12 1.87 2.39
-9.13 1.68 2.39
-9.14 1.50 2.39
-9.15 1.31 2.39
-9.16 1.12 2.39
-8.61 0.88 2.24
-9.16 0.75 2.39
-9.15 0.57 2.39
-9.14 0.38 2.39
-9.13 0.20 2.39
-9.11 0.02 2.39
-9.09 -0.17 2.39
-9.06 -0.35 2.39
-9.03 -0.53 2.39
-9.00 -0.71 2.39
-8.97 -0.89 2.39
-8.93 -1.07 2.39
-8.89 -1.24 2.39
-8.84 -1.42 2.39
-8.80 -1.59 2.39
-8.74 -1.76 2.39
-8.57 -1.91 2.35
-8.63 -2.11 2.39
-8.57 -2.28 2.39
-8.51 -2.44 2.39
-8.44 -2.61 2.39
-8.37 -2.77 2.39
-8.30 -2.93 2.39
-8.22 -3.10 2.39
-8.14 -3.25 2.39
-8.06 -3.41 2.39
-7.98 -3.57 2.39
-7.89 -3.72 2.39
-7.80 -3.87 2.39
-7.70 -4.02 2.39
-7.61 -4.17 2.39
-7.51 -4.31 2.39
-7.41 -4.46 2.39
-7.31 -4.60 2.39
-7.20 -4.74 2.39
-7.09 -4.87 2.39
-6.98 -5.01 2.39
-6.87 -5.14 2.39
-6.76 -5.27 2.39
-6.64 -5.40 2.39
-6.52 -5.52 2.39
-6.40 -5.64 2.39
-6.27 -5.76 2.39
-6.15 -5.88 2.39
-6.02 -6.00 2.39
-5.89 -6.11 2.39
-5.76 -6.22 2.39
-5.63 -6.33 2.39
-5.61 -6.57 2.44
-5.58 -6.82 2.49
-5.44 -6.92 2.49
-5.29 -7.02 2.49
-5.15 -7.12 2.49
-5.00 -7.21 2.49
-4.84 -7.31 2.49
-4.69 -7.40 2.49
-4.54 -7.48 2.49
-4.38 -7.57 2.49
-4.22 -7.65 2.49
-4.07 -7.73 2.49
-3.91 -7.80 2.49
-3.75 -7.87 2.49
-3.58 -7.94 2.49
-3.42 -8.01 2.49
-3.26 -8.07 2.49
-3.09 -8.13 2.49
-2.92 -8.19 2.49
-2.76 -8.24 2.49
-2.59 -8.29 2.49
-2.42 -8.34 2.49
-2.25 -8.38 2.49
-2.08 -8.43 2.49
-1.91 -8.46 2.49
-1.74 -8.50 2.49
-1.56 -8.53 2.49
-1.39 -8.56 2.49
-1.22 -8.59 2.49
-1.04 -8.61 2.49
-0.87 -8.63 2.49
-0.69 -8.64 2.49
-0.52 -8.66 2.49
-0.34 -8.67 2.49
-0.17 -8.67 2.49
0.01 -7.99 2.49
0.17 -7.99 2.49
0.33 -7.99 2.49
0.49 -7.98 2.49
0.65 -7.97 2.49
0.81 -7.96 2.49
0.98 -7.95 2.49
1.14 -7.93 2.49
1.30 -7.91 2.49
1.46 -7.88 2.49
1.62 -7.86 2.49
1.78 -7.83 2.49
1.94 -7.80 2.49
2.10 -7.76 2.49
2.25 -7.72 2.49
2.41 -7.68 2.49
2.46 -7.32 2.39
2.61 -7.27 2.39
2.76 -7.22 2.39
2.91 -7.17 2.39
3.05 -7.12 2.39
3.20 -7.06 2.39
3.35 -7.00 2.39
3.49 -6.94 2.39
3.63 -6.88 2.39
3.78 -6.81 2.39
3.92 -6.74 2.39
4.06 -6.67 2.39
4.19 -6.59 2.39
4.33 -6.51 2.39
4.47 -6.43 2.39
4.60 -6.35 2.39
4.74 -6.26 2.39
4.87 -6.17 2.39
5.00 -6.08 2.39
5.13 -5.99 2.39
5.25 -5.89 2.39
5.38 -5.79 2.39
5.50 -5.69 2.39
5.62 -5.59 2.39
5.74 -5.48 2.39
5.86 -5.37 2.39
5.98 -5.26 2.39
6.09 -5.15 2.39
6.21 -5.03 2.39
5.85 -4.55 2.21
5.82 -4.35 2.16
5.85 -4.18 2.14
5.83 -3.99 2.09
5.90 -3.87 2.09
6.00 -3.76 2.09
6.22 -3.73 2.14
6.22 -3.56 2.11
6.21 -3.39 2.08
6.21 -3.23 2.06
6.21 -3.07 2.03
5.57 -2.62 1.80
5.59 -2.49 1.79
5.61 -2.37 1.78
5.61 -2.23 1.76
5.68 -2.13 1.76
5.73 -2.02 1.76
6.06 -2.00 1.84
6.51 -2.01 1.97
8.02 -2.29 2.40
8.08 -2.14 2.40
8.13 -1.98 2.40
8.19 -1.82 2.40
8.24 -1.66 2.40
8.29 -1.49 2.40
8.33 -1.33 2.40
5.66 -0.79 1.62
5.61 -0.67 1.60
5.57 -0.55 1.58
5.65 -0.44 1.60
5.61 -0.33 1.58
5.71 -0.22 1.61
5.73 -0.10 1.61
6.35 0.01 1.78
8.59 0.19 2.40
8.60 0.36 2.40
8.61 0.54 2.40
8.61 0.71 2.40
8.61 0.89 2.40
8.61 1.06 2.40
8.61 1.24 2.40
6.03 0.99 1.68
5.63 1.04 1.58
5.65 1.16 1.58
5.60 1.27 1.57
5.56 1.38 1.57
5.62 1.51 1.59
5.57 1.62 1.58
5.71 1.78 1.63
5.61 1.88 1.61
8.35 2.98 2.40
8.30 3.15 2.40
8.25 3.32 2.40
8.20 3.49 2.40
6.49 2.92 1.92
6.16 2.92 1.83
5.91 2.95 1.77
5.54 2.90 1.67
5.37 2.96 1.64
4.96 2.86 1.53
4.98 3.01 1.55
4.92 3.11 1.55
4.89 3.23 1.56
4.94 3.40 1.59
4.88 3.51 1.59
6.05 4.53 1.99
6.06 4.72 2.02
6.05 4.92 2.05
6.05 5.12 2.08
6.04 5.33 2.11
6.01 5.51 2.14
5.87 5.61 2.12
5.61 5.58 2.07
5.60 5.79 2.10
5.60 6.03 2.14
5.73 6.42 2.24
5.97 6.97 2.39
5.84 7.09 2.39
5.70 7.22 2.39
5.56 7.34 2.39
5.42 7.46 2.39
5.28 7.57 2.39
5.13 7.68 2.39
4.98 7.79 2.39
4.79 7.84 2.37
4.64 7.94 2.37
4.49 8.04 2.37
4.33 8.13 2.37
4.17 8.22 2.37
4.04 8.37 2.39
3.87 8.46 2.39
3.71 8.54 2.39
3.54 8.62 2.39
3.37 8.69 2.39
3.19 8.76 2.39
3.02 8.83 2.39
2.84 8.89 2.39
2.67 8.95 2.39
2.49 9.00 2.39
2.31 9.05 2.39
2.13 9.10 2.39
2.03 9.54 2.49
1.84 9.58 2.49
1.65 9.61 2.49
1.46 9.65 2.49
1.27 9.68 2.49
1.08 9.70 2.49
0.88 9.72 2.49
0.69 9.73 2.49
0.49 9.74 2.49
0.30 9.75 2.49
0.10 9.75 2.49
-0.09 9.75 2.49
-0.28 9.74 2.49
-0.48 9.73 2.49
-0.67 9.72 2.49
-0.86 9.70 2.49
-1.06 9.68 2.49
-1.25 9.65 2.49
-1.44 9.62 2.49
-1.63 9.58 2.49
-1.82 9.54 2.49
-2.01 9.50 2.49
-2.20 9.45 2.49
-2.38 9.39 2.49
-2.57 9.34 2.49
-2.75 9.28 2.49
-2.93 9.21 2.49
-3.11 9.14 2.49
-3.29 9.07 2.49
-3.47 9.00 2.49
-3.64 8.92 2.49
-3.82 8.83 2.49
-3.99 8.74 2.49
-4.16 8.65 2.49
-4.32 8.56 2.49
-4.49 8.46 2.49
-4.65 8.36 2.49
-4.81 8.25 2.49
-4.97 8.15 2.49
-5.12 8.03 2.49
-5.28 7.92 2.49
-5.42 7.80 2.49
-5.57 7.68 2.49
-5.72 7.56 2.49
-5.86 7.43 2.49
-5.90 7.18 2.45
-5.90 6.90 2.40
-6.00 6.74 2.39
-6.13 6.61 2.39
-6.25 6.48 2.39
-6.36 6.34 2.39
-6.48 6.20 2.39
-6.59 6.06 2.39
-6.70 5.92 2.39
-6.80 5.77 2.39
-6.91 5.63 2.39
-7.01 5.48 2.39
-7.10 5.33 2.39
-7.19 5.17 2.39
-7.28 5.02 2.39
-7.37 4.86 2.39
-7.45 4.71 2.39
-7.53 4.55 2.39
-7.60 4.39 2.39
-7.67 4.23 2.39
-7.74 4.07 2.39
-7.81 3.90 2.39
-7.87 3.74 2.39
-7.93 3.57 2.39
-7.98 3.41 2.39
-8.03 3.24 2.39
-8.08 3.07 2.39
-8.12 2.90 2.39
-8.16 2.74 2.39
-8.20 2.57 2.39
-8.23 2.40 2.39
-8.26 2.23 2.39
-8.29 2.06 2.39
-8.31 1.89 2.39
-8.33 1.72 2.39
-8.35 1.55 2.39
-8.36 1.37 2.39
-8.37 1.20 2.39
-8.37 1.03 2.39
-8.38 0.86 2.39
-8.38 0.69 2.39
-8.37 0.53 2.39
-8.36 0.36 2.39
-8.35 0.19 2.39
-8.34 0.02 2.39
-8.32 -0.15 2.39
-8.30 -0.31 2.39
-8.27 -0.48 2.39
-8.25 -0.64 2.39
-8.22 -0.81 2.39
-8.18 -0.97 2.39
-8.15 -1.13 2.39
-8.11 -1.29 2.39
-8.06 -1.45 2.39
-8.02 -1.61 2.39
-7.97 -1.77 2.39
-7.92 -1.93 2.39
-7.86 -2.08 2.39
-7.80 -2.24 2.39
-7.74 -2.39 2.39
-7.68 -2.54 2.39
-7.61 -2.69 2.39
-7.55 -2.84 2.39
-7.47 -2.98 2.39
-7.40 -3.13 2.39
-7.32 -3.27 2.39
-7.24 -3.41 2.39
-7.16 -3.55 2.39
-7.08 -3.69 2.39
-6.99 -3.82 2.39
-6.90 -3.96 2.39
-6.81 -4.09 2.39
-6.72 -4.22 2.39
-6.62 -4.35 2.39
-6.52 -4.48 2.39
-6.42 -4.60 2.39
-6.32 -4.72 2.39
-6.21 -4.84 2.39
-6.11 -4.96 2.39
-6.00 -5.07 2.39
-5.89 -5.19 2.39
-5.77 -5.30 2.39
-5.66 -5.41 2.39
-5.63 -5.60 2.42
-5.63 -5.83 2.48
-5.53 -5.97 2.49
-5.40 -6.07 2.49
-5.27 -6.17 2.49
-5.14 -6.27 2.49
-5.01 -6.37 2.49
-4.87 -6.46 2.49
-4.74 -6.55 2.49
-4.60 -6.64 2.49
-4.46 -6.73 2.49
-4.32 -6.81 2.49
-4.18 -6.89 2.49
-4.04 -6.97 2.49
-3.89 -7.04 2.49
-3.75 -7.11 2.49
-3.60 -7.18 2.49
-3.45 -7.25 2.49
-3.30 -7.31 2.49
-3.15 -7.38 2.49
-3.00 -7.43 2.49
-2.85 -7.49 2.49
-2.69 -7.54 2.49
-2.54 -7.59 2.49
-2.39 -7.64 2.49
-2.23 -7.68 2.49
-2.07 -7.72 2.49
-1.92 -7.76 2.49
-1.76 -7.80 2.49
-1.60 -7.83 2.49
-1.44 -7.86 2.49
-1.28 -7.89 2.49
-1.12 -7.91 2.49
-0.96 -7.93 2.49
-0.80 -7.95 2.49
-0.64 -7.96 2.49
-0.48 -7.97 2.49
-0.32 -7.98 2.49
-0.16 -7.99 2.49
0.01 -7.40 2.49
0.16 -7.40 2.49
0.31 -7.40 2.49
0.46 -7.39 2.49
0.61 -7.38 2.49
0.76 -7.37 2.49
0.90 -7.36 2.49
1.05 -7.34 2.49
1.20 -7.32 2.49
1.35 -7.30 2.49
1.50 -7.27 2.49
1.65 -7.25 2.49
1.79 -7.22 2.49
1.94 -7.18 2.49
2.09 -7.15 2.49
2.23 -7.11 2.49
2.38 -7.07 2.49
2.43 -6.76 2.40
2.56 -6.69 2.39
2.69 -6.64 2.39
2.83 -6.59 2.39
2.96 -6.53 2.39
3.10 -6.48 2.39
3.23 -6.42 2.39
3.36 -6.36 2.39
3.49 -6.30 2.39
3.63 -6.23 2.39
3.75 -6.16 2.39
3.88 -6.09 2.39
4.01 -6.02 2.39
4.13 -5.95 2.39
4.26 -5.87 2.39
4.38 -5.79 2.39
4.50 -5.70 2.39
4.62 -5.62 2.39
4.74 -5.53 2.39
4.86 -5.44 2.39
4.97 -5.35 2.39
5.09 -5.26 2.39
5.20 -5.16 2.39
5.31 -5.06 2.39
5.42 -4.96 2.39
5.53 -4.86 2.39
5.63 -4.75 2.39
5.73 -4.64 2.39
5.84 -4.53 2.39
5.82 -4.34 2.34
5.79 -4.14 2.29
5.83 -3.99 2.27
5.91 -3.87 2.27
5.94 -3.72 2.24
6.22 -3.73 2.32
6.22 -3.56 2.29
6.21 -3.39 2.26
6.21 -3.23 2.23
5.60 -2.77 1.98
5.56 -2.61 1.95
5.59 -2.49 1.94
5.61 -2.36 1.92
5.61 -2.23 1.90
5.69 -2.13 1.91
5.74 -2.02 1.91
6.12 -2.02 2.02
6.18 -1.90 2.03
6.17 -1.76 2.01
6.17 -1.63 1.99
6.18 -1.50 1.98
6.22 -1.38 1.98
6.26 -1.25 1.98
6.29 -1.13 1.98
6.33 -1.01 1.98
5.68 -0.79 1.77
5.60 -0.66 1.74
5.59 -0.55 1.73
5.64 -0.44 1.74
5.62 -0.32 1.72
5.70 -0.21 1.74
5.74 -0.10 1.75
7.88 0.02 2.40
7.90 0.18 2.40
7.91 0.34 2.40
7.91 0.50 2.40
7.92 0.66 2.40
7.92 0.82 2.40
7.91 0.98 2.40
7.91 1.14 2.40
6.03 0.99 1.83
5.80 1.07 1.77
5.66 1.17 1.73
5.59 1.27 1.71
5.56 1.38 1.71
5.63 1.52 1.73
5.67 1.65 1.75
5.70 1.78 1.77
6.35 2.13 1.98
6.32 2.26 1.98
6.28 2.39 1.98
6.24 2.52 1.98
6.20 2.65 1.98
6.16 2.77 1.98
6.11 2.90 1.98
5.83 2.91 1.91
5.50 2.88 1.81
5.36 2.95 1.78
5.12 2.95 1.72
5.02 3.03 1.70
4.92 3.10 1.69
4.89 3.23 1.70
4.96 3.42 1.74
5.08 3.65 1.81
6.06 4.54 2.18
6.06 4.73 2.21
6.05 4.92 2.24
6.05 5.12 2.28
6.04 5.33 2.31
6.03 5.53 2.34
5.82 5.56 2.30
5.64 5.61 2.27
5.59 5.78 2.29
5.61 6.04 2.35
5.58 6.26 2.39
5.46 6.38 2.39
5.34 6.49 2.39
5.21 6.60 2.39
5.09 6.71 2.39
4.96 6.82 2.39
4.82 6.92 2.39
4.69 7.03 2.39
4.55 7.12 2.39
4.41 7.22 2.39
4.27 7.31 2.39
4.13 7.40 2.39
3.98 7.49 2.39
3.84 7.57 2.39
3.69 7.65 2.39
3.54 7.73 2.39
3.38 7.80 2.39
3.23 7.87 2.39
3.07 7.94 2.39
2.92 8.00 2.39
2.76 8.07 2.39
2.60 8.12 2.39
2.44 8.18 2.39
2.27 8.23 2.39
2.13 8.36 2.41
2.03 8.67 2.49
1.86 8.71 2.49
1.68 8.75 2.49
1.51 8.78 2.49
1.33 8.81 2.49
1.16 8.84 2.49
0.98 8.86 2.49
0.81 8.88 2.49
0.63 8.89 2.49
0.45 8.90 2.49
0.27 8.91 2.49
0.10 8.91 2.49
-0.08 8.91 2.49
-0.26 8.90 2.49
-0.44 8.89 2.49
-0.61 8.88 2.49
-0.79 8.86 2.49
-0.97 8.84 2.49
-1.14 8.82 2.49
-1.32 8.79 2.49
-1.49 8.76 2.49
-1.66 8.72 2.49
-1.83 8.68 2.49
-2.01 8.63 2.49
-2.18 8.59 2.49
-2.35 8.54 2.49
-2.51 8.48 2.49
-2.68 8.42 2.49
-2.84 8.36 2.49
-3.01 8.30 2.49
-3.17 8.23 2.49
-3.33 8.15 2.49
-3.49 8.08 2.49
-3.65 8.00 2.49
-3.80 7.92 2.49
-3.95 7.83 2.49
-4.10 7.74 2.49
-4.25 7.65 2.49
-4.40 7.55 2.49
-4.54 7.46 2.49
-4.69 7.36 2.49
-4.83 7.25 2.49
-4.96 7.14 2.49
-5.10 7.03 2.49
-5.23 6.92 2.49
-5.36 6.81 2.49
-5.49 6.69 2.49
-5.61 6.57 2.49
-5.73 6.45 2.49
-5.85 6.32 2.49
-5.88 6.10 2.45
-5.88 5.86 2.41
-5.93 5.69 2.39
-6.04 5.56 2.39
-6.14 5.43 2.39
-6.24 5.30 2.39
-6.33 5.16 2.39
-6.42 5.03 2.39
-6.51 4.89 2.39
-6.59 4.75 2.39
-6.68 4.61 2.39
-6.76 4.47 2.39
-6.83 4.32 2.39
-6.91 4.18 2.39
-6.98 4.03 2.39
-7.04 3.89 2.39
-7.11 3.74 2.39
-7.17 3.59 2.39
-7.22 3.44 2.39
-7.28 3.29 2.39
-7.33 3.13 2.39
-7.38 2.98 2.39
-7.42 2.83 2.39
-7.46 2.67 2.39
-7.50 2.52 2.39
-7.54 2.36 2.39
-7.57 2.21 2.39
-7.60 2.05 2.39
-7.62 1.90 2.39
-7.64 1.74 2.39
-7.66 1.58 2.39
-7.68 1.43 2.39
-7.69 1.27 2.39
-7.70 1.11 2.39
-7.71 0.96 2.39
-7.71 0.80 2.39
-7.71 0.64 2.39
-7.71 0.49 2.39
-7.70 0.33 2.39
-7.69 0.18 2.39
-7.68 0.02 2.39
-7.66 -0.13 2.39
-7.65 -0.28 2.39
-7.62 -0.44 2.39
-7.60 -0.59 2.39
-7.57 -0.74 2.39
-7.54 -0.89 2.39
-7.51 -1.04 2.39
-7.48 -1.19 2.39
-7.44 -1.34 2.39
-7.40 -1.48 2.39
-7.35 -1.63 2.39
-7.30 -1.77 2.39
-7.25 -1.92 2.39
-7.20 -2.06 2.39
-7.15 -2.20 2.39
-7.09 -2.34 2.39
-7.03 -2.48 2.39
-6.97 -2.61 2.39
-6.90 -2.75 2.39
-6.83 -2.88 2.39
-6.76 -3.02 2.39
-6.69 -3.15 2.39
-6.62 -3.28 2.39
-6.54 -3.40 2.39
-6.46 -3.53 2.39
-6.38 -3.65 2.39
-6.29 -3.78 2.39
-6.21 -3.90 2.39
-6.12 -4.02 2.39
-6.03 -4.13 2.39
-5.94 -4.25 2.39
-5.84 -4.36 2.39
-5.75 -4.47 2.39
-5.66 -4.59 2.39
-5.65 -4.77 2.43
-5.64 -4.97 2.47
-5.57 -5.11 2.49
-5.46 -5.21 2.49
-5.35 -5.32 2.49
-5.23 -5.42 2.49
-5.12 -5.52 2.49
-5.00 -5.61 2.49
-4.88 -5.71 2.49
-4.76 -5.80 2.49
-4.64 -5.89 2.49
-4.51 -5.98 2.49
-4.39 -6.06 2.49
-4.26 -6.14 2.49
-4.13 -6.22 2.49
-4.00 -6.30 2.49
-3.87 -6.38 2.49
-3.74 -6.45 2.49
-3.60 -6.52 2.49
-3.47 -6.58 2.49
-3.33 -6.65 2.49
-3.20 -6.71 2.49
-3.06 -6.77 2.49
-2.92 -6.83 2.49
-2.78 -6.88 2.49
-2.64 -6.93 2.49
-2.50 -6.98 2.49
-2.35 -7.03 2.49
-2.21 -7.07 2.49
-2.07 -7.11 2.49
-1.92 -7.15 2.49
-1.77 -7.19 2.49
-1.63 -7.22 2.49
-1.48 -7.25 2.49
-1.33 -7.28 2.49
-1.19 -7.30 2.49
-1.04 -7.32 2.49
-0.89 -7.34 2.49
-0.74 -7.36 2.49
-0.59 -7.37 2.49
-0.44 -7.38 2.49
-0.29 -7.39 2.49
-0.14 -7.40 2.49
0.01 -6.88 2.49
0.15 -6.88 2.49
0.29 -6.88 2.49
0.42 -6.88 2.49
0.56 -6.87 2.49
0.70 -6.86 2.49
0.84 -6.84 2.49
0.98 -6.83 2.49
1.12 -6.81 2.49
1.26 -6.79 2.49
1.40 -6.76 2.49
1.53 -6.74 2.49
1.67 -6.71 2.49
1.81 -6.68 2.49
1.94 -6.64 2.49
2.08 -6.61 2.49
2.21 -6.57 2.49
2.35 -6.53 2.49
2.41 -6.31 2.42
2.50 -6.17 2.39
2.63 -6.12 2.39
2.76 -6.07 2.39
2.88 -6.02 2.39
3.01 -5.97 2.39
3.13 -5.91 2.39
3.25 -5.85 2.39
3.37 -5.79 2.39
3.49 -5.73 2.39
3.61 -5.66 2.39
3.73 -5.59 2.39
3.84 -5.52 2.39
3.96 -5.45 2.39
4.07 -5.37 2.39
4.19 -5.30 2.39
4.30 -5.22 2.39
4.41 -5.14 2.39
4.51 -5.05 2.39
4.62 -4.97 2.39
4.73 -4.88 2.39
4.83 -4.79 2.39
4.93 -4.70 2.39
5.03 -4.60 2.39
5.13 -4.51 2.39
5.23 -4.41 2.39
5.32 -4.31 2.39
5.42 -4.20 2.39
5.51 -4.10 2.39
5.60 -3.99 2.39
5.69 -3.89 2.39
5.77 -3.78 2.39
5.86 -3.67 2.39
5.94 -3.55 2.39
6.02 -3.44 2.39
6.10 -3.32 2.39
6.17 -3.20 2.39
5.62 -2.77 2.15
5.58 -2.62 2.11
5.59 -2.49 2.09
5.63 -2.37 2.08
5.63 -2.23 2.06
5.68 -2.12 2.06
5.71 -2.01 2.05
6.12 -2.01 2.18
6.18 -1.90 2.19
6.18 -1.76 2.17
6.18 -1.63 2.15
6.18 -1.49 2.14
6.17 -1.36 2.12
6.17 -1.23 2.11
6.17 -1.10 2.10
6.17 -0.98 2.09
5.77 -0.79 1.94
5.60 -0.66 1.88
5.62 -0.55 1.88
5.64 -0.43 1.87
5.65 -0.32 1.88
5.71 -0.21 1.89
5.73 -0.09 1.89
6.15 0.02 2.02
6.14 0.15 2.02
6.14 0.27 2.02
6.13 0.39 2.01
6.13 0.51 2.01
6.13 0.64 2.01
6.12 0.76 2.01
6.12 0.89 2.01
6.02 1.00 1.98
5.87 1.09 1.94
5.67 1.17 1.87
5.58 1.27 1.85
5.60 1.39 1.86
5.62 1.52 1.88
5.68 1.66 1.90
5.71 1.79 1.92
6.11 2.05 2.06
6.10 2.19 2.07
6.10 2.32 2.09
6.10 2.46 2.10
6.10 2.61 2.11
6.09 2.75 2.13
6.09 2.90 2.14
5.85 2.93 2.07
5.49 2.89 1.96
5.33 2.94 1.92
5.12 2.96 1.87
4.96 3.00 1.83
4.91 3.10 1.83
4.94 3.26 1.86
4.98 3.43 1.90
5.09 3.66 1.96
6.06 4.54 2.37
6.02 4.70 2.39
5.93 4.83 2.39
5.84 4.95 2.39
5.75 5.07 2.39
5.65 5.19 2.39
5.55 5.31 2.39
5.45 5.43 2.39
5.35 5.54 2.39
5.24 5.65 2.39
5.14 5.76 2.39
5.03 5.87 2.39
4.91 5.98 2.39
4.80 6.08 2.39
4.68 6.18 2.39
4.56 6.28 2.39
4.44 6.37 2.39
4.31 6.47 2.39
4.19 6.56 2.39
4.06 6.64 2.39
3.93 6.73 2.39
3.80 6.81 2.39
3.66 6.89 2.39
3.53 6.97 2.39
3.39 7.04 2.39
3.25 7.11 2.39
3.11 7.18 2.39
2.97 7.24 2.39
2.83 7.30 2.39
2.68 7.36 2.39
2.54 7.42 2.39
2.39 7.47 2.39
2.24 7.52 2.39
2.14 7.74 2.44
2.02 7.94 2.49
1.87 7.98 2.49
1.71 8.01 2.49
1.55 8.05 2.49
1.39 8.08 2.49
1.23 8.10 2.49
1.07 8.13 2.49
0.90 8.15 2.49
0.74 8.16 2.49
0.58 8.18 2.49
0.42 8.19 2.49
0.25 8.19 2.49
0.09 8.19 2.49
-0.07 8.19 2.49
-0.24 8.19 2.49
-0.40 8.18 2.49
-0.56 8.17 2.49
-0.72 8.15 2.49
-0.89 8.13 2.49
-1.05 8.11 2.49
-1.21 8.08 2.49
-1.37 8.05 2.49
-1.53 8.02 2.49
-1.69 7.98 2.49
-1.84 7.94 2.49
-2.00 7.90 2.49
-2.16 7.85 2.49
-2.31 7.80 2.49
-2.46 7.75 2.49
-2.62 7.69 2.49
-2.77 7.63 2.49
-2.91 7.57 2.49
-3.06 7.50 2.49
-3.21 7.44 2.49
-3.35 7.36 2.49
-3.50 7.29 2.49
-3.64 7.21 2.49
-3.78 7.13 2.49
-3.91 7.04 2.49
-4.05 6.96 2.49
-4.18 6.87 2.49
-4.31 6.78 2.49
-4.44 6.68 2.49
-4.57 6.58 2.49
-4.69 6.48 2.49
-4.82 6.38 2.49
-4.94 6.27 2.49
-5.05 6.17 2.49
-5.17 6.06 2.49
-5.28 5.94 2.49
-5.39 5.83 2.49
-5.50 5.71 2.49
-5.60 5.59 2.49
-5.71 5.47 2.49
-5.81 5.35 2.49
-5.86 5.19 2.47
-5.86 4.98 2.43
-5.86 4.79 2.40
-5.92 4.64 2.39
-6.00 4.51 2.39
-6.08 4.39 2.39
-6.16 4.26 2.39
-6.23 4.13 2.39
-6.30 3.99 2.39
-6.37 3.86 2.39
-6.44 3.73 2.39
-6.50 3.59 2.39
-6.56 3.45 2.39
-6.62 3.32 2.39
-6.67 3.18 2.39
-6.72 3.04 2.39
-6.77 2.90 2.39
-6.81 2.76 2.39
-6.86 2.62 2.39
-6.89 2.47 2.39
-6.93 2.33 2.39
-6.96 2.19 2.39
-6.99 2.05 2.39
-7.02 1.90 2.39
-7.05 1.76 2.39
-7.07 1.61 2.39
-7.09 1.47 2.39
-7.10 1.32 2.39
-7.11 1.18 2.39
-7.12 1.03 2.39
-7.13 0.89 2.39
-7.13 0.75 2.39
-7.13 0.60 2.39
-7.13 0.46 2.39
-7.13 0.31 2.39
-7.12 0.17 2.39
-7.11 0.03 2.39
-7.10 -0.12 2.39
-7.08 -0.26 2.39
-7.06 -0.40 2.39
-7.04 -0.54 2.39
-7.02 -0.68 2.39
-6.99 -0.82 2.39
-6.96 -0.96 2.39
-6.93 -1.10 2.39
-6.89 -1.23 2.39
-6.86 -1.37 2.39
-6.82 -1.51 2.39
-6.77 -1.64 2.39
-6.73 -1.77 2.39
-6.68 -1.91 2.39
-6.63 -2.04 2.39
-6.58 -2.17 2.39
-6.52 -2.29 2.39
-6.46 -2.42 2.39
-6.40 -2.55 2.39
-6.34 -2.67 2.39
-6.28 -2.80 2.39
-6.21 -2.92 2.39
-6.14 -3.04 2.39
-6.07 -3.16 2.39
-6.00 -3.27 2.39
-5.92 -3.39 2.39
-5.85 -3.50 2.39
-5.77 -3.62 2.39
-5.68 -3.73 2.39
-5.66 -3.88 2.41
-5.66 -4.05 2.45
-5.66 -4.22 2.49
-5.57 -4.33 2.49
-5.47 -4.44 2.49
-5.38 -4.54 2.49
-5.28 -4.64 2.49
-5.18 -4.74 2.49
-5.07 -4.84 2.49
-4.97 -4.94 2.49
-4.86 -5.03 2.49
-4.76 -5.13 2.49
-4.65 -5.22 2.49
-4.54 -5.30 2.49
-4.43 -5.39 2.49
-4.31 -5.47 2.49
-4.20 -5.55 2.49
-4.08 -5.63 2.49
-3.96 -5.71 2.49
-3.84 -5.78 2.49
-3.72 -5.86 2.49
-3.60 -5.93 2.49
-3.48 -5.99 2.49
-3.35 -6.06 2.49
-3.23 -6.12 2.49
-3.10 -6.18 2.49
-2.97 -6.24 2.49
-2.84 -6.30 2.49
-2.72 -6.35 2.49
-2.59 -6.40 2.49
-2.45 -6.45 2.49
-2.32 -6.49 2.49
-2.19 -6.54 2.49
-2.06 -6.58 2.49
-1.92 -6.62 2.49
-1.79 -6.65 2.49
-1.65 -6.68 2.49
-1.52 -6.72 2.49
-1.38 -6.74 2.49
-1.24 -6.77 2.49
-1.10 -6.79 2.49
-0.97 -6.81 2.49
-0.83 -6.83 2.49
-0.69 -6.85 2.49
-0.55 -6.86 2.49
-0.41 -6.87 2.49
