ply
format ascii 1.0
element vertex 2747
property float32 x
property float32 y
property float32 z
end_header
26.52 -14.01 -2.67
26.47 -13.31 -2.63
27.55 -13.17 -2.71
27.18 -12.33 -2.64
26.50 -11.38 -2.55
26.45 -10.74 -2.51
27.12 -10.38 -2.55
26.95 -9.70 -2.51
26.70 -9.01 -2.47
26.10 -8.23 -2.39
25.85 -7.58 -2.35
25.73 -6.99 -2.32
25.56 -6.39 -2.28
25.42 -5.82 -2.25
25.34 -5.27 -2.23
25.27 -4.72 -2.21
25.19 -4.19 -2.19
25.18 -3.67 -2.18
25.24 -3.16 -2.17
25.30 -2.65 -2.17
25.34 -2.14 -2.16
25.34 -1.63 -2.15
25.32 -1.12 -2.14
25.29 -0.61 -2.13
25.39 -0.11 -2.14
25.56 0.41 -2.15
25.66 0.92 -2.15
25.80 1.45 -2.16
26.03 1.99 -2.18
26.20 2.53 -2.19
26.53 3.10 -2.21
26.99 3.70 -2.25
27.19 4.29 -2.27
27.41 4.89 -2.29
27.64 5.50 -2.31
28.32 6.23 -2.37
28.33 6.83 -2.38
29.67 7.79 -2.50
29.82 8.47 -2.52
29.84 9.13 -2.53
29.74 9.76 -2.53
29.83 10.45 -2.55
33.88 12.64 -2.91
37.02 14.66 -3.20
37.51 15.74 -3.26
3.03 14.19 -1.08
-6.84 32.01 -2.44
-6.29 -4.00 -0.68
14.79 -47.58 -3.58
16.67 -46.91 -3.57
16.90 -44.67 -3.42
17.50 -43.59 -3.36
18.29 -43.05 -3.34
19.33 -43.07 -3.37
20.56 -43.44 -3.42
21.40 -42.97 -3.41
22.20 -42.42 -3.40
23.00 -41.87 -3.39
23.81 -41.36 -3.38
24.77 -41.09 -3.39
25.71 -40.78 -3.40
26.51 -40.24 -3.39
27.17 -39.49 -3.37
27.90 -38.85 -3.36
28.25 -37.72 -3.30
27.77 -35.56 -3.15
27.70 -34.04 -3.06
27.25 -32.15 -2.93
28.05 -31.78 -2.95
28.75 -31.28 -2.95
28.90 -30.20 -2.89
29.16 -29.28 -2.85
29.50 -28.45 -2.82
29.18 -27.04 -2.73
29.33 -26.10 -2.69
28.56 -24.40 -2.57
29.04 -23.82 -2.56
29.11 -22.92 -2.52
29.10 -21.97 -2.47
28.89 -20.92 -2.41
28.68 -19.90 -2.36
28.40 -18.88 -2.30
28.21 -17.94 -2.25
27.94 -16.99 -2.19
27.70 -16.09 -2.14
27.73 -15.37 -2.11
26.61 -14.06 -2.00
26.71 -13.44 -1.98
27.28 -13.05 -2.00
26.23 -11.90 -1.90
26.17 -11.25 -1.87
26.37 -10.71 -1.86
26.91 -10.30 -1.88
26.72 -9.62 -1.85
26.15 -8.83 -1.79
25.58 -8.07 -1.73
25.43 -7.46 -1.71
25.31 -6.88 -1.68
25.18 -6.30 -1.66
25.06 -5.74 -1.64
24.99 -5.20 -1.62
24.92 -4.66 -1.61
24.85 -4.14 -1.59
24.86 -3.63 -1.58
24.92 -3.13 -1.58
24.98 -2.63 -1.57
25.03 -2.12 -1.57
25.04 -1.62 -1.56
25.01 -1.11 -1.55
24.99 -0.61 -1.54
24.97 -0.11 -1.54
25.07 0.39 -1.54
25.16 0.90 -1.54
25.26 1.41 -1.54
25.41 1.93 -1.55
25.58 2.46 -1.55
25.71 3.00 -1.56
26.00 3.56 -1.58
26.50 4.17 -1.61
27.03 4.81 -1.64
27.25 5.42 -1.65
27.69 6.09 -1.68
27.79 6.70 -1.69
27.81 7.29 -1.69
29.52 8.38 -1.80
29.53 9.03 -1.80
29.55 9.69 -1.81
30.38 10.64 -1.87
31.51 11.75 -1.95
33.30 13.18 -2.06
37.48 15.71 -2.34
3.03 14.18 -0.75
-6.29 -4.00 -0.51
13.83 -47.89 -2.46
14.73 -47.40 -2.44
15.69 -47.13 -2.44
16.40 -46.16 -2.40
17.00 -44.96 -2.35
17.39 -43.33 -2.28
18.27 -43.00 -2.28
19.32 -43.06 -2.30
20.29 -42.89 -2.31
21.09 -42.36 -2.30
21.91 -41.87 -2.29
22.70 -41.35 -2.28
23.51 -40.86 -2.27
24.32 -40.37 -2.27
25.04 -39.74 -2.25
25.91 -39.34 -2.25
26.63 -38.72 -2.24
27.17 -37.85 -2.22
27.60 -36.87 -2.19
28.04 -35.93 -2.16
28.36 -34.87 -2.12
28.45 -33.58 -2.07
28.44 -32.24 -2.02
28.39 -30.90 -1.96
28.55 -29.85 -1.92
28.81 -28.94 -1.90
28.89 -27.87 -1.86
28.53 -26.44 -1.79
28.74 -25.59 -1.77
28.66 -24.50 -1.73
28.75 -23.59 -1.70
28.58 -22.51 -1.65
28.37 -21.43 -1.61
28.10 -20.36 -1.57
27.92 -19.38 -1.53
27.66 -18.39 -1.49
27.59 -17.55 -1.46
27.42 -16.68 -1.42
27.28 -15.86 -1.39
27.32 -15.15 -1.37
27.16 -14.36 -1.35
27.06 -13.62 -1.32
27.02 -12.93 -1.30
26.94 -12.23 -1.28
26.85 -11.55 -1.26
26.77 -10.88 -1.24
26.70 -10.23 -1.22
26.21 -9.44 -1.18
25.63 -8.66 -1.14
25.13 -7.93 -1.11
25.02 -7.35 -1.09
24.91 -6.77 -1.07
24.80 -6.21 -1.06
24.70 -5.66 -1.04
24.59 -5.12 -1.03
24.49 -4.59 -1.02
24.40 -4.07 -1.00
24.38 -3.56 -1.00
24.46 -3.08 -0.99
24.56 -2.59 -0.99
24.65 -2.10 -0.98
24.69 -1.60 -0.98
24.64 -1.10 -0.97
24.60 -0.61 -0.96
24.56 -0.11 -0.96
24.54 0.38 -0.95
24.64 0.88 -0.95
24.75 1.38 -0.95
24.87 1.89 -0.95
24.99 2.40 -0.95
25.11 2.92 -0.95
25.24 3.45 -0.95
25.50 4.01 -0.96
25.68 4.57 -0.97
25.74 5.11 -0.97
27.09 5.95 -1.02
27.26 6.56 -1.02
27.28 7.15 -1.02
27.29 7.74 -1.02
29.24 8.93 -1.10
29.25 9.58 -1.10
29.70 10.39 -1.12
29.96 11.16 -1.13
31.36 12.41 -1.18
31.79 13.32 -1.20
3.03 14.18 -0.42
-6.29 -4.00 -0.34
12.90 -48.28 -1.34
15.50 -46.58 -1.31
15.79 -44.43 -1.25
16.72 -44.22 -1.25
17.60 -43.87 -1.25
18.43 -43.40 -1.24
19.22 -42.86 -1.23
20.01 -42.31 -1.22
20.76 -41.71 -1.21
21.59 -41.28 -1.21
22.42 -40.85 -1.20
23.17 -40.28 -1.19
23.72 -39.38 -1.17
24.30 -38.57 -1.16
25.16 -38.21 -1.16
25.87 -37.63 -1.15
26.37 -36.75 -1.13
26.61 -35.55 -1.11
27.06 -34.68 -1.09
27.44 -33.75 -1.07
27.41 -32.36 -1.04
27.88 -31.61 -1.03
27.83 -30.30 -1.00
28.16 -29.45 -0.98
28.47 -28.61 -0.96
28.27 -27.28 -0.93
27.86 -25.83 -0.90
28.12 -25.04 -0.88
28.34 -24.23 -0.87
27.95 -22.94 -0.83
27.67 -21.80 -0.81
27.45 -20.75 -0.78
27.28 -19.77 -0.76
27.19 -18.89 -0.74
27.01 -17.97 -0.72
26.99 -17.18 -0.70
26.92 -16.39 -0.69
26.88 -15.64 -0.67
26.92 -14.94 -0.66
26.86 -14.21 -0.65
26.80 -13.50 -0.63
26.76 -12.81 -0.62
26.72 -12.14 -0.61
26.55 -11.42 -0.59
26.12 -10.62 -0.57
25.73 -9.87 -0.55
25.39 -9.16 -0.54
25.07 -8.47 -0.52
24.73 -7.81 -0.51
24.53 -7.21 -0.49
24.31 -6.62 -0.48
24.10 -6.04 -0.47
24.14 -5.54 -0.46
24.10 -5.03 -0.45
24.01 -4.51 -0.45
23.92 -3.99 -0.44
23.91 -3.50 -0.43
23.93 -3.01 -0.43
24.02 -2.54 -0.42
24.11 -2.06 -0.42
24.17 -1.57 -0.41
24.18 -1.09 -0.41
24.14 -0.60 -0.40
24.10 -0.12 -0.39
24.08 0.37 -0.39
24.08 0.85 -0.38
24.18 1.34 -0.38
24.28 1.84 -0.38
24.36 2.33 -0.38
24.40 2.83 -0.37
24.56 3.35 -0.37
24.73 3.88 -0.37
24.85 4.41 -0.37
24.90 4.94 -0.36
24.95 5.47 -0.36
25.00 6.01 -0.36
26.40 6.91 -0.37
26.41 7.48 -0.37
26.42 8.07 -0.37
26.74 8.75 -0.37
26.99 9.44 -0.37
28.18 10.49 -0.38
29.01 11.47 -0.39
29.51 12.36 -0.40
30.11 13.33 -0.40
31.76 14.82 -0.42
3.03 14.18 -0.10
4.74 27.53 -0.18
4.29 28.27 -0.19
3.81 29.03 -0.19
3.30 29.76 -0.19
2.75 30.38 -0.20
2.18 31.03 -0.20
1.59 31.63 -0.20
0.97 32.20 -0.21
0.33 32.73 -0.21
-0.33 33.28 -0.22
-1.02 33.80 -0.22
-1.71 34.15 -0.22
-2.43 34.51 -0.23
-3.16 34.87 -0.23
-3.91 35.25 -0.23
-4.66 35.50 -0.24
-5.41 35.68 -0.24
-6.18 35.85 -0.24
-6.95 36.03 -0.25
-7.75 36.21 -0.25
-8.52 36.24 -0.26
-9.29 36.25 -0.26
-10.07 36.27 -0.26
-10.87 36.28 -0.27
-11.67 36.30 -0.27
-12.49 36.31 -0.28
-13.31 36.33 -0.28
-14.15 36.35 -0.29
-15.01 36.36 -0.29
-15.84 36.31 -0.30
-16.76 36.40 -0.31
-17.66 36.41 -0.31
-18.58 36.43 -0.32
-19.52 36.45 -0.33
-20.49 36.47 -0.34
-21.47 36.49 -0.35
-22.48 36.51 -0.36
-23.52 36.53 -0.37
-24.58 36.55 -0.38
-25.68 36.57 -0.39
-26.80 36.59 -0.40
-27.97 36.61 -0.41
-29.17 36.64 -0.43
-30.41 36.66 -0.44
-31.69 36.68 -0.45
-33.03 36.71 -0.47
-18.36 11.96 -0.26
-16.60 10.34 -0.23
-15.58 9.28 -0.22
-15.36 8.74 -0.22
-15.37 8.34 -0.22
-15.38 7.95 -0.22
-15.39 7.56 -0.22
-15.40 7.19 -0.22
-15.32 6.78 -0.22
-15.25 6.39 -0.22
-15.26 6.03 -0.22
-15.27 5.69 -0.22
-15.28 5.34 -0.23
-15.30 5.01 -0.23
-15.43 4.71 -0.23
-15.44 4.38 -0.23
-15.45 4.05 -0.24
-15.46 3.72 -0.24
-15.48 3.40 -0.24
-15.49 3.07 -0.24
-15.56 2.76 -0.25
-15.57 2.44 -0.25
-15.58 2.13 -0.25
-15.59 1.81 -0.25
-15.60 1.49 -0.26
-15.61 1.18 -0.26
-15.64 0.87 -0.26
-15.68 0.55 -0.27
-15.69 0.24 -0.27
-15.70 -0.08 -0.27
-15.71 -0.39 -0.28
-15.72 -0.71 -0.28
-15.73 -1.02 -0.29
-15.73 -1.34 -0.29
-15.74 -1.66 -0.29
-15.76 -1.98 -0.30
-15.77 -2.31 -0.30
-15.78 -2.63 -0.31
-15.80 -2.96 -0.31
-15.82 -3.30 -0.32
-15.84 -3.64 -0.32
-15.86 -3.98 -0.33
-15.88 -4.32 -0.33
-6.29 -4.00 -0.17
14.65 -47.19 -0.20
15.19 -45.67 -0.20
16.03 -45.13 -0.19
16.71 -44.21 -0.18
17.36 -43.28 -0.18
18.22 -42.92 -0.17
18.96 -42.28 -0.17
19.60 -41.46 -0.16
20.44 -41.07 -0.16
21.29 -40.71 -0.15
22.10 -40.28 -0.15
22.68 -39.43 -0.14
23.21 -38.55 -0.14
23.61 -37.49 -0.13
24.40 -37.07 -0.12
24.99 -36.36 -0.12
25.22 -35.16 -0.11
25.53 -34.13 -0.10
25.74 -33.00 -0.09
26.05 -32.05 -0.09
26.79 -31.64 -0.08
27.22 -30.87 -0.07
27.39 -29.83 -0.07
27.72 -29.00 -0.06
27.98 -28.12 -0.05
27.65 -26.69 -0.05
27.24 -25.27 -0.04
27.44 -24.44 -0.03
27.21 -23.28 -0.03
26.91 -22.10 -0.02
26.75 -21.08 -0.01
26.60 -20.11 -0.01
26.52 -19.23 -0.00
26.42 -18.36 0.00
26.35 -17.53 0.01
26.31 -16.76 0.02
26.26 -16.00 0.02
26.32 -15.31 0.03
26.41 -14.66 0.03
26.43 -13.99 0.04
26.17 -13.18 0.04
25.91 -12.41 0.05
25.69 -11.68 0.05
25.49 -10.97 0.06
25.14 -10.23 0.06
24.81 -9.52 0.06
24.33 -8.78 0.07
23.76 -8.04 0.07
23.76 -7.51 0.08
23.78 -6.99 0.08
23.57 -6.42 0.08
23.41 -5.88 0.09
23.50 -5.40 0.09
23.58 -4.92 0.10
23.54 -4.42 0.10
23.45 -3.92 0.11
23.46 -3.44 0.11
23.48 -2.96 0.12
23.50 -2.49 0.12
23.59 -2.02 0.13
23.64 -1.55 0.13
23.68 -1.07 0.14
23.69 -0.60 0.14
23.65 -0.12 0.15
23.63 0.35 0.15
23.64 0.83 0.15
23.64 1.30 0.16
23.73 1.79 0.17
23.81 2.28 0.17
23.82 2.76 0.18
23.82 3.25 0.18
23.97 3.76 0.19
24.11 4.28 0.20
24.16 4.79 0.20
24.20 5.30 0.21
24.25 5.83 0.21
24.31 6.36 0.22
24.44 6.92 0.23
24.84 7.58 0.24
25.27 8.27 0.25
25.74 9.00 0.26
26.09 9.71 0.27
26.34 10.41 0.28
26.88 11.25 0.30
27.89 12.33 0.32
28.43 13.26 0.33
28.86 14.18 0.34
30.64 15.82 0.38
3.03 14.18 0.23
4.74 27.53 0.45
4.29 28.27 0.46
3.81 29.03 0.47
3.30 29.76 0.48
2.75 30.38 0.49
2.18 31.03 0.50
1.59 31.63 0.51
0.97 32.20 0.52
0.33 32.73 0.53
-0.33 33.28 0.53
-1.02 33.80 0.54
-1.72 34.15 0.55
-2.43 34.51 0.55
-3.16 34.87 0.56
-3.91 35.25 0.56
-4.66 35.50 0.57
-5.41 35.68 0.57
-6.18 35.85 0.57
-6.96 36.03 0.58
-7.75 36.21 0.58
-8.52 36.24 0.58
-9.29 36.25 0.58
-10.08 36.27 0.58
-10.87 36.28 0.58
-11.67 36.30 0.59
-12.49 36.31 0.59
-13.32 36.33 0.59
-14.16 36.35 0.59
-15.01 36.36 0.59
-15.85 36.31 0.59
-16.76 36.40 0.60
-17.67 36.41 0.60
-18.59 36.43 0.60
-19.53 36.45 0.60
-20.49 36.47 0.60
-21.48 36.49 0.61
-22.49 36.51 0.61
-23.52 36.53 0.61
-24.59 36.55 0.61
-25.68 36.57 0.62
-26.81 36.59 0.62
-27.98 36.61 0.63
-29.18 36.64 0.63
-30.42 36.66 0.63
-31.70 36.68 0.64
-33.04 36.71 0.64
-17.72 12.05 0.24
-15.57 10.14 0.20
-15.23 9.49 0.19
-14.96 8.90 0.18
-14.81 8.42 0.18
-14.71 7.98 0.17
-14.73 7.61 0.16
-14.74 7.24 0.16
-14.71 6.86 0.15
-14.57 6.44 0.15
-14.43 6.04 0.14
-14.29 5.65 0.14
-14.27 5.31 0.13
-14.28 4.99 0.13
-14.40 4.71 0.13
-14.54 4.43 0.12
-14.67 4.16 0.12
-14.76 3.86 0.12
-14.77 3.55 0.11
-14.79 3.24 0.11
-14.80 2.93 0.11
-14.90 2.64 0.10
-15.00 2.35 0.10
-15.05 2.05 0.10
-15.06 1.75 0.10
-15.07 1.44 0.09
-15.09 1.14 0.09
-15.12 0.83 0.09
-15.25 0.54 0.08
-15.31 0.23 0.08
-15.32 -0.08 0.08
-15.32 -0.39 0.07
-15.33 -0.69 0.07
-15.34 -1.00 0.07
-15.34 -1.31 0.06
-15.33 -1.62 0.06
-15.34 -1.94 0.06
-15.35 -2.25 0.06
-15.36 -2.57 0.05
-15.37 -2.89 0.05
-15.40 -3.22 0.05
-15.51 -3.56 0.04
-15.52 -3.90 0.04
-15.54 -4.23 0.04
-15.55 -4.57 0.04
-15.57 -4.92 0.03
-15.57 -5.27 0.03
-15.52 -5.60 0.03
-15.53 -5.96 0.02
-15.53 -6.32 0.02
-15.53 -6.69 0.02
-15.54 -7.06 0.01
-15.61 -7.48 0.01
-15.64 -7.88 0.01
-15.65 -8.29 0.00
-15.67 -8.70 0.00
-15.68 -9.12 -0.00
-15.71 -9.57 -0.00
-6.29 -4.01 -0.00
-15.72 -10.46 -0.01
-15.73 -10.93 -0.01
-15.71 -11.39 -0.02
-15.64 -11.82 -0.02
-15.65 -12.34 -0.02
-15.67 -12.87 -0.03
-15.64 -13.38 -0.03
-15.41 -13.73 -0.04
-15.18 -14.08 -0.04
-14.95 -14.43 -0.04
-14.89 -14.97 -0.05
-14.88 -15.57 -0.05
-14.83 -16.16 -0.05
-14.79 -16.77 -0.06
-14.83 -17.52 -0.06
-14.92 -18.36 -0.07
-14.97 -19.19 -0.07
-15.97 -21.34 -0.08
-15.95 -22.23 -0.09
-15.97 -23.23 -0.09
-15.69 -23.84 -0.10
-15.32 -24.33 -0.10
-14.95 -24.82 -0.10
-14.80 -25.73 -0.11
-14.40 -26.25 -0.11
-14.20 -27.16 -0.12
-16.03 -32.21 -0.14
-16.19 -34.25 -0.15
-16.24 -36.22 -0.16
-16.31 -38.41 -0.17
-16.43 -40.97 -0.19
-17.49 -46.28 -0.21
12.88 -48.23 0.91
13.80 -47.83 0.91
14.14 -45.54 0.88
14.99 -45.06 0.88
15.85 -44.63 0.88
16.31 -43.16 0.86
17.12 -42.69 0.86
18.01 -42.45 0.87
18.27 -40.75 0.84
19.20 -40.63 0.85
20.13 -40.48 0.86
20.52 -39.25 0.85
21.33 -38.89 0.86
22.21 -38.62 0.86
22.42 -37.24 0.85
22.97 -36.48 0.85
23.29 -35.39 0.84
23.64 -34.41 0.83
24.23 -33.79 0.83
24.69 -33.01 0.83
24.99 -32.05 0.82
25.49 -31.37 0.83
26.21 -30.96 0.83
26.66 -30.24 0.83
26.96 -29.37 0.83
27.29 -28.56 0.83
27.35 -27.50 0.82
27.04 -26.12 0.80
26.65 -24.72 0.78
26.46 -23.58 0.77
26.06 -22.30 0.75
25.94 -21.31 0.74
25.78 -20.32 0.73
25.68 -19.42 0.72
25.59 -18.56 0.71
25.47 -17.71 0.70
25.34 -16.87 0.70
25.32 -16.13 0.69
25.27 -15.39 0.69
25.23 -14.69 0.68
25.30 -14.06 0.68
25.05 -13.27 0.67
24.81 -12.51 0.67
24.51 -11.75 0.66
23.67 -10.77 0.63
22.99 -9.90 0.61
22.83 -9.30 0.61
22.67 -8.71 0.61
22.63 -8.17 0.60
22.63 -7.66 0.61
22.68 -7.18 0.61
22.73 -6.69 0.61
22.78 -6.21 0.61
22.80 -5.73 0.62
22.89 -5.27 0.62
22.97 -4.80 0.62
23.06 -4.34 0.63
23.02 -3.85 0.63
23.03 -3.38 0.63
23.04 -2.91 0.64
23.06 -2.45 0.64
23.10 -1.98 0.64
23.14 -1.52 0.65
23.18 -1.05 0.66
23.21 -0.59 0.66
23.22 -0.12 0.67
23.20 0.34 0.67
23.21 0.81 0.68
23.21 1.28 0.68
23.22 1.74 0.69
23.29 2.22 0.69
23.29 2.69 0.70
23.30 3.17 0.71
23.30 3.65 0.71
23.39 4.14 0.73
23.45 4.64 0.73
23.50 5.14 0.74
23.54 5.65 0.75
23.58 6.16 0.76
23.66 6.69 0.78
23.75 7.24 0.79
24.01 7.85 0.81
24.25 8.47 0.82
24.24 9.01 0.84
25.20 9.95 0.88
25.46 10.65 0.90
25.70 11.36 0.92
26.40 12.31 0.96
26.38 12.95 0.98
27.45 14.17 1.03
27.72 15.02 1.06
28.76 16.34 1.12
31.03 18.46 1.23
3.04 14.18 0.56
4.75 27.53 1.08
4.29 28.26 1.10
3.81 29.03 1.13
3.30 29.76 1.16
2.75 30.38 1.18
2.18 31.03 1.20
1.59 31.63 1.22
0.97 32.20 1.24
0.33 32.73 1.26
-0.33 33.28 1.28
-1.02 33.80 1.30
-1.72 34.15 1.32
-2.43 34.51 1.33
-3.16 34.87 1.35
-3.91 35.25 1.36
-4.66 35.51 1.38
-5.41 35.68 1.38
-6.18 35.85 1.39
-6.96 36.03 1.40
-6.38 29.82 1.17
-6.88 29.26 1.15
-7.36 28.70 1.13
-7.93 28.54 1.13
-10.87 36.28 1.44
-11.68 36.30 1.45
-12.49 36.31 1.45
-13.32 36.33 1.46
-14.16 36.35 1.47
-15.01 36.36 1.48
-15.85 36.30 1.49
-16.77 36.40 1.50
-17.67 36.41 1.51
-18.59 36.43 1.52
-5.81 10.85 0.46
-6.10 10.86 0.46
-6.40 10.86 0.46
-22.49 36.51 1.58
-23.53 36.53 1.59
-24.60 36.55 1.61
-25.69 36.57 1.63
-26.82 36.59 1.64
-27.99 36.61 1.66
-29.19 36.64 1.68
-30.43 36.66 1.71
-31.71 36.69 1.73
-33.05 36.71 1.76
-23.85 21.66 1.12
-21.32 15.77 0.90
-15.56 11.04 0.64
-15.21 10.34 0.62
-14.89 9.69 0.59
-14.59 9.08 0.57
-14.44 8.59 0.55
-14.30 8.13 0.54
-14.18 7.68 0.53
-14.13 7.29 0.52
-14.13 6.94 0.51
-14.00 6.53 0.50
-13.88 6.14 0.48
-13.76 5.75 0.47
-13.65 5.39 0.46
-13.59 5.05 0.45
-13.58 4.74 0.45
-13.65 4.46 0.44
-13.75 4.19 0.44
-13.87 3.92 0.44
-14.00 3.66 0.44
-14.12 3.39 0.44
-14.15 3.10 0.43
-14.20 2.81 0.43
-14.30 2.53 0.43
-14.39 2.25 0.43
-14.49 1.97 0.42
-14.57 1.69 0.42
-14.58 1.39 0.42
-14.59 1.10 0.42
-14.64 0.80 0.41
-14.76 0.51 0.41
-14.88 0.22 0.41
-14.95 -0.08 0.41
-14.96 -0.38 0.41
-14.97 -0.68 0.41
-14.98 -0.98 0.40
-14.98 -1.29 0.40
-14.97 -1.59 0.40
-14.95 -1.89 0.40
-14.95 -2.20 0.39
-14.96 -2.51 0.39
-14.97 -2.82 0.39
-14.98 -3.13 0.39
-15.08 -3.47 0.39
-15.19 -3.82 0.39
-15.21 -4.15 0.39
-15.22 -4.48 0.39
-15.24 -4.82 0.39
-15.25 -5.16 0.39
-15.21 -5.49 0.39
-15.16 -5.82 0.39
-15.13 -6.16 0.39
-15.13 -6.52 0.39
-15.13 -6.88 0.39
-15.14 -7.26 0.39
-15.26 -7.69 0.39
-15.31 -8.11 0.39
-15.32 -8.51 0.40
-15.33 -8.92 0.40
-15.34 -9.35 0.40
-6.29 -4.01 0.16
-15.38 -10.24 0.41
-15.38 -10.69 0.41
-15.39 -11.16 0.41
-15.31 -11.58 0.41
-15.20 -11.98 0.41
-15.15 -12.45 0.41
-15.16 -12.97 0.42
-15.09 -13.44 0.42
-14.86 -13.78 0.42
-14.63 -14.13 0.42
-14.40 -14.48 0.42
-14.17 -14.82 0.42
-13.94 -15.19 0.41
-13.84 -15.69 0.42
-13.82 -16.33 0.42
-13.81 -16.99 0.43
-13.80 -17.70 0.44
-13.82 -18.47 0.45
-13.83 -19.29 0.46
-15.36 -22.35 0.52
-15.36 -23.35 0.54
-15.05 -23.90 0.54
-14.68 -24.38 0.54
-6.55 -11.38 0.25
-13.93 -25.39 0.54
-13.77 -26.34 0.55
-13.64 -27.42 0.57
-14.04 -29.70 0.61
-14.23 -31.75 0.64
-15.20 -35.81 0.71
-15.20 -37.91 0.75
-15.51 -41.06 0.80
-16.11 -45.38 0.87
-15.68 -47.15 0.90
4.57 -45.43 1.84
4.79 -39.64 1.61
4.12 -29.17 1.19
5.05 -27.68 1.14
9.06 -44.58 1.85
8.88 -39.57 1.65
12.55 -47.01 1.98
13.51 -46.82 1.99
14.16 -45.63 1.95
14.79 -44.47 1.92
15.34 -43.21 1.88
15.92 -42.15 1.85
16.49 -41.13 1.83
17.00 -40.06 1.80
17.41 -38.85 1.76
17.84 -37.75 1.73
18.67 -37.55 1.75
19.26 -36.87 1.74
19.66 -35.85 1.71
20.27 -35.27 1.71
21.01 -34.91 1.71
21.49 -34.14 1.70
22.15 -33.67 1.70
22.79 -33.18 1.71
23.33 -32.55 1.70
23.86 -31.91 1.70
24.44 -31.35 1.70
24.96 -30.72 1.70
25.61 -30.26 1.71
26.15 -29.67 1.71
26.54 -28.93 1.70
26.76 -28.02 1.69
26.74 -26.90 1.66
26.44 -25.55 1.61
25.54 -23.71 1.53
25.08 -22.36 1.48
25.01 -21.41 1.46
24.95 -20.51 1.44
24.86 -19.61 1.41
24.78 -18.75 1.39
24.70 -17.92 1.37
24.57 -17.09 1.35
24.17 -16.10 1.32
23.84 -15.20 1.29
23.65 -14.42 1.27
23.39 -13.62 1.24
23.08 -12.83 1.22
22.71 -12.03 1.19
22.45 -11.32 1.17
22.29 -10.69 1.15
22.14 -10.07 1.14
21.98 -9.47 1.13
21.91 -8.93 1.12
21.89 -8.41 1.11
21.87 -7.90 1.11
21.82 -7.39 1.10
21.79 -6.90 1.10
21.84 -6.44 1.10
21.89 -5.98 1.10
21.83 -5.49 1.10
21.76 -5.01 1.09
21.91 -4.58 1.10
22.10 -4.16 1.11
22.19 -3.72 1.11
22.11 -3.25 1.11
22.13 -2.80 1.11
22.15 -2.36 1.12
22.18 -1.91 1.12
22.06 -1.45 1.12
21.93 -1.00 1.12
22.12 -0.57 1.13
22.32 -0.12 1.14
22.45 0.33 1.15
22.41 0.78 1.16
22.37 1.22 1.16
22.33 1.67 1.17
22.28 2.12 1.17
22.45 2.59 1.19
22.43 3.05 1.19
22.40 3.50 1.20
22.36 3.96 1.21
22.37 4.42 1.22
22.50 4.92 1.23
22.65 5.43 1.25
22.80 5.95 1.27
22.96 6.49 1.29
23.04 7.02 1.31
23.12 7.55 1.33
23.22 8.10 1.34
23.31 8.66 1.36
23.29 9.19 1.38
23.28 9.73 1.39
23.55 10.40 1.43
23.49 10.95 1.44
23.44 11.50 1.46
24.63 12.70 1.55
24.34 13.18 1.55
24.03 13.64 1.56
23.71 14.10 1.56
23.91 14.88 1.60
24.12 15.69 1.64
23.95 16.27 1.65
25.62 18.17 1.80
7.51 16.30 1.08
7.01 16.05 1.06
6.75 16.35 1.07
7.48 23.24 1.48
7.00 23.35 1.48
3.04 14.18 0.89
4.75 27.53 1.71
4.29 28.26 1.75
3.81 29.03 1.79
3.30 29.76 1.83
2.75 30.38 1.87
2.18 31.03 1.90
1.59 31.63 1.94
0.97 32.20 1.97
0.33 32.73 2.00
-0.34 33.28 2.04
-0.88 29.02 1.77
-1.49 29.56 1.81
-2.12 30.04 1.84
-2.76 30.46 1.87
-3.43 30.90 1.90
-4.10 31.22 1.92
-4.45 29.30 1.81
-4.83 28.03 1.73
-5.37 27.81 1.72
-5.99 28.00 1.74
-6.62 28.13 1.76
-7.26 28.32 1.77
-7.93 28.52 1.79
-8.64 28.82 1.82
-9.34 29.03 1.84
-15.86 36.32 2.38
-16.70 36.23 2.39
-17.45 35.95 2.39
-18.20 35.65 2.39
-18.95 35.34 2.39
-6.10 10.86 0.74
-20.43 34.68 2.39
-21.16 34.33 2.39
-21.89 33.97 2.39
-22.62 33.60 2.39
-23.34 33.21 2.39
-24.05 32.81 2.39
-24.87 32.52 2.40
-25.93 32.54 2.44
-27.03 32.56 2.47
-28.02 32.40 2.50
-28.74 31.91 2.50
-29.45 31.41 2.50
-30.15 30.90 2.50
-30.85 30.37 2.50
-31.54 29.82 2.50
-23.85 21.66 1.85
-32.90 28.69 2.50
-33.57 28.11 2.50
-34.23 27.51 2.50
-20.22 15.60 1.45
-14.96 11.06 1.05
-14.77 10.47 1.02
-14.55 9.89 0.99
-14.27 9.28 0.95
-14.07 8.76 0.92
-13.95 8.30 0.90
-13.83 7.85 0.88
-13.72 7.43 0.86
-13.61 7.02 0.84
-13.54 6.65 0.83
-13.48 6.28 0.81
-13.42 5.93 0.80
-13.36 5.58 0.79
-13.30 5.25 0.77
-13.24 4.92 0.76
-13.24 4.62 0.75
-13.28 4.34 0.75
-13.35 4.06 0.74
-13.41 3.79 0.74
-13.48 3.52 0.74
-13.54 3.25 0.73
-13.60 2.97 0.73
-13.66 2.70 0.73
-13.74 2.43 0.73
-13.83 2.16 0.72
-13.92 1.89 0.72
-14.01 1.62 0.72
-14.10 1.34 0.72
-14.13 1.06 0.72
-14.18 0.78 0.72
-14.30 0.49 0.72
-14.41 0.21 0.73
-14.52 -0.08 0.73
-14.61 -0.37 0.73
-14.62 -0.67 0.73
-14.63 -0.96 0.73
-14.63 -1.26 0.72
-14.62 -1.55 0.72
-14.61 -1.85 0.72
-14.59 -2.15 0.72
-14.58 -2.45 0.72
-14.59 -2.75 0.72
-14.60 -3.05 0.72
-14.66 -3.38 0.72
-14.77 -3.71 0.73
-14.87 -4.06 0.73
-14.91 -4.39 0.73
-14.92 -4.72 0.74
-14.93 -5.06 0.74
-14.90 -5.39 0.74
-14.85 -5.71 0.74
-14.80 -6.03 0.74
-14.75 -6.36 0.74
-14.75 -6.71 0.74
-14.74 -7.07 0.75
-14.80 -7.46 0.75
-14.91 -7.90 0.76
-14.99 -8.33 0.77
-14.99 -8.73 0.78
-15.00 -9.14 0.79
-6.29 -4.01 0.33
-15.04 -10.02 0.80
-15.05 -10.47 0.81
-15.05 -10.92 0.82
-15.03 -11.37 0.83
-14.92 -11.77 0.83
-14.81 -12.17 0.84
-14.69 -12.58 0.84
-14.66 -13.07 0.85
-14.55 -13.50 0.86
-14.32 -13.84 0.86
-14.10 -14.18 0.86
-13.89 -14.54 0.86
-13.68 -14.90 0.86
-13.46 -15.28 0.87
-13.40 -15.83 0.88
-13.38 -16.47 0.90
-13.35 -17.13 0.92
-13.34 -17.84 0.94
-13.34 -18.61 0.96
-13.35 -19.42 0.99
-14.83 -22.54 1.12
-14.77 -23.46 1.15
-6.90 -11.46 0.56
-6.55 -11.39 0.54
-6.29 -11.47 0.54
-13.31 -25.47 1.18
-13.22 -26.58 1.22
-13.09 -27.69 1.26
-13.28 -29.64 1.33
-13.32 -31.40 1.39
-13.53 -33.75 1.48
-13.91 -36.83 1.60
-13.86 -39.04 1.69
-15.10 -45.40 1.94
-14.62 -47.08 2.00
-0.00 -39.69 2.50
0.79 -39.68 2.50
1.52 -38.00 2.39
2.29 -37.95 2.39
2.04 -25.33 1.60
3.80 -37.80 2.39
3.42 -28.32 1.80
3.88 -27.48 1.75
4.26 -26.33 1.68
4.79 -26.26 1.68
5.11 -25.14 1.62
5.99 -26.72 1.73
4.87 -19.86 1.29
5.27 -19.75 1.30
5.28 -18.29 1.21
5.58 -17.99 1.20
11.14 -33.51 2.24
9.85 -27.75 1.87
5.35 -14.16 0.96
15.60 -38.94 2.68
16.24 -38.29 2.66
16.53 -36.90 2.59
17.22 -36.46 2.58
4.74 -9.54 0.68
4.76 -9.12 0.66
4.94 -9.01 0.66
19.22 -33.45 2.49
20.07 -33.36 2.52
20.74 -32.95 2.52
21.37 -32.49 2.52
21.83 -31.78 2.51
22.49 -31.39 2.52
23.04 -30.83 2.51
23.71 -30.43 2.52
24.24 -29.85 2.52
24.63 -29.12 2.51
25.18 -28.59 2.51
25.73 -28.05 2.51
25.76 -26.98 2.47
25.67 -25.82 2.41
24.84 -24.01 2.30
24.05 -22.33 2.19
23.70 -21.14 2.12
23.65 -20.25 2.08
23.03 -18.93 2.00
22.58 -17.82 1.94
22.39 -16.95 1.89
22.28 -16.18 1.86
22.20 -15.45 1.83
22.11 -14.73 1.81
22.02 -14.05 1.78
22.00 -13.42 1.76
21.95 -12.79 1.74
21.90 -12.18 1.72
21.87 -11.59 1.71
21.79 -11.00 1.69
21.65 -10.39 1.66
21.51 -9.79 1.64
21.36 -9.21 1.62
21.22 -8.65 1.60
21.17 -8.14 1.59
21.14 -7.65 1.58
21.10 -7.15 1.57
21.06 -6.67 1.56
21.02 -6.20 1.55
21.04 -5.75 1.55
20.97 -5.28 1.54
20.91 -4.82 1.53
20.85 -4.37 1.53
20.80 -3.92 1.52
20.76 -3.49 1.52
20.67 -3.05 1.51
20.54 -2.61 1.50
20.41 -2.18 1.49
20.32 -1.75 1.49
20.37 -1.35 1.49
20.28 -0.93 1.49
20.18 -0.52 1.49
20.09 -0.12 1.48
20.01 0.29 1.48
20.01 0.69 1.49
20.01 1.09 1.49
20.00 1.49 1.50
19.99 1.90 1.50
19.96 2.30 1.51
19.88 2.69 1.51
19.79 3.09 1.51
19.75 3.49 1.52
19.85 3.92 1.54
19.94 4.35 1.55
19.89 4.76 1.56
19.84 5.18 1.57
19.87 5.61 1.58
19.97 6.08 1.61
20.07 6.55 1.63
20.17 7.03 1.65
20.11 7.47 1.66
20.04 7.90 1.67
19.96 8.34 1.68
19.88 8.78 1.70
19.80 9.22 1.71
19.72 9.67 1.72
19.63 10.12 1.74
19.53 10.57 1.75
19.44 11.03 1.77
19.33 11.49 1.78
19.23 11.96 1.80
19.20 12.49 1.82
19.42 13.19 1.87
19.63 13.91 1.92
19.68 14.55 1.96
19.70 15.19 1.99
19.72 15.85 2.03
19.84 16.61 2.08
19.65 17.13 2.10
19.46 17.66 2.12
19.25 18.20 2.14
20.23 19.90 2.30
22.29 22.83 2.59
6.93 13.57 1.26
6.33 13.05 1.20
6.02 13.07 1.20
6.09 13.93 1.26
5.72 13.84 1.25
5.41 13.89 1.24
5.21 14.22 1.26
7.18 20.87 1.84
6.86 21.32 1.87
6.90 23.00 2.01
6.14 23.95 2.07
5.54 23.57 2.03
3.04 14.18 1.21
2.79 21.26 1.80
2.57 23.15 1.95
2.20 24.23 2.04
1.82 25.86 2.17
1.33 26.49 2.22
0.86 28.57 2.40
0.28 28.18 2.36
-0.29 28.61 2.40
-0.86 28.61 2.40
-1.46 28.98 2.43
-2.08 29.47 2.47
-2.69 29.69 2.50
-3.29 29.64 2.50
-3.89 29.59 2.50
-4.48 29.52 2.50
-5.08 29.45 2.50
-5.67 29.36 2.50
-6.27 29.26 2.50
-6.60 28.04 2.40
-7.45 29.03 2.50
-8.04 28.90 2.50
-8.62 28.76 2.50
-9.21 28.60 2.50
-9.79 28.43 2.50
-10.36 28.25 2.50
-10.94 28.06 2.50
-11.51 27.86 2.50
-12.08 27.65 2.50
-12.65 27.43 2.50
-13.21 27.21 2.50
-13.77 26.97 2.50
-14.33 26.72 2.50
-6.14 10.91 1.03
-15.43 26.20 2.50
-15.98 25.92 2.50
-16.52 25.63 2.50
-16.36 24.29 2.39
-16.87 23.99 2.39
-17.37 23.69 2.39
-17.88 23.37 2.39
-18.37 23.05 2.39
-18.86 22.71 2.39
-19.35 22.37 2.39
-19.83 22.02 2.39
-20.31 21.65 2.39
-20.78 21.28 2.39
-21.24 20.90 2.39
-21.70 20.51 2.39
-21.16 19.21 2.29
-20.14 17.56 2.13
-16.87 14.13 1.75
-15.08 12.12 1.54
-14.41 11.11 1.44
-14.21 10.51 1.40
-14.06 9.96 1.36
-13.91 9.44 1.32
-13.72 8.92 1.29
-13.60 8.46 1.26
-13.47 8.01 1.23
-13.35 7.57 1.20
-13.23 7.16 1.17
-13.18 6.79 1.15
-13.18 6.47 1.14
-13.13 6.11 1.12
-13.07 5.77 1.10
-13.02 5.44 1.08
-12.96 5.11 1.07
-12.93 4.80 1.05
-12.94 4.51 1.04
-12.94 4.22 1.04
-13.00 3.95 1.03
-13.06 3.69 1.03
-13.12 3.42 1.02
-13.19 3.16 1.02
-13.25 2.89 1.02
-13.27 2.62 1.01
-13.31 2.35 1.01
-13.38 2.09 1.01
-13.45 1.82 1.01
-13.53 1.56 1.01
-13.60 1.29 1.01
-13.67 1.02 1.01
-13.76 0.75 1.01
-13.86 0.48 1.01
-13.97 0.20 1.02
-14.08 -0.08 1.02
-14.19 -0.37 1.03
-14.29 -0.66 1.03
-14.30 -0.94 1.03
-14.30 -1.23 1.03
-14.29 -1.52 1.03
-14.27 -1.81 1.03
-14.26 -2.10 1.03
-14.25 -2.39 1.03
-14.23 -2.68 1.03
-14.23 -2.98 1.03
-14.27 -3.29 1.03
-14.37 -3.62 1.04
-14.46 -3.95 1.05
-14.56 -4.29 1.06
-14.61 -4.63 1.07
-14.62 -4.96 1.07
-14.61 -5.28 1.08
-14.56 -5.60 1.08
-14.51 -5.92 1.08
-14.46 -6.24 1.08
-14.41 -6.56 1.08
-14.37 -6.90 1.09
-14.37 -7.25 1.10
-14.47 -7.67 1.11
-14.57 -8.10 1.13
-14.67 -8.55 1.15
-14.67 -8.94 1.16
-6.29 -4.01 0.50
-14.69 -9.79 1.18
-14.71 -10.24 1.20
-14.73 -10.69 1.21
-14.72 -11.14 1.23
-14.64 -11.55 1.24
-14.53 -11.95 1.25
-14.42 -12.35 1.25
-14.30 -12.75 1.26
-14.18 -13.17 1.27
-14.03 -13.56 1.28
-13.83 -13.91 1.29
-13.63 -14.27 1.29
-13.42 -14.63 1.30
-13.21 -14.99 1.30
-13.00 -15.36 1.31
-12.96 -15.96 1.33
-12.94 -16.61 1.36
-12.91 -17.26 1.39
-12.89 -17.98 1.43
-12.87 -18.74 1.46
-12.86 -19.56 1.50
-12.85 -20.42 1.55
-14.11 -23.46 1.75
-6.54 -11.39 0.84
-13.45 -24.52 1.79
-13.08 -25.03 1.80
-12.70 -25.55 1.82
-12.64 -26.75 1.88
-12.55 -28.00 1.95
-12.49 -29.45 2.03
-12.48 -31.15 2.13
-12.44 -32.94 2.23
-12.24 -34.49 2.32
-11.79 -35.45 2.36
-11.33 -36.49 2.41
-10.51 -36.42 2.39
-9.78 -36.65 2.39
-9.05 -36.86 2.39
-8.31 -37.05 2.39
-7.57 -37.23 2.39
-6.83 -37.39 2.39
-6.34 -39.16 2.50
-5.55 -39.29 2.50
-4.77 -39.40 2.50
-3.98 -39.50 2.50
-3.18 -39.57 2.50
-2.39 -39.63 2.50
-1.59 -39.67 2.50
-0.80 -39.69 2.50
-0.00 -29.18 2.50
0.58 -29.17 2.50
1.17 -29.15 2.50
1.68 -27.91 2.39
2.03 -25.33 2.17
2.80 -27.80 2.39
3.29 -27.23 2.35
3.83 -27.11 2.35
4.22 -26.08 2.27
4.35 -23.83 2.08
4.56 -22.45 1.97
4.49 -20.05 1.76
4.65 -18.95 1.68
4.87 -18.25 1.62
5.22 -18.12 1.62
4.62 -14.88 1.34
4.87 -14.65 1.33
4.89 -13.78 1.26
5.13 -13.59 1.25
5.45 -13.61 1.27
5.87 -13.84 1.30
14.27 -31.86 3.03
4.40 -9.31 0.89
4.57 -9.20 0.89
4.74 -9.07 0.89
4.96 -9.05 0.90
5.23 -9.10 0.92
17.86 -29.70 3.03
18.43 -29.29 3.03
18.98 -28.88 3.03
19.53 -28.45 3.03
20.07 -28.01 3.03
20.60 -27.56 3.03
21.11 -27.10 3.03
21.62 -26.63 3.03
22.11 -26.15 3.03
22.59 -25.66 3.03
23.06 -25.16 3.03
23.00 -24.10 2.96
23.25 -23.40 2.93
22.67 -21.92 2.81
22.04 -20.47 2.68
21.90 -19.54 2.63
21.57 -18.48 2.54
21.49 -17.68 2.50
21.53 -16.99 2.47
21.44 -16.24 2.42
21.38 -15.53 2.39
21.33 -14.85 2.35
21.26 -14.17 2.32
21.24 -13.55 2.29
21.23 -12.95 2.26
21.21 -12.36 2.24
21.18 -11.78 2.21
21.16 -11.22 2.19
21.14 -10.67 2.17
21.04 -10.10 2.15
20.91 -9.53 2.12
20.78 -8.97 2.09
20.65 -8.42 2.06
20.30 -7.81 2.02
19.95 -7.22 1.97
19.79 -6.72 1.95
19.64 -6.23 1.92
19.50 -5.76 1.90
19.43 -5.31 1.89
19.36 -4.88 1.88
19.28 -4.45 1.86
19.14 -4.01 1.85
19.01 -3.59 1.83
18.87 -3.17 1.81
18.74 -2.77 1.80
18.60 -2.36 1.79
18.46 -1.97 1.77
18.33 -1.59 1.76
18.25 -1.21 1.75
18.39 -0.85 1.77
18.52 -0.48 1.78
18.64 -0.11 1.80
2.35 0.03 0.23
2.25 0.08 0.22
2.25 0.12 0.22
18.68 1.39 1.82
18.63 1.76 1.83
18.58 2.14 1.83
18.51 2.50 1.83
18.35 2.86 1.82
18.16 3.20 1.81
17.97 3.54 1.81
17.78 3.88 1.80
17.58 4.21 1.79
17.46 4.55 1.79
17.38 4.91 1.80
17.30 5.26 1.80
17.21 5.61 1.81
17.12 5.96 1.81
17.02 6.32 1.82
16.92 6.67 1.83
16.82 7.02 1.83
16.73 7.38 1.84
16.63 7.74 1.85
16.53 8.10 1.86
16.48 8.49 1.88
16.56 8.96 1.91
16.49 9.36 1.93
16.42 9.76 1.95
16.35 10.17 1.96
16.28 10.58 1.98
16.20 11.00 2.00
16.18 11.46 2.03
16.24 12.00 2.07
16.28 12.55 2.11
16.26 13.06 2.15
16.24 13.59 2.18
16.21 14.13 2.22
16.14 14.65 2.26
15.99 15.11 2.28
15.83 15.58 2.30
15.79 16.16 2.35
16.38 17.46 2.49
16.33 18.13 2.54
16.35 18.89 2.61
17.54 21.11 2.87
17.48 21.93 2.93
18.15 23.73 3.13
5.54 10.85 1.29
5.34 11.00 1.29
5.25 11.38 1.33
5.53 12.66 1.46
5.34 12.93 1.48
5.20 13.34 1.52
5.10 13.91 1.57
5.89 17.10 1.92
6.85 21.29 2.38
6.56 21.87 2.43
6.03 21.68 2.39
5.59 21.79 2.39
5.15 21.89 2.39
3.03 14.14 1.54
4.26 22.07 2.39
3.82 22.14 2.39
3.07 20.20 2.18
2.90 22.11 2.37
2.49 22.49 2.41
2.08 22.97 2.46
1.64 23.37 2.50
1.18 23.40 2.50
0.70 23.42 2.50
0.23 23.43 2.50
-0.24 23.44 2.50
-0.71 23.44 2.50
-1.18 23.43 2.50
-1.65 23.41 2.50
-2.12 23.38 2.50
-2.59 23.34 2.50
-3.06 23.29 2.50
-3.53 23.23 2.50
-4.00 23.16 2.50
-4.46 23.08 2.50
-4.93 22.99 2.50
-5.39 22.90 2.50
-5.85 22.80 2.50
-6.31 22.69 2.50
-6.77 22.57 2.50
-6.93 21.51 2.39
-7.36 21.39 2.39
-7.80 21.25 2.39
-8.23 21.11 2.39
-8.66 20.95 2.39
-9.09 20.79 2.39
-9.51 20.63 2.39
-9.93 20.45 2.39
-10.35 20.27 2.39
-10.77 20.08 2.39
-6.14 10.91 1.31
-14.52 24.64 3.00
-15.04 24.39 3.00
-15.54 24.11 3.00
-16.03 23.80 3.00
-14.63 20.81 2.65
-14.63 19.93 2.58
-14.62 19.11 2.50
-14.62 18.33 2.44
-14.73 17.73 2.39
-14.84 17.15 2.35
-15.11 16.77 2.33
-15.15 16.15 2.29
-15.19 15.55 2.24
-15.26 15.01 2.20
-15.01 14.18 2.12
-14.66 13.31 2.03
-14.47 12.61 1.97
-14.33 11.99 1.91
-13.87 11.14 1.82
-13.68 10.54 1.76
-13.52 10.00 1.71
-13.33 9.44 1.66
-13.17 8.94 1.61
-13.20 8.58 1.59
-13.08 8.13 1.56
-12.97 7.70 1.52
-12.86 7.29 1.49
-12.77 6.91 1.46
-12.79 6.59 1.44
-12.81 6.28 1.43
-12.79 5.95 1.41
-12.74 5.62 1.39
-12.69 5.30 1.37
-12.64 4.98 1.35
-12.64 4.69 1.34
-12.64 4.41 1.32
-12.65 4.12 1.31
-12.66 3.85 1.30
-12.72 3.59 1.30
-12.79 3.33 1.30
-12.85 3.07 1.29
-12.90 2.81 1.29
-12.92 2.55 1.28
-12.94 2.28 1.28
-12.98 2.02 1.28
-13.05 1.77 1.28
-13.12 1.51 1.28
-13.19 1.25 1.28
-13.25 0.99 1.28
-13.29 0.72 1.28
-13.31 0.45 1.28
-13.44 0.19 1.29
-13.59 -0.08 1.30
-13.75 -0.36 1.31
-13.86 -0.64 1.32
-13.96 -0.93 1.33
-13.98 -1.21 1.33
-13.97 -1.49 1.33
-13.96 -1.77 1.32
-13.94 -2.06 1.32
-13.93 -2.34 1.32
-13.91 -2.63 1.32
-13.90 -2.91 1.33
-13.89 -3.21 1.33
-13.98 -3.52 1.34
-14.07 -3.85 1.35
-14.17 -4.18 1.37
-14.26 -4.52 1.38
-14.33 -4.86 1.39
-14.33 -5.19 1.40
-14.29 -5.50 1.40
-14.23 -5.81 1.41
-14.18 -6.12 1.41
-14.13 -6.44 1.42
-14.07 -6.76 1.42
-14.02 -7.08 1.43
-14.05 -7.45 1.44
-14.14 -7.87 1.46
-14.23 -8.29 1.49
-14.33 -8.74 1.51
-6.29 -4.01 0.67
-14.36 -9.57 1.55
-14.37 -10.00 1.57
-14.39 -10.45 1.59
-14.40 -10.91 1.61
-14.38 -11.35 1.63
-14.27 -11.73 1.64
-14.16 -12.13 1.65
-14.04 -12.52 1.67
-13.83 -12.85 1.67
-13.60 -13.15 1.67
-13.42 -13.50 1.68
-13.36 -13.99 1.70
-13.17 -14.36 1.71
-12.96 -14.72 1.72
-12.75 -15.08 1.73
-12.56 -15.46 1.74
-12.53 -16.08 1.78
-12.50 -16.73 1.82
-12.46 -17.39 1.86
-12.44 -18.11 1.91
-12.41 -18.87 1.96
-12.38 -19.68 2.02
-12.36 -20.54 2.08
-6.54 -11.39 1.14
-12.57 -22.93 2.26
-12.28 -23.51 2.29
-12.02 -24.17 2.33
-11.68 -24.72 2.36
-11.32 -25.27 2.39
-10.96 -25.84 2.42
-10.34 -25.80 2.39
-9.83 -26.03 2.39
-9.31 -26.24 2.39
-8.79 -26.44 2.39
-8.26 -26.62 2.39
-7.73 -26.80 2.39
-7.20 -26.96 2.39
-6.67 -27.16 2.40
-6.38 -28.43 2.50
-5.81 -28.56 2.50
-5.24 -28.68 2.50
-4.66 -28.79 2.50
-4.08 -28.89 2.50
-3.50 -28.97 2.50
-2.92 -29.04 2.50
-2.34 -29.09 2.50
-1.76 -29.13 2.50
-1.17 -29.16 2.50
-0.59 -29.18 2.50
-0.00 -23.05 2.50
0.46 -23.05 2.50
0.92 -23.03 2.50
1.38 -23.00 2.50
1.77 -22.01 2.39
2.21 -21.97 2.39
2.65 -21.91 2.39
3.08 -21.85 2.39
3.52 -21.77 2.39
3.96 -21.69 2.39
3.87 -19.05 2.11
4.22 -18.81 2.09
4.57 -18.63 2.08
4.06 -15.21 1.71
4.32 -14.98 1.70
4.52 -14.57 1.66
4.20 -12.66 1.45
4.48 -12.64 1.46
4.72 -12.50 1.46
5.04 -12.59 1.48
5.84 -13.78 1.64
5.52 -12.32 1.48
4.38 -9.27 1.12
4.54 -9.15 1.12
4.72 -9.03 1.12
4.91 -8.97 1.12
5.16 -8.98 1.14
5.45 -9.07 1.16
7.97 -12.67 1.65
8.24 -12.54 1.66
15.51 -22.59 3.03
15.94 -22.25 3.03
16.36 -21.90 3.03
16.77 -21.54 3.03
17.18 -21.17 3.03
17.58 -20.80 3.03
17.97 -20.41 3.03
18.35 -20.02 3.03
18.72 -19.62 3.03
19.09 -19.22 3.03
19.44 -18.80 3.03
19.79 -18.38 3.03
20.12 -17.96 3.03
20.45 -17.52 3.03
20.53 -16.89 2.99
20.60 -16.27 2.96
20.58 -15.59 2.91
20.55 -14.93 2.87
20.52 -14.29 2.83
20.48 -13.66 2.79
20.46 -13.06 2.76
20.44 -12.48 2.72
20.43 -11.92 2.70
20.41 -11.36 2.67
20.37 -10.81 2.64
20.32 -10.27 2.61
20.15 -9.68 2.56
19.77 -9.01 2.50
19.39 -8.37 2.43
19.04 -7.77 2.37
18.75 -7.22 2.32
18.44 -6.68 2.27
18.13 -6.16 2.22
17.86 -5.67 2.18
17.67 -5.22 2.14
17.48 -4.78 2.11
17.34 -4.37 2.09
17.28 -3.99 2.07
17.22 -3.62 2.06
17.17 -3.25 2.05
17.11 -2.88 2.04
17.05 -2.52 2.03
16.98 -2.16 2.02
16.88 -1.81 2.01
16.78 -1.46 2.00
16.69 -1.11 1.98
16.61 -0.77 1.98
16.53 -0.44 1.97
16.45 -0.10 1.96
2.35 0.03 0.28
2.18 0.07 0.26
2.18 0.12 0.26
16.01 1.19 1.93
15.95 1.51 1.93
15.90 1.82 1.93
15.84 2.14 1.93
15.78 2.45 1.93
15.72 2.77 1.93
15.66 3.09 1.94
15.60 3.40 1.94
15.54 3.71 1.95
15.48 4.03 1.95
15.42 4.35 1.96
15.37 4.67 1.97
15.31 4.99 1.97
15.25 5.31 1.98
15.18 5.63 1.99
15.11 5.95 2.00
15.04 6.27 2.01
14.95 6.59 2.02
14.85 6.91 2.03
14.77 7.24 2.04
14.70 7.57 2.05
14.62 7.91 2.07
14.54 8.25 2.08
14.46 8.59 2.10
14.39 8.94 2.11
14.66 9.52 2.19
14.93 10.13 2.26
14.96 10.60 2.30
14.85 10.97 2.32
14.67 11.30 2.33
14.49 11.64 2.34
14.30 11.97 2.35
14.11 12.30 2.36
13.92 12.63 2.37
13.73 12.97 2.39
13.53 13.30 2.40
13.32 13.64 2.42
13.11 13.98 2.43
6.18 6.86 1.17
5.94 6.86 1.15
5.78 6.95 1.15
5.65 7.08 1.15
5.54 7.24 1.16
5.43 7.40 1.17
5.29 7.53 1.18
5.20 7.71 1.19
5.36 8.31 1.27
5.22 8.46 1.27
5.82 9.87 1.47
5.43 9.66 1.42
5.22 9.73 1.42
5.57 10.91 1.57
5.30 10.91 1.56
5.16 11.19 1.58
5.48 12.53 1.76
5.31 12.84 1.79
5.03 12.91 1.79
4.81 13.11 1.80
5.83 16.95 2.31
5.68 17.65 2.39
5.32 17.75 2.39
4.96 17.85 2.39
4.60 17.94 2.39
4.24 18.02 2.39
3.03 14.14 1.87
3.51 18.17 2.39
3.14 18.23 2.39
2.78 18.29 2.39
2.45 18.66 2.43
2.13 19.17 2.50
1.74 19.21 2.50
1.35 19.24 2.50
0.97 19.27 2.50
0.58 19.28 2.50
0.19 19.29 2.50
-0.20 19.30 2.50
-0.58 19.29 2.50
-0.97 19.28 2.50
-1.36 19.26 2.50
-1.75 19.24 2.50
-2.13 19.20 2.50
-2.52 19.16 2.50
-2.90 19.11 2.50
-3.29 19.05 2.50
-3.67 18.99 2.50
-4.05 18.92 2.50
-4.44 18.84 2.50
-4.82 18.76 2.50
-5.19 18.66 2.50
-5.57 18.56 2.50
-5.70 17.70 2.39
-6.06 17.59 2.39
-6.41 17.47 2.39
-6.77 17.35 2.39
-7.12 17.23 2.39
-7.47 17.09 2.39
-7.82 16.95 2.39
-8.16 16.80 2.39
-8.51 16.65 2.39
-8.85 16.49 2.39
-6.14 10.91 1.60
-9.52 16.15 2.39
-10.40 16.86 2.52
-10.66 16.53 2.51
-10.91 16.19 2.48
-11.14 15.84 2.46
-11.37 15.49 2.44
-11.59 15.14 2.42
-11.83 14.83 2.40
-12.07 14.52 2.39
-12.30 14.21 2.38
-12.51 13.88 2.36
-12.70 13.53 2.34
-12.89 13.19 2.32
-13.08 12.86 2.31
-13.11 12.38 2.26
-12.99 11.78 2.20
-12.87 11.21 2.14
-12.90 10.79 2.10
-12.98 10.42 2.08
-12.81 9.87 2.02
-12.64 9.34 1.96
-12.54 8.88 1.91
-12.58 8.54 1.89
-12.62 8.20 1.87
-12.60 7.83 1.84
-12.50 7.42 1.80
-12.40 7.03 1.76
-12.40 6.70 1.74
-12.42 6.40 1.72
-12.44 6.09 1.70
-12.46 5.80 1.69
-12.42 5.48 1.66
-12.38 5.17 1.64
-12.35 4.86 1.62
-12.36 4.58 1.61
-12.36 4.30 1.59
-12.37 4.03 1.58
-12.38 3.76 1.57
-12.40 3.50 1.56
-12.46 3.25 1.56
-12.52 2.99 1.55
-12.56 2.74 1.55
-12.59 2.48 1.54
-12.61 2.22 1.54
-12.63 1.97 1.53
-12.67 1.71 1.53
-12.73 1.46 1.53
-12.80 1.21 1.53
-12.86 0.95 1.53
-12.90 0.70 1.53
-12.91 0.44 1.53
-12.93 0.18 1.53
-13.00 -0.08 1.54
-13.14 -0.35 1.55
-13.28 -0.62 1.57
-13.42 -0.89 1.58
-13.56 -1.18 1.60
-13.56 -1.45 1.60
-13.53 -1.72 1.59
-13.50 -2.00 1.59
-13.47 -2.27 1.59
-13.44 -2.54 1.59
-13.41 -2.82 1.59
-13.38 -3.09 1.59
-13.37 -3.37 1.59
-13.37 -3.66 1.60
-13.64 -4.03 1.64
-13.88 -4.40 1.68
-13.97 -4.74 1.69
-14.04 -5.08 1.71
-14.01 -5.39 1.72
-13.96 -5.70 1.72
-13.91 -6.01 1.73
-13.82 -6.30 1.73
-13.70 -6.58 1.73
-13.57 -6.86 1.73
-13.45 -7.14 1.73
-13.38 -7.45 1.73
-13.35 -7.79 1.75
-13.73 -8.38 1.82
-6.29 -4.01 0.84
-14.04 -9.36 1.90
-14.05 -9.78 1.92
-14.06 -10.21 1.95
-14.07 -10.66 1.98
-14.08 -11.12 2.01
-14.01 -11.53 2.03
-13.81 -11.83 2.03
-13.59 -12.13 2.03
-13.37 -12.42 2.03
-13.14 -12.71 2.03
-12.91 -13.00 2.03
-12.69 -13.29 2.04
-12.57 -13.71 2.06
-12.49 -14.19 2.09
-12.41 -14.68 2.12
-12.30 -15.16 2.15
-12.14 -15.59 2.18
-12.11 -16.20 2.22
-12.07 -16.85 2.28
-11.88 -17.31 2.30
-11.67 -17.75 2.33
-11.45 -18.20 2.36
-11.22 -18.66 2.38
-6.55 -11.39 1.44
-10.74 -19.59 2.44
-10.14 -19.42 2.39
-9.76 -19.64 2.39
-9.37 -19.84 2.39
-8.98 -20.04 2.39
-8.58 -20.23 2.39
-8.18 -20.41 2.39
-7.77 -20.59 2.39
-7.36 -20.75 2.39
-6.95 -20.90 2.39
-6.55 -21.11 2.40
-6.37 -22.10 2.50
-5.93 -22.23 2.50
-5.49 -22.35 2.50
-5.04 -22.47 2.50
-4.59 -22.57 2.50
-4.14 -22.66 2.50
-3.68 -22.75 2.50
-3.23 -22.82 2.50
-2.77 -22.88 2.50
-2.31 -22.94 2.50
-1.85 -22.98 2.50
-1.39 -23.01 2.50
-0.93 -23.04 2.50
-0.46 -23.05 2.50
-0.00 -19.04 2.50
0.38 -19.03 2.50
0.76 -19.02 2.50
1.14 -18.99 2.50
1.52 -18.96 2.50
1.82 -18.14 2.39
2.19 -18.10 2.39
2.55 -18.04 2.39
2.91 -17.98 2.39
3.27 -17.92 2.39
3.62 -17.84 2.39
3.98 -17.76 2.39
4.33 -17.66 2.39
3.95 -14.82 2.02
4.09 -14.19 1.94
3.98 -12.85 1.77
4.10 -12.36 1.72
4.25 -11.98 1.68
4.50 -11.92 1.68
4.85 -12.12 1.72
5.20 -12.27 1.76
5.38 -12.01 1.74
4.56 -9.67 1.41
4.52 -9.09 1.34
4.71 -9.02 1.35
4.87 -8.90 1.35
5.10 -8.89 1.36
5.32 -8.85 1.37
5.74 -9.13 1.43
7.52 -11.44 1.82
7.63 -11.12 1.80
7.87 -11.00 1.80
8.13 -10.88 1.81
8.45 -10.85 1.84
8.74 -10.77 1.86
7.28 -8.62 1.51
7.34 -8.34 1.49
7.58 -8.28 1.51
15.54 -16.29 3.03
15.84 -15.95 3.03
16.14 -15.62 3.03
16.43 -15.27 3.03
16.71 -14.92 3.03
16.99 -14.56 3.03
17.25 -14.20 3.03
17.51 -13.84 3.03
17.76 -13.46 3.03
18.01 -13.09 3.03
18.24 -12.71 3.03
18.47 -12.32 3.03
18.60 -11.88 3.01
18.71 -11.43 3.00
18.81 -10.97 2.98
18.90 -10.53 2.96
18.93 -10.05 2.94
18.70 -9.45 2.88
18.39 -8.84 2.81
18.10 -8.26 2.74
4.48 -1.94 0.67
4.36 -1.78 0.65
4.41 -1.70 0.65
4.52 -1.64 0.67
16.74 -5.69 2.45
16.58 -5.27 2.42
16.43 -4.86 2.38
16.27 -4.46 2.35
16.12 -4.07 2.32
15.97 -3.69 2.29
15.85 -3.33 2.27
15.73 -2.98 2.25
15.63 -2.64 2.23
15.59 -2.31 2.22
15.54 -1.98 2.21
15.51 -1.66 2.20
15.51 -1.35 2.20
15.52 -1.04 2.20
15.52 -0.72 2.20
15.49 -0.41 2.20
15.42 -0.10 2.19
2.35 0.03 0.33
2.13 0.07 0.30
2.13 0.11 0.31
14.99 1.11 2.15
14.87 1.40 2.14
14.74 1.69 2.13
14.61 1.97 2.12
14.47 2.25 2.11
14.40 2.53 2.11
14.36 2.83 2.11
14.32 3.12 2.12
14.28 3.41 2.12
14.24 3.70 2.13
14.19 4.00 2.14
14.14 4.29 2.15
14.09 4.59 2.16
14.05 4.89 2.17
14.00 5.19 2.18
13.95 5.49 2.19
13.90 5.80 2.20
13.85 6.11 2.22
13.80 6.42 2.23
13.73 6.72 2.25
13.66 7.04 2.26
13.59 7.35 2.28
13.52 7.66 2.29
13.44 7.98 2.31
13.35 8.29 2.32
13.27 8.62 2.34
13.18 8.94 2.36
13.09 9.27 2.38
13.00 9.60 2.40
12.90 9.94 2.42
12.80 10.27 2.44
12.70 10.62 2.46
12.59 10.96 2.49
12.47 11.31 2.51
12.35 11.67 2.54
8.95 8.80 1.88
12.10 12.39 2.59
6.33 6.74 1.39
6.05 6.71 1.35
5.85 6.76 1.34
5.68 6.83 1.33
5.55 6.96 1.34
5.46 7.13 1.35
5.36 7.30 1.36
5.24 7.45 1.37
5.13 7.62 1.39
5.05 7.82 1.40
5.02 8.13 1.44
5.04 8.55 1.50
5.32 9.45 1.64
5.10 9.51 1.63
4.99 9.77 1.66
5.33 10.96 1.85
5.15 11.16 1.86
5.05 11.56 1.91
5.13 12.42 2.04
4.90 12.55 2.05
4.66 12.70 2.06
4.46 12.95 2.08
4.82 14.98 2.39
4.52 15.07 2.39
4.22 15.15 2.39
3.91 15.23 2.39
3.60 15.30 2.39
3.03 14.14 2.20
2.98 15.43 2.39
2.67 15.48 2.39
2.39 15.72 2.42
2.13 16.24 2.50
1.81 16.28 2.50
1.48 16.31 2.50
1.15 16.34 2.50
0.82 16.36 2.50
0.49 16.37 2.50
0.16 16.38 2.50
-0.17 16.38 2.50
-0.50 16.38 2.50
-0.82 16.37 2.50
-1.15 16.35 2.50
-1.48 16.32 2.50
-1.81 16.30 2.50
-2.14 16.26 2.50
-2.47 16.22 2.50
-2.79 16.17 2.50
-3.12 16.12 2.50
-3.44 16.06 2.50
-3.77 15.99 2.50
-4.09 15.92 2.50
-4.41 15.84 2.50
-4.73 15.75 2.50
-5.05 15.66 2.50
-5.36 15.57 2.50
-5.68 15.46 2.49
-5.74 14.72 2.39
-6.04 14.61 2.39
-6.34 14.50 2.39
-6.63 14.37 2.39
-6.92 14.25 2.39
-7.21 14.12 2.39
-7.50 13.98 2.39
-6.14 10.91 1.89
-8.07 13.69 2.39
-8.35 13.53 2.39
-8.63 13.37 2.39
-8.90 13.21 2.39
-9.17 13.04 2.39
-9.44 12.86 2.39
-9.71 12.68 2.39
-10.31 12.92 2.47
-10.54 12.68 2.47
-10.77 12.43 2.46
-10.96 12.15 2.44
-11.13 11.86 2.42
-11.30 11.56 2.41
-11.47 11.27 2.39
-11.60 10.95 2.37
-11.71 10.62 2.35
-11.82 10.29 2.32
-11.92 9.97 2.30
-12.02 9.64 2.28
-12.00 9.24 2.24
-11.94 8.82 2.19
-11.99 8.49 2.17
-12.04 8.16 2.14
-12.08 7.85 2.12
-12.13 7.53 2.10
-12.06 7.16 2.06
-12.02 6.81 2.02
-12.05 6.51 2.00
-12.07 6.21 1.98
-12.09 5.92 1.96
-12.11 5.63 1.95
-12.12 5.34 1.93
-12.08 5.04 1.90
-12.07 4.75 1.88
-12.08 4.48 1.87
-12.09 4.21 1.85
-12.10 3.94 1.84
-12.11 3.67 1.83
-12.12 3.41 1.81
-12.16 3.16 1.81
-12.22 2.92 1.80
-12.24 2.67 1.80
-12.27 2.41 1.79
-12.29 2.16 1.78
-12.31 1.91 1.78
-12.33 1.66 1.77
-12.37 1.42 1.77
-12.43 1.17 1.77
-12.49 0.92 1.78
-12.52 0.67 1.78
-12.54 0.42 1.77
-12.55 0.17 1.77
-12.57 -0.08 1.77
-12.58 -0.33 1.77
-12.71 -0.59 1.79
-12.84 -0.86 1.81
-12.97 -1.13 1.83
-12.99 -1.39 1.83
-12.99 -1.66 1.83
-12.99 -1.92 1.83
-12.97 -2.19 1.83
-12.94 -2.45 1.83
-12.91 -2.71 1.83
-12.88 -2.98 1.83
-12.85 -3.24 1.84
-12.84 -3.52 1.84
-12.84 -3.79 1.85
-12.83 -4.07 1.86
-12.94 -4.40 1.88
-13.20 -4.78 1.93
-13.47 -5.19 1.98
-13.47 -5.50 1.99
-13.39 -5.79 2.00
-13.28 -6.05 2.00
-13.16 -6.32 1.99
-13.04 -6.59 1.99
-12.92 -6.86 1.99
-12.80 -7.13 1.99
-12.72 -7.42 2.00
-12.68 -7.74 2.02
-6.29 -4.01 1.01
-12.61 -8.41 2.05
-12.72 -8.86 2.10
-12.96 -9.42 2.16
-12.87 -9.75 2.18
-12.78 -10.10 2.19
-12.69 -10.44 2.21
-12.62 -10.82 2.23
-12.59 -11.24 2.26
-12.47 -11.59 2.28
-12.32 -11.92 2.29
-12.16 -12.24 2.31
-12.00 -12.57 2.32
-11.83 -12.91 2.34
-11.66 -13.24 2.35
-11.48 -13.59 2.37
-11.31 -13.94 2.39
-11.13 -14.29 2.41
-10.94 -14.64 2.43
-10.74 -15.00 2.45
-10.21 -14.87 2.39
-9.91 -15.09 2.39
-9.62 -15.29 2.39
-9.32 -15.50 2.39
-6.55 -11.40 1.74
-8.70 -15.88 2.39
-8.39 -16.06 2.39
-8.07 -16.24 2.39
-7.75 -16.41 2.39
-7.42 -16.57 2.39
-7.09 -16.72 2.39
-6.76 -16.87 2.39
-6.42 -17.01 2.39
-6.29 -17.74 2.48
-5.99 -18.01 2.50
-5.63 -18.14 2.50
-5.26 -18.25 2.50
-4.90 -18.36 2.50
-4.53 -18.46 2.50
-4.16 -18.56 2.50
-3.79 -18.64 2.50
-3.42 -18.72 2.50
-3.04 -18.78 2.50
-2.66 -18.85 2.50
-2.29 -18.90 2.50
-1.91 -18.94 2.50
-1.53 -18.98 2.50
-1.15 -19.00 2.50
-0.76 -19.02 2.50
-0.38 -19.03 2.50
-0.00 -16.20 2.50
0.32 -16.19 2.50
0.65 -16.18 2.50
0.97 -16.16 2.50
1.29 -16.14 2.50
1.62 -16.10 2.50
1.86 -15.40 2.39
2.17 -15.36 2.39
2.47 -15.31 2.39
2.78 -15.25 2.39
3.08 -15.18 2.39
3.39 -15.11 2.39
3.69 -15.04 2.39
3.79 -14.22 2.28
4.00 -13.87 2.23
3.90 -12.57 2.04
4.07 -12.25 2.00
4.25 -12.00 1.97
4.50 -11.92 1.97
4.78 -11.94 1.99
5.09 -12.02 2.03
5.30 -11.85 2.02
5.46 -11.57 1.99
4.54 -9.14 1.59
4.70 -9.01 1.58
4.86 -8.87 1.57
5.08 -8.86 1.59
5.29 -8.80 1.60
5.49 -8.74 1.61
7.30 -11.12 2.08
7.51 -10.95 2.07
6.32 -8.84 1.70
6.43 -8.62 1.68
6.59 -8.47 1.68
6.71 -8.27 1.67
6.83 -8.08 1.66
6.99 -7.94 1.66
7.16 -7.81 1.67
7.36 -7.72 1.68
13.53 -13.63 3.03
13.78 -13.34 3.03
14.03 -13.05 3.03
14.28 -12.75 3.03
14.51 -12.45 3.03
14.74 -12.14 3.03
14.97 -11.83 3.03
15.19 -11.52 3.03
15.40 -11.20 3.03
15.60 -10.87 3.03
15.80 -10.55 3.03
15.99 -10.21 3.03
16.17 -9.88 3.03
16.34 -9.54 3.03
4.25 -2.37 0.78
4.18 -2.22 0.76
4.20 -2.12 0.76
4.22 -2.03 0.75
4.16 -1.90 0.73
4.21 -1.82 0.74
4.28 -1.75 0.75
4.36 -1.68 0.76
4.55 -1.65 0.78
15.57 -5.30 2.66
15.46 -4.92 2.63
15.36 -4.54 2.60
15.23 -4.18 2.57
15.10 -3.82 2.53
14.99 -3.47 2.51
14.89 -3.13 2.48
14.78 -2.80 2.46
14.68 -2.48 2.43
14.56 -2.16 2.41
14.43 -1.84 2.38
14.32 -1.54 2.36
14.25 -1.24 2.35
14.25 -0.96 2.35
14.25 -0.67 2.35
14.25 -0.38 2.35
14.24 -0.10 2.35
2.35 0.03 0.39
2.35 0.08 0.39
2.10 0.11 0.35
14.08 1.04 2.35
13.96 1.31 2.33
13.84 1.58 2.32
13.72 1.85 2.31
13.59 2.11 2.30
13.47 2.37 2.29
13.43 2.64 2.29
13.40 2.91 2.30
13.37 3.19 2.31
13.33 3.47 2.31
13.29 3.74 2.32
13.25 4.02 2.33
6.04 1.96 1.07
5.73 1.99 1.02
5.61 2.08 1.01
5.49 2.16 1.00
5.37 2.24 0.98
5.23 2.30 0.97
5.10 2.37 0.95
5.03 2.46 0.95
4.97 2.56 0.95
4.93 2.67 0.96
4.89 2.77 0.96
5.80 3.44 1.15
12.33 7.65 2.48
12.21 7.93 2.49
12.10 8.20 2.50
11.98 8.48 2.52
11.96 8.83 2.55
11.95 9.20 2.59
11.89 9.54 2.62
11.79 9.85 2.64
11.68 10.17 2.67
11.56 10.48 2.69
8.76 8.27 2.08
8.31 8.17 2.01
7.22 7.38 1.78
6.34 6.75 1.60
6.06 6.72 1.57
5.84 6.74 1.55
5.66 6.81 1.54
5.53 6.94 1.54
5.44 7.10 1.55
5.35 7.29 1.57
5.25 7.46 1.59
5.15 7.64 1.60
5.05 7.83 1.62
4.96 8.04 1.65
4.87 8.26 1.67
5.23 9.28 1.86
5.08 9.46 1.87
5.27 10.32 2.02
5.34 10.98 2.13
5.12 11.10 2.14
5.00 11.45 2.18
5.10 12.33 2.33
4.86 12.45 2.34
4.62 12.57 2.34
4.43 12.86 2.38
4.19 13.00 2.39
3.92 13.08 2.39
3.66 13.15 2.39
3.39 13.22 2.39
3.13 13.28 2.39
2.86 13.34 2.39
2.61 13.49 2.41
2.35 13.60 2.42
2.14 14.06 2.50
1.85 14.10 2.50
1.57 14.14 2.50
1.28 14.16 2.50
1.00 14.19 2.50
0.71 14.20 2.50
0.43 14.22 2.50
0.14 14.22 2.50
-0.14 14.22 2.50
-0.43 14.22 2.50
-0.72 14.21 2.50
-1.00 14.19 2.50
-1.29 14.17 2.50
-1.57 14.15 2.50
-1.86 14.11 2.50
-2.14 14.08 2.50
-2.42 14.04 2.50
-2.71 13.99 2.50
-2.99 13.93 2.50
-3.27 13.88 2.50
-3.55 13.81 2.50
-3.83 13.74 2.50
-4.10 13.67 2.50
-4.38 13.59 2.50
-4.65 13.51 2.50
-4.93 13.42 2.50
-5.20 13.32 2.50
-5.47 13.22 2.50
-5.72 13.08 2.49
-5.75 12.47 2.39
-6.01 12.36 2.39
-6.26 12.24 2.39
-6.51 12.12 2.39
-6.15 10.91 2.18
-7.00 11.86 2.39
-7.24 11.73 2.39
-7.48 11.59 2.39
-7.72 11.45 2.39
-7.95 11.30 2.39
-8.18 11.14 2.39
-8.41 10.99 2.39
-8.64 10.82 2.39
-8.86 10.66 2.39
-9.08 10.48 2.39
-9.30 10.31 2.39
-9.51 10.13 2.39
-9.72 9.94 2.39
-10.34 10.16 2.49
-10.49 9.90 2.48
-10.64 9.64 2.46
-10.77 9.38 2.45
-10.91 9.12 2.43
-11.03 8.85 2.42
-11.13 8.57 2.40
-11.25 8.30 2.39
-11.36 8.04 2.37
-11.47 7.78 2.36
-11.58 7.51 2.35
-11.63 7.22 2.33
-11.65 6.91 2.30
-11.68 6.62 2.28
-11.71 6.33 2.25
-11.74 6.04 2.23
-11.76 5.76 2.21
-11.79 5.48 2.19
-11.81 5.20 2.17
-11.80 4.92 2.15
-11.81 4.64 2.13
-11.82 4.38 2.12
-11.83 4.11 2.10
-11.84 3.85 2.09
-11.85 3.59 2.07
-11.86 3.34 2.06
-11.87 3.08 2.05
-11.92 2.84 2.04
-11.94 2.60 2.03
-11.96 2.35 2.03
-11.99 2.11 2.02
-12.01 1.86 2.02
-12.03 1.62 2.01
-12.05 1.38 2.01
-12.08 1.13 2.00
-12.14 0.89 2.01
-12.16 0.65 2.01
-12.18 0.41 2.00
-12.19 0.16 2.00
-12.21 -0.08 2.00
-12.22 -0.33 2.00
-12.23 -0.57 2.00
-12.30 -0.82 2.01
-12.42 -1.08 2.04
-12.46 -1.34 2.04
-12.46 -1.59 2.05
-12.46 -1.85 2.05
-12.45 -2.10 2.05
-12.45 -2.36 2.05
-12.43 -2.62 2.06
-12.40 -2.87 2.06
-12.37 -3.13 2.06
-12.35 -3.39 2.07
-12.35 -3.65 2.08
-12.34 -3.92 2.08
-12.33 -4.19 2.09
-12.31 -4.46 2.10
-12.30 -4.74 2.11
-12.49 -5.11 2.16
-12.55 -5.43 2.19
-12.51 -5.71 2.20
-12.47 -5.99 2.21
-12.42 -6.28 2.22
-12.37 -6.57 2.23
-12.31 -6.86 2.24
-12.19 -7.12 2.24
-12.10 -7.39 2.25
-6.28 -4.01 1.18
-12.02 -8.02 2.29
-11.97 -8.34 2.31
-11.92 -8.67 2.33
-11.82 -8.96 2.34
-11.67 -9.23 2.35
-11.55 -9.51 2.36
-11.45 -9.82 2.37
-11.31 -10.10 2.38
-11.17 -10.38 2.39
-11.02 -10.66 2.41
-10.86 -10.94 2.42
-10.70 -11.22 2.43
-10.55 -11.51 2.44
-10.11 -11.49 2.39
-9.88 -11.70 2.39
-9.66 -11.90 2.39
-9.42 -12.10 2.39
-9.18 -12.30 2.39
-8.94 -12.49 2.39
-8.70 -12.68 2.39
-8.45 -12.86 2.39
-8.19 -13.03 2.39
-7.94 -13.20 2.39
-6.55 -11.40 2.04
-7.41 -13.53 2.39
-7.14 -13.68 2.39
-6.87 -13.83 2.39
-6.59 -13.97 2.39
-6.32 -14.11 2.39
-6.24 -14.71 2.47
-6.00 -14.98 2.50
-5.70 -15.11 2.50
-5.40 -15.22 2.50
-5.09 -15.33 2.50
-4.79 -15.44 2.50
-4.48 -15.54 2.50
-4.17 -15.63 2.50
-3.85 -15.71 2.50
-3.54 -15.79 2.50
-3.22 -15.86 2.50
-2.91 -15.93 2.50
-2.59 -15.98 2.50
-2.27 -16.03 2.50
-1.94 -16.08 2.50
-1.62 -16.12 2.50
-1.30 -16.15 2.50
-0.97 -16.17 2.50
-0.65 -16.19 2.50
-0.33 -16.19 2.50
-0.00 -14.08 2.50
0.28 -14.08 2.50
0.56 -14.07 2.50
0.84 -14.05 2.50
1.13 -14.03 2.50
1.41 -14.00 2.50
1.69 -13.97 2.50
1.88 -13.35 2.39
2.15 -13.31 2.39
2.42 -13.26 2.39
2.68 -13.20 2.39
2.94 -13.14 2.39
3.21 -13.08 2.39
3.47 -13.01 2.39
3.72 -12.93 2.39
3.91 -12.64 2.35
4.05 -12.19 2.29
4.25 -11.99 2.26
4.50 -11.93 2.27
4.77 -11.92 2.29
5.07 -11.97 2.32
5.25 -11.74 2.29
5.45 -11.55 2.28
4.56 -9.18 1.83
4.33 -8.30 1.67
4.43 -8.10 1.65
4.62 -8.04 1.66
4.84 -8.05 1.68
5.45 -8.67 1.84
5.46 -8.32 1.78
5.50 -8.03 1.75
5.55 -7.76 1.71
5.66 -7.59 1.70
5.73 -7.36 1.68
5.83 -7.19 1.67
5.98 -7.09 1.67
6.15 -7.00 1.68
6.33 -6.92 1.69
6.80 -7.13 1.78
7.11 -7.17 1.83
5.97 -5.78 1.50
6.14 -5.71 1.52
5.29 -4.73 1.29
5.34 -4.58 1.28
5.34 -4.40 1.26
5.36 -4.24 1.24
5.43 -4.12 1.24
5.53 -4.02 1.25
5.44 -3.79 1.21
5.36 -3.58 1.18
5.51 -3.52 1.20
5.48 -3.35 1.18
5.57 -3.25 1.18
4.04 -2.25 0.85
4.06 -2.16 0.84
4.06 -2.06 0.84
4.03 -1.94 0.82
4.09 -1.87 0.83
4.18 -1.81 0.84
4.26 -1.74 0.85
4.33 -1.67 0.86
4.59 -1.66 0.90
14.51 -4.94 2.84
14.40 -4.58 2.80
14.29 -4.23 2.76
14.18 -3.89 2.73
14.09 -3.56 2.70
14.00 -3.24 2.67
13.90 -2.93 2.65
13.79 -2.62 2.62
13.68 -2.31 2.59
13.57 -2.02 2.56
13.46 -1.72 2.54
13.38 -1.44 2.52
13.31 -1.16 2.51
13.23 -0.89 2.49
13.16 -0.62 2.48
13.08 -0.35 2.46
13.00 -0.09 2.45
2.35 0.03 0.44
2.35 0.08 0.44
2.08 0.11 0.39
12.86 0.94 2.44
12.82 1.20 2.44
12.77 1.46 2.44
12.73 1.71 2.44
5.60 0.87 1.08
5.28 0.93 1.02
5.17 1.01 1.00
5.36 1.16 1.05
5.46 1.30 1.07
5.61 1.46 1.11
5.76 1.62 1.15
