ply
format ascii 1.0
element vertex 2934
property float32 x
property float32 y
property float32 z
end_header
-7.89 -18.57 2.39
-7.52 -18.72 2.39
-6.85 -18.11 2.30
-6.64 -18.67 2.35
-6.27 -18.81 2.35
-5.98 -19.22 2.39
-5.83 -20.16 2.49
-5.42 -20.26 2.49
-5.01 -20.35 2.49
-4.60 -20.44 2.49
-4.18 -20.52 2.49
-3.77 -20.59 2.49
-3.35 -20.65 2.49
-2.94 -20.70 2.49
-2.52 -20.74 2.49
-2.10 -20.78 2.49
-1.68 -20.80 2.49
-1.26 -20.82 2.49
-0.84 -20.83 2.49
-0.43 -20.84 2.49
-0.01 -17.48 2.49
0.34 -17.47 2.49
0.69 -17.46 2.49
1.04 -17.43 2.49
1.39 -17.40 2.49
1.74 -17.36 2.49
2.09 -17.31 2.49
2.35 -16.66 2.41
2.66 -16.49 2.39
2.90 -15.92 2.32
3.32 -16.36 2.39
3.65 -16.28 2.39
3.97 -16.20 2.39
4.30 -16.11 2.39
4.62 -16.01 2.39
4.93 -15.91 2.39
5.25 -15.80 2.39
5.57 -15.69 2.39
5.88 -15.57 2.39
5.95 -14.86 2.30
5.90 -13.92 2.17
5.97 -13.33 2.10
6.13 -12.97 2.06
6.31 -12.70 2.04
6.53 -12.49 2.03
6.76 -12.34 2.03
7.02 -12.22 2.03
7.31 -12.15 2.04
7.63 -12.12 2.06
7.98 -12.13 2.09
8.35 -12.15 2.13
8.73 -12.18 2.16
9.12 -12.20 2.20
9.51 -12.20 2.23
9.82 -12.09 2.25
10.06 -11.89 2.25
9.99 -11.33 2.18
10.18 -11.09 2.17
10.36 -10.84 2.17
10.62 -10.68 2.18
10.82 -10.45 2.17
11.01 -10.22 2.17
11.20 -9.98 2.17
11.38 -9.74 2.17
11.56 -9.49 2.16
11.76 -9.27 2.17
12.26 -9.27 2.22
12.59 -9.13 2.25
12.78 -8.88 2.25
12.96 -8.63 2.25
13.13 -8.37 2.25
13.30 -8.10 2.26
13.46 -7.84 2.26
13.62 -7.56 2.26
13.77 -7.29 2.26
13.91 -7.01 2.26
13.99 -6.70 2.25
14.16 -6.44 2.25
13.73 -5.91 2.17
13.84 -5.63 2.17
13.95 -5.35 2.17
14.05 -5.07 2.16
14.15 -4.79 2.16
14.24 -4.50 2.16
14.32 -4.21 2.16
9.12 -2.48 1.37
8.99 -2.26 1.34
8.96 -2.06 1.33
9.00 -1.88 1.33
9.04 -1.70 1.33
9.07 -1.52 1.33
9.35 -1.37 1.37
9.38 -1.18 1.37
9.15 -0.97 1.33
9.16 -0.78 1.33
9.18 -0.60 1.33
9.19 -0.41 1.33
9.20 -0.23 1.33
9.28 -0.05 1.34
9.44 0.14 1.37
9.68 0.34 1.40
15.47 0.86 2.24
15.46 1.17 2.24
13.43 1.29 1.95
11.11 1.29 1.62
9.47 1.29 1.38
8.25 1.30 1.21
7.30 1.30 1.07
6.98 1.39 1.03
6.98 1.53 1.03
14.60 3.51 2.17
14.53 3.81 2.17
14.45 4.10 2.17
14.86 4.54 2.24
14.68 4.81 2.23
14.19 4.96 2.17
14.09 5.25 2.17
13.99 5.53 2.17
13.88 5.82 2.17
13.76 6.09 2.17
13.64 6.37 2.17
13.52 6.65 2.17
13.21 6.83 2.14
13.69 7.43 2.24
13.55 7.71 2.24
13.39 7.98 2.24
13.23 8.25 2.24
13.07 8.52 2.24
12.90 8.78 2.24
12.73 9.04 2.24
12.55 9.30 2.24
12.36 9.55 2.24
12.17 9.80 2.24
11.98 10.05 2.24
11.78 10.29 2.24
11.57 10.53 2.24
11.37 10.76 2.24
11.19 11.03 2.25
11.04 11.33 2.26
10.72 11.45 2.24
10.30 11.45 2.20
9.89 11.45 2.16
9.49 11.45 2.13
9.09 11.42 2.09
8.74 11.46 2.06
8.39 11.46 2.03
8.01 11.42 1.99
7.70 11.46 1.97
7.35 11.42 1.94
7.05 11.46 1.92
6.74 11.46 1.89
6.41 11.43 1.87
5.73 10.71 1.73
5.48 10.75 1.72
7.27 15.00 2.37
6.90 15.00 2.35
6.60 15.14 2.35
6.35 15.41 2.37
6.10 15.67 2.39
5.79 15.83 2.39
5.48 15.95 2.39
5.16 16.06 2.39
4.84 16.17 2.39
4.51 16.27 2.39
4.19 16.36 2.39
3.86 16.45 2.39
3.53 16.53 2.39
3.20 16.61 2.39
2.87 16.68 2.39
2.53 16.74 2.39
2.21 16.86 2.40
1.94 17.57 2.49
1.59 17.61 2.49
1.23 17.65 2.49
0.88 17.68 2.49
0.53 17.70 2.49
0.17 17.71 2.49
-0.19 17.72 2.49
-0.54 17.72 2.49
-0.90 17.72 2.49
-1.25 17.70 2.49
-1.61 17.68 2.49
-1.96 17.65 2.49
-2.32 17.62 2.49
-2.67 17.57 2.49
-3.03 17.52 2.49
-3.38 17.47 2.49
-3.73 17.40 2.49
-4.08 17.33 2.49
-2.74 10.65 1.54
-2.95 10.60 1.54
-2.68 8.94 1.31
-2.68 8.34 1.22
-2.68 7.80 1.15
-2.78 7.59 1.13
-2.96 7.59 1.14
-3.14 7.59 1.15
-3.32 7.59 1.16
-3.50 7.59 1.17
-3.68 7.59 1.18
-3.88 7.59 1.19
-4.07 7.59 1.20
-4.27 7.59 1.21
-4.47 7.59 1.23
-9.01 14.61 2.39
-9.30 14.43 2.39
-9.59 14.25 2.39
-10.87 15.47 2.63
-11.00 15.00 2.59
-9.89 12.94 2.27
-9.89 12.41 2.21
-9.89 9.36 1.89
-18.07 13.38 3.12
-18.02 12.79 3.06
-18.27 12.42 3.06
-18.51 12.05 3.06
-9.90 6.17 1.62
-18.96 11.28 3.06
-9.90 5.63 1.58
-9.90 5.37 1.56
-9.90 5.11 1.54
-6.15 -2.50 0.92
-9.92 -4.99 1.55
-9.92 -5.24 1.56
-19.19 -11.15 3.10
-19.06 -11.60 3.11
-19.04 -12.12 3.15
-19.02 -12.65 3.19
-18.99 -13.18 3.23
-18.21 -13.20 3.14
-9.92 -7.49 1.74
-16.75 -13.20 2.98
-16.69 -13.69 3.02
-16.59 -14.18 3.05
-16.48 -14.67 3.09
-16.02 -14.84 3.06
-15.44 -14.90 3.01
-14.86 -14.92 2.95
-14.45 -15.11 2.93
-14.25 -15.51 2.96
-14.08 -15.95 2.99
-13.88 -16.37 3.01
-13.53 -16.63 3.01
-9.93 -12.73 2.27
-10.94 -14.61 2.57
-9.91 -13.81 2.39
-9.63 -14.00 2.39
-9.34 -14.18 2.39
-9.05 -14.36 2.39
-8.76 -14.53 2.39
-8.46 -14.70 2.39
-8.16 -14.86 2.39
-7.86 -15.01 2.39
-7.55 -15.16 2.39
-7.24 -15.30 2.39
-6.70 -14.93 2.31
-6.34 -14.93 2.29
-6.26 -15.59 2.38
-5.98 -15.80 2.39
-5.90 -16.60 2.49
-5.57 -16.71 2.49
-5.23 -16.81 2.49
-4.89 -16.90 2.49
-4.54 -16.99 2.49
-4.20 -17.07 2.49
-3.86 -17.14 2.49
-3.51 -17.21 2.49
-3.16 -17.27 2.49
-2.81 -17.32 2.49
-2.46 -17.36 2.49
-2.11 -17.40 2.49
-1.76 -17.43 2.49
-1.41 -17.46 2.49
-1.06 -17.47 2.49
-0.71 -17.48 2.49
-0.36 -17.49 2.49
-0.01 -15.05 2.49
0.29 -15.04 2.49
0.60 -15.03 2.49
0.90 -15.01 2.49
1.20 -14.98 2.49
1.50 -14.95 2.49
1.80 -14.91 2.49
2.10 -14.87 2.49
2.29 -14.20 2.39
2.58 -14.15 2.39
2.86 -14.09 2.39
3.14 -14.02 2.39
3.42 -13.95 2.39
3.70 -13.88 2.39
3.98 -13.80 2.39
4.25 -13.71 2.39
4.52 -13.62 2.39
4.79 -13.52 2.39
5.06 -13.41 2.39
5.33 -13.31 2.39
5.59 -13.19 2.39
5.86 -13.07 2.39
6.12 -12.95 2.39
6.31 -12.70 2.37
6.53 -12.49 2.35
6.76 -12.34 2.35
7.02 -12.22 2.35
7.31 -12.15 2.37
7.57 -12.04 2.38
7.76 -11.80 2.36
7.68 -11.18 2.27
7.86 -10.96 2.26
8.03 -10.74 2.25
8.21 -10.53 2.23
8.37 -10.31 2.22
8.62 -10.18 2.23
8.79 -9.98 2.23
8.96 -9.77 2.22
9.13 -9.56 2.21
9.29 -9.34 2.21
9.58 -9.26 2.23
9.98 -9.26 2.28
10.23 -9.12 2.30
10.38 -8.88 2.29
10.52 -8.65 2.28
10.66 -8.41 2.28
10.80 -8.17 2.27
10.93 -7.93 2.27
11.06 -7.69 2.26
11.19 -7.45 2.26
11.31 -7.20 2.25
11.45 -6.97 2.25
11.58 -6.74 2.25
11.72 -6.51 2.25
11.49 -6.08 2.18
11.60 -5.84 2.18
11.70 -5.60 2.18
11.79 -5.36 2.18
11.88 -5.12 2.17
11.97 -4.87 2.17
12.05 -4.63 2.17
12.13 -4.38 2.17
12.21 -4.13 2.16
12.70 -4.01 2.24
12.89 -3.79 2.26
11.40 -3.11 1.98
13.03 -3.27 2.26
11.96 -2.75 2.06
13.14 -2.74 2.26
8.91 -1.67 1.52
13.23 -2.21 2.25
13.27 -1.94 2.25
12.62 -1.59 2.14
13.33 -1.41 2.25
13.35 -1.14 2.25
13.36 -0.87 2.25
13.37 -0.60 2.25
13.38 -0.33 2.25
13.38 -0.07 2.25
9.56 0.15 1.60
11.43 0.40 1.92
13.35 0.74 2.24
13.33 1.01 2.24
13.15 1.26 2.22
11.11 1.29 1.88
9.47 1.29 1.60
8.25 1.30 1.40
7.30 1.30 1.24
6.54 1.30 1.12
6.13 1.35 1.05
6.13 1.47 1.06
12.64 3.31 2.19
12.57 3.56 2.19
12.50 3.82 2.19
12.42 4.07 2.19
12.65 4.43 2.24
12.56 4.68 2.24
12.26 4.85 2.20
11.91 4.99 2.16
11.82 5.23 2.16
11.72 5.47 2.16
11.62 5.71 2.16
11.51 5.95 2.17
11.40 6.19 2.17
11.29 6.42 2.17
11.17 6.66 2.17
11.05 6.89 2.17
11.27 7.35 2.24
11.17 7.60 2.25
11.06 7.86 2.26
10.95 8.11 2.27
10.83 8.37 2.28
10.71 8.62 2.29
10.58 8.88 2.30
10.45 9.13 2.31
10.32 9.39 2.32
10.18 9.64 2.33
10.04 9.90 2.34
9.89 10.15 2.36
9.74 10.41 2.37
9.58 10.66 2.38
9.42 10.91 2.39
9.25 11.16 2.41
9.03 11.35 2.41
8.74 11.46 2.39
8.39 11.46 2.35
8.01 11.42 2.31
7.70 11.46 2.29
7.35 11.42 2.25
7.05 11.46 2.23
6.74 11.46 2.20
6.41 11.43 2.17
5.74 10.73 2.01
5.49 10.77 2.00
6.35 13.11 2.41
6.05 13.15 2.39
5.78 13.27 2.39
5.52 13.39 2.39
5.25 13.51 2.39
4.98 13.61 2.39
4.71 13.72 2.39
4.43 13.81 2.39
4.16 13.91 2.39
3.88 13.99 2.39
3.60 14.07 2.39
3.32 14.15 2.39
3.03 14.22 2.39
2.75 14.28 2.39
2.46 14.34 2.39
2.20 14.54 2.42
1.97 15.06 2.49
1.67 15.10 2.49
1.36 15.14 2.49
1.06 15.17 2.49
0.76 15.19 2.49
0.45 15.21 2.49
0.15 15.22 2.49
-0.16 15.23 2.49
-0.47 15.23 2.49
-0.77 15.22 2.49
-1.08 15.21 2.49
-1.38 15.19 2.49
-1.69 15.16 2.49
-1.99 15.13 2.49
-2.30 15.09 2.49
-2.60 15.05 2.49
-2.90 15.00 2.49
-3.20 14.95 2.49
-3.51 14.88 2.49
-2.70 10.50 1.77
-2.70 9.70 1.64
-2.68 8.94 1.52
-2.68 8.33 1.43
-2.68 7.80 1.34
-2.78 7.59 1.32
-2.96 7.59 1.33
-3.14 7.59 1.34
-3.32 7.59 1.35
-3.50 7.59 1.36
-3.66 7.54 1.36
-3.82 7.47 1.36
-3.97 7.40 1.36
-4.12 7.32 1.36
-4.26 7.24 1.36
-4.41 7.15 1.36
-4.55 7.06 1.36
-8.23 12.23 2.39
-8.48 12.06 2.39
-8.72 11.89 2.39
-8.96 11.72 2.39
-9.19 11.54 2.39
-9.42 11.35 2.39
-9.65 11.16 2.39
-9.88 10.97 2.39
-10.98 11.72 2.60
-11.82 12.12 2.74
-13.04 12.84 2.96
-9.89 9.36 2.20
-13.71 12.46 3.00
-14.03 12.24 3.01
-14.34 12.01 3.03
-14.64 11.77 3.04
-14.94 11.53 3.05
-15.19 11.24 3.06
-9.90 7.03 1.96
-15.57 10.59 3.04
-15.78 10.27 3.04
-15.97 9.94 3.04
-16.16 9.62 3.04
-9.91 5.63 1.84
-9.91 5.37 1.82
-16.68 8.62 3.03
-16.85 8.28 3.03
-17.01 7.94 3.03
-17.17 7.59 3.03
-17.33 7.25 3.03
-17.49 6.91 3.04
-17.63 6.56 3.04
-17.76 6.21 3.04
-9.90 3.24 1.68
-18.02 5.50 3.04
-18.14 5.14 3.05
-18.26 4.78 3.05
-18.36 4.41 3.05
-18.46 4.05 3.05
-18.55 3.68 3.05
-9.90 1.76 1.62
-9.91 1.56 1.62
-18.76 2.56 3.06
-18.82 2.18 3.06
-18.87 1.81 3.06
-18.91 1.43 3.06
-18.95 1.05 3.07
-18.97 0.67 3.07
-9.91 0.15 1.60
-19.04 -0.09 3.08
-19.06 -0.48 3.08
-19.07 -0.86 3.09
-19.08 -1.24 3.09
-19.05 -1.63 3.09
-19.01 -2.01 3.09
-18.96 -2.39 3.09
-18.90 -2.77 3.09
-18.80 -3.14 3.08
-18.73 -3.51 3.08
-18.76 -3.91 3.10
-18.78 -4.31 3.12
-18.79 -4.71 3.14
-18.79 -5.11 3.15
-9.91 -2.91 1.67
-18.58 -5.87 3.16
-18.42 -6.23 3.15
-18.15 -6.54 3.13
-17.54 -6.72 3.05
-6.15 -2.50 1.08
-16.86 -7.25 2.98
-16.86 -7.65 3.01
-16.89 -8.08 3.04
-9.92 -5.00 1.80
-16.94 -8.96 3.11
-16.88 -9.37 3.14
-16.78 -9.76 3.16
-16.69 -10.16 3.18
-16.59 -10.56 3.20
-9.94 -6.61 1.94
-15.67 -10.88 3.10
-15.09 -10.93 3.03
-9.92 -7.49 2.02
-14.33 -11.28 2.97
-14.05 -11.53 2.96
-13.91 -11.89 2.98
-13.68 -12.17 2.99
-13.24 -12.27 2.94
-9.94 -9.59 2.25
-11.06 -11.10 2.56
-10.89 -11.38 2.57
-9.90 -10.78 2.39
-9.68 -10.97 2.39
-9.46 -11.16 2.39
-9.23 -11.34 2.39
-8.99 -11.52 2.39
-8.76 -11.69 2.39
-8.52 -11.86 2.39
-8.28 -12.03 2.39
-8.03 -12.19 2.39
-7.78 -12.34 2.39
-7.53 -12.49 2.39
-6.90 -11.99 2.27
-6.83 -12.43 2.33
-6.51 -12.43 2.30
-6.26 -12.56 2.30
-6.23 -13.15 2.39
-5.96 -13.27 2.39
-5.90 -13.88 2.48
-5.65 -14.07 2.49
-5.37 -14.18 2.49
-5.08 -14.27 2.49
-4.79 -14.37 2.49
-4.50 -14.46 2.49
-4.20 -14.54 2.49
-3.91 -14.61 2.49
-3.62 -14.68 2.49
-3.32 -14.75 2.49
-3.02 -14.80 2.49
-2.72 -14.86 2.49
-2.42 -14.90 2.49
-2.12 -14.94 2.49
-1.82 -14.98 2.49
-1.52 -15.00 2.49
-1.22 -15.02 2.49
-0.91 -15.04 2.49
-0.61 -15.05 2.49
-0.31 -15.05 2.49
-0.01 -13.20 2.49
0.26 -13.19 2.49
0.52 -13.18 2.49
0.79 -13.16 2.49
1.05 -13.14 2.49
1.31 -13.11 2.49
1.58 -13.08 2.49
1.84 -13.04 2.49
2.10 -13.00 2.49
2.26 -12.41 2.39
2.51 -12.36 2.39
2.76 -12.31 2.39
3.00 -12.24 2.39
3.25 -12.18 2.39
3.49 -12.11 2.39
3.73 -12.03 2.39
3.97 -11.95 2.39
4.21 -11.86 2.39
4.44 -11.77 2.39
4.68 -11.68 2.39
4.91 -11.58 2.39
5.14 -11.48 2.39
5.37 -11.37 2.39
5.59 -11.25 2.39
5.82 -11.14 2.39
6.04 -11.02 2.39
6.23 -10.85 2.38
6.41 -10.65 2.37
6.58 -10.45 2.35
6.74 -10.25 2.34
6.91 -10.06 2.32
7.07 -9.86 2.31
7.23 -9.67 2.30
7.38 -9.47 2.29
7.54 -9.28 2.28
7.81 -9.23 2.31
8.25 -9.37 2.38
8.44 -9.19 2.38
8.62 -9.02 2.38
8.79 -8.84 2.38
8.96 -8.66 2.38
9.13 -8.48 2.38
9.29 -8.28 2.38
9.44 -8.08 2.37
9.58 -7.87 2.37
9.72 -7.66 2.36
9.85 -7.45 2.36
9.96 -7.22 2.35
10.07 -7.00 2.34
10.17 -6.77 2.33
10.27 -6.54 2.33
9.97 -6.08 2.23
10.08 -5.86 2.23
10.17 -5.65 2.22
10.27 -5.44 2.22
10.36 -5.22 2.22
10.45 -5.00 2.21
10.52 -4.78 2.21
10.60 -4.56 2.21
10.68 -4.35 2.20
10.76 -4.13 2.20
11.10 -4.00 2.26
11.18 -3.78 2.26
11.24 -3.55 2.25
11.29 -3.32 2.25
11.36 -3.09 2.25
11.42 -2.87 2.25
11.48 -2.64 2.25
11.54 -2.41 2.25
8.91 -1.67 1.73
11.63 -1.94 2.25
11.67 -1.71 2.26
11.71 -1.48 2.26
11.74 -1.24 2.26
11.75 -1.00 2.26
11.77 -0.77 2.25
11.77 -0.53 2.25
11.77 -0.29 2.25
11.77 -0.06 2.25
9.56 0.15 1.83
11.46 0.40 2.19
11.72 0.65 2.24
11.71 0.89 2.24
11.69 1.12 2.24
11.11 1.29 2.14
9.47 1.29 1.82
8.24 1.30 1.59
7.30 1.30 1.41
6.54 1.30 1.27
6.13 1.35 1.20
6.13 1.48 1.20
10.59 2.77 2.09
10.54 2.99 2.09
10.49 3.20 2.09
10.43 3.42 2.09
10.37 3.63 2.09
10.30 3.84 2.10
10.24 4.05 2.10
10.16 4.26 2.10
10.91 4.83 2.27
10.38 4.85 2.18
10.12 4.98 2.15
10.04 5.19 2.15
9.96 5.41 2.16
9.87 5.62 2.16
9.78 5.83 2.16
9.69 6.04 2.17
9.59 6.25 2.17
9.49 6.46 2.18
9.38 6.66 2.19
9.27 6.87 2.19
9.84 7.60 2.36
9.72 7.83 2.37
9.61 8.06 2.38
9.48 8.29 2.39
9.36 8.51 2.40
9.22 8.73 2.41
9.04 8.92 2.41
8.86 9.10 2.41
8.68 9.28 2.41
8.50 9.45 2.41
8.31 9.63 2.41
8.12 9.79 2.41
7.92 9.96 2.41
7.72 10.12 2.41
7.52 10.27 2.41
7.31 10.43 2.41
7.11 10.57 2.41
6.89 10.72 2.41
6.68 10.86 2.41
6.46 10.99 2.41
6.20 11.05 2.39
5.75 10.75 2.30
5.49 10.78 2.28
5.53 11.42 2.39
5.30 11.53 2.39
5.07 11.64 2.39
4.84 11.74 2.39
4.60 11.84 2.39
4.37 11.93 2.39
4.13 12.02 2.39
3.89 12.11 2.39
3.64 12.19 2.39
3.40 12.26 2.39
3.15 12.33 2.39
2.91 12.40 2.39
2.66 12.46 2.39
2.41 12.51 2.39
2.19 12.76 2.43
1.99 13.15 2.49
1.72 13.19 2.49
1.46 13.23 2.49
1.19 13.26 2.49
0.93 13.29 2.49
0.66 13.31 2.49
0.39 13.32 2.49
0.13 13.33 2.49
-0.14 13.34 2.49
-0.41 13.34 2.49
-0.68 13.33 2.49
-0.94 13.32 2.49
-1.21 13.30 2.49
-1.48 13.28 2.49
-1.75 13.25 2.49
-2.01 13.22 2.49
-2.28 13.18 2.49
-2.54 13.13 2.49
-2.81 13.08 2.49
-3.07 13.03 2.49
-2.70 10.50 2.02
-2.64 9.47 1.83
-2.68 8.94 1.74
-2.68 8.33 1.63
-2.68 7.80 1.53
-2.68 7.31 1.45
-2.68 6.88 1.37
-2.80 6.78 1.36
-2.94 6.73 1.36
-3.07 6.67 1.36
-3.21 6.61 1.36
-3.34 6.54 1.36
-3.47 6.48 1.36
-3.60 6.41 1.36
-3.73 6.34 1.36
-3.86 6.26 1.36
-3.99 6.19 1.37
-4.17 6.20 1.38
-4.35 6.20 1.40
-4.54 6.20 1.42
-7.84 10.25 2.39
-8.04 10.09 2.39
-8.24 9.93 2.39
-8.44 9.77 2.39
-8.64 9.60 2.39
-8.83 9.42 2.39
-9.02 9.24 2.39
-9.21 9.06 2.39
-9.39 8.88 2.39
-9.56 8.69 2.39
-9.74 8.50 2.39
-10.80 9.05 2.61
-11.01 8.85 2.61
-11.88 9.16 2.77
-9.90 7.33 2.28
-13.32 9.45 3.02
-13.51 9.18 3.02
-9.90 6.45 2.18
-13.86 8.63 3.02
-14.03 8.35 3.02
-14.19 8.07 3.02
-14.35 7.78 3.02
-14.50 7.49 3.01
-14.63 7.18 3.01
-14.74 6.88 3.00
-14.90 6.59 3.01
-9.91 4.15 1.98
-15.20 6.01 3.02
-15.33 5.71 3.02
-15.46 5.40 3.02
-9.90 3.24 1.92
-15.68 4.78 3.03
-15.78 4.47 3.03
-15.87 4.15 3.03
-15.95 3.83 3.03
-16.04 3.52 3.03
-16.11 3.19 3.03
-9.90 1.76 1.86
-16.24 2.55 3.04
-16.28 2.22 3.04
-16.32 1.89 3.04
-16.36 1.57 3.04
-16.40 1.24 3.04
-16.43 0.91 3.04
-16.46 0.58 3.04
-9.91 0.15 1.83
-16.52 -0.08 3.05
-16.54 -0.41 3.06
-9.92 -0.45 1.84
-16.54 -1.08 3.06
-16.51 -1.41 3.06
-16.43 -1.73 3.06
-16.34 -2.06 3.05
-16.25 -2.38 3.04
-16.22 -2.71 3.04
-16.18 -3.04 3.05
-9.92 -2.07 1.88
-16.15 -3.70 3.07
-16.14 -4.05 3.08
-16.12 -4.39 3.09
-9.91 -2.91 1.91
-15.89 -5.01 3.09
-15.76 -5.33 3.08
-9.92 -3.58 1.95
-9.92 -3.80 1.97
-6.15 -2.50 1.23
-15.33 -6.59 3.10
-15.28 -6.94 3.11
-15.22 -7.28 3.13
-15.12 -7.61 3.14
-14.90 -7.88 3.13
-14.68 -8.14 3.12
-14.45 -8.40 3.10
-14.18 -8.63 3.08
-13.84 -8.80 3.05
-13.50 -8.97 3.01
-13.15 -9.13 2.98
-9.93 -7.19 2.28
-9.92 -7.49 2.31
-11.12 -8.76 2.63
-10.93 -8.97 2.63
-9.76 -8.34 2.39
-9.59 -8.53 2.39
-9.41 -8.72 2.39
-9.23 -8.90 2.39
-9.05 -9.09 2.39
-8.86 -9.26 2.39
-8.67 -9.44 2.39
-8.48 -9.60 2.39
-8.28 -9.77 2.39
-8.08 -9.93 2.39
-7.88 -10.09 2.39
-7.67 -10.24 2.39
-7.46 -10.39 2.39
-6.88 -10.00 2.27
-6.84 -10.38 2.32
-6.70 -10.63 2.35
-6.26 -10.39 2.27
-6.25 -10.86 2.35
-6.15 -11.19 2.39
-5.92 -11.30 2.39
-5.90 -11.83 2.48
-5.69 -12.02 2.49
-5.45 -12.13 2.49
-5.20 -12.23 2.49
-4.95 -12.33 2.49
-4.70 -12.42 2.49
-4.45 -12.51 2.49
-4.20 -12.59 2.49
-3.94 -12.67 2.49
-3.69 -12.74 2.49
-3.43 -12.81 2.49
-3.17 -12.87 2.49
-2.91 -12.93 2.49
-2.65 -12.98 2.49
-2.39 -13.02 2.49
-2.12 -13.06 2.49
-1.86 -13.10 2.49
-1.60 -13.13 2.49
-1.33 -13.16 2.49
-1.07 -13.18 2.49
-0.80 -13.19 2.49
-0.54 -13.20 2.49
-0.27 -13.20 2.49
-0.01 -11.74 2.49
0.23 -11.74 2.49
0.46 -11.73 2.49
0.70 -11.71 2.49
0.93 -11.69 2.49
1.17 -11.67 2.49
1.40 -11.64 2.49
1.63 -11.61 2.49
1.87 -11.57 2.49
2.10 -11.52 2.49
2.23 -11.00 2.39
2.45 -10.95 2.39
2.67 -10.90 2.39
2.89 -10.84 2.39
3.10 -10.78 2.39
3.32 -10.71 2.39
3.53 -10.64 2.39
3.74 -10.56 2.39
3.95 -10.48 2.39
4.16 -10.40 2.39
4.37 -10.31 2.39
4.58 -10.22 2.39
4.78 -10.12 2.39
4.98 -10.02 2.39
5.18 -9.92 2.39
5.38 -9.81 2.39
5.57 -9.70 2.39
5.76 -9.58 2.39
5.95 -9.46 2.39
6.14 -9.34 2.39
6.33 -9.21 2.39
6.56 -9.16 2.41
6.74 -9.02 2.41
6.92 -8.88 2.41
7.10 -8.74 2.41
7.27 -8.59 2.41
7.44 -8.44 2.41
7.61 -8.29 2.41
7.77 -8.13 2.41
7.93 -7.97 2.41
8.08 -7.81 2.41
8.23 -7.64 2.41
8.38 -7.47 2.41
8.53 -7.30 2.41
8.67 -7.12 2.41
8.81 -6.95 2.41
8.95 -6.77 2.41
9.08 -6.59 2.41
9.21 -6.40 2.41
8.84 -5.88 2.28
8.94 -5.69 2.27
9.03 -5.50 2.27
9.13 -5.31 2.27
9.22 -5.12 2.26
9.30 -4.93 2.26
9.39 -4.73 2.26
9.47 -4.54 2.25
9.54 -4.34 2.25
9.62 -4.14 2.25
9.84 -4.00 2.28
10.17 -3.90 2.34
10.23 -3.69 2.33
10.28 -3.48 2.33
10.33 -3.27 2.33
9.73 -2.86 2.18
10.43 -2.84 2.32
10.47 -2.63 2.32
10.51 -2.42 2.32
10.55 -2.20 2.31
8.91 -1.67 1.95
10.62 -1.77 2.31
10.64 -1.56 2.31
10.67 -1.34 2.31
10.68 -1.13 2.30
10.69 -0.91 2.30
10.70 -0.70 2.30
10.70 -0.48 2.30
10.70 -0.27 2.30
10.70 -0.05 2.30
9.56 0.15 2.05
10.69 0.38 2.29
10.68 0.59 2.29
10.67 0.81 2.29
10.66 1.02 2.30
10.64 1.24 2.30
9.47 1.29 2.05
8.24 1.30 1.79
7.29 1.30 1.59
6.54 1.30 1.43
6.13 1.35 1.34
6.13 1.48 1.35
9.56 2.50 2.12
9.51 2.70 2.12
9.46 2.89 2.12
9.41 3.08 2.12
9.35 3.27 2.12
9.30 3.46 2.12
9.23 3.65 2.12
9.17 3.84 2.13
9.10 4.03 2.13
9.02 4.22 2.13
9.89 4.86 2.36
9.40 4.86 2.26
9.05 4.91 2.20
8.97 5.11 2.21
8.89 5.30 2.21
8.80 5.49 2.21
8.71 5.67 2.22
8.61 5.86 2.22
8.51 6.05 2.23
8.41 6.24 2.23
8.31 6.42 2.24
8.21 6.61 2.25
8.10 6.80 2.25
8.50 7.43 2.41
8.35 7.60 2.41
8.20 7.77 2.41
8.05 7.94 2.41
7.89 8.10 2.41
7.73 8.26 2.41
7.56 8.41 2.41
7.39 8.57 2.41
7.22 8.71 2.41
7.05 8.86 2.41
6.87 9.00 2.41
6.69 9.14 2.41
6.51 9.28 2.41
6.32 9.41 2.41
6.09 9.47 2.39
5.90 9.60 2.39
5.71 9.72 2.39
5.52 9.83 2.39
5.32 9.94 2.39
5.12 10.05 2.39
4.92 10.15 2.39
4.71 10.25 2.39
4.51 10.35 2.39
4.30 10.44 2.39
4.09 10.53 2.39
3.88 10.61 2.39
3.67 10.69 2.39
3.45 10.77 2.39
3.24 10.84 2.39
3.02 10.90 2.39
2.80 10.97 2.39
2.58 11.02 2.39
2.36 11.08 2.39
2.19 11.36 2.44
2.00 11.65 2.49
1.77 11.69 2.49
1.53 11.73 2.49
1.30 11.76 2.49
1.06 11.79 2.49
0.82 11.81 2.49
0.59 11.83 2.49
0.35 11.84 2.49
0.11 11.85 2.49
-0.13 11.85 2.49
-0.36 11.85 2.49
-0.60 11.85 2.49
-0.84 11.83 2.49
-1.08 11.82 2.49
-1.32 11.80 2.49
-1.55 11.77 2.49
-1.79 11.74 2.49
-2.02 11.71 2.49
-2.26 11.67 2.49
-2.49 11.62 2.49
-2.73 11.57 2.49
-2.48 9.64 2.09
-2.60 9.33 2.03
-2.68 8.94 1.96
-2.68 8.33 1.83
-2.68 7.79 1.73
-2.68 7.31 1.63
-2.68 6.88 1.55
-2.69 6.50 1.47
-2.71 6.19 1.41
-2.86 6.19 1.43
-3.01 6.19 1.44
-3.16 6.19 1.45
-3.32 6.19 1.47
-3.48 6.19 1.49
-3.65 6.19 1.50
-3.82 6.19 1.52
-3.99 6.20 1.54
-4.17 6.20 1.56
-4.35 6.20 1.58
-4.54 6.20 1.60
-6.81 8.90 2.34
-6.81 8.54 2.28
-7.32 8.82 2.39
-7.50 8.67 2.39
-7.67 8.52 2.39
-7.84 8.36 2.39
-8.01 8.21 2.39
-8.17 8.05 2.39
-8.33 7.88 2.39
-8.49 7.71 2.39
-8.65 7.54 2.39
-8.80 7.37 2.39
-8.94 7.19 2.39
-9.09 7.01 2.39
-9.23 6.83 2.39
-9.36 6.64 2.39
-9.50 6.45 2.39
-9.62 6.26 2.39
-9.75 6.07 2.39
-9.87 5.87 2.39
-11.25 6.39 2.69
-11.50 6.23 2.72
-11.75 6.07 2.75
-11.99 5.89 2.78
-9.91 4.62 2.28
-9.91 4.38 2.25
-12.63 5.29 2.85
-12.83 5.07 2.87
-13.01 4.84 2.89
-13.18 4.61 2.91
-9.90 3.24 2.17
-9.91 3.02 2.16
-13.57 3.84 2.93
-13.69 3.58 2.94
-13.80 3.32 2.95
-13.90 3.05 2.96
-14.00 2.78 2.97
-9.90 1.76 2.09
-14.16 2.22 2.98
-9.91 1.35 2.08
-14.29 1.66 2.99
-14.36 1.38 3.00
-14.43 1.09 3.01
-14.50 0.80 3.02
-14.53 0.51 3.03
-9.91 0.15 2.06
-14.55 -0.07 3.03
-9.92 -0.25 2.07
-14.54 -0.65 3.03
-14.57 -0.95 3.04
-14.60 -1.24 3.05
-14.59 -1.54 3.06
-14.58 -1.83 3.06
-14.55 -2.13 3.06
-14.52 -2.42 3.07
-14.48 -2.72 3.07
-14.44 -3.01 3.08
-14.40 -3.30 3.08
-14.33 -3.59 3.08
-14.25 -3.88 3.08
-9.91 -2.91 2.16
-14.06 -4.44 3.08
-13.93 -4.71 3.07
-13.80 -4.97 3.06
-6.20 -2.37 1.39
-6.11 -2.48 1.38
-9.92 -4.27 2.26
-9.92 -4.50 2.28
-12.70 -6.08 2.94
-11.49 -5.78 2.69
-11.11 -5.88 2.63
-10.93 -6.06 2.61
-9.88 -5.74 2.39
-9.76 -5.94 2.39
-9.64 -6.13 2.39
-9.51 -6.32 2.39
-9.38 -6.51 2.39
-9.25 -6.70 2.39
-9.11 -6.88 2.39
-8.97 -7.06 2.39
-8.82 -7.24 2.39
-8.67 -7.41 2.39
-8.52 -7.58 2.39
-8.36 -7.75 2.39
-8.20 -7.91 2.39
-8.04 -8.07 2.39
-7.87 -8.23 2.39
-7.71 -8.38 2.39
-7.53 -8.53 2.39
-7.36 -8.68 2.39
-6.84 -8.40 2.28
-6.84 -8.75 2.33
-6.71 -8.95 2.35
-6.29 -8.76 2.27
-6.25 -9.08 2.32
-6.25 -9.48 2.39
-6.06 -9.61 2.39
-5.90 -9.79 2.41
-5.89 -10.23 2.49
-5.70 -10.37 2.49
-5.49 -10.48 2.49
-5.28 -10.59 2.49
-5.06 -10.69 2.49
-4.84 -10.78 2.49
-4.63 -10.87 2.49
-4.40 -10.96 2.49
-4.18 -11.04 2.49
-3.96 -11.12 2.49
-3.73 -11.20 2.49
-3.51 -11.27 2.49
-3.28 -11.33 2.49
-3.05 -11.39 2.49
-2.82 -11.45 2.49
-2.59 -11.50 2.49
-2.36 -11.54 2.49
-2.12 -11.58 2.49
-1.89 -11.62 2.49
-1.66 -11.65 2.49
-1.42 -11.68 2.49
-1.19 -11.70 2.49
-0.95 -11.72 2.49
-0.72 -11.73 2.49
-0.48 -11.74 2.49
-0.24 -11.75 2.49
-0.01 -10.57 2.49
0.20 -10.56 2.49
0.42 -10.55 2.49
0.63 -10.54 2.49
0.84 -10.52 2.49
1.05 -10.50 2.49
1.26 -10.47 2.49
1.47 -10.44 2.49
1.68 -10.41 2.49
1.89 -10.37 2.49
2.09 -10.33 2.49
2.21 -9.86 2.39
2.40 -9.81 2.39
2.60 -9.76 2.39
2.79 -9.70 2.39
2.99 -9.64 2.39
3.18 -9.57 2.39
3.37 -9.51 2.39
3.56 -9.44 2.39
3.75 -9.36 2.39
3.93 -9.28 2.39
4.12 -9.20 2.39
4.30 -9.11 2.39
4.48 -9.02 2.39
4.66 -8.93 2.39
4.84 -8.83 2.39
5.01 -8.73 2.39
5.19 -8.63 2.39
5.36 -8.52 2.39
5.53 -8.41 2.39
5.69 -8.29 2.39
5.86 -8.18 2.39
6.02 -8.05 2.39
6.23 -7.99 2.41
6.38 -7.86 2.41
6.54 -7.73 2.41
6.69 -7.60 2.41
6.84 -7.46 2.41
6.99 -7.32 2.41
7.14 -7.18 2.41
7.28 -7.03 2.41
7.42 -6.89 2.41
7.56 -6.73 2.41
7.69 -6.58 2.41
7.82 -6.43 2.41
7.66 -6.04 2.32
7.76 -5.87 2.32
7.87 -5.71 2.31
7.97 -5.54 2.31
8.06 -5.37 2.31
8.16 -5.20 2.30
8.25 -5.02 2.30
8.33 -4.85 2.30
8.42 -4.68 2.29
8.50 -4.50 2.29
8.57 -4.32 2.29
8.65 -4.14 2.29
8.77 -3.99 2.30
9.28 -4.00 2.41
9.34 -3.80 2.40
9.40 -3.61 2.40
9.46 -3.41 2.40
9.51 -3.22 2.39
9.56 -3.02 2.39
9.61 -2.83 2.39
9.65 -2.63 2.38
9.69 -2.43 2.38
9.73 -2.24 2.38
9.77 -2.04 2.38
9.80 -1.84 2.38
9.83 -1.64 2.37
9.85 -1.44 2.37
9.87 -1.24 2.37
9.88 -1.04 2.37
9.89 -0.84 2.37
9.90 -0.65 2.36
9.91 -0.45 2.36
9.91 -0.25 2.36
9.91 -0.05 2.36
9.91 0.15 2.36
9.90 0.35 2.36
9.90 0.55 2.36
9.89 0.75 2.36
6.47 0.62 1.55
6.42 0.75 1.54
6.44 0.88 1.55
8.24 1.30 1.99
7.29 1.30 1.76
6.54 1.30 1.59
6.13 1.35 1.49
6.13 1.48 1.50
8.70 2.28 2.14
8.67 2.46 2.14
8.63 2.64 2.14
8.58 2.81 2.15
8.54 2.99 2.15
8.49 3.16 2.15
8.44 3.34 2.16
8.38 3.51 2.16
8.33 3.69 2.16
8.27 3.86 2.17
8.20 4.04 2.17
8.14 4.21 2.18
8.91 4.84 2.41
8.81 5.02 2.41
8.18 4.88 2.26
8.07 5.03 2.25
7.99 5.21 2.26
7.90 5.38 2.27
7.82 5.56 2.27
7.73 5.73 2.28
7.64 5.90 2.29
7.54 6.08 2.29
7.44 6.25 2.30
7.34 6.42 2.31
7.24 6.59 2.32
7.13 6.76 2.32
7.02 6.92 2.33
7.10 7.29 2.41
6.95 7.43 2.41
6.80 7.57 2.41
6.65 7.71 2.41
6.50 7.84 2.41
6.34 7.97 2.41
6.14 8.05 2.39
5.98 8.17 2.39
5.81 8.29 2.39
5.65 8.41 2.39
5.48 8.52 2.39
5.31 8.63 2.39
5.14 8.74 2.39
4.96 8.85 2.39
4.78 8.95 2.39
4.60 9.04 2.39
4.42 9.14 2.39
4.24 9.22 2.39
4.06 9.31 2.39
3.87 9.39 2.39
3.68 9.47 2.39
3.49 9.55 2.39
3.30 9.62 2.39
3.11 9.68 2.39
2.91 9.75 2.39
2.72 9.81 2.39
2.52 9.86 2.39
2.32 9.91 2.39
2.18 10.25 2.46
2.01 10.44 2.49
1.80 10.48 2.49
1.59 10.51 2.49
1.38 10.55 2.49
1.16 10.58 2.49
0.95 10.60 2.49
0.74 10.62 2.49
0.53 10.64 2.49
0.31 10.65 2.49
0.10 10.65 2.49
-0.11 10.66 2.49
-0.33 10.65 2.49
-0.54 10.65 2.49
-0.76 10.64 2.49
-0.97 10.62 2.49
-1.18 10.61 2.49
-1.40 10.58 2.49
-1.61 10.55 2.49
-1.82 10.52 2.49
-2.03 10.49 2.49
-2.24 10.45 2.49
-2.45 10.40 2.49
-2.66 10.35 2.49
-2.60 9.34 2.26
-2.68 8.94 2.18
-2.68 8.33 2.04
-2.68 7.79 1.92
-2.68 7.31 1.81
-2.68 6.88 1.72
-2.69 6.50 1.64
-2.71 6.19 1.57
-2.86 6.19 1.59
-3.01 6.19 1.60
-3.16 6.19 1.62
-3.32 6.19 1.64
-3.48 6.19 1.65
-3.65 6.19 1.67
-3.82 6.19 1.69
-3.99 6.20 1.71
-4.17 6.20 1.74
-4.36 6.20 1.76
-4.54 6.20 1.79
-6.22 8.14 2.38
-6.22 7.81 2.32
-6.24 7.52 2.27
-6.62 7.66 2.35
-6.78 7.53 2.35
-6.81 7.26 2.31
-6.83 7.00 2.27
-7.34 7.23 2.39
-7.49 7.08 2.39
-7.63 6.93 2.39
-7.77 6.77 2.39
-7.90 6.62 2.39
-8.03 6.46 2.39
-8.16 6.30 2.39
-8.29 6.13 2.39
-8.41 5.97 2.39
-8.53 5.80 2.39
-8.64 5.63 2.39
-8.76 5.45 2.39
-8.86 5.27 2.39
-8.97 5.10 2.39
-9.07 4.92 2.39
-9.17 4.73 2.39
-9.26 4.55 2.39
-9.35 4.36 2.39
-9.44 4.17 2.39
-9.52 3.98 2.39
-9.60 3.79 2.39
-9.67 3.60 2.39
-9.74 3.40 2.39
-9.81 3.21 2.39
-9.87 3.01 2.39
-10.78 3.05 2.60
-10.55 2.76 2.53
-10.61 2.55 2.53
-10.68 2.34 2.53
-10.74 2.13 2.54
-9.90 1.76 2.33
-10.85 1.70 2.55
-10.90 1.49 2.55
-10.94 1.27 2.55
-10.98 1.05 2.56
-11.01 0.83 2.56
-11.05 0.61 2.57
-11.29 0.40 2.62
-9.91 0.15 2.30
-11.96 -0.06 2.77
-12.26 -0.30 2.84
-12.53 -0.56 2.91
-12.76 -0.83 2.97
-12.96 -1.10 3.02
-13.05 -1.38 3.04
-12.91 -1.62 3.02
-12.72 -1.86 2.98
-12.49 -2.08 2.94
-12.22 -2.29 2.88
-11.79 -2.46 2.80
-11.28 -2.59 2.69
-11.02 -2.76 2.64
-10.93 -2.97 2.63
-9.88 -2.90 2.39
-9.82 -3.10 2.39
-9.75 -3.29 2.39
-9.68 -3.49 2.39
-6.19 -2.37 1.54
-6.11 -2.48 1.53
-9.45 -4.06 2.39
-9.36 -4.25 2.39
-9.27 -4.44 2.39
-9.18 -4.62 2.39
-9.08 -4.80 2.39
-8.98 -4.98 2.39
-8.88 -5.16 2.39
-8.77 -5.34 2.39
-8.66 -5.51 2.39
-8.55 -5.68 2.39
-8.43 -5.85 2.39
-8.31 -6.02 2.39
-8.19 -6.18 2.39
-8.06 -6.34 2.39
-7.93 -6.50 2.39
-7.79 -6.66 2.39
-7.66 -6.81 2.39
-7.52 -6.96 2.39
-7.37 -7.11 2.39
-7.23 -7.25 2.39
-7.08 -7.40 2.39
-6.93 -7.53 2.39
-6.77 -7.67 2.39
-6.53 -7.71 2.36
-6.27 -7.71 2.32
-6.25 -8.00 2.37
-6.13 -8.18 2.39
-5.96 -8.30 2.39
-5.89 -8.56 2.43
-5.86 -8.89 2.49
-5.68 -9.01 2.49
-5.50 -9.12 2.49
-5.31 -9.22 2.49
-5.13 -9.33 2.49
-4.94 -9.42 2.49
-4.74 -9.52 2.49
-4.55 -9.61 2.49
-4.36 -9.70 2.49
-4.16 -9.78 2.49
-3.96 -9.86 2.49
-3.76 -9.93 2.49
-3.56 -10.00 2.49
-3.36 -10.07 2.49
-3.15 -10.13 2.49
-2.95 -10.19 2.49
-2.74 -10.24 2.49
-2.54 -10.29 2.49
-2.33 -10.34 2.49
-2.12 -10.38 2.49
-1.91 -10.42 2.49
-1.70 -10.45 2.49
-1.49 -10.48 2.49
-1.28 -10.51 2.49
-1.07 -10.53 2.49
-0.86 -10.54 2.49
-0.64 -10.56 2.49
-0.43 -10.56 2.49
-0.22 -10.57 2.49
-0.01 -9.60 2.49
0.19 -9.59 2.49
0.38 -9.58 2.49
0.57 -9.57 2.49
0.76 -9.56 2.49
0.95 -9.54 2.49
1.14 -9.51 2.49
1.33 -9.49 2.49
1.52 -9.45 2.49
1.71 -9.42 2.49
1.90 -9.38 2.49
2.09 -9.34 2.49
2.18 -8.91 2.39
2.37 -8.88 2.40
2.54 -8.81 2.39
2.71 -8.76 2.39
2.89 -8.70 2.39
3.06 -8.64 2.39
3.23 -8.57 2.39
3.40 -8.50 2.39
3.57 -8.43 2.39
3.74 -8.36 2.39
3.91 -8.28 2.39
4.07 -8.20 2.39
4.23 -8.11 2.39
4.40 -8.02 2.39
4.56 -7.93 2.39
4.71 -7.84 2.39
4.87 -7.74 2.39
5.02 -7.64 2.39
5.17 -7.53 2.39
5.32 -7.43 2.39
5.47 -7.32 2.39
5.62 -7.21 2.39
5.76 -7.09 2.39
5.90 -6.97 2.39
6.04 -6.85 2.39
6.17 -6.73 2.39
6.37 -6.67 2.42
6.51 -6.54 2.42
6.64 -6.41 2.42
6.76 -6.28 2.42
6.72 -5.99 2.36
6.83 -5.84 2.35
6.93 -5.69 2.35
7.03 -5.55 2.35
7.13 -5.39 2.34
7.23 -5.24 2.34
7.32 -5.09 2.34
7.41 -4.93 2.33
7.49 -4.78 2.33
7.58 -4.62 2.33
7.66 -4.46 2.32
7.74 -4.30 2.32
7.81 -4.14 2.32
7.90 -3.98 2.32
8.31 -3.98 2.42
8.38 -3.81 2.41
8.45 -3.64 2.41
8.52 -3.47 2.41
8.59 -3.30 2.41
8.65 -3.12 2.41
8.72 -2.95 2.41
8.78 -2.77 2.42
8.84 -2.60 2.42
8.89 -2.42 2.42
8.94 -2.24 2.42
8.99 -2.06 2.42
9.03 -1.88 2.42
9.07 -1.70 2.42
9.11 -1.52 2.42
9.14 -1.34 2.42
9.16 -1.15 2.42
9.18 -0.97 2.42
9.20 -0.78 2.42
9.21 -0.60 2.42
9.22 -0.41 2.42
9.22 -0.23 2.42
9.22 -0.04 2.42
9.22 0.14 2.42
9.21 0.33 2.42
9.20 0.51 2.41
6.42 0.49 1.69
6.20 0.59 1.63
6.19 0.72 1.63
6.19 0.85 1.64
6.39 1.00 1.69
7.29 1.30 1.94
6.53 1.30 1.74
6.13 1.35 1.64
6.13 1.48 1.65
8.08 2.12 2.19
8.04 2.28 2.19
8.00 2.45 2.19
7.96 2.61 2.19
7.92 2.77 2.20
7.87 2.93 2.20
7.82 3.10 2.20
7.77 3.26 2.20
7.72 3.42 2.21
7.66 3.58 2.21
7.60 3.74 2.22
7.54 3.90 2.22
7.48 4.06 2.22
7.41 4.22 2.23
7.91 4.72 2.41
7.82 4.88 2.41
7.50 4.89 2.34
7.31 4.98 2.31
7.23 5.14 2.32
7.15 5.30 2.32
7.06 5.46 2.33
6.97 5.62 2.33
6.88 5.77 2.34
6.78 5.93 2.35
6.68 6.08 2.36
6.58 6.24 2.36
6.48 6.39 2.37
6.37 6.54 2.38
6.26 6.69 2.39
6.14 6.83 2.39
6.00 6.95 2.39
5.86 7.08 2.39
5.72 7.19 2.39
5.57 7.31 2.39
5.43 7.42 2.39
5.28 7.53 2.39
5.13 7.64 2.39
4.98 7.74 2.39
4.82 7.84 2.39
4.66 7.94 2.39
4.50 8.03 2.39
4.34 8.12 2.39
4.18 8.21 2.39
4.02 8.29 2.39
3.85 8.38 2.39
3.68 8.45 2.39
3.51 8.53 2.39
3.34 8.60 2.39
3.17 8.67 2.39
2.99 8.73 2.39
2.82 8.79 2.39
2.64 8.85 2.39
2.47 8.90 2.39
2.29 8.95 2.39
2.18 9.32 2.48
2.01 9.43 2.49
1.82 9.47 2.49
1.63 9.51 2.49
1.44 9.54 2.49
1.25 9.57 2.49
1.06 9.60 2.49
0.86 9.62 2.49
0.67 9.64 2.49
0.48 9.65 2.49
0.28 9.66 2.49
0.09 9.67 2.49
-0.10 9.67 2.49
-0.30 9.67 2.49
-0.49 9.66 2.49
-0.69 9.65 2.49
-0.88 9.64 2.49
-1.07 9.62 2.49
-1.27 9.60 2.49
-1.46 9.58 2.49
-1.65 9.55 2.49
-1.84 9.51 2.49
-2.03 9.48 2.49
-2.23 9.44 2.49
-2.41 9.39 2.49
-2.60 9.34 2.49
-2.79 9.29 2.49
-2.68 8.33 2.25
-2.69 7.79 2.12
-2.68 7.31 2.00
-2.68 6.88 1.90
-2.69 6.49 1.80
-2.71 6.19 1.74
-2.86 6.19 1.75
-3.01 6.19 1.77
-3.16 6.19 1.78
-3.32 6.19 1.80
-3.48 6.19 1.82
-3.65 6.19 1.84
-3.82 6.20 1.87
-3.99 6.20 1.89
-4.17 6.20 1.91
-4.36 6.20 1.94
-4.54 6.20 1.97
-5.87 7.67 2.47
-5.87 7.37 2.41
-5.96 7.18 2.39
-6.11 7.06 2.39
-6.22 6.91 2.38
-6.22 6.64 2.33
-6.22 6.38 2.28
-6.32 6.22 2.27
-6.68 6.31 2.35
-6.80 6.18 2.35
-6.81 5.94 2.31
-6.82 5.71 2.28
-6.91 5.56 2.27
-7.40 5.71 2.39
-7.51 5.56 2.39
-7.63 5.41 2.39
-7.73 5.26 2.39
-7.84 5.10 2.39
-7.94 4.94 2.39
-8.04 4.78 2.39
-8.13 4.62 2.39
-8.22 4.46 2.39
-8.31 4.29 2.39
-8.40 4.12 2.39
-8.48 3.95 2.39
-8.55 3.78 2.39
-8.63 3.61 2.39
-8.70 3.44 2.39
-8.77 3.26 2.39
-8.83 3.09 2.39
-8.89 2.91 2.39
-8.95 2.73 2.39
-9.00 2.55 2.39
-9.05 2.37 2.39
-9.10 2.19 2.39
-9.14 2.00 2.39
-9.18 1.82 2.39
-9.21 1.64 2.39
-9.24 1.45 2.39
-9.27 1.26 2.39
-9.29 1.08 2.39
-9.31 0.89 2.39
-9.33 0.71 2.39
-9.34 0.52 2.39
-9.35 0.33 2.39
-9.35 0.14 2.39
-9.35 -0.04 2.39
-9.35 -0.23 2.39
-9.34 -0.42 2.39
-9.33 -0.61 2.39
-9.31 -0.79 2.39
-9.29 -0.98 2.39
-9.27 -1.17 2.39
-9.24 -1.35 2.39
-9.21 -1.54 2.39
-9.18 -1.72 2.39
-9.14 -1.90 2.39
-9.10 -2.09 2.39
-9.06 -2.27 2.39
-9.01 -2.45 2.39
-8.96 -2.63 2.39
-8.90 -2.81 2.39
-8.84 -2.99 2.39
-8.78 -3.16 2.39
-6.19 -2.37 1.70
-6.11 -2.48 1.69
-8.57 -3.68 2.39
-8.49 -3.85 2.39
-8.41 -4.02 2.39
-8.33 -4.19 2.39
-8.24 -4.35 2.39
-8.15 -4.52 2.39
-8.05 -4.68 2.39
-7.96 -4.84 2.39
-7.86 -5.00 2.39
-7.75 -5.15 2.39
-7.65 -5.31 2.39
-7.54 -5.46 2.39
-7.43 -5.61 2.39
-7.31 -5.75 2.39
-7.19 -5.90 2.39
-7.07 -6.04 2.39
-6.95 -6.18 2.39
-6.82 -6.32 2.39
-6.69 -6.45 2.39
-6.56 -6.58 2.39
-6.42 -6.71 2.39
-6.28 -6.84 2.39
-6.15 -6.96 2.39
-6.00 -7.08 2.39
-5.90 -7.24 2.41
-5.89 -7.54 2.47
-5.80 -7.74 2.49
-5.64 -7.85 2.49
-5.48 -7.96 2.49
-5.32 -8.07 2.49
-5.16 -8.17 2.49
-4.99 -8.27 2.49
-4.82 -8.37 2.49
-4.65 -8.46 2.49
-4.48 -8.55 2.49
-4.31 -8.64 2.49
-4.13 -8.72 2.49
-3.95 -8.80 2.49
-3.78 -8.87 2.49
-3.60 -8.95 2.49
-3.42 -9.01 2.49
-3.23 -9.08 2.49
-3.05 -9.14 2.49
-2.86 -9.20 2.49
-2.68 -9.25 2.49
-2.49 -9.30 2.49
-2.30 -9.34 2.49
-2.12 -9.39 2.49
-1.93 -9.42 2.49
-1.74 -9.46 2.49
-1.55 -9.49 2.49
-1.35 -9.52 2.49
-1.16 -9.54 2.49
-0.97 -9.56 2.49
-0.78 -9.57 2.49
-0.59 -9.58 2.49
-0.39 -9.59 2.49
-0.20 -9.60 2.49
-0.01 -8.78 2.49
0.17 -8.77 2.49
0.34 -8.77 2.49
0.52 -8.76 2.49
0.70 -8.74 2.49
0.87 -8.72 2.49
1.05 -8.70 2.49
1.22 -8.68 2.49
1.39 -8.65 2.49
1.57 -8.62 2.49
1.74 -8.58 2.49
1.91 -8.55 2.49
2.08 -8.50 2.49
2.17 -8.13 2.40
2.32 -8.06 2.39
2.48 -8.01 2.39
2.64 -7.96 2.39
2.80 -7.90 2.39
2.96 -7.84 2.39
3.11 -7.78 2.39
3.27 -7.72 2.39
3.42 -7.65 2.39
3.58 -7.58 2.39
3.73 -7.50 2.39
3.88 -7.42 2.39
4.02 -7.34 2.39
4.17 -7.26 2.39
4.31 -7.17 2.39
4.46 -7.08 2.39
4.60 -6.99 2.39
4.74 -6.90 2.39
4.87 -6.80 2.39
5.01 -6.70 2.39
5.14 -6.60 2.39
5.27 -6.49 2.39
5.40 -6.38 2.39
5.53 -6.27 2.39
5.65 -6.16 2.39
5.77 -6.04 2.39
5.89 -5.93 2.39
6.00 -5.79 2.39
6.10 -5.66 2.38
6.20 -5.53 2.38
6.30 -5.40 2.37
6.40 -5.26 2.37
6.49 -5.12 2.37
6.59 -4.98 2.36
6.67 -4.84 2.36
6.76 -4.70 2.36
6.84 -4.56 2.35
6.92 -4.41 2.35
7.00 -4.27 2.35
7.08 -4.12 2.35
7.15 -3.97 2.34
7.44 -3.94 2.41
7.52 -3.79 2.41
7.59 -3.63 2.41
7.66 -3.48 2.41
7.72 -3.33 2.41
7.79 -3.17 2.41
7.86 -3.01 2.41
7.92 -2.86 2.41
7.98 -2.70 2.41
8.03 -2.54 2.41
8.08 -2.38 2.41
8.13 -2.22 2.41
8.18 -2.05 2.42
8.22 -1.89 2.42
8.26 -1.72 2.42
8.29 -1.56 2.42
8.33 -1.39 2.42
8.35 -1.22 2.42
8.37 -1.05 2.42
8.39 -0.89 2.42
8.41 -0.72 2.42
8.42 -0.55 2.42
8.43 -0.38 2.42
8.43 -0.21 2.41
8.43 -0.04 2.41
8.43 0.13 2.41
8.43 0.30 2.41
8.42 0.47 2.41
6.44 0.49 1.85
6.24 0.60 1.79
6.21 0.72 1.79
6.22 0.85 1.80
6.41 1.01 1.86
7.29 1.30 2.12
6.53 1.30 1.91
6.13 1.35 1.80
6.13 1.48 1.80
7.53 1.97 2.23
7.49 2.13 2.23
7.46 2.28 2.23
7.42 2.43 2.23
7.38 2.58 2.23
7.33 2.73 2.24
7.29 2.89 2.24
7.24 3.04 2.24
7.19 3.19 2.25
7.14 3.34 2.25
7.08 3.48 2.25
7.02 3.63 2.26
6.96 3.78 2.26
6.90 3.93 2.27
6.83 4.07 2.27
6.76 4.22 2.27
7.07 4.61 2.41
6.97 4.75 2.41
6.88 4.89 2.41
6.64 4.92 2.36
6.56 5.07 2.36
6.47 5.22 2.37
6.39 5.36 2.38
6.30 5.51 2.38
6.20 5.65 2.39
6.09 5.77 2.39
5.98 5.90 2.39
5.86 6.02 2.39
5.74 6.14 2.39
5.61 6.25 2.39
5.49 6.36 2.39
5.36 6.47 2.39
5.23 6.58 2.39
5.10 6.69 2.39
4.97 6.79 2.39
4.83 6.89 2.39
4.69 6.99 2.39
4.55 7.08 2.39
4.41 7.17 2.39
4.27 7.26 2.39
4.12 7.35 2.39
3.97 7.43 2.39
3.82 7.51 2.39
3.67 7.59 2.39
3.52 7.66 2.39
3.37 7.73 2.39
3.21 7.80 2.39
3.05 7.86 2.39
2.90 7.93 2.39
2.74 7.98 2.39
2.58 8.04 2.39
2.42 8.09 2.39
2.25 8.14 2.39
2.18 8.54 2.49
2.01 8.58 2.49
1.84 8.63 2.49
1.66 8.66 2.49
1.49 8.70 2.49
1.32 8.73 2.49
1.14 8.75 2.49
0.97 8.78 2.49
0.79 8.80 2.49
0.61 8.81 2.49
0.44 8.82 2.49
0.26 8.83 2.49
0.08 8.84 2.49
-0.10 8.84 2.49
-0.27 8.84 2.49
-0.45 8.83 2.49
-0.63 8.83 2.49
-0.81 8.81 2.49
-0.98 8.80 2.49
-1.16 8.78 2.49
-1.34 8.75 2.49
-1.51 8.73 2.49
-1.69 8.70 2.49
-1.86 8.66 2.49
-2.03 8.63 2.49
-2.21 8.59 2.49
-2.38 8.54 2.49
-2.55 8.49 2.49
-2.72 8.44 2.49
-2.89 8.39 2.49
-2.68 7.31 2.19
-2.54 6.50 1.96
-2.63 6.36 1.93
-2.71 6.19 1.90
-2.86 6.19 1.92
-3.01 6.19 1.93
-3.16 6.19 1.95
-3.32 6.19 1.97
-3.49 6.19 1.99
-3.65 6.19 2.02
-3.82 6.20 2.04
-3.99 6.20 2.07
-4.17 6.20 2.10
-4.36 6.20 2.12
-4.55 6.20 2.15
-5.40 7.07 2.49
-5.55 6.96 2.49
-5.69 6.85 2.49
-5.82 6.73 2.49
-5.87 6.52 2.46
-5.88 6.27 2.41
-5.96 6.11 2.39
-6.08 5.99 2.39
-6.20 5.87 2.39
-6.23 5.65 2.36
-6.23 5.43 2.31
-6.23 5.22 2.28
-6.32 5.08 2.27
-6.65 5.13 2.35
-6.75 5.00 2.35
-6.81 4.83 2.34
-6.82 4.63 2.31
-6.80 4.42 2.27
-6.88 4.29 2.27
-7.34 4.37 2.39
-7.43 4.22 2.39
-7.51 4.07 2.39
-7.59 3.92 2.39
-7.67 3.77 2.39
-7.75 3.61 2.39
-7.82 3.46 2.39
-7.88 3.30 2.39
-7.95 3.14 2.39
-8.01 2.98 2.39
-8.07 2.82 2.39
-8.12 2.66 2.39
-8.18 2.49 2.39
-8.22 2.33 2.39
-8.27 2.16 2.39
-8.31 2.00 2.39
-8.35 1.83 2.39
-8.38 1.66 2.39
-8.42 1.49 2.39
-8.44 1.33 2.39
-8.47 1.16 2.39
-8.49 0.99 2.39
-8.51 0.82 2.39
-8.52 0.64 2.39
-8.53 0.47 2.39
-8.54 0.30 2.39
-8.54 0.13 2.39
-8.54 -0.04 2.39
-8.54 -0.21 2.39
-8.53 -0.38 2.39
-8.52 -0.55 2.39
-8.51 -0.72 2.39
-8.49 -0.90 2.39
-8.47 -1.07 2.39
-8.45 -1.23 2.39
-8.42 -1.40 2.39
-8.39 -1.57 2.39
-8.36 -1.74 2.39
-8.32 -1.91 2.39
-8.28 -2.07 2.39
-8.23 -2.24 2.39
-8.19 -2.40 2.39
-8.13 -2.57 2.39
-8.08 -2.73 2.39
-8.02 -2.89 2.39
-6.19 -2.37 1.86
-6.11 -2.48 1.85
-7.83 -3.37 2.39
-7.76 -3.52 2.39
-7.69 -3.68 2.39
-7.61 -3.83 2.39
-7.53 -3.98 2.39
-7.45 -4.13 2.39
-7.36 -4.28 2.39
-7.27 -4.42 2.39
-7.18 -4.57 2.39
-7.09 -4.71 2.39
-6.99 -4.85 2.39
-6.89 -4.99 2.39
-6.79 -5.12 2.39
-6.68 -5.26 2.39
-6.57 -5.39 2.39
-6.46 -5.52 2.39
-6.35 -5.65 2.39
-6.23 -5.77 2.39
-6.12 -5.90 2.39
-5.99 -6.02 2.39
-5.90 -6.16 2.40
-5.89 -6.40 2.45
-5.86 -6.64 2.49
-5.73 -6.75 2.49
-5.59 -6.86 2.49
-5.45 -6.97 2.49
-5.31 -7.08 2.49
-5.16 -7.18 2.49
-5.01 -7.28 2.49
-4.87 -7.38 2.49
-4.72 -7.47 2.49
-4.56 -7.56 2.49
-4.41 -7.65 2.49
-4.25 -7.74 2.49
-4.10 -7.82 2.49
-3.94 -7.90 2.49
-3.78 -7.97 2.49
-3.62 -8.05 2.49
-3.45 -8.12 2.49
-3.29 -8.18 2.49
-3.12 -8.24 2.49
-2.96 -8.30 2.49
-2.79 -8.36 2.49
-2.62 -8.41 2.49
-2.45 -8.46 2.49
-2.28 -8.51 2.49
-2.11 -8.55 2.49
-1.94 -8.59 2.49
-1.76 -8.62 2.49
-1.59 -8.65 2.49
-1.41 -8.68 2.49
-1.24 -8.70 2.49
-1.06 -8.73 2.49
-0.89 -8.74 2.49
-0.71 -8.76 2.49
-0.54 -8.77 2.49
-0.36 -8.77 2.49
-0.18 -8.78 2.49
-0.01 -8.08 2.49
0.15 -8.08 2.49
0.32 -8.07 2.49
0.48 -8.06 2.49
0.64 -8.05 2.49
0.80 -8.03 2.49
0.96 -8.01 2.49
1.12 -7.99 2.49
1.28 -7.97 2.49
1.44 -7.94 2.49
1.60 -7.90 2.49
1.76 -7.87 2.49
1.92 -7.83 2.49
2.07 -7.79 2.49
2.16 -7.51 2.42
2.28 -7.38 2.39
2.43 -7.33 2.39
2.58 -7.28 2.39
2.72 -7.22 2.39
2.87 -7.17 2.39
3.01 -7.11 2.39
3.15 -7.04 2.39
3.29 -6.98 2.39
3.43 -6.91 2.39
3.57 -6.84 2.39
3.70 -6.76 2.39
3.84 -6.69 2.39
3.97 -6.61 2.39
4.10 -6.52 2.39
4.23 -6.44 2.39
4.36 -6.35 2.39
4.49 -6.26 2.39
4.61 -6.17 2.39
4.73 -6.08 2.39
4.85 -5.98 2.39
4.97 -5.88 2.39
5.09 -5.78 2.39
5.20 -5.67 2.39
5.32 -5.57 2.39
5.43 -5.46 2.39
5.53 -5.35 2.39
5.64 -5.23 2.39
5.74 -5.12 2.39
5.84 -5.00 2.39
5.94 -4.88 2.39
6.03 -4.75 2.39
6.11 -4.62 2.38
6.20 -4.49 2.38
6.28 -4.36 2.38
6.35 -4.23 2.37
6.43 -4.10 2.37
6.50 -3.96 2.37
6.69 -3.90 2.41
6.77 -3.76 2.41
6.84 -3.62 2.41
6.91 -3.48 2.41
6.98 -3.35 2.41
7.05 -3.20 2.41
7.11 -3.06 2.41
7.17 -2.92 2.41
7.23 -2.78 2.41
7.29 -2.63 2.41
7.34 -2.48 2.41
7.39 -2.34 2.41
7.44 -2.19 2.41
7.48 -2.04 2.41
7.53 -1.89 2.41
7.57 -1.74 2.41
7.60 -1.59 2.42
7.63 -1.43 2.42
7.66 -1.28 2.42
7.68 -1.13 2.42
7.70 -0.97 2.41
7.72 -0.82 2.41
7.74 -0.66 2.41
7.75 -0.50 2.41
7.76 -0.35 2.41
7.76 -0.19 2.41
7.77 -0.04 2.41
7.77 0.12 2.41
7.76 0.28 2.41
7.76 0.43 2.41
6.45 0.49 2.01
6.25 0.60 1.95
6.22 0.72 1.95
6.22 0.85 1.95
6.43 1.01 2.02
7.15 1.27 2.25
6.53 1.30 2.07
6.13 1.35 1.95
6.13 1.48 1.96
7.04 1.85 2.26
7.01 1.99 2.26
6.98 2.13 2.26
6.94 2.27 2.27
6.90 2.42 2.27
6.86 2.56 2.27
6.82 2.70 2.27
6.77 2.84 2.28
6.72 2.98 2.28
6.67 3.12 2.28
6.62 3.26 2.29
6.56 3.40 2.29
6.51 3.53 2.29
6.44 3.67 2.30
6.38 3.81 2.30
6.32 3.94 2.31
6.29 4.10 2.33
6.42 4.37 2.41
6.33 4.50 2.41
6.24 4.63 2.41
6.11 4.72 2.39
6.01 4.85 2.39
5.92 4.97 2.39
5.82 5.09 2.39
5.71 5.20 2.39
5.61 5.32 2.39
5.50 5.43 2.39
5.39 5.54 2.39
5.28 5.65 2.39
5.17 5.76 2.39
5.05 5.86 2.39
4.94 5.96 2.39
4.82 6.06 2.39
4.69 6.16 2.39
4.57 6.25 2.39
4.45 6.34 2.39
4.32 6.43 2.39
4.19 6.52 2.39
4.06 6.60 2.39
3.93 6.68 2.39
3.79 6.76 2.39
3.66 6.84 2.39
3.52 6.91 2.39
3.38 6.98 2.39
3.24 7.05 2.39
3.10 7.12 2.39
2.96 7.18 2.39
2.81 7.24 2.39
2.67 7.30 2.39
2.52 7.35 2.39
2.39 7.45 2.41
2.22 7.45 2.39
2.16 7.82 2.49
2.01 7.86 2.49
1.85 7.90 2.49
1.69 7.94 2.49
1.53 7.97 2.49
1.37 8.00 2.49
1.21 8.03 2.49
1.05 8.06 2.49
0.89 8.08 2.49
0.73 8.09 2.49
0.56 8.11 2.49
0.40 8.12 2.49
0.24 8.13 2.49
0.07 8.13 2.49
-0.09 8.14 2.49
-0.25 8.13 2.49
-0.42 8.13 2.49
-0.58 8.12 2.49
-0.74 8.11 2.49
-0.90 8.09 2.49
-1.07 8.08 2.49
-1.23 8.05 2.49
-1.39 8.03 2.49
-1.55 8.00 2.49
-1.71 7.97 2.49
-1.87 7.94 2.49
-2.03 7.90 2.49
-2.19 7.86 2.49
-2.35 7.81 2.49
-2.50 7.77 2.49
-2.66 7.72 2.49
-2.82 7.66 2.49
-2.51 6.44 2.11
-2.61 6.31 2.08
-2.71 6.19 2.06
-2.86 6.19 2.08
-3.01 6.19 2.10
-3.17 6.19 2.12
-3.32 6.19 2.15
-3.49 6.19 2.17
-3.65 6.20 2.19
-4.29 6.96 2.49
-4.13 6.41 2.33
-4.24 6.30 2.32
-4.41 6.27 2.34
-4.84 6.60 2.49
-4.97 6.50 2.49
-5.10 6.40 2.49
-5.23 6.30 2.49
-5.36 6.19 2.49
-5.48 6.08 2.49
-5.60 5.97 2.49
-5.72 5.86 2.49
-5.84 5.74 2.49
-5.87 5.55 2.46
-5.88 5.34 2.42
-5.92 5.16 2.39
-6.02 5.04 2.39
-6.12 4.92 2.39
-6.22 4.80 2.39
-6.23 4.61 2.36
-6.23 4.42 2.32
-6.23 4.23 2.29
-6.46 4.21 2.35
-6.67 4.15 2.39
-6.75 4.02 2.39
-6.83 3.88 2.39
-6.91 3.74 2.39
-6.98 3.61 2.39
-7.05 3.46 2.39
-7.12 3.32 2.39
-7.19 3.18 2.39
-7.25 3.03 2.39
-7.31 2.89 2.39
-7.37 2.74 2.39
-7.42 2.59 2.39
-7.47 2.44 2.39
-7.52 2.29 2.39
-7.56 2.14 2.39
-7.60 1.99 2.39
-7.64 1.84 2.39
-7.68 1.68 2.39
-7.71 1.53 2.39
-7.74 1.37 2.39
-7.77 1.22 2.39
-7.79 1.06 2.39
-7.81 0.91 2.39
-7.82 0.75 2.39
-7.84 0.59 2.39
-7.85 0.44 2.39
-7.85 0.28 2.39
-7.85 0.12 2.39
-7.85 -0.04 2.39
-7.85 -0.19 2.39
-7.85 -0.35 2.39
-7.84 -0.51 2.39
-7.83 -0.67 2.39
-7.81 -0.82 2.39
-7.79 -0.98 2.39
-7.77 -1.14 2.39
-7.74 -1.29 2.39
-7.72 -1.45 2.39
-7.69 -1.60 2.39
-7.65 -1.75 2.39
-7.61 -1.91 2.39
-7.57 -2.06 2.39
-7.53 -2.21 2.39
-7.48 -2.36 2.39
-7.43 -2.51 2.39
-7.38 -2.66 2.39
-6.19 -2.37 2.02
-6.11 -2.48 2.01
-7.20 -3.10 2.39
-7.14 -3.24 2.39
-7.07 -3.38 2.39
-7.00 -3.52 2.39
-6.93 -3.66 2.39
-6.85 -3.80 2.39
-6.77 -3.93 2.39
-6.69 -4.07 2.39
-6.61 -4.20 2.39
-6.52 -4.33 2.39
-6.43 -4.46 2.39
-6.34 -4.59 2.39
-6.24 -4.71 2.39
-6.15 -4.84 2.39
-6.05 -4.96 2.39
-5.95 -5.08 2.39
-5.89 -5.24 2.41
-5.89 -5.45 2.45
-5.87 -5.66 2.49
-5.75 -5.77 2.49
-5.64 -5.89 2.49
-5.52 -6.00 2.49
-5.39 -6.10 2.49
-5.27 -6.21 2.49
-5.14 -6.31 2.49
-5.01 -6.41 2.49
-4.88 -6.51 2.49
-4.75 -6.61 2.49
-4.61 -6.70 2.49
-4.48 -6.79 2.49
-4.34 -6.88 2.49
-4.20 -6.96 2.49
-4.06 -7.04 2.49
-3.92 -7.12 2.49
-3.77 -7.20 2.49
-3.63 -7.27 2.49
-3.48 -7.34 2.49
-3.33 -7.41 2.49
-3.18 -7.47 2.49
-3.03 -7.53 2.49
-2.88 -7.59 2.49
-2.72 -7.64 2.49
-2.57 -7.69 2.49
-2.41 -7.74 2.49
-2.26 -7.79 2.49
-2.10 -7.83 2.49
-1.94 -7.87 2.49
-1.78 -7.90 2.49
-1.62 -7.93 2.49
-1.46 -7.96 2.49
-1.30 -7.99 2.49
-1.14 -8.01 2.49
-0.98 -8.03 2.49
-0.82 -8.05 2.49
-0.66 -8.06 2.49
-0.49 -8.07 2.49
-0.33 -8.08 2.49
-0.17 -8.08 2.49
-0.01 -7.48 2.49
0.14 -7.48 2.49
0.29 -7.47 2.49
0.44 -7.46 2.49
0.59 -7.45 2.49
0.74 -7.43 2.49
0.89 -7.42 2.49
1.04 -7.40 2.49
1.19 -7.37 2.49
1.33 -7.35 2.49
1.48 -7.32 2.49
1.63 -7.28 2.49
1.77 -7.25 2.49
1.92 -7.21 2.49
2.06 -7.17 2.49
2.16 -6.97 2.44
2.25 -6.78 2.39
2.39 -6.74 2.39
2.52 -6.69 2.39
2.65 -6.63 2.39
2.79 -6.58 2.39
2.92 -6.52 2.39
3.05 -6.46 2.39
3.18 -6.39 2.39
3.30 -6.33 2.39
3.43 -6.26 2.39
3.55 -6.19 2.39
3.68 -6.12 2.39
3.80 -6.04 2.39
3.92 -5.96 2.39
4.04 -5.88 2.39
4.15 -5.80 2.39
4.27 -5.71 2.39
4.38 -5.62 2.39
4.49 -5.53 2.39
4.60 -5.44 2.39
4.71 -5.35 2.39
4.82 -5.25 2.39
4.92 -5.15 2.39
5.02 -5.05 2.39
5.12 -4.95 2.39
5.22 -4.85 2.39
5.32 -4.74 2.39
5.41 -4.63 2.39
5.50 -4.52 2.39
5.59 -4.41 2.39
5.68 -4.30 2.39
5.76 -4.18 2.39
5.85 -4.06 2.39
5.93 -3.95 2.39
6.00 -3.83 2.39
6.08 -3.70 2.39
6.15 -3.58 2.39
6.27 -3.49 2.41
6.34 -3.36 2.41
6.41 -3.23 2.41
6.47 -3.10 2.41
6.53 -2.97 2.41
6.59 -2.84 2.41
6.65 -2.71 2.41
6.70 -2.57 2.41
6.75 -2.44 2.41
6.80 -2.30 2.41
6.85 -2.16 2.41
6.89 -2.03 2.41
6.93 -1.89 2.41
6.97 -1.75 2.41
7.01 -1.61 2.41
7.04 -1.47 2.41
7.06 -1.33 2.41
7.09 -1.18 2.41
7.11 -1.04 2.41
7.13 -0.90 2.41
7.15 -0.75 2.41
7.16 -0.61 2.41
7.17 -0.47 2.41
7.18 -0.32 2.41
7.19 -0.18 2.41
7.19 -0.03 2.41
7.19 0.11 2.41
7.19 0.26 2.41
7.18 0.40 2.41
7.17 0.54 2.41
6.27 0.60 2.11
6.23 0.73 2.11
6.23 0.85 2.11
6.46 1.02 2.19
6.74 1.20 2.30
6.53 1.30 2.23
6.13 1.35 2.11
6.13 1.48 2.11
6.61 1.73 2.29
6.58 1.87 2.29
6.55 2.00 2.30
6.51 2.14 2.30
6.48 2.27 2.30
6.44 2.40 2.30
6.40 2.53 2.31
6.35 2.66 2.31
6.34 2.81 2.32
6.34 2.96 2.34
6.33 3.12 2.36
6.33 3.27 2.39
6.32 3.43 2.41
6.25 3.56 2.41
6.13 3.66 2.39
6.06 3.78 2.39
5.98 3.90 2.39
5.90 4.02 2.39
5.82 4.14 2.39
5.74 4.26 2.39
5.65 4.37 2.39
5.57 4.49 2.39
5.48 4.60 2.39
5.38 4.71 2.39
5.29 4.82 2.39
5.19 4.92 2.39
5.09 5.03 2.39
4.99 5.13 2.39
4.89 5.23 2.39
4.78 5.33 2.39
4.68 5.42 2.39
4.57 5.52 2.39
4.46 5.61 2.39
4.34 5.70 2.39
4.23 5.79 2.39
4.11 5.87 2.39
4.00 5.95 2.39
3.88 6.03 2.39
3.76 6.11 2.39
3.63 6.19 2.39
3.51 6.26 2.39
3.38 6.33 2.39
3.26 6.40 2.39
3.13 6.46 2.39
3.00 6.53 2.39
2.87 6.59 2.39
2.73 6.64 2.39
2.60 6.70 2.39
2.47 6.75 2.39
2.33 6.80 2.39
2.19 6.85 2.39
2.15 7.19 2.49
2.00 7.23 2.49
1.86 7.27 2.49
1.71 7.31 2.49
1.56 7.34 2.49
1.42 7.38 2.49
1.27 7.40 2.49
1.12 7.43 2.49
0.97 7.45 2.49
0.82 7.47 2.49
0.67 7.49 2.49
0.52 7.50 2.49
0.37 7.51 2.49
0.22 7.52 2.49
0.07 7.52 2.49
-0.08 7.53 2.49
-0.23 7.52 2.49
-0.39 7.52 2.49
-0.54 7.51 2.49
-0.69 7.50 2.49
-0.84 7.49 2.49
-0.99 7.47 2.49
-1.14 7.45 2.49
-1.29 7.43 2.49
-1.44 7.40 2.49
-1.58 7.37 2.49
-1.73 7.34 2.49
-1.88 7.31 2.49
-2.03 7.27 2.49
-2.17 7.23 2.49
-2.32 7.18 2.49
-2.46 7.14 2.49
-2.60 7.09 2.49
-2.54 6.51 2.31
-2.62 6.33 2.26
-2.73 6.25 2.25
-2.87 6.23 2.26
-3.08 6.33 2.32
-3.44 6.73 2.49
-3.57 6.66 2.49
-3.71 6.59 2.49
-3.84 6.51 2.49
-3.97 6.44 2.49
-4.10 6.36 2.49
-4.23 6.27 2.49
-4.35 6.19 2.49
-4.48 6.10 2.49
-4.60 6.01 2.49
-4.72 5.92 2.49
-4.84 5.82 2.49
-4.95 5.73 2.49
-5.07 5.63 2.49
-5.18 5.52 2.49
-5.29 5.42 2.49
-5.40 5.31 2.49
-5.50 5.20 2.49
-5.61 5.09 2.49
-5.71 4.98 2.49
-5.81 4.86 2.49
-5.87 4.72 2.48
-5.87 4.53 2.44
-5.88 4.35 2.41
-5.93 4.20 2.39
-6.01 4.08 2.39
-6.09 3.96 2.39
-6.17 3.84 2.39
-6.24 3.72 2.39
-6.32 3.59 2.39
-6.39 3.46 2.39
-6.46 3.33 2.39
-6.52 3.20 2.39
-6.59 3.07 2.39
-6.65 2.94 2.39
-6.70 2.81 2.39
-6.76 2.67 2.39
-6.81 2.54 2.39
-6.86 2.40 2.39
-6.91 2.26 2.39
-6.95 2.12 2.39
-6.99 1.98 2.39
-7.03 1.84 2.39
-7.07 1.70 2.39
-7.10 1.56 2.39
-7.13 1.41 2.39
-7.16 1.27 2.39
-7.18 1.13 2.39
-7.20 0.98 2.39
-7.22 0.84 2.39
-7.23 0.69 2.39
-7.25 0.55 2.39
-7.26 0.40 2.39
-7.26 0.26 2.39
-7.26 0.11 2.39
-7.27 -0.03 2.39
-7.26 -0.18 2.39
-7.26 -0.33 2.39
-7.25 -0.47 2.39
-7.24 -0.62 2.39
-7.22 -0.76 2.39
-7.21 -0.91 2.39
-7.19 -1.05 2.39
-7.16 -1.19 2.39
-7.14 -1.34 2.39
-7.11 -1.48 2.39
-7.08 -1.62 2.39
-7.04 -1.76 2.39
-7.00 -1.90 2.39
-6.96 -2.04 2.39
-6.92 -2.18 2.39
-6.87 -2.32 2.39
-6.82 -2.46 2.39
-6.19 -2.37 2.19
-6.10 -2.48 2.17
-6.66 -2.86 2.39
-6.60 -2.99 2.39
-6.54 -3.13 2.39
-6.47 -3.26 2.39
-6.41 -3.39 2.39
-6.34 -3.51 2.39
-6.26 -3.64 2.39
-6.19 -3.76 2.39
-6.11 -3.89 2.39
-6.03 -4.01 2.39
-5.95 -4.13 2.39
-5.89 -4.27 2.40
-5.89 -4.44 2.44
-5.89 -4.63 2.47
-5.84 -4.78 2.49
-5.74 -4.90 2.49
-5.64 -5.01 2.49
-5.53 -5.12 2.49
-5.43 -5.23 2.49
-5.32 -5.34 2.49
-5.21 -5.44 2.49
-5.10 -5.55 2.49
-4.99 -5.65 2.49
-4.87 -5.74 2.49
-4.76 -5.84 2.49
-4.64 -5.93 2.49
-4.52 -6.02 2.49
-4.39 -6.11 2.49
-4.27 -6.20 2.49
-4.14 -6.28 2.49
-4.02 -6.36 2.49
-3.89 -6.44 2.49
-3.76 -6.51 2.49
-3.62 -6.59 2.49
-3.49 -6.66 2.49
-3.35 -6.72 2.49
-3.22 -6.79 2.49
-3.08 -6.85 2.49
-2.94 -6.91 2.49
-2.80 -6.97 2.49
-2.66 -7.02 2.49
-2.52 -7.07 2.49
-2.38 -7.12 2.49
-2.23 -7.16 2.49
-2.09 -7.20 2.49
-1.94 -7.24 2.49
-1.80 -7.28 2.49
-1.65 -7.31 2.49
-1.50 -7.34 2.49
-1.35 -7.37 2.49
-1.21 -7.39 2.49
-1.06 -7.42 2.49
-0.91 -7.43 2.49
-0.76 -7.45 2.49
-0.61 -7.46 2.49
-0.46 -7.47 2.49
-0.31 -7.48 2.49
-0.16 -7.48 2.49
-0.01 -6.95 2.49
0.13 -6.95 2.49
0.27 -6.95 2.49
0.41 -6.94 2.49
0.55 -6.93 2.49
0.69 -6.91 2.49
0.83 -6.90 2.49
0.97 -6.88 2.49
1.10 -6.85 2.49
1.24 -6.83 2.49
1.38 -6.80 2.49
1.51 -6.77 2.49
1.65 -6.74 2.49
1.78 -6.70 2.49
1.92 -6.67 2.49
2.05 -6.62 2.49
2.16 -6.50 2.46
2.22 -6.26 2.39
2.34 -6.22 2.39
2.47 -6.17 2.39
2.59 -6.12 2.39
2.71 -6.06 2.39
2.83 -6.01 2.39
2.95 -5.95 2.39
3.07 -5.89 2.39
3.19 -5.82 2.39
3.30 -5.76 2.39
3.42 -5.69 2.39
3.53 -5.62 2.39
3.64 -5.54 2.39
3.75 -5.47 2.39
3.86 -5.39 2.39
3.97 -5.31 2.39
4.07 -5.23 2.39
4.18 -5.15 2.39
4.28 -5.06 2.39
4.38 -4.97 2.39
4.48 -4.88 2.39
4.58 -4.79 2.39
4.67 -4.70 2.39
4.76 -4.60 2.39
4.86 -4.51 2.39
4.94 -4.41 2.39
5.03 -4.31 2.39
5.12 -4.21 2.39
5.20 -4.10 2.39
5.28 -4.00 2.39
5.36 -3.89 2.39
5.44 -3.78 2.39
5.51 -3.67 2.39
5.58 -3.56 2.39
5.65 -3.45 2.39
5.72 -3.33 2.39
5.79 -3.22 2.39
5.85 -3.10 2.39
5.91 -2.98 2.39
5.97 -2.86 2.39
6.03 -2.74 2.39
6.08 -2.62 2.39
6.13 -2.50 2.39
6.18 -2.37 2.39
6.29 -2.27 2.41
6.33 -2.14 2.41
6.37 -2.01 2.41
6.41 -1.89 2.41
6.45 -1.76 2.41
6.48 -1.63 2.41
6.51 -1.50 2.41
6.54 -1.36 2.41
6.56 -1.23 2.41
6.59 -1.10 2.41
6.61 -0.97 2.41
6.63 -0.83 2.41
6.64 -0.70 2.41
6.66 -0.57 2.41
6.67 -0.43 2.41
6.67 -0.30 2.41
6.68 -0.17 2.41
6.68 -0.03 2.41
6.68 0.10 2.41
6.68 0.24 2.41
6.67 0.37 2.41
6.66 0.51 2.41
6.28 0.60 2.28
6.24 0.73 2.27
6.24 0.85 2.27
6.60 1.04 2.41
6.58 1.17 2.41
6.40 1.27 2.35
6.13 1.35 2.26
6.13 1.48 2.27
6.39 1.68 2.38
6.38 1.81 2.39
6.38 1.95 2.40
6.34 2.08 2.41
6.30 2.21 2.41
6.26 2.33 2.41
6.17 2.44 2.39
6.12 2.57 2.39
6.07 2.69 2.39
6.01 2.81 2.39
5.95 2.93 2.39
5.90 3.05 2.39
5.83 3.17 2.39
5.77 3.29 2.39
5.70 3.40 2.39
5.63 3.52 2.39
5.56 3.63 2.39
5.49 3.74 2.39
5.42 3.85 2.39
5.34 3.96 2.39
5.26 4.07 2.39
5.18 4.17 2.39
5.09 4.28 2.39
5.01 4.38 2.39
4.92 4.48 2.39
4.83 4.58 2.39
4.74 4.67 2.39
4.64 4.77 2.39
4.55 4.86 2.39
4.45 4.95 2.39
4.35 5.04 2.39
4.25 5.13 2.39
4.14 5.21 2.39
4.04 5.30 2.39
3.93 5.38 2.39
3.82 5.46 2.39
3.71 5.53 2.39
3.60 5.61 2.39
3.49 5.68 2.39
3.38 5.75 2.39
3.26 5.82 2.39
3.14 5.88 2.39
3.03 5.95 2.39
2.91 6.01 2.39
2.79 6.07 2.39
2.66 6.12 2.39
2.54 6.18 2.39
2.42 6.23 2.39
2.29 6.28 2.39
2.19 6.38 2.41
2.13 6.64 2.49
1.99 6.68 2.49
1.86 6.72 2.49
1.72 6.76 2.49
1.59 6.80 2.49
1.45 6.83 2.49
1.32 6.86 2.49
1.18 6.88 2.49
1.04 6.91 2.49
0.90 6.93 2.49
0.76 6.95 2.49
0.62 6.96 2.49
0.48 6.97 2.49
