ply
format ascii 1.0
element vertex 2971
property float32 x
property float32 y
property float32 z
end_header
-11.08 6.60 2.41
-11.21 6.38 2.41
-11.00 5.97 2.34
-11.10 5.74 2.33
-11.19 5.50 2.33
-11.27 5.27 2.32
-11.36 5.03 2.32
-11.43 4.79 2.32
-11.51 4.55 2.31
-11.58 4.32 2.31
-11.65 4.08 2.31
-11.71 3.84 2.30
-11.77 3.60 2.30
-11.82 3.35 2.30
-11.87 3.11 2.30
-11.92 2.87 2.30
-11.96 2.63 2.29
-12.00 2.38 2.29
-12.03 2.14 2.29
-12.06 1.90 2.29
-12.09 1.65 2.29
-9.28 1.08 1.75
-9.28 0.89 1.75
-12.66 0.96 2.38
-12.67 0.71 2.38
-10.53 0.38 1.98
-10.51 0.16 1.97
-10.48 -0.05 1.97
-10.48 -0.26 1.97
-10.48 -0.47 1.97
-10.49 -0.68 1.98
-10.57 -0.90 2.00
-12.60 -1.33 2.38
-12.58 -1.58 2.39
-10.51 -1.53 2.00
-10.51 -1.75 2.01
-10.49 -1.97 2.01
-10.46 -2.18 2.01
-10.49 -2.40 2.03
-10.49 -2.63 2.04
-10.00 -2.72 1.96
-9.94 -2.92 1.96
-9.88 -3.12 1.96
-9.81 -3.31 1.96
-9.76 -3.52 1.96
-9.76 -3.74 1.98
-9.77 -3.97 1.99
-9.78 -4.20 2.01
-9.78 -4.44 2.03
-9.78 -4.68 2.05
-9.78 -4.92 2.07
-9.78 -5.17 2.09
-9.78 -5.42 2.12
-9.78 -5.68 2.14
-9.78 -5.95 2.17
-9.78 -6.22 2.20
-9.78 -6.50 2.22
-9.78 -6.79 2.26
-9.78 -7.08 2.29
-9.78 -7.39 2.32
-9.78 -7.70 2.36
-9.74 -7.99 2.39
-9.58 -8.18 2.39
-9.41 -8.37 2.39
-9.24 -8.56 2.39
-9.06 -8.74 2.39
-8.88 -8.92 2.39
-8.70 -9.09 2.39
-8.51 -9.26 2.39
-8.32 -9.43 2.39
-8.13 -9.59 2.39
-7.93 -9.75 2.39
-7.74 -9.91 2.39
-7.53 -10.06 2.39
-7.33 -10.21 2.39
-7.12 -10.35 2.39
-6.23 -9.46 2.15
-6.70 -10.63 2.39
-6.48 -10.76 2.39
-6.26 -10.88 2.39
-6.04 -11.01 2.39
-6.07 -11.60 2.49
-5.84 -11.72 2.49
-5.60 -11.83 2.49
-5.36 -11.94 2.49
-5.12 -12.05 2.49
-4.87 -12.15 2.49
-4.63 -12.24 2.49
-4.38 -12.33 2.49
-4.13 -12.41 2.49
-3.88 -12.49 2.49
-3.63 -12.57 2.49
-3.38 -12.64 2.49
-3.12 -12.70 2.49
-2.87 -12.76 2.49
-2.61 -12.81 2.49
-2.35 -12.86 2.49
-2.09 -12.91 2.49
-1.83 -12.95 2.49
-1.57 -12.98 2.49
-1.31 -13.01 2.49
-1.05 -13.03 2.49
-0.79 -13.05 2.49
-0.53 -13.06 2.49
-0.26 -13.07 2.49
-0.00 -11.64 2.49
0.23 -11.64 2.49
0.47 -11.63 2.49
0.70 -11.62 2.49
0.93 -11.60 2.49
1.17 -11.58 2.49
1.40 -11.56 2.49
1.63 -11.53 2.49
1.86 -11.49 2.49
2.09 -11.45 2.49
2.23 -10.94 2.39
2.40 -10.69 2.35
2.40 -9.77 2.16
2.28 -8.55 1.89
3.10 -10.73 2.39
3.31 -10.66 2.39
3.53 -10.59 2.39
3.74 -10.52 2.39
3.95 -10.45 2.39
4.16 -10.37 2.39
4.37 -10.28 2.39
4.57 -10.19 2.39
4.78 -10.10 2.39
4.98 -10.00 2.39
5.18 -9.90 2.39
5.38 -9.80 2.39
5.58 -9.69 2.39
5.77 -9.58 2.39
5.96 -9.46 2.39
5.86 -8.16 2.15
5.92 -7.91 2.11
5.92 -7.59 2.06
5.92 -7.28 2.00
5.92 -6.99 1.96
5.92 -6.71 1.91
5.93 -6.45 1.87
5.93 -6.19 1.83
5.93 -5.95 1.79
5.93 -5.72 1.76
5.93 -5.49 1.72
5.93 -5.28 1.69
5.93 -5.07 1.66
5.93 -4.86 1.63
5.93 -4.67 1.61
5.93 -4.48 1.58
5.93 -4.29 1.56
5.91 -4.10 1.53
5.93 -3.94 1.52
5.93 -3.77 1.50
5.93 -3.61 1.48
5.93 -3.45 1.46
5.93 -3.29 1.44
5.93 -3.14 1.43
5.93 -2.99 1.41
5.93 -2.84 1.40
5.93 -2.69 1.38
5.93 -2.55 1.37
5.93 -2.41 1.36
5.93 -2.27 1.35
5.93 -2.14 1.34
5.93 -2.00 1.33
5.93 -1.87 1.32
5.93 -1.74 1.31
5.93 -1.61 1.30
5.93 -1.49 1.30
5.94 -1.36 1.29
5.94 -1.24 1.29
5.94 -1.11 1.28
5.94 -0.99 1.28
5.94 -0.87 1.27
5.94 -0.75 1.27
5.94 -0.62 1.26
5.94 -0.50 1.26
5.94 -0.38 1.26
5.90 -0.26 1.25
5.88 -0.14 1.24
5.94 -0.03 1.26
5.94 0.09 1.26
5.94 0.21 1.26
5.94 0.33 1.26
5.94 0.45 1.26
5.94 0.57 1.26
5.94 0.69 1.26
5.94 0.81 1.27
5.94 0.93 1.27
5.94 1.06 1.27
5.94 1.18 1.28
5.94 1.31 1.28
5.94 1.43 1.29
5.94 1.56 1.29
5.94 1.69 1.30
5.94 1.82 1.31
4.23 1.39 0.94
4.11 1.44 0.92
4.03 1.50 0.90
3.97 1.57 0.90
3.94 1.65 0.90
3.93 1.74 0.90
3.95 1.84 0.92
4.03 1.98 0.94
5.94 3.07 1.41
5.94 3.23 1.42
5.94 3.38 1.44
5.94 3.54 1.45
5.95 3.71 1.47
5.88 3.83 1.47
5.95 4.05 1.51
5.95 4.22 1.53
5.95 4.41 1.55
5.95 4.60 1.58
5.95 4.79 1.60
5.95 4.99 1.63
5.95 5.20 1.66
5.95 5.41 1.69
5.95 5.63 1.72
5.95 5.87 1.75
5.95 6.11 1.79
5.95 6.36 1.82
5.95 6.62 1.86
5.95 6.89 1.91
5.95 7.18 1.95
5.95 7.48 2.00
5.91 7.74 2.04
5.95 8.13 2.11
5.90 8.41 2.15
5.99 9.74 2.39
5.80 9.86 2.39
5.60 9.97 2.39
5.40 10.08 2.39
5.20 10.19 2.39
4.99 10.29 2.39
4.78 10.39 2.39
4.57 10.49 2.39
4.36 10.58 2.39
4.15 10.67 2.39
2.83 7.73 1.72
3.72 10.83 2.39
3.50 10.90 2.39
3.28 10.97 2.39
3.06 11.03 2.39
2.84 11.09 2.39
2.62 11.15 2.39
2.39 11.20 2.39
2.18 11.29 2.40
2.03 11.78 2.49
1.79 11.82 2.49
1.55 11.85 2.49
1.32 11.88 2.49
1.08 11.90 2.49
0.84 11.92 2.49
0.60 11.94 2.49
0.36 11.95 2.49
0.12 11.95 2.49
-0.12 11.95 2.49
-0.36 11.95 2.49
-0.60 11.94 2.49
-0.84 11.92 2.49
-1.08 11.90 2.49
-1.32 11.88 2.49
-1.55 11.85 2.49
-1.79 11.82 2.49
-2.03 11.78 2.49
-2.26 11.73 2.49
-2.50 11.69 2.49
-2.73 11.63 2.49
-2.97 11.57 2.49
-3.20 11.51 2.49
-3.43 11.44 2.49
-3.66 11.37 2.49
-3.88 11.30 2.49
-4.11 11.22 2.49
-4.33 11.13 2.49
-4.55 11.04 2.49
-4.77 10.94 2.49
-4.99 10.85 2.49
-5.21 10.74 2.49
-5.42 10.63 2.49
-5.63 10.52 2.49
-5.84 10.41 2.49
-5.88 10.00 2.42
-6.00 9.74 2.39
-6.19 9.62 2.39
-6.38 9.49 2.39
-6.57 9.36 2.39
-6.75 9.22 2.39
-6.94 9.08 2.39
-7.12 8.94 2.39
-7.29 8.80 2.39
-7.47 8.65 2.39
-7.64 8.49 2.39
-7.80 8.34 2.39
-7.97 8.18 2.39
-8.13 8.01 2.39
-8.29 7.85 2.39
-8.44 7.68 2.39
-8.59 7.51 2.39
-8.74 7.33 2.39
-8.88 7.15 2.39
-9.02 6.97 2.39
-9.16 6.79 2.39
-9.29 6.60 2.39
-9.42 6.41 2.39
-9.54 6.22 2.39
-9.66 6.03 2.39
-9.78 5.83 2.39
-9.88 5.63 2.39
-9.98 5.42 2.38
-10.06 5.20 2.38
-10.15 4.99 2.38
-10.23 4.78 2.37
-10.30 4.57 2.37
-10.38 4.35 2.37
-10.45 4.14 2.36
-10.51 3.92 2.36
-10.57 3.70 2.36
-10.63 3.48 2.35
-10.69 3.27 2.35
-10.74 3.05 2.35
-10.78 2.83 2.35
-10.83 2.61 2.35
-10.87 2.39 2.34
-10.90 2.17 2.34
-10.93 1.95 2.34
-10.96 1.73 2.34
-10.99 1.50 2.34
-9.29 1.08 1.97
-9.29 0.89 1.97
-11.36 0.86 2.41
-11.38 0.64 2.41
-10.54 0.38 2.23
-9.77 0.15 2.06
-9.77 -0.04 2.06
-9.77 -0.24 2.07
-9.77 -0.44 2.07
-9.77 -0.63 2.07
-9.77 -0.83 2.07
-9.77 -1.03 2.08
-9.77 -1.23 2.08
-9.77 -1.43 2.09
-9.77 -1.63 2.10
-9.77 -1.83 2.11
-9.77 -2.03 2.11
-9.77 -2.24 2.12
-9.77 -2.45 2.14
-9.77 -2.66 2.15
-9.77 -2.87 2.16
-9.77 -3.08 2.17
-9.77 -3.30 2.19
-9.77 -3.52 2.21
-9.77 -3.74 2.22
-9.77 -3.97 2.24
-9.78 -4.20 2.26
-9.78 -4.44 2.28
-9.78 -4.68 2.30
-9.78 -4.92 2.33
-9.78 -5.17 2.35
-9.78 -5.42 2.38
-9.71 -5.64 2.39
-9.60 -5.84 2.39
-9.47 -6.03 2.39
-9.35 -6.22 2.39
-9.22 -6.40 2.39
-9.09 -6.58 2.39
-8.95 -6.76 2.39
-8.81 -6.94 2.39
-8.67 -7.11 2.39
-8.52 -7.28 2.39
-8.37 -7.45 2.39
-8.22 -7.62 2.39
-8.06 -7.78 2.39
-7.91 -7.94 2.39
-7.74 -8.09 2.39
-7.58 -8.25 2.39
-7.41 -8.40 2.39
-7.24 -8.54 2.39
-7.06 -8.68 2.39
-6.89 -8.82 2.39
-6.71 -8.96 2.39
-6.52 -9.09 2.39
-6.34 -9.22 2.39
-6.15 -9.34 2.39
-5.96 -9.46 2.39
-5.93 -9.84 2.46
-5.82 -10.11 2.49
-5.61 -10.22 2.49
-5.41 -10.33 2.49
-5.20 -10.44 2.49
-4.98 -10.54 2.49
-4.77 -10.63 2.49
-4.56 -10.73 2.49
-4.34 -10.81 2.49
-4.12 -10.90 2.49
-3.90 -10.98 2.49
-3.68 -11.05 2.49
-3.46 -11.12 2.49
-3.23 -11.19 2.49
-3.01 -11.25 2.49
-2.78 -11.31 2.49
-2.55 -11.36 2.49
-2.32 -11.41 2.49
-2.09 -11.45 2.49
-1.86 -11.49 2.49
-1.63 -11.53 2.49
-1.40 -11.56 2.49
-1.17 -11.58 2.49
-0.93 -11.60 2.49
-0.70 -11.62 2.49
-0.47 -11.63 2.49
-0.23 -11.64 2.49
-0.00 -10.48 2.49
0.21 -10.48 2.49
0.42 -10.47 2.49
0.63 -10.46 2.49
0.84 -10.45 2.49
1.05 -10.43 2.49
1.26 -10.41 2.49
1.47 -10.38 2.49
1.68 -10.35 2.49
1.88 -10.31 2.49
2.09 -10.27 2.49
2.20 -9.81 2.39
2.40 -9.76 2.39
2.28 -8.55 2.10
2.79 -9.66 2.39
2.98 -9.60 2.39
3.18 -9.54 2.39
3.37 -9.47 2.39
3.56 -9.41 2.39
3.75 -9.33 2.39
3.93 -9.26 2.39
4.12 -9.18 2.39
4.30 -9.09 2.39
4.48 -9.01 2.39
4.66 -8.91 2.39
4.84 -8.82 2.39
5.02 -8.72 2.39
5.19 -8.62 2.39
5.37 -8.52 2.39
5.54 -8.41 2.39
5.71 -8.30 2.39
5.87 -8.18 2.39
6.04 -8.06 2.39
5.90 -7.25 2.22
5.87 -6.92 2.15
5.91 -6.70 2.12
5.93 -6.45 2.08
5.93 -6.19 2.03
5.93 -5.95 1.99
5.93 -5.72 1.95
5.93 -5.49 1.91
5.93 -5.28 1.88
5.93 -5.07 1.85
5.93 -4.86 1.82
5.93 -4.67 1.79
5.93 -4.48 1.76
5.93 -4.29 1.73
5.91 -4.10 1.70
5.93 -3.94 1.68
5.93 -3.77 1.66
5.93 -3.61 1.64
5.93 -3.45 1.62
5.93 -3.29 1.60
5.93 -3.14 1.59
5.93 -2.98 1.57
5.93 -2.84 1.55
5.93 -2.69 1.54
5.93 -2.55 1.53
5.93 -2.41 1.51
5.93 -2.27 1.50
5.93 -2.14 1.49
5.93 -2.00 1.48
5.93 -1.87 1.47
5.93 -1.74 1.46
5.93 -1.61 1.45
5.93 -1.49 1.44
5.94 -1.36 1.44
5.94 -1.24 1.43
5.94 -1.11 1.42
5.94 -0.99 1.42
5.94 -0.87 1.41
5.94 -0.74 1.41
5.94 -0.62 1.41
5.94 -0.50 1.40
5.94 -0.38 1.40
5.90 -0.26 1.39
5.88 -0.14 1.38
5.94 -0.03 1.40
5.94 0.09 1.40
5.94 0.21 1.40
5.94 0.33 1.40
5.94 0.45 1.40
5.94 0.57 1.40
5.94 0.69 1.40
5.94 0.81 1.41
5.94 0.94 1.41
5.94 1.06 1.42
5.94 1.18 1.42
5.94 1.31 1.43
5.94 1.43 1.43
5.94 1.56 1.44
5.94 1.69 1.45
5.94 1.82 1.46
4.24 1.39 1.04
4.11 1.44 1.02
4.02 1.50 1.01
3.97 1.57 1.00
3.94 1.65 1.00
3.93 1.74 1.01
3.94 1.84 1.02
4.03 1.98 1.05
5.94 3.07 1.56
5.94 3.23 1.58
5.94 3.38 1.60
5.94 3.54 1.62
5.95 3.71 1.64
5.88 3.83 1.64
5.95 4.05 1.68
5.95 4.23 1.70
5.95 4.41 1.73
5.95 4.60 1.75
5.95 4.79 1.78
5.95 4.99 1.81
5.95 5.20 1.84
5.95 5.41 1.88
5.95 5.63 1.91
5.95 5.87 1.95
5.95 6.11 1.99
5.95 6.36 2.03
5.95 6.62 2.07
5.94 6.88 2.12
5.90 7.11 2.15
5.93 7.45 2.22
5.91 7.74 2.27
6.06 8.28 2.39
5.90 8.41 2.39
5.73 8.52 2.39
5.56 8.64 2.39
5.38 8.75 2.39
5.21 8.86 2.39
5.03 8.96 2.39
4.85 9.06 2.39
4.67 9.16 2.39
4.48 9.25 2.39
4.30 9.34 2.39
4.11 9.42 2.39
3.92 9.51 2.39
3.73 9.58 2.39
2.83 7.72 1.91
3.34 9.73 2.39
3.15 9.79 2.39
2.95 9.85 2.39
2.75 9.91 2.39
2.55 9.97 2.39
2.35 10.02 2.39
2.17 10.16 2.41
2.03 10.54 2.49
1.82 10.58 2.49
1.61 10.61 2.49
1.40 10.64 2.49
1.18 10.67 2.49
0.97 10.69 2.49
0.75 10.71 2.49
0.54 10.72 2.49
0.32 10.73 2.49
0.11 10.74 2.49
-0.11 10.74 2.49
-0.32 10.73 2.49
-0.54 10.72 2.49
-0.75 10.71 2.49
-0.97 10.69 2.49
-1.18 10.67 2.49
-1.40 10.64 2.49
-1.61 10.61 2.49
-1.82 10.58 2.49
-2.03 10.54 2.49
-2.24 10.50 2.49
-2.45 10.45 2.49
-2.66 10.40 2.49
-2.87 10.34 2.49
-3.08 10.28 2.49
-3.28 10.22 2.49
-3.49 10.15 2.49
-3.69 10.08 2.49
-3.89 10.00 2.49
-4.09 9.92 2.49
-4.29 9.83 2.49
-4.48 9.74 2.49
-4.68 9.65 2.49
-4.87 9.55 2.49
-5.06 9.45 2.49
-5.25 9.35 2.49
-5.43 9.24 2.49
-5.62 9.13 2.49
-5.80 9.01 2.49
-5.88 8.75 2.45
-5.90 8.41 2.39
-6.08 8.30 2.39
-6.23 8.16 2.39
-6.39 8.03 2.39
-6.55 7.90 2.39
-6.71 7.77 2.39
-6.86 7.63 2.39
-7.01 7.49 2.39
-7.16 7.35 2.39
-7.30 7.20 2.39
-7.45 7.05 2.39
-7.58 6.90 2.39
-7.72 6.75 2.39
-7.85 6.59 2.39
-7.98 6.43 2.39
-8.11 6.27 2.39
-8.23 6.10 2.39
-8.35 5.93 2.39
-8.47 5.76 2.39
-8.58 5.59 2.39
-8.69 5.42 2.39
-8.79 5.24 2.39
-8.89 5.06 2.39
-8.99 4.88 2.39
-9.08 4.70 2.39
-9.18 4.51 2.39
-9.26 4.33 2.39
-9.35 4.14 2.39
-9.42 3.95 2.39
-9.50 3.76 2.39
-9.57 3.57 2.39
-9.64 3.38 2.39
-9.70 3.18 2.39
-9.76 2.98 2.39
-9.82 2.79 2.39
-9.87 2.59 2.39
-9.91 2.39 2.39
-9.95 2.19 2.39
-9.98 1.99 2.39
-10.01 1.78 2.38
-10.04 1.58 2.38
-10.16 1.39 2.41
-9.31 1.08 2.20
-9.31 0.90 2.19
-10.22 0.78 2.41
-10.23 0.57 2.41
-10.24 0.37 2.41
-9.77 0.15 2.29
-9.77 -0.04 2.30
-9.77 -0.24 2.30
-9.77 -0.44 2.30
-9.77 -0.63 2.30
-9.77 -0.83 2.31
-9.77 -1.03 2.31
-9.77 -1.23 2.32
-9.77 -1.43 2.32
-9.77 -1.63 2.33
-9.77 -1.83 2.34
-9.77 -2.03 2.35
-9.77 -2.24 2.36
-9.77 -2.45 2.37
-9.77 -2.66 2.39
-9.73 -2.85 2.39
-9.67 -3.05 2.39
-9.60 -3.24 2.39
-9.53 -3.43 2.39
-9.46 -3.62 2.39
-9.38 -3.81 2.39
-9.30 -4.00 2.39
-9.22 -4.18 2.39
-9.13 -4.37 2.39
-9.04 -4.55 2.39
-8.94 -4.73 2.39
-8.84 -4.90 2.39
-8.74 -5.08 2.39
-8.64 -5.25 2.39
-8.53 -5.42 2.39
-8.41 -5.59 2.39
-8.30 -5.76 2.39
-8.18 -5.92 2.39
-8.06 -6.09 2.39
-7.93 -6.25 2.39
-7.80 -6.40 2.39
-7.67 -6.56 2.39
-7.54 -6.71 2.39
-7.40 -6.86 2.39
-7.26 -7.00 2.39
-7.12 -7.15 2.39
-6.97 -7.29 2.39
-6.82 -7.42 2.39
-6.67 -7.56 2.39
-6.52 -7.69 2.39
-6.36 -7.82 2.39
-6.20 -7.94 2.39
-6.04 -8.06 2.39
-5.91 -8.23 2.40
-5.91 -8.59 2.47
-5.78 -8.77 2.49
-5.60 -8.89 2.49
-5.42 -8.99 2.49
-5.24 -9.10 2.49
-5.05 -9.20 2.49
-4.87 -9.30 2.49
-4.68 -9.40 2.49
-4.49 -9.49 2.49
-4.30 -9.57 2.49
-4.10 -9.66 2.49
-3.91 -9.74 2.49
-3.71 -9.81 2.49
-3.51 -9.88 2.49
-3.31 -9.95 2.49
-3.11 -10.02 2.49
-2.91 -10.08 2.49
-2.71 -10.13 2.49
-2.50 -10.18 2.49
-2.30 -10.23 2.49
-2.09 -10.27 2.49
-1.89 -10.31 2.49
-1.68 -10.35 2.49
-1.47 -10.38 2.49
-1.26 -10.41 2.49
-1.05 -10.43 2.49
-0.84 -10.45 2.49
-0.63 -10.46 2.49
-0.42 -10.47 2.49
-0.21 -10.48 2.49
-0.00 -9.52 2.49
0.19 -9.52 2.49
0.38 -9.52 2.49
0.57 -9.51 2.49
0.76 -9.49 2.49
0.95 -9.48 2.49
1.15 -9.46 2.49
1.33 -9.43 2.49
1.52 -9.40 2.49
1.71 -9.37 2.49
1.90 -9.33 2.49
2.09 -9.29 2.49
2.18 -8.87 2.39
2.28 -8.55 2.32
2.53 -8.78 2.39
2.71 -8.72 2.39
2.89 -8.67 2.39
3.06 -8.61 2.39
3.23 -8.55 2.39
3.40 -8.48 2.39
3.57 -8.41 2.39
3.74 -8.34 2.39
3.91 -8.26 2.39
4.07 -8.18 2.39
4.24 -8.10 2.39
4.40 -8.01 2.39
4.56 -7.92 2.39
4.72 -7.83 2.39
4.88 -7.74 2.39
5.03 -7.64 2.39
5.18 -7.54 2.39
5.34 -7.43 2.39
5.48 -7.32 2.39
5.63 -7.21 2.39
5.78 -7.10 2.39
5.92 -6.98 2.39
6.06 -6.86 2.39
5.87 -5.89 2.17
5.89 -5.68 2.13
5.93 -5.49 2.11
5.93 -5.27 2.07
5.93 -5.07 2.03
5.93 -4.86 2.00
5.93 -4.67 1.97
5.93 -4.48 1.94
5.93 -4.29 1.91
5.91 -4.10 1.87
5.93 -3.94 1.86
5.93 -3.77 1.83
5.93 -3.61 1.81
5.93 -3.45 1.79
5.93 -3.29 1.77
5.93 -3.13 1.75
5.93 -2.98 1.73
5.93 -2.84 1.71
5.93 -2.69 1.69
5.93 -2.55 1.68
5.93 -2.41 1.67
5.93 -2.27 1.65
5.93 -2.14 1.64
5.93 -2.00 1.63
5.93 -1.87 1.62
5.93 -1.74 1.61
5.93 -1.61 1.60
5.93 -1.49 1.59
5.94 -1.36 1.58
5.94 -1.23 1.57
5.94 -1.11 1.57
5.94 -0.99 1.56
5.94 -0.87 1.56
5.94 -0.74 1.55
5.94 -0.62 1.55
5.94 -0.50 1.54
5.94 -0.38 1.54
5.90 -0.26 1.53
5.88 -0.14 1.52
5.94 -0.03 1.54
5.94 0.09 1.54
5.94 0.21 1.54
5.94 0.33 1.54
5.94 0.45 1.54
5.94 0.57 1.54
5.94 0.69 1.55
5.94 0.81 1.55
5.94 0.94 1.55
5.94 1.06 1.56
5.94 1.18 1.57
5.94 1.31 1.57
5.94 1.43 1.58
5.94 1.56 1.59
5.94 1.69 1.59
5.94 1.82 1.60
4.26 1.40 1.16
4.11 1.44 1.12
4.02 1.50 1.11
3.97 1.57 1.10
3.94 1.65 1.10
3.93 1.74 1.11
3.95 1.84 1.12
4.03 1.99 1.16
5.94 3.07 1.72
5.94 3.23 1.74
5.94 3.38 1.76
5.94 3.54 1.78
5.95 3.71 1.80
5.88 3.83 1.81
5.95 4.05 1.85
5.95 4.23 1.88
5.95 4.41 1.90
5.95 4.60 1.93
5.95 4.79 1.96
5.95 4.99 2.00
5.95 5.20 2.03
5.95 5.41 2.07
5.95 5.63 2.11
5.91 5.83 2.13
5.89 6.05 2.17
6.08 7.04 2.39
5.94 7.17 2.39
5.80 7.28 2.39
5.65 7.40 2.39
5.50 7.51 2.39
5.35 7.62 2.39
5.20 7.73 2.39
5.04 7.83 2.39
4.88 7.93 2.39
4.72 8.03 2.39
4.56 8.13 2.39
4.40 8.22 2.39
4.23 8.30 2.39
4.07 8.39 2.39
3.90 8.47 2.39
3.73 8.55 2.39
3.56 8.62 2.39
3.38 8.69 2.39
2.83 7.72 2.11
3.03 8.82 2.39
2.85 8.88 2.39
2.68 8.94 2.39
2.50 8.99 2.39
2.31 9.04 2.39
2.17 9.23 2.43
2.03 9.52 2.49
1.84 9.56 2.49
1.65 9.59 2.49
1.46 9.62 2.49
1.27 9.65 2.49
1.07 9.68 2.49
0.88 9.70 2.49
0.68 9.71 2.49
0.49 9.72 2.49
0.29 9.73 2.49
0.10 9.74 2.49
-0.10 9.74 2.49
-0.29 9.73 2.49
-0.49 9.72 2.49
-0.68 9.71 2.49
-0.88 9.70 2.49
-1.07 9.68 2.49
-1.27 9.65 2.49
-1.46 9.63 2.49
-1.65 9.59 2.49
-1.84 9.56 2.49
-2.04 9.52 2.49
-2.23 9.48 2.49
-2.42 9.43 2.49
-2.60 9.38 2.49
-2.79 9.32 2.49
-2.98 9.27 2.49
-3.16 9.20 2.49
-3.35 9.14 2.49
-3.53 9.07 2.49
-3.71 8.99 2.49
-3.89 8.92 2.49
-4.07 8.84 2.49
-4.24 8.75 2.49
-4.42 8.66 2.49
-4.59 8.57 2.49
-4.76 8.48 2.49
-4.93 8.38 2.49
-5.10 8.28 2.49
-5.26 8.17 2.49
-5.42 8.07 2.49
-5.58 7.95 2.49
-5.74 7.84 2.49
-5.88 7.71 2.49
-5.89 7.40 2.43
-5.94 7.17 2.39
-6.08 7.05 2.39
-6.22 6.92 2.39
-6.36 6.80 2.39
-6.49 6.67 2.39
-6.63 6.53 2.39
-6.75 6.40 2.39
-6.88 6.26 2.39
-7.00 6.12 2.39
-7.12 5.98 2.39
-7.24 5.83 2.39
-7.35 5.68 2.39
-7.47 5.53 2.39
-7.57 5.38 2.39
-7.68 5.23 2.39
-7.78 5.07 2.39
-7.88 4.91 2.39
-7.98 4.75 2.39
-8.07 4.59 2.39
-8.16 4.43 2.39
-8.24 4.26 2.39
-8.32 4.10 2.39
-8.40 3.93 2.39
-8.48 3.76 2.39
-8.55 3.59 2.39
-8.62 3.41 2.39
-8.68 3.24 2.39
-8.75 3.06 2.39
-8.80 2.89 2.39
-8.86 2.71 2.39
-8.91 2.53 2.39
-8.96 2.35 2.39
-9.00 2.17 2.39
-9.04 1.99 2.39
-9.07 1.81 2.39
-9.11 1.62 2.39
-9.14 1.44 2.39
-9.16 1.26 2.39
-9.18 1.07 2.39
-9.20 0.89 2.39
-9.21 0.70 2.39
-9.22 0.52 2.39
-9.23 0.33 2.39
-9.23 0.15 2.39
-9.23 -0.04 2.39
-9.23 -0.23 2.39
-9.22 -0.41 2.39
-9.21 -0.60 2.39
-9.19 -0.78 2.39
-9.17 -0.96 2.39
-9.15 -1.15 2.39
-9.12 -1.33 2.39
-9.09 -1.51 2.39
-9.06 -1.69 2.39
-9.02 -1.88 2.39
-8.98 -2.06 2.39
-8.93 -2.24 2.39
-8.88 -2.41 2.39
-8.83 -2.59 2.39
-8.78 -2.77 2.39
-8.72 -2.94 2.39
-8.65 -3.12 2.39
-8.59 -3.29 2.39
-8.52 -3.46 2.39
-8.45 -3.63 2.39
-8.37 -3.80 2.39
-8.29 -3.96 2.39
-8.21 -4.13 2.39
-8.12 -4.29 2.39
-8.03 -4.45 2.39
-7.94 -4.61 2.39
-7.84 -4.77 2.39
-7.74 -4.93 2.39
-7.64 -5.08 2.39
-7.54 -5.23 2.39
-7.43 -5.38 2.39
-7.32 -5.53 2.39
-7.20 -5.67 2.39
-7.09 -5.81 2.39
-6.97 -5.95 2.39
-6.85 -6.09 2.39
-6.72 -6.23 2.39
-6.59 -6.36 2.39
-6.46 -6.49 2.39
-6.33 -6.62 2.39
-6.20 -6.74 2.39
-6.06 -6.86 2.39
-5.92 -6.98 2.39
-5.90 -7.26 2.44
-5.88 -7.53 2.49
-5.72 -7.64 2.49
-5.57 -7.75 2.49
-5.41 -7.86 2.49
-5.25 -7.97 2.49
-5.09 -8.07 2.49
-4.92 -8.17 2.49
-4.76 -8.27 2.49
-4.59 -8.36 2.49
-4.42 -8.45 2.49
-4.25 -8.54 2.49
-4.08 -8.62 2.49
-3.90 -8.70 2.49
-3.73 -8.77 2.49
-3.55 -8.85 2.49
-3.37 -8.92 2.49
-3.19 -8.98 2.49
-3.01 -9.04 2.49
-2.83 -9.10 2.49
-2.64 -9.15 2.49
-2.46 -9.21 2.49
-2.27 -9.25 2.49
-2.09 -9.30 2.49
-1.90 -9.34 2.49
-1.71 -9.37 2.49
-1.52 -9.40 2.49
-1.34 -9.43 2.49
-1.15 -9.46 2.49
-0.96 -9.48 2.49
-0.76 -9.49 2.49
-0.57 -9.51 2.49
-0.38 -9.52 2.49
-0.19 -9.52 2.49
-0.00 -8.72 2.49
0.17 -8.72 2.49
0.35 -8.71 2.49
0.52 -8.70 2.49
0.70 -8.69 2.49
0.87 -8.67 2.49
1.05 -8.66 2.49
1.22 -8.63 2.49
1.40 -8.61 2.49
1.57 -8.58 2.49
1.74 -8.54 2.49
1.91 -8.51 2.49
2.08 -8.47 2.49
2.16 -8.08 2.39
2.33 -8.05 2.40
2.48 -7.98 2.39
2.64 -7.93 2.39
2.80 -7.88 2.39
2.96 -7.82 2.39
3.11 -7.76 2.39
3.27 -7.70 2.39
3.42 -7.63 2.39
3.58 -7.56 2.39
3.73 -7.49 2.39
3.88 -7.41 2.39
4.03 -7.33 2.39
4.17 -7.25 2.39
4.32 -7.17 2.39
4.46 -7.08 2.39
4.61 -6.99 2.39
4.75 -6.90 2.39
4.88 -6.80 2.39
5.02 -6.70 2.39
5.15 -6.60 2.39
5.29 -6.50 2.39
5.42 -6.39 2.39
5.54 -6.28 2.39
5.67 -6.17 2.39
5.79 -6.05 2.39
5.91 -5.94 2.39
6.03 -5.82 2.39
5.89 -5.03 2.21
5.87 -4.82 2.16
5.89 -4.63 2.14
5.93 -4.48 2.12
5.93 -4.29 2.09
5.91 -4.10 2.05
5.93 -3.94 2.03
5.93 -3.77 2.00
5.93 -3.61 1.98
5.93 -3.45 1.95
5.93 -3.29 1.93
5.93 -3.13 1.91
5.93 -2.98 1.89
5.93 -2.84 1.87
5.93 -2.69 1.85
5.93 -2.55 1.84
5.93 -2.41 1.82
5.93 -2.27 1.81
5.93 -2.14 1.79
5.93 -2.00 1.78
5.93 -1.87 1.77
5.93 -1.74 1.76
5.93 -1.61 1.75
5.93 -1.48 1.74
5.94 -1.36 1.73
5.94 -1.23 1.72
5.94 -1.11 1.71
5.94 -0.99 1.71
5.94 -0.87 1.70
5.94 -0.74 1.70
5.94 -0.62 1.69
5.94 -0.50 1.69
5.94 -0.38 1.69
5.90 -0.26 1.67
5.88 -0.14 1.66
5.94 -0.03 1.68
5.94 0.09 1.68
5.94 0.21 1.68
5.94 0.33 1.68
5.94 0.45 1.69
5.94 0.57 1.69
5.94 0.69 1.69
5.94 0.81 1.70
5.94 0.94 1.70
5.94 1.06 1.71
5.94 1.18 1.71
5.94 1.31 1.72
5.94 1.43 1.73
5.94 1.56 1.73
5.94 1.69 1.74
5.94 1.82 1.75
4.26 1.40 1.27
4.11 1.44 1.23
4.02 1.50 1.21
3.97 1.57 1.20
3.94 1.65 1.20
3.93 1.74 1.21
3.95 1.84 1.23
4.04 1.99 1.27
5.94 3.08 1.89
5.94 3.23 1.91
5.94 3.38 1.93
5.94 3.54 1.95
5.95 3.71 1.97
5.88 3.83 1.98
5.95 4.05 2.03
5.95 4.23 2.05
5.95 4.41 2.08
5.95 4.60 2.11
5.91 4.76 2.13
5.89 4.94 2.16
5.90 5.16 2.20
6.17 5.85 2.39
6.05 5.97 2.39
5.93 6.09 2.39
5.81 6.21 2.39
5.69 6.33 2.39
5.56 6.44 2.39
5.43 6.55 2.39
5.30 6.66 2.39
5.16 6.76 2.39
5.03 6.87 2.39
4.89 6.97 2.39
4.75 7.07 2.39
4.61 7.16 2.39
4.46 7.25 2.39
4.32 7.34 2.39
4.17 7.43 2.39
4.02 7.51 2.39
3.87 7.59 2.39
3.72 7.67 2.39
3.56 7.74 2.39
3.41 7.81 2.39
3.25 7.88 2.39
3.09 7.94 2.39
2.83 7.72 2.31
2.77 8.06 2.39
2.61 8.12 2.39
2.44 8.17 2.39
2.28 8.21 2.39
2.16 8.44 2.44
2.03 8.66 2.49
1.86 8.70 2.49
1.68 8.73 2.49
1.51 8.77 2.49
1.33 8.80 2.49
1.16 8.82 2.49
0.98 8.84 2.49
0.80 8.86 2.49
0.62 8.88 2.49
0.45 8.89 2.49
0.27 8.89 2.49
0.09 8.90 2.49
-0.09 8.90 2.49
-0.27 8.89 2.49
-0.45 8.89 2.49
-0.62 8.88 2.49
-0.80 8.86 2.49
-0.98 8.84 2.49
-1.16 8.82 2.49
-1.33 8.80 2.49
-1.51 8.77 2.49
-1.69 8.74 2.49
-1.86 8.70 2.49
-2.03 8.66 2.49
-2.21 8.62 2.49
-2.38 8.57 2.49
-2.55 8.52 2.49
-2.72 8.47 2.49
-2.89 8.41 2.49
-3.06 8.35 2.49
-3.22 8.29 2.49
-3.39 8.22 2.49
-3.55 8.15 2.49
-3.72 8.08 2.49
-3.88 8.00 2.49
-4.04 7.92 2.49
-4.19 7.84 2.49
-4.35 7.75 2.49
-4.50 7.66 2.49
-4.66 7.57 2.49
-4.81 7.47 2.49
-4.96 7.37 2.49
-5.10 7.27 2.49
-5.25 7.17 2.49
-5.39 7.06 2.49
-5.53 6.95 2.49
-5.67 6.84 2.49
-5.80 6.72 2.49
-5.89 6.55 2.47
-5.89 6.30 2.42
-5.94 6.09 2.39
-6.06 5.97 2.39
-6.17 5.85 2.39
-6.29 5.72 2.39
-6.40 5.59 2.39
-6.51 5.46 2.39
-6.62 5.33 2.39
-6.72 5.20 2.39
-6.82 5.06 2.39
-6.92 4.92 2.39
-7.02 4.78 2.39
-7.11 4.64 2.39
-7.20 4.49 2.39
-7.29 4.35 2.39
-7.38 4.20 2.39
-7.46 4.05 2.39
-7.54 3.90 2.39
-7.61 3.75 2.39
-7.68 3.59 2.39
-7.75 3.44 2.39
-7.82 3.28 2.39
-7.88 3.12 2.39
-7.94 2.96 2.39
-8.00 2.80 2.39
-8.05 2.64 2.39
-8.10 2.48 2.39
-8.15 2.31 2.39
-8.19 2.15 2.39
-8.23 1.98 2.39
-8.27 1.82 2.39
-8.30 1.65 2.39
-8.33 1.48 2.39
-8.35 1.32 2.39
-8.38 1.15 2.39
-8.40 0.98 2.39
-8.41 0.81 2.39
-8.43 0.64 2.39
-8.44 0.47 2.39
-8.44 0.30 2.39
-8.44 0.13 2.39
-8.44 -0.04 2.39
-8.44 -0.21 2.39
-8.43 -0.37 2.39
-8.42 -0.54 2.39
-8.41 -0.71 2.39
-8.39 -0.88 2.39
-8.37 -1.05 2.39
-8.34 -1.22 2.39
-8.32 -1.38 2.39
-8.28 -1.55 2.39
-8.25 -1.72 2.39
-8.21 -1.88 2.39
-8.17 -2.04 2.39
-8.13 -2.21 2.39
-8.08 -2.37 2.39
-8.03 -2.53 2.39
-7.97 -2.69 2.39
-7.92 -2.85 2.39
-7.86 -3.01 2.39
-7.79 -3.16 2.39
-7.73 -3.32 2.39
-7.66 -3.47 2.39
-7.58 -3.63 2.39
-7.51 -3.78 2.39
-7.43 -3.93 2.39
-7.35 -4.07 2.39
-7.26 -4.22 2.39
-7.18 -4.36 2.39
-7.09 -4.51 2.39
-6.99 -4.65 2.39
-6.90 -4.79 2.39
-6.80 -4.92 2.39
-6.70 -5.06 2.39
-6.59 -5.19 2.39
-6.49 -5.32 2.39
-6.38 -5.45 2.39
-6.27 -5.57 2.39
-6.15 -5.70 2.39
-6.03 -5.82 2.39
-5.92 -5.94 2.39
-5.90 -6.17 2.43
-5.90 -6.42 2.49
-5.78 -6.55 2.49
-5.65 -6.67 2.49
-5.52 -6.78 2.49
-5.38 -6.89 2.49
-5.24 -6.99 2.49
-5.10 -7.10 2.49
-4.95 -7.20 2.49
-4.80 -7.29 2.49
-4.66 -7.39 2.49
-4.51 -7.48 2.49
-4.36 -7.57 2.49
-4.20 -7.65 2.49
-4.05 -7.73 2.49
-3.89 -7.81 2.49
-3.73 -7.89 2.49
-3.57 -7.96 2.49
-3.41 -8.03 2.49
-3.25 -8.10 2.49
-3.09 -8.16 2.49
-2.92 -8.22 2.49
-2.76 -8.28 2.49
-2.59 -8.33 2.49
-2.42 -8.38 2.49
-2.25 -8.43 2.49
-2.08 -8.47 2.49
-1.91 -8.51 2.49
-1.74 -8.54 2.49
-1.57 -8.58 2.49
-1.40 -8.61 2.49
-1.22 -8.63 2.49
-1.05 -8.66 2.49
-0.87 -8.67 2.49
-0.70 -8.69 2.49
-0.53 -8.70 2.49
-0.35 -8.71 2.49
-0.18 -8.72 2.49
-0.00 -8.03 2.49
0.16 -8.03 2.49
0.32 -8.02 2.49
0.48 -8.01 2.49
0.64 -8.00 2.49
0.81 -7.99 2.49
0.97 -7.97 2.49
1.13 -7.95 2.49
1.28 -7.93 2.49
1.44 -7.90 2.49
1.60 -7.87 2.49
1.76 -7.84 2.49
1.92 -7.80 2.49
2.07 -7.76 2.49
2.14 -7.40 2.39
2.29 -7.35 2.39
2.43 -7.31 2.39
2.58 -7.26 2.39
2.72 -7.20 2.39
2.87 -7.15 2.39
3.01 -7.09 2.39
3.15 -7.03 2.39
3.30 -6.96 2.39
3.43 -6.90 2.39
3.57 -6.83 2.39
3.71 -6.75 2.39
3.84 -6.68 2.39
3.98 -6.60 2.39
4.11 -6.52 2.39
4.24 -6.44 2.39
4.37 -6.35 2.39
4.50 -6.26 2.39
4.62 -6.17 2.39
4.75 -6.08 2.39
4.87 -5.98 2.39
4.99 -5.88 2.39
5.11 -5.78 2.39
5.22 -5.68 2.39
5.33 -5.58 2.39
5.45 -5.47 2.39
5.56 -5.36 2.39
5.66 -5.25 2.39
5.77 -5.13 2.39
5.87 -5.02 2.39
5.97 -4.90 2.39
6.07 -4.78 2.39
5.91 -4.10 2.22
5.87 -3.90 2.18
5.87 -3.74 2.15
5.89 -3.58 2.13
5.92 -3.44 2.12
5.93 -3.29 2.10
5.93 -3.13 2.07
5.93 -2.98 2.05
5.93 -2.84 2.03
5.93 -2.69 2.01
5.93 -2.55 1.99
5.93 -2.41 1.98
5.93 -2.27 1.96
5.93 -2.14 1.95
5.93 -2.00 1.93
5.93 -1.87 1.92
5.93 -1.74 1.91
5.93 -1.61 1.90
5.93 -1.48 1.89
5.94 -1.36 1.88
5.94 -1.23 1.87
5.94 -1.11 1.86
5.94 -0.99 1.85
5.94 -0.87 1.85
5.94 -0.74 1.84
5.94 -0.62 1.84
5.94 -0.50 1.83
5.94 -0.38 1.83
5.90 -0.26 1.82
5.88 -0.14 1.81
5.94 -0.02 1.83
5.94 0.09 1.83
5.94 0.21 1.83
5.94 0.33 1.83
5.94 0.45 1.83
5.94 0.57 1.83
5.94 0.69 1.84
5.94 0.81 1.84
5.94 0.94 1.85
5.94 1.06 1.85
5.94 1.18 1.86
5.94 1.31 1.87
5.94 1.43 1.88
5.94 1.56 1.89
5.94 1.69 1.90
4.09 1.25 1.31
4.26 1.40 1.38
4.11 1.44 1.33
4.01 1.49 1.31
3.97 1.57 1.31
3.94 1.65 1.31
3.93 1.74 1.32
3.95 1.84 1.33
4.04 1.99 1.38
5.94 3.08 2.05
5.94 3.23 2.07
5.94 3.38 2.09
5.94 3.54 2.12
5.91 3.69 2.13
5.88 3.83 2.15
5.89 4.01 2.18
6.09 4.90 2.39
5.99 5.02 2.39
5.89 5.14 2.39
5.78 5.26 2.39
5.68 5.38 2.39
5.57 5.49 2.39
5.46 5.60 2.39
5.35 5.71 2.39
5.23 5.82 2.39
5.11 5.92 2.39
4.99 6.03 2.39
4.87 6.13 2.39
4.75 6.22 2.39
4.62 6.32 2.39
4.50 6.41 2.39
4.37 6.50 2.39
4.24 6.59 2.39
4.10 6.67 2.39
3.97 6.75 2.39
3.83 6.83 2.39
3.70 6.91 2.39
3.56 6.98 2.39
3.42 7.05 2.39
3.28 7.12 2.39
3.13 7.18 2.39
2.99 7.25 2.39
2.84 7.31 2.39
2.70 7.36 2.39
2.55 7.41 2.39
2.40 7.46 2.39
2.25 7.51 2.39
2.16 7.79 2.46
2.03 7.92 2.49
1.87 7.96 2.49
1.71 8.00 2.49
1.55 8.03 2.49
1.39 8.06 2.49
1.23 8.09 2.49
1.06 8.11 2.49
0.90 8.13 2.49
0.74 8.15 2.49
0.57 8.16 2.49
0.41 8.17 2.49
0.25 8.18 2.49
0.08 8.18 2.49
-0.08 8.18 2.49
-0.25 8.18 2.49
-0.41 8.17 2.49
-0.57 8.16 2.49
-0.74 8.15 2.49
-0.90 8.13 2.49
-1.06 8.11 2.49
-1.23 8.09 2.49
-1.39 8.06 2.49
-1.55 8.03 2.49
-1.71 8.00 2.49
-1.87 7.97 2.49
-2.03 7.93 2.49
-2.19 7.88 2.49
-2.35 7.84 2.49
-2.50 7.79 2.49
-2.66 7.74 2.49
-2.81 7.68 2.49
-2.97 7.62 2.49
-3.12 7.56 2.49
-3.27 7.50 2.49
-3.42 7.43 2.49
-3.57 7.36 2.49
-3.71 7.28 2.49
-3.86 7.21 2.49
-4.00 7.13 2.49
-4.14 7.05 2.49
-4.28 6.96 2.49
-4.42 6.87 2.49
-4.56 6.78 2.49
-4.69 6.69 2.49
-4.83 6.59 2.49
-4.96 6.49 2.49
-5.08 6.39 2.49
-5.21 6.29 2.49
-5.34 6.18 2.49
-5.46 6.07 2.49
-5.58 5.96 2.49
-5.70 5.85 2.49
-5.81 5.73 2.49
-5.89 5.58 2.48
-5.89 5.36 2.43
-5.90 5.16 2.39
-5.99 5.03 2.39
-6.09 4.90 2.39
-6.18 4.78 2.39
-6.28 4.66 2.39
-6.37 4.53 2.39
-6.46 4.40 2.39
-6.54 4.27 2.39
-6.63 4.13 2.39
-6.71 4.00 2.39
-6.79 3.86 2.39
-6.86 3.73 2.39
-6.93 3.59 2.39
-7.00 3.45 2.39
-7.07 3.31 2.39
-7.13 3.16 2.39
-7.19 3.02 2.39
-7.25 2.87 2.39
-7.31 2.73 2.39
-7.36 2.58 2.39
-7.41 2.43 2.39
-7.45 2.28 2.39
-7.50 2.13 2.39
-7.54 1.98 2.39
-7.57 1.83 2.39
-7.61 1.67 2.39
-7.64 1.52 2.39
-7.66 1.37 2.39
-7.69 1.21 2.39
-7.71 1.06 2.39
-7.73 0.90 2.39
-7.74 0.75 2.39
-7.76 0.59 2.39
-7.76 0.44 2.39
-7.77 0.28 2.39
-7.77 0.12 2.39
-7.77 -0.03 2.39
-7.77 -0.19 2.39
-7.76 -0.34 2.39
-7.75 -0.50 2.39
-7.74 -0.66 2.39
-7.72 -0.81 2.39
-7.70 -0.97 2.39
-7.68 -1.12 2.39
-7.65 -1.27 2.39
-7.63 -1.43 2.39
-7.59 -1.58 2.39
-7.56 -1.73 2.39
-7.52 -1.88 2.39
-7.48 -2.03 2.39
-7.44 -2.18 2.39
-7.39 -2.33 2.39
-7.34 -2.48 2.39
-7.29 -2.62 2.39
-7.23 -2.77 2.39
-7.17 -2.91 2.39
-7.11 -3.06 2.39
-7.05 -3.20 2.39
-6.98 -3.34 2.39
-6.91 -3.48 2.39
-6.84 -3.61 2.39
-6.77 -3.75 2.39
-6.69 -3.88 2.39
-6.61 -4.02 2.39
-6.52 -4.15 2.39
-6.44 -4.28 2.39
-6.35 -4.41 2.39
-6.26 -4.53 2.39
-6.17 -4.66 2.39
-6.07 -4.78 2.39
-5.97 -4.90 2.39
-5.90 -5.04 2.40
-5.90 -5.25 2.44
-5.90 -5.46 2.49
-5.80 -5.59 2.49
-5.68 -5.70 2.49
-5.57 -5.82 2.49
-5.45 -5.93 2.49
-5.33 -6.03 2.49
-5.20 -6.14 2.49
-5.08 -6.24 2.49
-4.95 -6.34 2.49
-4.82 -6.44 2.49
-4.69 -6.53 2.49
-4.56 -6.63 2.49
-4.43 -6.72 2.49
-4.29 -6.80 2.49
-4.15 -6.89 2.49
-4.01 -6.97 2.49
-3.87 -7.05 2.49
-3.73 -7.12 2.49
-3.58 -7.20 2.49
-3.44 -7.26 2.49
-3.29 -7.33 2.49
-3.14 -7.40 2.49
-2.99 -7.46 2.49
-2.84 -7.52 2.49
-2.69 -7.57 2.49
-2.54 -7.62 2.49
-2.38 -7.67 2.49
-2.23 -7.72 2.49
-2.07 -7.76 2.49
-1.92 -7.80 2.49
-1.76 -7.84 2.49
-1.60 -7.87 2.49
-1.44 -7.90 2.49
-1.29 -7.93 2.49
-1.13 -7.95 2.49
-0.97 -7.97 2.49
-0.81 -7.99 2.49
-0.64 -8.00 2.49
-0.48 -8.02 2.49
-0.32 -8.02 2.49
-0.16 -8.03 2.49
-0.00 -7.43 2.49
0.15 -7.43 2.49
0.30 -7.43 2.49
0.45 -7.42 2.49
0.60 -7.41 2.49
0.75 -7.40 2.49
0.89 -7.38 2.49
1.04 -7.36 2.49
1.19 -7.34 2.49
1.34 -7.31 2.49
1.48 -7.29 2.49
1.63 -7.25 2.49
1.78 -7.22 2.49
1.92 -7.18 2.49
2.06 -7.14 2.49
2.12 -6.84 2.40
2.25 -6.76 2.39
2.39 -6.72 2.39
2.52 -6.67 2.39
2.66 -6.62 2.39
2.79 -6.56 2.39
2.92 -6.51 2.39
3.05 -6.45 2.39
3.18 -6.38 2.39
3.31 -6.32 2.39
3.43 -6.25 2.39
3.56 -6.18 2.39
3.68 -6.11 2.39
3.81 -6.04 2.39
3.93 -5.96 2.39
4.05 -5.88 2.39
4.16 -5.80 2.39
4.28 -5.71 2.39
4.39 -5.63 2.39
4.51 -5.54 2.39
4.62 -5.45 2.39
4.73 -5.35 2.39
4.83 -5.26 2.39
4.94 -5.16 2.39
5.04 -5.06 2.39
5.14 -4.96 2.39
5.24 -4.86 2.39
5.34 -4.75 2.39
5.43 -4.64 2.39
5.53 -4.53 2.39
5.62 -4.42 2.39
5.71 -4.31 2.39
5.79 -4.19 2.39
5.88 -4.08 2.39
5.96 -3.96 2.39
6.04 -3.84 2.39
6.11 -3.72 2.39
5.88 -2.96 2.20
5.87 -2.81 2.17
5.88 -2.67 2.15
5.89 -2.53 2.14
5.91 -2.40 2.13
5.93 -2.27 2.12
5.93 -2.14 2.10
5.93 -2.00 2.09
5.93 -1.87 2.07
5.93 -1.74 2.06
5.93 -1.61 2.05
5.93 -1.48 2.04
5.94 -1.36 2.03
5.94 -1.23 2.02
5.94 -1.11 2.01
5.94 -0.99 2.00
5.94 -0.86 2.00
5.94 -0.74 1.99
5.94 -0.62 1.99
5.94 -0.50 1.98
5.94 -0.38 1.98
5.90 -0.26 1.96
5.88 -0.14 1.95
5.94 -0.02 1.97
5.94 0.09 1.97
5.94 0.21 1.97
5.94 0.33 1.98
5.94 0.45 1.98
5.94 0.57 1.98
5.94 0.69 1.99
5.94 0.82 1.99
5.94 0.94 2.00
5.94 1.06 2.00
5.94 1.18 2.01
5.94 1.31 2.02
5.94 1.43 2.03
5.94 1.56 2.04
5.94 1.69 2.05
5.94 1.82 2.06
4.26 1.40 1.49
4.11 1.44 1.44
4.00 1.49 1.41
3.95 1.56 1.41
3.94 1.65 1.42
3.93 1.74 1.42
3.95 1.84 1.44
4.04 1.99 1.49
5.89 3.05 2.20
6.13 3.82 2.39
5.88 3.83 2.32
5.97 4.07 2.39
5.89 4.19 2.39
5.81 4.30 2.39
5.72 4.42 2.39
5.63 4.54 2.39
5.54 4.65 2.39
5.44 4.76 2.39
5.35 4.87 2.39
5.25 4.97 2.39
5.15 5.08 2.39
5.05 5.18 2.39
4.94 5.28 2.39
4.84 5.38 2.39
4.73 5.48 2.39
4.62 5.57 2.39
4.51 5.67 2.39
4.39 5.76 2.39
4.28 5.84 2.39
4.16 5.93 2.39
4.04 6.01 2.39
3.92 6.09 2.39
3.80 6.17 2.39
3.67 6.25 2.39
3.55 6.32 2.39
3.42 6.39 2.39
3.29 6.46 2.39
3.16 6.52 2.39
3.03 6.58 2.39
2.90 6.64 2.39
2.76 6.70 2.39
2.63 6.76 2.39
2.49 6.81 2.39
2.37 6.90 2.40
2.22 6.90 2.39
2.16 7.22 2.48
2.02 7.29 2.49
1.88 7.33 2.49
1.73 7.37 2.49
1.58 7.40 2.49
1.43 7.43 2.49
1.28 7.46 2.49
1.13 7.48 2.49
0.98 7.50 2.49
0.83 7.52 2.49
0.68 7.54 2.49
0.53 7.55 2.49
0.38 7.56 2.49
0.23 7.56 2.49
0.08 7.57 2.49
-0.08 7.57 2.49
-0.23 7.56 2.49
-0.38 7.56 2.49
-0.53 7.55 2.49
-0.68 7.54 2.49
-0.83 7.52 2.49
-0.98 7.50 2.49
-1.13 7.48 2.49
-1.28 7.46 2.49
-1.43 7.43 2.49
-1.58 7.40 2.49
-1.73 7.37 2.49
-1.88 7.33 2.49
-2.02 7.29 2.49
-2.17 7.25 2.49
-2.31 7.20 2.49
-2.46 7.15 2.49
-2.60 7.10 2.49
-2.74 7.05 2.49
-2.88 6.99 2.49
-3.02 6.93 2.49
-3.16 6.87 2.49
-3.30 6.80 2.49
-3.43 6.74 2.49
-3.57 6.67 2.49
-3.70 6.59 2.49
-3.83 6.52 2.49
-3.96 6.44 2.49
-4.09 6.36 2.49
-4.22 6.27 2.49
-4.34 6.19 2.49
-4.46 6.10 2.49
-4.58 6.01 2.49
-4.70 5.91 2.49
-4.82 5.82 2.49
-4.93 5.72 2.49
-5.05 5.62 2.49
-5.16 5.51 2.49
-5.27 5.41 2.49
-5.37 5.30 2.49
-5.48 5.19 2.49
-5.58 5.08 2.49
-5.68 4.97 2.49
-5.78 4.85 2.49
-5.87 4.73 2.49
-5.89 4.55 2.46
-5.89 4.37 2.43
-5.90 4.20 2.39
-5.97 4.07 2.39
-6.05 3.95 2.39
-6.13 3.82 2.39
-6.20 3.70 2.39
-6.28 3.57 2.39
-6.35 3.45 2.39
-6.41 3.32 2.39
-6.48 3.19 2.39
-6.54 3.06 2.39
-6.60 2.93 2.39
-6.65 2.79 2.39
-6.71 2.66 2.39
-6.76 2.52 2.39
-6.81 2.39 2.39
-6.85 2.25 2.39
-6.89 2.11 2.39
-6.93 1.97 2.39
-6.97 1.83 2.39
-7.01 1.69 2.39
-7.04 1.55 2.39
-7.07 1.41 2.39
-7.09 1.26 2.39
-7.11 1.12 2.39
-7.13 0.98 2.39
-7.15 0.84 2.39
-7.16 0.69 2.39
-7.18 0.55 2.39
-7.18 0.40 2.39
-7.19 0.26 2.39
-7.19 0.11 2.39
-7.19 -0.03 2.39
-7.19 -0.17 2.39
-7.18 -0.32 2.39
-7.17 -0.46 2.39
-7.16 -0.61 2.39
-7.15 -0.75 2.39
-7.13 -0.89 2.39
-7.11 -1.04 2.39
-7.08 -1.18 2.39
-7.06 -1.32 2.39
-7.03 -1.46 2.39
-7.00 -1.60 2.39
-6.96 -1.74 2.39
-6.92 -1.88 2.39
-6.88 -2.02 2.39
-6.84 -2.16 2.39
-6.79 -2.29 2.39
-6.75 -2.43 2.39
-6.69 -2.56 2.39
-6.64 -2.70 2.39
-6.58 -2.83 2.39
-6.52 -2.96 2.39
-6.46 -3.09 2.39
-6.40 -3.22 2.39
-6.33 -3.34 2.39
-6.26 -3.47 2.39
-6.19 -3.60 2.39
-6.12 -3.72 2.39
-6.04 -3.84 2.39
-5.96 -3.96 2.39
-5.90 -4.09 2.40
-5.89 -4.27 2.43
-5.89 -4.45 2.47
-5.86 -4.61 2.49
-5.77 -4.73 2.49
-5.67 -4.84 2.49
-5.57 -4.96 2.49
-5.47 -5.07 2.49
-5.37 -5.17 2.49
-5.26 -5.28 2.49
-5.15 -5.38 2.49
-5.04 -5.49 2.49
-4.93 -5.59 2.49
-4.82 -5.68 2.49
-4.70 -5.78 2.49
-4.58 -5.87 2.49
-4.47 -5.96 2.49
-4.34 -6.05 2.49
-4.22 -6.13 2.49
-4.10 -6.22 2.49
-3.97 -6.30 2.49
-3.84 -6.38 2.49
-3.71 -6.45 2.49
-3.58 -6.52 2.49
-3.45 -6.59 2.49
-3.32 -6.66 2.49
-3.18 -6.73 2.49
-3.05 -6.79 2.49
-2.91 -6.85 2.49
-2.77 -6.90 2.49
-2.63 -6.96 2.49
-2.49 -7.01 2.49
-2.35 -7.06 2.49
-2.21 -7.10 2.49
-2.06 -7.14 2.49
-1.92 -7.18 2.49
-1.78 -7.22 2.49
-1.63 -7.25 2.49
-1.48 -7.29 2.49
-1.34 -7.31 2.49
-1.19 -7.34 2.49
-1.04 -7.36 2.49
-0.89 -7.38 2.49
-0.75 -7.40 2.49
-0.60 -7.41 2.49
-0.45 -7.42 2.49
-0.30 -7.43 2.49
-0.15 -7.43 2.49
-0.00 -6.91 2.49
0.14 -6.91 2.49
0.28 -6.91 2.49
0.42 -6.90 2.49
0.55 -6.89 2.49
0.69 -6.88 2.49
0.83 -6.86 2.49
0.97 -6.85 2.49
1.11 -6.82 2.49
1.24 -6.80 2.49
1.38 -6.78 2.49
1.52 -6.75 2.49
1.65 -6.71 2.49
1.79 -6.68 2.49
1.92 -6.64 2.49
2.05 -6.60 2.49
2.12 -6.36 2.42
2.22 -6.25 2.39
2.35 -6.20 2.39
2.47 -6.15 2.39
2.59 -6.10 2.39
2.72 -6.05 2.39
2.84 -6.00 2.39
2.96 -5.94 2.39
3.08 -5.88 2.39
3.19 -5.81 2.39
3.31 -5.75 2.39
3.43 -5.68 2.39
3.54 -5.61 2.39
3.65 -5.54 2.39
3.76 -5.47 2.39
3.87 -5.39 2.39
3.98 -5.31 2.39
4.09 -5.23 2.39
4.19 -5.15 2.39
4.29 -5.06 2.39
4.40 -4.98 2.39
4.49 -4.89 2.39
4.59 -4.80 2.39
4.69 -4.71 2.39
4.78 -4.61 2.39
4.88 -4.51 2.39
4.97 -4.42 2.39
5.05 -4.32 2.39
5.14 -4.21 2.39
5.22 -4.11 2.39
5.31 -4.01 2.39
5.39 -3.90 2.39
5.46 -3.79 2.39
5.54 -3.68 2.39
5.61 -3.57 2.39
5.69 -3.46 2.39
5.75 -3.34 2.39
5.82 -3.23 2.39
5.89 -3.11 2.39
5.95 -2.99 2.39
6.01 -2.87 2.39
6.06 -2.75 2.39
6.12 -2.63 2.39
5.88 -1.72 2.20
5.88 -1.60 2.18
5.88 -1.47 2.17
5.88 -1.34 2.16
5.88 -1.22 2.15
5.88 -1.10 2.14
5.89 -0.98 2.14
5.90 -0.86 2.13
5.90 -0.74 2.13
5.91 -0.62 2.13
5.91 -0.50 2.12
5.92 -0.38 2.12
5.90 -0.26 2.11
5.88 -0.14 2.10
5.92 -0.02 2.12
5.92 0.09 2.12
5.92 0.21 2.12
5.92 0.33 2.12
5.92 0.45 2.12
5.92 0.57 2.12
5.91 0.69 2.13
5.91 0.81 2.13
5.90 0.93 2.13
5.89 1.05 2.14
5.89 1.17 2.14
5.88 1.30 2.15
5.88 1.42 2.16
5.88 1.55 2.17
5.88 1.67 2.18
5.89 1.80 2.20
4.26 1.40 1.60
4.11 1.44 1.55
4.00 1.49 1.52
3.93 1.56 1.51
3.94 1.65 1.52
3.93 1.74 1.53
3.95 1.85 1.55
4.04 1.99 1.60
5.96 3.08 2.39
5.90 3.20 2.39
5.83 3.32 2.39
5.76 3.44 2.39
5.69 3.55 2.39
5.62 3.67 2.39
5.55 3.78 2.39
5.47 3.89 2.39
5.39 4.00 2.39
5.31 4.11 2.39
5.23 4.21 2.39
5.15 4.32 2.39
5.06 4.42 2.39
4.97 4.52 2.39
4.88 4.62 2.39
4.79 4.72 2.39
4.69 4.82 2.39
4.59 4.91 2.39
4.49 5.00 2.39
4.39 5.09 2.39
4.29 5.18 2.39
4.19 5.26 2.39
4.08 5.35 2.39
3.97 5.43 2.39
3.86 5.51 2.39
3.75 5.59 2.39
3.64 5.66 2.39
3.53 5.73 2.39
3.41 5.80 2.39
3.29 5.87 2.39
3.18 5.94 2.39
3.06 6.00 2.39
2.94 6.06 2.39
2.81 6.12 2.39
2.69 6.17 2.39
2.57 6.23 2.39
2.44 6.28 2.39
2.32 6.33 2.39
2.19 6.37 2.39
2.15 6.69 2.49
2.01 6.73 2.49
1.88 6.77 2.49
1.74 6.81 2.49
1.61 6.84 2.49
1.47 6.87 2.49
1.33 6.90 2.49
1.19 6.93 2.49
1.05 6.95 2.49
0.91 6.97 2.49
0.77 6.99 2.49
0.63 7.00 2.49
0.49 7.01 2.49
0.35 7.02 2.49
0.21 7.03 2.49
0.07 7.03 2.49
-0.07 7.03 2.49
-0.21 7.03 2.49
-0.35 7.02 2.49
-0.49 7.01 2.49
-0.63 7.00 2.49
-0.77 6.99 2.49
-0.91 6.97 2.49
-1.05 6.95 2.49
-1.19 6.93 2.49
-1.33 6.90 2.49
-1.47 6.87 2.49
-1.61 6.84 2.49
-1.74 6.81 2.49
-1.88 6.77 2.49
-2.02 6.73 2.49
-2.15 6.69 2.49
-2.28 6.65 2.49
-2.42 6.60 2.49
-2.55 6.55 2.49
-2.68 6.50 2.49
-2.81 6.44 2.49
-2.94 6.38 2.49
-3.06 6.32 2.49
-3.19 6.26 2.49
-3.31 6.19 2.49
-3.44 6.13 2.49
-3.56 6.05 2.49
-3.68 5.98 2.49
-3.80 5.91 2.49
-3.92 5.83 2.49
-4.03 5.75 2.49
-4.15 5.67 2.49
-4.26 5.58 2.49
-4.37 5.49 2.49
-4.48 5.40 2.49
-4.58 5.31 2.49
-4.69 5.22 2.49
-4.79 5.12 2.49
-4.89 5.03 2.49
-4.99 4.93 2.49
-5.09 4.82 2.49
-5.19 4.72 2.49
-5.28 4.61 2.49
-5.37 4.51 2.49
-5.46 4.40 2.49
-5.54 4.29 2.49
-5.63 4.17 2.49
-5.71 4.06 2.49
-5.79 3.94 2.49
-5.87 3.83 2.49
-5.89 3.68 2.47
-5.89 3.51 2.44
-5.90 3.36 2.42
-5.90 3.21 2.39
-5.96 3.08 2.39
-6.02 2.96 2.39
-6.09 2.85 2.39
-6.13 2.72 2.39
-6.18 2.60 2.39
-6.23 2.47 2.39
-6.28 2.34 2.39
-6.33 2.22 2.39
-6.37 2.09 2.39
-6.41 1.96 2.39
-6.44 1.83 2.39
-6.48 1.70 2.39
-6.51 1.57 2.39
-6.54 1.44 2.39
-6.57 1.31 2.39
-6.59 1.18 2.39
-6.61 1.04 2.39
-6.63 0.91 2.39
-6.65 0.78 2.39
-6.66 0.64 2.39
-6.67 0.51 2.39
-6.68 0.38 2.39
-6.68 0.24 2.39
-6.68 0.11 2.39
-6.68 -0.03 2.39
-6.68 -0.16 2.39
-6.68 -0.30 2.39
-6.67 -0.43 2.39
-6.66 -0.56 2.39
-6.64 -0.70 2.39
-6.63 -0.83 2.39
-6.61 -0.96 2.39
-6.58 -1.09 2.39
-6.56 -1.23 2.39
-6.53 -1.36 2.39
-6.50 -1.49 2.39
-6.47 -1.62 2.39
-6.44 -1.75 2.39
-6.40 -1.88 2.39
-6.36 -2.00 2.39
-6.32 -2.13 2.39
-6.27 -2.26 2.39
-6.22 -2.38 2.39
-6.17 -2.51 2.39
-6.12 -2.63 2.39
-6.07 -2.75 2.39
-6.01 -2.87 2.39
-5.95 -2.99 2.39
-5.90 -3.12 2.40
-5.89 -3.26 2.42
-5.89 -3.42 2.45
-5.89 -3.58 2.48
-5.86 -3.72 2.49
-5.78 -3.84 2.49
-5.70 -3.96 2.49
-5.62 -4.07 2.49
-5.54 -4.18 2.49
-5.45 -4.29 2.49
-5.36 -4.40 2.49
-5.27 -4.50 2.49
-5.18 -4.61 2.49
-5.09 -4.71 2.49
-4.99 -4.81 2.49
-4.89 -4.91 2.49
-4.79 -5.01 2.49
-4.69 -5.10 2.49
-4.59 -5.19 2.49
-4.48 -5.28 2.49
-4.37 -5.37 2.49
-4.26 -5.46 2.49
-4.15 -5.54 2.49
-4.04 -5.62 2.49
-3.93 -5.70 2.49
-3.81 -5.78 2.49
-3.69 -5.86 2.49
-3.57 -5.93 2.49
-3.45 -6.00 2.49
-3.33 -6.07 2.49
-3.21 -6.13 2.49
-3.09 -6.19 2.49
-2.96 -6.25 2.49
-2.83 -6.31 2.49
-2.71 -6.37 2.49
-2.58 -6.42 2.49
-2.45 -6.47 2.49
-2.32 -6.52 2.49
-2.19 -6.56 2.49
-2.05 -6.60 2.49
-1.92 -6.64 2.49
-1.79 -6.68 2.49
-1.65 -6.72 2.49
-1.52 -6.75 2.49
-1.38 -6.78 2.49
-1.24 -6.80 2.49
-1.11 -6.83 2.49
-0.97 -6.85 2.49
-0.83 -6.86 2.49
-0.69 -6.88 2.49
-0.56 -6.89 2.49
-0.42 -6.90 2.49
-0.28 -6.91 2.49
-0.14 -6.91 2.49
-0.00 -6.45 2.49
0.13 -6.45 2.49
0.26 -6.45 2.49
0.39 -6.44 2.49
0.52 -6.43 2.49
0.65 -6.42 2.49
0.78 -6.41 2.49
0.90 -6.39 2.49
1.03 -6.37 2.49
1.16 -6.35 2.49
1.29 -6.33 2.49
1.42 -6.30 2.49
1.54 -6.27 2.49
1.67 -6.24 2.49
1.79 -6.20 2.49
1.92 -6.17 2.49
2.04 -6.13 2.49
2.12 -5.96 2.44
2.19 -5.79 2.39
2.31 -5.74 2.39
2.42 -5.70 2.39
2.54 -5.65 2.39
2.65 -5.60 2.39
2.76 -5.54 2.39
2.87 -5.49 2.39
2.98 -5.43 2.39
3.09 -5.37 2.39
3.20 -5.30 2.39
3.30 -5.24 2.39
3.41 -5.17 2.39
3.51 -5.10 2.39
3.61 -5.03 2.39
3.72 -4.96 2.39
3.81 -4.88 2.39
3.91 -4.81 2.39
4.01 -4.73 2.39
4.10 -4.65 2.39
4.20 -4.56 2.39
4.29 -4.48 2.39
4.38 -4.39 2.39
4.46 -4.30 2.39
4.55 -4.21 2.39
4.64 -4.12 2.39
4.72 -4.03 2.39
4.80 -3.93 2.39
4.88 -3.84 2.39
4.95 -3.74 2.39
5.03 -3.64 2.39
5.10 -3.54 2.39
5.17 -3.44 2.39
5.24 -3.33 2.39
5.31 -3.23 2.39
5.37 -3.12 2.39
5.43 -3.01 2.39
5.49 -2.90 2.39
5.55 -2.79 2.39
5.61 -2.68 2.39
5.66 -2.57 2.39
5.71 -2.45 2.39
5.76 -2.34 2.39
5.81 -2.22 2.39
5.85 -2.11 2.39
5.89 -1.99 2.39
5.93 -1.87 2.39
5.97 -1.75 2.39
6.01 -1.63 2.39
6.04 -1.51 2.39
6.07 -1.39 2.39
6.10 -1.27 2.39
6.12 -1.14 2.39
6.14 -1.02 2.39
5.90 -0.26 2.26
5.88 -0.14 2.25
6.17 0.97 2.39
6.15 1.10 2.39
6.12 1.22 2.39
6.10 1.34 2.39
6.07 1.47 2.39
6.04 1.59 2.39
6.01 1.71 2.39
5.98 1.83 2.39
4.26 1.40 1.71
4.11 1.44 1.66
4.02 1.50 1.64
3.97 1.57 1.63
3.94 1.65 1.63
3.93 1.74 1.64
3.95 1.85 1.66
4.04 1.99 1.72
5.56 2.88 2.39
5.50 2.99 2.39
5.44 3.10 2.39
5.38 3.21 2.39
5.31 3.32 2.39
5.25 3.42 2.39
5.18 3.53 2.39
5.11 3.63 2.39
5.03 3.73 2.39
4.96 3.83 2.39
4.88 3.93 2.39
4.80 4.03 2.39
4.72 4.13 2.39
4.64 4.22 2.39
4.55 4.31 2.39
4.46 4.40 2.39
4.38 4.49 2.39
4.28 4.58 2.39
4.19 4.67 2.39
4.10 4.75 2.39
4.00 4.83 2.39
3.91 4.91 2.39
3.81 4.99 2.39
3.71 5.07 2.39
3.60 5.14 2.39
3.50 5.21 2.39
3.40 5.28 2.39
3.29 5.35 2.39
3.18 5.41 2.39
3.07 5.48 2.39
2.96 5.54 2.39
2.85 5.60 2.39
2.74 5.65 2.39
2.63 5.71 2.39
2.51 5.76 2.39
2.39 5.81 2.39
2.28 5.86 2.39
2.17 5.92 2.40
2.13 6.20 2.49
2.00 6.24 2.49
1.88 6.28 2.49
1.75 6.32 2.49
1.63 6.35 2.49
1.50 6.38 2.49
1.37 6.41 2.49
1.24 6.44 2.49
1.11 6.46 2.49
0.98 6.48 2.49
0.85 6.50 2.49
0.72 6.52 2.49
0.59 6.53 2.49
0.46 6.54 2.49
0.33 6.55 2.49
0.20 6.56 2.49
0.07 6.56 2.49
-0.07 6.56 2.49
-0.20 6.56 2.49
-0.33 6.55 2.49
-0.46 6.54 2.49
-0.59 6.53 2.49
-0.72 6.52 2.49
-0.85 6.50 2.49
-0.98 6.48 2.49
-1.11 6.46 2.49
-1.24 6.44 2.49
-1.37 6.41 2.49
-1.50 6.38 2.49
-1.63 6.35 2.49
-1.75 6.32 2.49
-1.88 6.28 2.49
-2.01 6.24 2.49
-2.13 6.20 2.49
-2.25 6.16 2.49
-2.38 6.11 2.49
-2.50 6.06 2.49
-2.62 6.01 2.49
-2.74 5.95 2.49
-2.86 5.90 2.49
-2.98 5.84 2.49
-3.09 5.78 2.49
-3.21 5.71 2.49
-3.32 5.65 2.49
-3.43 5.58 2.49
-3.54 5.51 2.49
-3.65 5.44 2.49
-3.76 5.36 2.49
-3.87 5.28 2.49
-3.97 5.21 2.49
-4.08 5.12 2.49
-4.18 5.04 2.49
-4.28 4.96 2.49
-4.37 4.87 2.49
-4.47 4.78 2.49
-4.57 4.69 2.49
-4.66 4.60 2.49
-4.75 4.50 2.49
-4.84 4.40 2.49
-4.92 4.31 2.49
-5.01 4.21 2.49
-5.09 4.10 2.49
-5.17 4.00 2.49
-5.25 3.89 2.49
-5.33 3.79 2.49
-5.40 3.68 2.49
-5.47 3.57 2.49
-5.54 3.46 2.49
-5.61 3.35 2.49
-5.68 3.23 2.49
-5.74 3.12 2.49
-5.80 3.00 2.49
-5.86 2.88 2.49
-5.89 2.76 2.48
-5.89 2.61 2.46
-5.89 2.47 2.44
-5.90 2.34 2.42
-5.90 2.20 2.41
-5.91 2.07 2.39
-5.94 1.95 2.39
-5.98 1.83 2.39
-6.01 1.71 2.39
-6.05 1.59 2.39
-6.09 1.47 2.40
-6.10 1.34 2.39
-6.13 1.22 2.39
-6.15 1.10 2.39
-6.17 0.97 2.39
-6.19 0.85 2.39
-6.20 0.73 2.39
-6.21 0.60 2.39
-6.22 0.48 2.39
-6.23 0.35 2.39
-6.24 0.23 2.39
-6.24 0.10 2.39
-6.24 -0.02 2.39
-6.23 -0.15 2.39
-6.23 -0.28 2.39
-6.22 -0.40 2.39
-6.21 -0.52 2.39
-6.20 -0.65 2.39
-6.18 -0.77 2.39
-6.17 -0.90 2.39
-6.15 -1.02 2.39
-6.12 -1.14 2.39
-6.10 -1.27 2.39
-6.07 -1.39 2.39
-6.04 -1.51 2.39
-6.01 -1.63 2.39
-5.97 -1.75 2.39
-5.93 -1.87 2.39
-5.90 -1.99 2.39
-5.89 -2.12 2.41
-5.89 -2.25 2.42
-5.89 -2.39 2.44
-5.89 -2.53 2.46
-5.89 -2.67 2.49
-5.85 -2.80 2.49
-5.79 -2.91 2.49
-5.73 -3.03 2.49
-5.67 -3.14 2.49
-5.60 -3.25 2.49
-5.54 -3.37 2.49
-5.47 -3.48 2.49
-5.40 -3.58 2.49
-5.32 -3.69 2.49
-5.25 -3.80 2.49
-5.17 -3.90 2.49
-5.09 -4.00 2.49
-5.01 -4.10 2.49
-4.92 -4.20 2.49
-4.84 -4.30 2.49
-4.75 -4.40 2.49
-4.66 -4.49 2.49
-4.57 -4.58 2.49
-4.47 -4.67 2.49
-4.38 -4.76 2.49
-4.28 -4.85 2.49
-4.18 -4.93 2.49
-4.08 -5.02 2.49
-3.98 -5.10 2.49
-3.88 -5.17 2.49
-3.77 -5.25 2.49
-3.66 -5.32 2.49
-3.56 -5.40 2.49
-3.45 -5.47 2.49
-3.34 -5.53 2.49
-3.22 -5.60 2.49
-3.11 -5.66 2.49
-3.00 -5.72 2.49
-2.88 -5.78 2.49
-2.76 -5.84 2.49
-2.65 -5.89 2.49
-2.53 -5.94 2.49
-2.41 -5.99 2.49
-2.29 -6.04 2.49
-2.16 -6.08 2.49
-2.04 -6.13 2.49
-1.92 -6.17 2.49
-1.79 -6.20 2.49
-1.67 -6.24 2.49
-1.54 -6.27 2.49
-1.42 -6.30 2.49
-1.29 -6.33 2.49
-1.16 -6.35 2.49
-1.03 -6.37 2.49
-0.91 -6.39 2.49
-0.78 -6.41 2.49
-0.65 -6.42 2.49
-0.52 -6.43 2.49
-0.39 -6.44 2.49
-0.26 -6.45 2.49
-0.13 -6.45 2.49
-0.00 -6.05 2.49
0.12 -6.04 2.49
0.24 -6.04 2.49
0.36 -6.03 2.49
0.49 -6.03 2.49
0.61 -6.02 2.49
0.73 -6.00 2.49
0.85 -5.99 2.49
0.97 -5.97 2.49
1.09 -5.95 2.49
1.21 -5.92 2.49
1.33 -5.90 2.49
1.44 -5.87 2.49
1.56 -5.84 2.49
1.68 -5.81 2.49
1.80 -5.77 2.49
1.91 -5.74 2.49
2.03 -5.70 2.49
2.12 -5.60 2.47
2.16 -5.38 2.39
2.27 -5.34 2.39
2.38 -5.29 2.39
2.48 -5.24 2.39
2.59 -5.19 2.39
2.69 -5.14 2.39
2.79 -5.08 2.39
2.89 -5.03 2.39
3.00 -4.97 2.39
3.09 -4.91 2.39
3.19 -4.84 2.39
3.29 -4.78 2.39
3.39 -4.71 2.39
3.48 -4.64 2.39
3.57 -4.57 2.39
3.66 -4.50 2.39
3.75 -4.43 2.39
3.84 -4.35 2.39
3.93 -4.27 2.39
4.02 -4.19 2.39
4.10 -4.11 2.39
4.18 -4.03 2.39
4.26 -3.95 2.39
4.34 -3.86 2.39
4.42 -3.77 2.39
4.49 -3.68 2.39
4.57 -3.59 2.39
4.64 -3.50 2.39
4.71 -3.41 2.39
4.78 -3.31 2.39
4.84 -3.22 2.39
4.91 -3.12 2.39
4.97 -3.02 2.39
5.03 -2.92 2.39
5.09 -2.82 2.39
5.14 -2.72 2.39
5.20 -2.61 2.39
5.25 -2.51 2.39
5.30 -2.40 2.39
5.35 -2.30 2.39
5.40 -2.19 2.39
5.44 -2.08 2.39
5.48 -1.97 2.39
5.52 -1.86 2.39
5.56 -1.75 2.39
5.59 -1.64 2.39
5.62 -1.53 2.39
5.65 -1.41 2.39
5.68 -1.30 2.39
5.71 -1.19 2.39
5.73 -1.07 2.39
5.75 -0.96 2.39
5.77 -0.84 2.39
5.79 -0.72 2.39
5.80 -0.61 2.39
5.81 -0.49 2.39
5.82 -0.37 2.39
5.83 -0.26 2.39
5.84 -0.14 2.39
5.84 -0.02 2.39
5.84 0.09 2.39
5.84 0.21 2.39
5.83 0.33 2.39
5.82 0.45 2.39
5.82 0.56 2.39
5.80 0.68 2.39
5.79 0.80 2.39
5.77 0.91 2.39
5.76 1.03 2.39
5.73 1.14 2.39
5.71 1.26 2.39
5.69 1.37 2.39
5.66 1.49 2.39
5.63 1.60 2.39
5.60 1.71 2.39
4.26 1.40 1.83
4.11 1.44 1.78
4.02 1.50 1.75
3.97 1.57 1.74
3.94 1.65 1.74
3.93 1.74 1.75
3.95 1.85 1.78
4.04 1.99 1.84
5.20 2.69 2.39
5.15 2.80 2.39
5.09 2.90 2.39
5.03 3.00 2.39
4.97 3.10 2.39
4.91 3.20 2.39
4.85 3.30 2.39
4.78 3.40 2.39
4.71 3.49 2.39
4.64 3.59 2.39
4.57 3.68 2.39
4.49 3.77 2.39
4.42 3.86 2.39
4.34 3.95 2.39
4.26 4.04 2.39
4.18 4.12 2.39
4.10 4.21 2.39
4.01 4.29 2.39
3.92 4.37 2.39
3.84 4.45 2.39
3.75 4.52 2.39
3.66 4.60 2.39
3.56 4.67 2.39
3.47 4.74 2.39
3.37 4.81 2.39
3.28 4.88 2.39
3.18 4.94 2.39
3.08 5.01 2.39
2.98 5.07 2.39
2.88 5.13 2.39
2.77 5.18 2.39
2.67 5.24 2.39
2.56 5.29 2.39
2.46 5.34 2.39
2.37 5.43 2.41
2.24 5.44 2.39
2.16 5.56 2.42
2.11 5.76 2.49
1.99 5.80 2.49
1.88 5.84 2.49
1.76 5.88 2.49
1.64 5.91 2.49
1.52 5.94 2.49
1.40 5.97 2.49
1.28 6.00 2.49
1.16 6.03 2.49
1.04 6.05 2.49
0.92 6.07 2.49
0.80 6.09 2.49
0.68 6.10 2.49
0.55 6.11 2.49
0.43 6.12 2.49
0.31 6.13 2.49
0.18 6.14 2.49
0.06 6.14 2.49
-0.06 6.14 2.49
-0.18 6.14 2.49
-0.31 6.13 2.49
-0.43 6.12 2.49
-0.55 6.11 2.49
-0.68 6.10 2.49
-0.80 6.09 2.49
-0.92 6.07 2.49
-1.04 6.05 2.49
-1.16 6.03 2.49
-1.28 6.00 2.49
-1.40 5.97 2.49
-1.52 5.95 2.49
-1.64 5.91 2.49
-1.76 5.88 2.49
-1.88 5.84 2.49
-1.99 5.80 2.49
-2.11 5.76 2.49
-2.22 5.72 2.49
-2.34 5.67 2.49
-2.45 5.62 2.49
-2.56 5.57 2.49
-2.67 5.52 2.49
-2.78 5.47 2.49
-2.89 5.41 2.49
-3.00 5.35 2.49
-3.11 5.29 2.49
-3.21 5.22 2.49
-3.32 5.16 2.49
-3.42 5.09 2.49
-3.52 5.02 2.49
-3.62 4.95 2.49
-3.72 4.87 2.49
-3.81 4.80 2.49
-3.91 4.72 2.49
-4.00 4.64 2.49
-4.09 4.56 2.49
-4.19 4.47 2.49
-4.27 4.39 2.49
-4.36 4.30 2.49
-4.45 4.21 2.49
-4.53 4.12 2.49
-4.61 4.03 2.49
-4.69 3.94 2.49
-4.77 3.84 2.49
-4.84 3.74 2.49
-4.92 3.65 2.49
-4.99 3.55 2.49
-5.06 3.45 2.49
-5.12 3.34 2.49
-5.19 3.24 2.49
-5.25 3.13 2.49
-5.31 3.03 2.49
-5.37 2.92 2.49
-5.43 2.81 2.49
-5.48 2.70 2.49
-5.54 2.59 2.49
-5.59 2.48 2.49
-5.63 2.37 2.49
-5.68 2.25 2.49
-5.72 2.14 2.49
-5.76 2.02 2.49
-5.80 1.90 2.49
-5.84 1.79 2.49
-5.87 1.67 2.49
-5.90 1.55 2.49
-5.90 1.42 2.48
-5.90 1.30 2.47
-5.90 1.18 2.46
-5.90 1.05 2.45
-5.90 0.93 2.44
-5.90 0.81 2.43
-5.90 0.69 2.43
-5.90 0.57 2.42
-5.90 0.45 2.42
-5.90 0.33 2.42
-5.89 0.21 2.41
-5.89 0.10 2.41
-5.89 -0.02 2.41
-5.89 -0.14 2.41
-5.89 -0.26 2.41
-5.89 -0.38 2.41
-5.89 -0.50 2.42
-5.89 -0.62 2.42
-5.89 -0.74 2.43
-5.89 -0.86 2.44
-5.89 -0.98 2.45
-5.89 -1.10 2.45
-5.89 -1.22 2.46
-5.89 -1.35 2.48
-5.89 -1.47 2.49
-5.87 -1.59 2.49
-5.83 -1.71 2.49
-5.80 -1.83 2.49
-5.76 -1.94 2.49
-5.72 -2.06 2.49
-5.67 -2.17 2.49
-5.63 -2.28 2.49
-5.58 -2.40 2.49
-5.53 -2.51 2.49
-5.48 -2.62 2.49
-5.42 -2.73 2.49
-5.37 -2.83 2.49
-5.31 -2.94 2.49
-5.25 -3.05 2.49
-5.19 -3.15 2.49
-5.12 -3.25 2.49
-5.05 -3.36 2.49
-4.98 -3.46 2.49
-4.91 -3.56 2.49
-4.84 -3.65 2.49
-4.77 -3.75 2.49
-4.69 -3.84 2.49
-4.61 -3.94 2.49
-4.53 -4.03 2.49
-4.45 -4.12 2.49
-4.36 -4.21 2.49
-4.28 -4.29 2.49
-4.19 -4.38 2.49
-4.10 -4.46 2.49
-4.01 -4.54 2.49
-3.92 -4.62 2.49
-3.82 -4.70 2.49
-3.73 -4.77 2.49
-3.63 -4.85 2.49
-3.53 -4.92 2.49
-3.43 -4.99 2.49
-3.33 -5.05 2.49
-3.23 -5.12 2.49
-3.13 -5.18 2.49
-3.02 -5.24 2.49
-2.91 -5.30 2.49
-2.81 -5.36 2.49
-2.70 -5.42 2.49
-2.59 -5.47 2.49
-2.48 -5.52 2.49
-2.37 -5.57 2.49
-2.25 -5.61 2.49
-2.14 -5.66 2.49
-2.03 -5.70 2.49
-1.91 -5.74 2.49
-1.80 -5.78 2.49
-1.68 -5.81 2.49
-1.56 -5.84 2.49
-1.44 -5.87 2.49
-1.33 -5.90 2.49
-1.21 -5.92 2.49
-1.09 -5.95 2.49
-0.97 -5.97 2.49
-0.85 -5.99 2.49
-0.73 -6.00 2.49
-0.61 -6.02 2.49
-0.49 -6.03 2.49
-0.36 -6.03 2.49
-0.24 -6.04 2.49
-0.12 -6.04 2.49
-0.00 -5.68 2.49
0.11 -5.68 2.49
0.23 -5.67 2.49
0.34 -5.67 2.49
0.46 -5.66 2.49
0.57 -5.65 2.49
0.68 -5.64 2.49
0.80 -5.62 2.49
0.91 -5.61 2.49
1.02 -5.59 2.49
1.13 -5.57 2.49
1.25 -5.54 2.49
1.36 -5.52 2.49
1.47 -5.49 2.49
1.58 -5.46 2.49
1.69 -5.42 2.49
1.80 -5.39 2.49
1.90 -5.35 2.49
2.01 -5.31 2.49
2.12 -5.27 2.49
2.13 -5.02 2.39
2.23 -4.97 2.39
2.33 -4.93 2.39
2.43 -4.88 2.39
2.53 -4.83 2.39
2.62 -4.78 2.39
2.72 -4.72 2.39
2.81 -4.67 2.39
2.91 -4.61 2.39
3.00 -4.55 2.39
3.09 -4.49 2.39
3.18 -4.43 2.39
3.27 -4.36 2.39
3.36 -4.30 2.39
3.44 -4.23 2.39
3.53 -4.16 2.39
3.61 -4.09 2.39
3.69 -4.01 2.39
3.77 -3.94 2.39
3.85 -3.86 2.39
3.93 -3.79 2.39
4.00 -3.71 2.39
4.08 -3.63 2.39
4.15 -3.54 2.39
4.22 -3.46 2.39
4.29 -3.38 2.39
4.36 -3.29 2.39
4.42 -3.20 2.39
4.49 -3.11 2.39
4.55 -3.02 2.39
4.61 -2.93 2.39
4.67 -2.84 2.39
4.73 -2.74 2.39
4.78 -2.65 2.39
4.83 -2.55 2.39
4.88 -2.45 2.39
4.93 -2.36 2.39
4.98 -2.26 2.39
5.02 -2.16 2.39
5.07 -2.06 2.39
5.11 -1.95 2.39
5.15 -1.85 2.39
5.18 -1.75 2.39
5.22 -1.64 2.39
5.25 -1.54 2.39
5.28 -1.43 2.39
5.31 -1.33 2.39
5.34 -1.22 2.39
5.36 -1.11 2.39
5.38 -1.00 2.39
5.40 -0.90 2.39
5.42 -0.79 2.39
5.44 -0.68 2.39
5.45 -0.57 2.39
5.46 -0.46 2.39
5.47 -0.35 2.39
5.48 -0.24 2.39
5.48 -0.13 2.39
5.48 -0.02 2.39
5.48 0.09 2.39
5.48 0.20 2.39
5.48 0.31 2.39
5.47 0.42 2.39
5.46 0.53 2.39
5.45 0.64 2.39
5.44 0.75 2.39
5.42 0.86 2.39
5.40 0.97 2.39
5.38 1.07 2.39
5.36 1.18 2.39
