ply
format ascii 1.0
element vertex 2740
property float32 x
property float32 y
property float32 z
end_header
25.53 21.38 -2.79
24.54 21.40 -2.74
23.66 21.49 -2.69
23.98 22.67 -2.78
24.00 23.62 -2.84
24.02 24.61 -2.90
24.04 25.64 -2.97
24.06 26.72 -3.04
24.09 27.85 -3.12
24.07 28.99 -3.20
24.14 30.28 -3.29
17.69 32.99 -3.21
16.85 33.00 -3.19
16.04 33.02 -3.16
15.23 33.04 -3.13
14.64 33.51 -3.15
15.43 37.34 -3.49
16.41 42.09 -3.90
15.62 42.56 -3.92
14.66 42.58 -3.90
13.72 42.60 -3.88
12.79 42.64 -3.86
11.95 42.96 -3.88
11.43 44.52 -4.00
3.31 21.74 -1.92
-5.97 1.18 -0.54
2.43 -20.05 -1.17
15.77 -33.35 -2.11
16.22 -32.60 -2.09
16.67 -31.86 -2.06
16.84 -30.69 -2.00
17.33 -30.13 -1.99
17.59 -29.20 -1.95
16.72 -26.55 -1.79
17.09 -25.95 -1.77
17.44 -25.37 -1.76
17.79 -24.79 -1.74
18.13 -24.23 -1.73
18.80 -24.10 -1.74
20.36 -25.04 -1.84
22.10 -26.09 -1.95
26.65 -30.22 -2.29
26.99 -29.40 -2.27
15.53 -16.24 -1.28
15.77 -15.85 -1.27
16.01 -15.45 -1.27
16.24 -15.06 -1.26
16.48 -14.68 -1.26
16.71 -14.29 -1.25
16.94 -13.91 -1.25
16.00 -12.61 -1.16
16.22 -12.26 -1.16
16.50 -11.96 -1.16
16.71 -11.61 -1.16
16.85 -11.21 -1.15
17.06 -10.87 -1.15
17.27 -10.52 -1.15
17.48 -10.17 -1.15
17.77 -9.87 -1.16
17.90 -9.48 -1.16
18.11 -9.13 -1.16
18.32 -8.78 -1.16
18.53 -8.43 -1.16
18.75 -8.07 -1.17
18.96 -7.72 -1.17
19.18 -7.36 -1.18
19.40 -7.00 -1.18
19.61 -6.64 -1.19
19.84 -6.27 -1.19
20.06 -5.90 -1.20
20.29 -5.53 -1.21
40.24 -10.11 -2.39
40.82 -9.38 -2.41
41.28 -8.62 -2.43
41.75 -7.85 -2.45
43.65 -7.30 -2.55
48.56 7.60 -2.89
38.14 6.76 -2.28
35.91 7.11 -2.16
29.74 6.51 -1.80
27.78 6.67 -1.69
26.74 6.99 -1.64
24.84 7.03 -1.53
24.04 7.33 -1.49
24.05 7.86 -1.50
24.06 8.40 -1.52
24.08 8.95 -1.53
24.09 9.51 -1.55
24.10 10.08 -1.56
24.11 10.66 -1.58
23.02 10.73 -1.52
22.65 11.12 -1.52
22.75 11.74 -1.54
22.26 12.06 -1.53
22.27 12.65 -1.55
22.28 13.25 -1.57
22.29 13.87 -1.59
22.72 14.78 -1.64
22.73 15.45 -1.67
22.75 16.14 -1.70
22.76 16.84 -1.73
22.78 17.57 -1.76
22.79 18.33 -1.79
22.81 19.10 -1.82
24.53 21.40 -2.00
23.66 21.50 -1.97
23.98 22.68 -2.03
24.11 23.73 -2.09
24.02 24.62 -2.12
24.09 25.70 -2.18
24.09 26.76 -2.23
24.09 27.86 -2.29
24.11 29.04 -2.35
24.14 30.29 -2.41
19.38 32.91 -2.41
18.54 32.97 -2.39
17.69 32.99 -2.37
16.85 33.00 -2.35
16.03 33.02 -2.33
15.23 33.04 -2.31
14.44 33.05 -2.29
13.66 33.07 -2.28
12.75 32.71 -2.24
13.19 35.96 -2.45
13.87 40.30 -2.73
13.74 42.69 -2.87
12.81 42.72 -2.86
12.01 43.19 -2.88
11.45 44.64 -2.97
3.30 21.74 -1.42
-5.97 1.18 -0.40
2.43 -20.05 -0.72
15.77 -33.35 -1.28
16.22 -32.60 -1.26
16.66 -31.87 -1.25
16.84 -30.69 -1.21
17.42 -30.29 -1.21
17.93 -29.77 -1.20
16.72 -26.55 -1.08
17.08 -25.95 -1.07
17.44 -25.37 -1.06
17.79 -24.79 -1.05
18.12 -24.21 -1.04
18.80 -24.10 -1.05
20.35 -25.04 -1.11
22.09 -26.09 -1.18
26.56 -30.12 -1.38
26.99 -29.40 -1.37
15.54 -16.26 -0.77
15.78 -15.86 -0.77
16.02 -15.47 -0.76
16.26 -15.08 -0.76
16.49 -14.69 -0.76
16.72 -14.30 -0.76
16.95 -13.92 -0.75
17.18 -13.54 -0.75
16.23 -12.27 -0.70
16.44 -11.92 -0.70
16.65 -11.57 -0.70
16.86 -11.22 -0.70
17.08 -10.88 -0.70
17.29 -10.53 -0.70
17.50 -10.18 -0.70
17.71 -9.83 -0.70
17.92 -9.48 -0.70
18.13 -9.13 -0.70
18.34 -8.78 -0.70
18.55 -8.43 -0.70
18.77 -8.08 -0.71
18.98 -7.72 -0.71
19.20 -7.37 -0.71
19.41 -7.01 -0.72
19.63 -6.64 -0.72
19.86 -6.28 -0.72
20.08 -5.91 -0.73
20.31 -5.53 -0.73
40.24 -10.10 -1.45
40.69 -9.35 -1.46
41.15 -8.59 -1.47
41.62 -7.82 -1.49
42.09 -7.04 -1.50
42.57 -6.24 -1.51
48.46 7.59 -1.78
38.13 6.76 -1.40
35.91 7.11 -1.33
29.72 6.51 -1.11
27.78 6.67 -1.04
26.73 6.99 -1.01
24.83 7.03 -0.95
24.04 7.33 -0.92
24.05 7.86 -0.93
24.06 8.41 -0.94
24.08 8.96 -0.95
24.09 9.52 -0.96
24.10 10.08 -0.97
24.11 10.66 -0.98
23.01 10.73 -0.95
22.65 11.12 -0.95
22.75 11.75 -0.96
22.67 12.29 -0.97
22.56 12.82 -0.98
22.28 13.26 -0.98
22.29 13.88 -1.00
22.72 14.79 -1.03
22.73 15.45 -1.05
22.75 16.14 -1.07
22.76 16.85 -1.09
22.78 17.58 -1.11
22.79 18.33 -1.13
22.81 19.11 -1.15
24.53 21.40 -1.26
23.66 21.50 -1.24
23.98 22.68 -1.29
24.12 23.75 -1.32
24.02 24.62 -1.35
24.09 25.71 -1.38
24.13 26.81 -1.42
24.09 27.86 -1.46
24.23 29.19 -1.50
24.14 30.30 -1.54
19.40 32.95 -1.55
18.55 33.01 -1.53
17.70 33.03 -1.52
16.85 33.00 -1.51
16.03 33.02 -1.50
15.22 33.04 -1.49
14.45 33.09 -1.48
13.66 33.07 -1.47
12.98 33.31 -1.47
12.75 34.77 -1.53
13.08 38.00 -1.66
12.94 40.23 -1.75
12.78 42.64 -1.85
11.96 43.01 -1.86
11.47 44.70 -1.93
3.30 21.74 -0.93
-5.97 1.18 -0.27
2.43 -20.05 -0.26
15.76 -33.33 -0.45
16.21 -32.58 -0.44
16.65 -31.85 -0.44
17.08 -31.13 -0.43
17.51 -30.44 -0.42
17.92 -29.75 -0.42
16.71 -26.53 -0.38
18.52 -28.14 -0.40
19.13 -27.82 -0.40
19.72 -27.49 -0.40
18.12 -24.21 -0.36
18.87 -24.19 -0.36
20.59 -25.33 -0.39
22.18 -26.19 -0.41
26.54 -30.10 -0.48
26.98 -29.38 -0.47
15.54 -16.26 -0.27
16.28 -16.36 -0.27
18.52 -17.88 -0.30
21.55 -19.98 -0.35
25.86 -22.12 -0.40
26.77 -21.99 -0.41
19.87 -15.66 -0.30
16.23 -12.27 -0.24
17.64 -12.79 -0.26
24.29 -16.88 -0.35
24.60 -16.37 -0.35
24.91 -15.86 -0.35
25.21 -15.36 -0.35
25.52 -14.85 -0.35
25.83 -14.34 -0.35
17.92 -9.48 -0.24
18.13 -9.13 -0.24
30.43 -14.57 -0.41
38.46 -17.48 -0.51
38.16 -16.43 -0.50
38.60 -15.71 -0.50
39.04 -14.98 -0.51
27.61 -9.96 -0.36
24.36 -8.24 -0.31
21.97 -6.94 -0.28
20.42 -6.01 -0.26
20.31 -5.53 -0.26
40.26 -10.11 -0.51
40.72 -9.36 -0.52
41.18 -8.60 -0.53
41.64 -7.82 -0.53
42.12 -7.04 -0.54
42.60 -6.25 -0.54
48.56 7.61 -0.67
47.89 8.50 -0.67
47.28 9.37 -0.67
39.03 8.55 -0.56
35.87 8.62 -0.52
33.15 8.67 -0.48
30.80 8.72 -0.45
28.73 8.76 -0.43
26.90 8.80 -0.41
25.28 8.83 -0.39
23.94 8.91 -0.37
23.96 9.47 -0.38
23.97 10.03 -0.38
23.98 10.61 -0.39
23.99 11.19 -0.39
24.00 11.79 -0.40
24.02 12.40 -0.41
24.03 13.03 -0.41
24.04 13.66 -0.42
24.05 14.32 -0.43
24.07 14.99 -0.44
24.08 15.68 -0.45
24.09 16.38 -0.46
22.97 16.30 -0.44
21.93 16.23 -0.43
21.61 16.68 -0.44
21.56 17.34 -0.44
21.52 18.03 -0.45
21.47 18.74 -0.46
21.42 19.47 -0.47
21.38 20.23 -0.48
24.00 23.64 -0.56
24.02 24.63 -0.57
24.04 25.66 -0.59
24.06 26.74 -0.61
24.09 27.87 -0.63
24.07 29.01 -0.64
24.14 30.31 -0.67
23.98 31.38 -0.68
23.49 32.05 -0.69
22.99 32.74 -0.70
22.43 33.34 -0.71
21.76 33.79 -0.71
21.09 34.23 -0.71
19.40 32.95 -0.68
18.53 32.97 -0.68
17.68 32.99 -0.68
16.84 33.00 -0.67
16.02 33.02 -0.67
15.22 33.04 -0.67
14.43 33.05 -0.67
13.65 33.07 -0.66
12.98 33.32 -0.67
12.75 34.78 -0.70
12.63 36.71 -0.73
11.84 36.82 -0.73
11.51 38.41 -0.76
12.01 43.21 -0.86
3.30 21.74 -0.43
-16.62 3.99 -0.37
-16.52 3.62 -0.36
-5.97 1.18 -0.13
-16.42 2.91 -0.35
-16.37 2.57 -0.35
-16.33 2.22 -0.35
-16.24 1.88 -0.34
-15.82 1.51 -0.33
-15.44 1.16 -0.32
-15.07 0.83 -0.31
-14.72 0.52 -0.31
-14.65 0.22 -0.30
-14.63 -0.07 -0.30
-14.56 -0.37 -0.30
-14.54 -0.66 -0.30
-14.52 -0.95 -0.30
-14.50 -1.24 -0.30
-14.48 -1.53 -0.30
-14.46 -1.83 -0.29
-14.44 -2.12 -0.29
-14.44 -2.41 -0.29
-14.45 -2.72 -0.29
-14.47 -3.02 -0.29
-14.49 -3.33 -0.29
-14.51 -3.64 -0.30
-14.53 -3.96 -0.30
-14.52 -4.27 -0.30
-14.41 -4.56 -0.29
-14.41 -4.88 -0.30
-14.41 -5.20 -0.30
-14.42 -5.53 -0.30
-14.42 -5.87 -0.30
-14.43 -6.21 -0.30
-14.29 -6.50 -0.30
-14.15 -6.78 -0.30
-14.01 -7.06 -0.29
-14.12 -7.47 -0.30
-14.23 -7.90 -0.30
-14.42 -8.39 -0.31
-14.59 -8.89 -0.31
-14.62 -9.31 -0.32
-14.66 -9.76 -0.32
-14.70 -10.22 -0.32
-14.82 -10.75 -0.33
-14.86 -11.24 -0.33
-14.91 -11.75 -0.34
2.43 -20.05 0.19
15.76 -33.33 0.38
20.33 -40.85 0.47
16.65 -31.85 0.37
17.46 -31.83 0.38
23.94 -41.63 0.50
19.96 -33.15 0.41
16.71 -26.53 0.33
20.85 -31.67 0.40
19.16 -27.87 0.36
21.70 -30.26 0.39
18.12 -24.21 0.32
18.87 -24.19 0.33
20.59 -25.33 0.35
22.80 -26.93 0.38
32.50 -36.85 0.52
26.98 -29.38 0.43
15.54 -16.26 0.24
16.28 -16.36 0.25
18.52 -17.88 0.28
21.55 -19.98 0.31
25.86 -22.12 0.36
30.49 -25.04 0.42
19.87 -15.66 0.27
16.23 -12.27 0.22
17.64 -12.79 0.23
24.29 -16.88 0.32
24.60 -16.37 0.32
24.91 -15.86 0.31
25.21 -15.35 0.31
25.52 -14.85 0.31
25.83 -14.34 0.31
17.92 -9.48 0.21
18.13 -9.13 0.21
30.43 -14.57 0.35
40.84 -18.56 0.47
42.26 -16.21 0.47
27.61 -9.96 0.30
24.36 -8.24 0.26
21.97 -6.94 0.24
20.41 -6.00 0.22
20.31 -5.53 0.21
40.31 -10.12 0.42
33.51 -6.29 0.34
32.28 -5.39 0.32
32.72 -4.79 0.33
33.16 -4.18 0.33
33.62 -3.56 0.33
48.55 7.62 0.44
47.88 8.50 0.43
46.46 9.21 0.41
40.86 8.96 0.36
38.42 9.24 0.34
35.51 9.29 0.31
32.99 9.35 0.29
28.72 8.76 0.25
27.92 9.13 0.24
27.93 9.76 0.24
23.94 8.91 0.20
23.96 9.47 0.20
23.97 10.03 0.20
23.98 10.61 0.20
23.99 11.20 0.20
23.97 11.78 0.20
23.98 12.39 0.20
24.03 13.03 0.20
24.02 13.65 0.20
24.03 14.31 0.20
24.07 14.99 0.20
24.08 15.68 0.20
25.28 17.19 0.21
24.11 17.11 0.20
23.01 17.04 0.19
22.61 17.46 0.19
22.56 18.15 0.19
22.52 18.87 0.19
22.47 19.61 0.19
23.66 21.51 0.20
23.68 22.41 0.20
23.70 23.35 0.20
23.72 24.33 0.20
23.74 25.35 0.20
23.76 26.41 0.20
23.79 27.53 0.20
23.81 28.70 0.20
23.84 29.93 0.20
23.98 31.38 0.21
23.49 32.06 0.20
22.99 32.74 0.20
22.43 33.35 0.20
21.76 33.79 0.19
21.08 34.24 0.19
19.39 32.95 0.18
18.52 32.97 0.17
17.67 32.99 0.17
16.84 33.00 0.16
16.02 33.02 0.16
15.21 33.04 0.15
14.42 33.05 0.15
13.65 33.07 0.14
12.98 33.34 0.14
13.03 35.54 0.14
12.96 37.70 0.15
13.13 40.84 0.15
11.68 39.00 0.14
12.00 43.21 0.15
3.30 21.74 0.06
-14.10 47.08 0.06
-14.31 44.48 0.06
-14.54 42.27 0.05
-14.85 40.53 0.05
-14.70 37.75 0.04
-13.62 32.99 0.04
-13.64 31.26 0.03
-13.70 29.76 0.03
-13.73 28.30 0.03
-13.80 27.05 0.03
-13.83 25.81 0.03
-13.87 24.69 0.02
-13.92 23.64 0.02
-13.93 22.62 0.02
-13.98 21.71 0.02
-14.07 20.91 0.02
-14.16 20.16 0.02
-14.28 19.48 0.02
-14.60 19.11 0.02
-14.91 18.72 0.01
-14.98 18.05 0.01
-15.20 17.59 0.01
-15.39 17.10 0.01
-15.41 16.44 0.01
-15.44 15.84 0.01
-15.50 15.27 0.01
-15.51 14.68 0.01
-15.53 14.11 0.01
-15.49 13.52 0.01
-15.47 12.97 0.01
-15.48 12.46 0.01
-15.49 11.96 0.01
-15.48 11.46 0.01
-15.48 10.99 0.01
-15.49 10.53 0.01
-15.50 10.09 0.01
-15.57 9.70 0.01
-15.65 9.32 0.01
-15.70 8.92 0.01
-15.72 8.52 0.01
-15.75 8.13 0.01
-15.74 7.73 0.01
-15.71 7.33 0.01
-15.70 6.95 0.01
-15.70 6.57 0.01
-15.70 6.20 0.01
-15.65 5.82 0.01
-15.51 5.42 0.02
-15.38 5.03 0.02
-15.26 4.65 0.02
-15.23 4.31 0.02
-15.22 3.98 0.02
-14.96 3.59 0.02
-14.67 3.22 0.02
-5.97 1.18 0.01
-14.44 2.56 0.02
-14.35 2.25 0.02
-14.26 1.94 0.02
-14.15 1.64 0.02
-14.04 1.34 0.02
-13.99 1.06 0.02
-13.97 0.77 0.02
-13.95 0.49 0.02
-13.94 0.21 0.02
-13.92 -0.07 0.03
-13.82 -0.35 0.03
-13.70 -0.62 0.03
-13.57 -0.89 0.03
-13.45 -1.15 0.03
-13.34 -1.41 0.03
-13.23 -1.67 0.03
-13.21 -1.94 0.03
-13.19 -2.20 0.03
-13.19 -2.48 0.03
-13.18 -2.75 0.04
-13.18 -3.03 0.04
-13.18 -3.31 0.04
-13.17 -3.59 0.04
-13.17 -3.87 0.04
-13.18 -4.17 0.04
-13.11 -4.43 0.04
-13.01 -4.70 0.04
-12.92 -4.96 0.05
-12.82 -5.22 0.05
-12.74 -5.49 0.05
-12.72 -5.78 0.05
-12.69 -6.08 0.05
-12.66 -6.38 0.05
-12.64 -6.69 0.06
-12.61 -7.00 0.06
-12.59 -7.32 0.06
-12.56 -7.65 0.06
-12.54 -7.98 0.06
-12.51 -8.33 0.07
-12.52 -8.70 0.07
-12.55 -9.10 0.07
-12.57 -9.50 0.07
-12.59 -9.92 0.08
-12.62 -10.36 0.08
-12.65 -10.82 0.08
-12.70 -11.31 0.09
-12.75 -11.82 0.09
-12.80 -12.36 0.09
-12.80 -12.87 0.10
-12.80 -13.39 0.10
-12.80 -13.94 0.11
-12.83 -14.55 0.11
-13.49 -15.93 0.12
-13.55 -16.66 0.13
-13.79 -17.68 0.13
-13.79 -18.43 0.14
-13.83 -19.28 0.15
-13.86 -20.16 0.15
-13.88 -21.08 0.16
-13.90 -22.07 0.17
-14.01 -23.27 0.18
-14.04 -24.42 0.19
-14.44 -26.32 0.20
-14.62 -27.95 0.22
-14.67 -29.48 0.23
-14.66 -31.00 0.24
-14.72 -32.82 0.26
-14.58 -34.35 0.27
-14.29 -35.62 0.28
-14.22 -37.62 0.30
2.42 -20.05 0.65
14.77 -32.94 1.18
14.86 -31.44 1.14
14.84 -29.83 1.10
14.82 -28.35 1.05
14.80 -26.98 1.01
14.87 -25.85 0.98
14.88 -24.71 0.95
14.88 -23.63 0.92
14.90 -22.64 0.90
19.15 -27.87 1.12
21.70 -30.26 1.23
18.11 -24.21 1.00
18.87 -24.19 1.02
20.59 -25.33 1.08
22.80 -26.93 1.17
32.50 -36.85 1.63
15.04 -16.38 0.74
15.28 -15.99 0.73
15.52 -15.60 0.73
15.75 -15.21 0.73
15.98 -14.82 0.72
16.21 -14.44 0.72
16.44 -14.06 0.72
15.49 -12.72 0.67
15.70 -12.38 0.66
15.91 -12.03 0.66
16.12 -11.69 0.66
16.33 -11.34 0.66
16.53 -11.00 0.66
16.74 -10.66 0.66
16.95 -10.32 0.66
17.15 -9.98 0.66
17.36 -9.64 0.66
17.56 -9.30 0.66
17.77 -8.95 0.66
17.98 -8.61 0.66
18.19 -8.26 0.66
18.40 -7.92 0.66
18.61 -7.57 0.66
18.82 -7.22 0.66
19.03 -6.87 0.67
19.25 -6.51 0.67
19.47 -6.15 0.67
19.69 -5.79 0.67
19.91 -5.42 0.67
20.13 -5.05 0.68
46.75 -8.78 1.55
32.88 -5.49 1.08
33.08 -4.85 1.08
33.54 -4.23 1.09
48.55 7.62 1.54
47.88 8.50 1.52
46.44 9.21 1.48
40.86 8.96 1.30
38.40 9.24 1.23
35.50 9.29 1.14
32.98 9.35 1.06
28.71 8.76 0.92
27.92 9.14 0.90
27.93 9.77 0.91
23.94 8.92 0.78
23.96 9.47 0.78
23.97 10.04 0.79
23.98 10.61 0.79
23.99 11.20 0.80
23.97 11.78 0.80
23.99 12.39 0.81
24.03 13.03 0.82
24.02 13.66 0.82
24.03 14.31 0.83
24.07 15.00 0.84
24.08 15.68 0.85
25.28 17.20 0.90
24.10 17.11 0.87
23.00 17.04 0.84
22.61 17.46 0.83
22.56 18.16 0.84
22.51 18.88 0.85
22.47 19.62 0.86
21.86 19.87 0.85
21.50 20.35 0.85
24.00 23.65 0.96
24.02 24.64 0.98
24.04 25.67 0.99
24.06 26.75 1.01
24.09 27.88 1.03
24.08 29.04 1.06
24.14 30.32 1.08
23.97 31.39 1.10
23.48 32.06 1.10
22.99 32.74 1.10
22.43 33.35 1.10
21.75 33.79 1.10
21.08 34.24 1.10
19.39 32.95 1.04
18.52 32.97 1.02
17.67 32.99 1.01
16.83 33.01 1.00
16.01 33.02 0.98
15.21 33.04 0.97
14.42 33.05 0.96
13.64 33.07 0.95
12.98 33.35 0.94
13.03 35.56 1.00
12.97 37.72 1.04
13.13 40.86 1.12
11.68 39.00 1.06
11.97 43.09 1.16
11.89 46.41 1.24
11.25 47.91 1.27
3.29 21.74 0.56
-12.06 47.04 1.16
-12.63 45.44 1.13
-12.85 42.87 1.07
-13.07 40.64 1.01
-13.27 38.57 0.97
-12.91 35.21 0.89
-12.64 32.46 0.82
-12.74 30.87 0.79
-12.84 29.41 0.76
-12.92 28.05 0.73
-13.04 26.88 0.70
-13.07 25.62 0.67
-13.11 24.48 0.65
-13.20 23.50 0.63
-13.26 22.52 0.61
-13.32 21.62 0.59
-13.41 20.82 0.58
-13.52 20.09 0.56
-13.67 19.47 0.55
-13.79 18.82 0.54
-13.91 18.20 0.53
-13.98 17.56 0.52
-14.09 16.99 0.51
-14.20 16.43 0.50
-14.28 15.87 0.49
-14.33 15.29 0.48
-14.37 14.74 0.48
-14.44 14.22 0.47
-14.44 13.67 0.46
-14.43 13.12 0.45
-14.42 12.59 0.44
-14.42 12.08 0.43
-14.43 11.61 0.43
-14.44 11.15 0.42
-14.45 10.70 0.42
-14.46 10.26 0.41
-14.49 9.85 0.41
-14.58 9.49 0.40
-14.66 9.13 0.40
-14.74 8.78 0.40
-14.82 8.43 0.40
-14.87 8.06 0.39
-14.86 7.68 0.39
-14.85 7.30 0.38
-14.83 6.92 0.38
-14.82 6.56 0.38
-14.81 6.20 0.37
-14.77 5.84 0.37
-14.66 5.46 0.37
-14.56 5.09 0.36
-14.51 4.75 0.36
-14.47 4.41 0.36
-14.42 4.09 0.35
-14.33 3.75 0.35
-14.22 3.42 0.35
-14.13 3.10 0.34
-5.96 1.18 0.14
-13.95 2.48 0.34
-13.87 2.18 0.34
-13.79 1.88 0.33
-13.68 1.59 0.33
-13.58 1.30 0.33
-13.49 1.02 0.33
-13.39 0.74 0.32
-13.31 0.47 0.32
-13.29 0.20 0.32
-13.27 -0.07 0.32
-13.19 -0.33 0.32
-13.08 -0.59 0.32
-12.97 -0.85 0.32
-12.86 -1.10 0.32
-12.75 -1.35 0.32
-12.66 -1.59 0.32
-12.60 -1.85 0.32
-12.55 -2.10 0.32
-12.51 -2.35 0.32
-12.51 -2.61 0.32
-12.51 -2.87 0.32
-12.51 -3.14 0.33
-12.51 -3.41 0.33
-12.51 -3.68 0.33
-12.51 -3.95 0.34
-12.51 -4.23 0.34
-12.48 -4.50 0.34
-12.45 -4.77 0.34
-12.42 -5.05 0.35
-12.39 -5.33 0.35
-12.36 -5.61 0.35
-12.33 -5.90 0.36
-12.30 -6.19 0.36
-12.28 -6.50 0.37
-12.27 -6.81 0.37
-12.24 -7.12 0.38
-12.21 -7.43 0.38
-12.18 -7.76 0.39
-12.15 -8.08 0.39
-12.13 -8.43 0.40
-12.13 -8.79 0.41
-12.14 -9.18 0.41
-12.16 -9.58 0.42
-12.17 -9.99 0.43
-12.19 -10.42 0.44
-12.19 -10.86 0.45
-12.22 -11.33 0.46
-12.26 -11.83 0.47
-12.30 -12.36 0.49
-12.30 -12.87 0.50
-12.29 -13.38 0.51
-12.28 -13.92 0.52
-12.29 -14.51 0.54
-12.43 -15.28 0.56
-12.55 -16.08 0.58
-12.64 -16.89 0.60
-12.71 -17.71 0.63
-12.77 -18.57 0.65
-12.78 -19.40 0.67
-12.79 -20.29 0.70
-12.78 -21.22 0.72
-12.78 -22.21 0.75
-12.83 -23.37 0.78
-12.90 -24.67 0.82
-13.61 -27.33 0.90
-13.77 -29.12 0.95
-13.79 -30.73 1.00
-13.67 -32.19 1.04
-13.56 -33.79 1.09
-13.31 -35.20 1.13
-12.93 -36.39 1.16
-12.82 -38.53 1.23
-0.01 -46.09 2.49
0.92 -46.01 2.49
1.84 -45.92 2.49
2.64 -43.92 2.39
3.52 -43.80 2.39
4.24 -42.16 2.31
2.42 -20.05 1.10
6.13 -43.40 2.39
6.99 -43.22 2.39
7.85 -43.02 2.39
8.70 -42.81 2.39
9.55 -42.58 2.39
10.39 -42.33 2.39
11.23 -42.07 2.39
12.06 -41.79 2.39
12.88 -41.50 2.39
13.70 -41.20 2.39
14.51 -40.88 2.39
15.32 -40.54 2.39
16.11 -40.19 2.39
16.90 -39.83 2.39
14.77 -32.95 2.00
14.86 -31.44 1.93
14.84 -29.84 1.85
14.82 -28.36 1.78
14.80 -26.98 1.71
14.87 -25.86 1.66
14.88 -24.71 1.60
14.88 -23.63 1.55
14.90 -22.64 1.51
14.86 -21.63 1.46
14.83 -20.68 1.42
14.85 -19.85 1.38
14.80 -18.98 1.34
14.80 -18.21 1.31
14.78 -17.46 1.28
14.88 -16.87 1.25
15.04 -16.38 1.24
15.28 -15.99 1.23
15.52 -15.60 1.23
15.75 -15.21 1.22
15.98 -14.82 1.22
16.21 -14.44 1.21
16.44 -14.06 1.21
15.49 -12.72 1.12
15.70 -12.38 1.12
15.91 -12.03 1.11
16.12 -11.69 1.11
16.33 -11.34 1.11
16.53 -11.00 1.11
16.74 -10.66 1.11
16.95 -10.32 1.11
17.15 -9.98 1.11
17.36 -9.64 1.11
17.56 -9.30 1.11
17.77 -8.95 1.11
17.98 -8.61 1.11
18.19 -8.26 1.11
18.40 -7.92 1.11
18.61 -7.57 1.12
18.82 -7.22 1.12
19.03 -6.87 1.12
19.25 -6.51 1.13
19.47 -6.15 1.13
19.69 -5.79 1.14
19.91 -5.42 1.14
20.13 -5.05 1.15
42.28 -9.71 2.39
42.49 -8.86 2.39
33.86 -6.36 1.90
32.62 -5.45 1.82
32.99 -4.83 1.83
33.52 -4.22 1.86
33.90 -3.58 1.87
43.52 -3.71 2.39
43.63 -2.84 2.39
43.73 -1.97 2.39
43.81 -1.09 2.39
43.88 -0.21 2.39
43.93 0.67 2.39
43.97 1.55 2.39
43.98 2.44 2.39
43.99 3.33 2.39
43.97 4.21 2.39
43.94 5.10 2.39
43.89 5.99 2.39
43.82 6.88 2.39
43.74 7.77 2.39
43.64 8.66 2.39
40.86 8.97 2.25
38.39 9.24 2.12
35.49 9.29 1.96
32.97 9.35 1.83
28.70 8.76 1.60
27.92 9.14 1.56
27.93 9.77 1.57
23.94 8.92 1.36
23.96 9.47 1.37
23.97 10.04 1.37
23.67 10.48 1.37
23.99 11.20 1.40
23.97 11.79 1.41
23.98 12.40 1.42
24.03 13.04 1.43
24.02 13.66 1.45
24.03 14.31 1.46
24.07 15.00 1.48
24.08 15.69 1.50
25.28 17.20 1.59
24.09 17.11 1.53
23.00 17.04 1.48
22.06 17.04 1.44
21.91 17.64 1.45
21.87 18.34 1.47
21.82 19.06 1.49
21.86 19.88 1.51
21.50 20.35 1.51
24.00 23.66 1.72
24.02 24.64 1.75
24.04 25.68 1.79
24.06 26.76 1.83
24.09 27.89 1.87
24.08 29.05 1.91
24.14 30.33 1.95
23.97 31.39 1.99
23.48 32.06 2.00
21.16 30.15 1.85
20.59 30.62 1.85
20.03 31.12 1.85
21.08 34.24 2.00
19.38 32.95 1.90
18.51 32.97 1.88
17.66 32.99 1.85
16.83 33.01 1.83
16.01 33.02 1.81
15.21 33.04 1.79
14.42 33.05 1.77
13.64 33.07 1.75
12.98 33.36 1.75
13.03 35.57 1.85
12.97 37.73 1.94
13.13 40.87 2.09
11.67 39.00 1.98
12.00 43.21 2.17
11.89 46.41 2.32
10.90 46.44 2.30
10.38 48.56 2.39
9.42 48.84 2.39
8.45 49.11 2.39
3.29 21.74 1.05
-9.96 46.53 2.22
-10.53 44.75 2.14
-11.14 43.42 2.08
-11.70 42.08 2.03
-11.99 39.99 1.94
-12.30 38.22 1.86
-11.71 34.05 1.67
-11.62 31.69 1.56
-11.82 30.33 1.50
-11.98 29.02 1.45
-12.13 27.80 1.40
-12.29 26.68 1.35
-12.36 25.46 1.30
-12.39 24.27 1.25
-12.50 23.33 1.22
-12.60 22.42 1.18
-12.68 21.55 1.15
-12.77 20.73 1.12
-12.90 20.02 1.09
-13.07 19.42 1.07
-13.22 18.82 1.05
-13.34 18.20 1.03
-13.40 17.54 1.01
-13.49 16.94 0.99
-13.61 16.40 0.97
-13.68 15.83 0.96
-13.71 15.24 0.94
-13.77 14.70 0.92
-13.82 14.17 0.90
-13.88 13.68 0.89
-13.90 13.16 0.87
-13.91 12.64 0.86
-13.92 12.15 0.84
-13.98 11.71 0.83
-14.01 11.27 0.82
-14.02 10.83 0.81
-14.04 10.40 0.80
-14.05 9.98 0.79
-14.07 9.57 0.78
-14.11 9.19 0.77
-14.16 8.82 0.76
-14.21 8.46 0.76
-14.26 8.10 0.75
-14.27 7.74 0.74
-14.27 7.37 0.74
-14.27 7.01 0.73
-14.27 6.66 0.72
-14.27 6.31 0.72
-14.27 5.97 0.71
-14.23 5.63 0.70
-14.19 5.28 0.70
-14.15 4.95 0.69
-14.11 4.62 0.68
-14.06 4.29 0.68
-14.02 3.97 0.67
-13.91 3.64 0.66
-13.79 3.31 0.66
-13.66 3.00 0.65
-5.96 1.18 0.28
-13.50 2.40 0.64
-13.42 2.11 0.63
-13.34 1.82 0.63
-13.24 1.54 0.62
-13.15 1.26 0.62
-13.06 0.99 0.61
-12.97 0.72 0.61
-12.88 0.45 0.60
-12.79 0.19 0.60
-12.71 -0.06 0.60
-12.63 -0.31 0.59
-12.58 -0.57 0.59
-12.53 -0.82 0.59
-12.47 -1.06 0.59
-12.42 -1.31 0.59
-12.37 -1.56 0.59
-12.31 -1.80 0.59
-12.26 -2.05 0.59
-12.22 -2.29 0.59
-12.20 -2.54 0.59
-12.18 -2.80 0.60
-12.18 -3.06 0.60
-12.18 -3.32 0.61
-12.18 -3.58 0.61
-12.18 -3.85 0.61
-12.18 -4.12 0.62
-12.16 -4.38 0.62
-12.12 -4.65 0.63
-12.08 -4.91 0.63
-12.05 -5.18 0.64
-12.02 -5.46 0.64
-11.99 -5.74 0.65
-11.95 -6.02 0.65
-11.92 -6.31 0.66
-11.91 -6.61 0.67
-11.89 -6.92 0.68
-11.88 -7.23 0.68
-11.85 -7.54 0.69
-11.81 -7.86 0.70
-11.78 -8.18 0.71
-11.76 -8.52 0.72
-11.76 -8.89 0.73
-11.75 -9.26 0.75
-11.76 -9.65 0.76
-11.77 -10.06 0.77
-11.77 -10.48 0.79
-11.77 -10.91 0.81
-11.76 -11.35 0.82
-11.78 -11.84 0.84
-11.81 -12.35 0.86
-11.81 -12.85 0.88
-11.80 -13.37 0.90
-11.78 -13.90 0.93
-11.76 -14.46 0.95
-11.89 -15.24 0.99
-12.01 -16.04 1.02
-12.08 -16.84 1.06
-12.13 -17.64 1.10
-12.18 -18.49 1.14
-12.17 -19.31 1.18
-12.16 -20.17 1.22
-12.12 -21.06 1.26
-12.09 -22.01 1.30
-12.09 -23.11 1.36
-12.13 -24.36 1.42
-12.47 -26.36 1.52
-12.68 -28.26 1.62
-12.69 -29.88 1.70
-12.55 -31.28 1.77
-12.30 -32.52 1.83
-12.15 -34.20 1.91
-11.91 -35.76 1.99
-11.67 -37.55 2.08
-12.11 -41.91 2.31
-10.75 -43.71 2.39
-9.85 -43.85 2.39
-8.96 -43.96 2.39
-8.06 -44.06 2.39
-7.16 -44.14 2.39
-6.53 -46.11 2.49
-5.60 -46.16 2.49
-4.66 -46.19 2.49
-3.73 -46.21 2.49
-2.80 -46.20 2.49
-1.86 -46.18 2.49
-0.94 -46.14 2.49
-0.01 -32.50 2.49
0.64 -32.46 2.49
1.29 -32.41 2.49
1.88 -31.25 2.41
2.48 -30.94 2.39
3.10 -30.85 2.39
2.42 -20.02 1.56
4.33 -30.65 2.39
4.94 -30.53 2.39
5.55 -30.40 2.39
6.16 -30.30 2.39
6.76 -30.15 2.39
7.36 -29.98 2.39
7.95 -29.81 2.39
8.54 -29.62 2.39
9.13 -29.42 2.39
9.71 -29.21 2.39
10.29 -28.99 2.39
10.86 -28.76 2.39
11.43 -28.52 2.39
12.00 -28.27 2.39
12.55 -28.01 2.39
13.11 -27.74 2.39
13.66 -27.45 2.39
14.20 -27.16 2.39
14.73 -26.86 2.39
14.87 -25.86 2.33
14.88 -24.72 2.26
14.88 -23.63 2.18
14.90 -22.64 2.12
14.86 -21.63 2.05
14.83 -20.68 1.99
14.85 -19.85 1.94
14.80 -18.98 1.89
14.80 -18.21 1.84
14.78 -17.46 1.79
14.88 -16.87 1.76
15.04 -16.38 1.74
15.28 -15.99 1.73
15.52 -15.60 1.73
15.75 -15.21 1.72
15.98 -14.82 1.71
16.21 -14.44 1.70
16.44 -14.06 1.70
15.49 -12.72 1.57
15.70 -12.38 1.57
15.91 -12.03 1.56
16.12 -11.69 1.56
16.33 -11.34 1.56
16.53 -11.00 1.56
16.74 -10.66 1.56
16.95 -10.32 1.55
17.15 -9.98 1.55
17.36 -9.64 1.55
17.57 -9.29 1.56
17.77 -8.95 1.56
17.98 -8.61 1.56
18.19 -8.26 1.56
18.40 -7.92 1.57
18.61 -7.57 1.57
18.82 -7.22 1.57
19.03 -6.86 1.58
19.25 -6.51 1.59
19.47 -6.15 1.59
19.69 -5.79 1.60
19.91 -5.42 1.61
20.13 -5.05 1.62
29.98 -6.88 2.39
30.13 -6.28 2.39
30.27 -5.68 2.39
30.40 -5.07 2.39
30.52 -4.47 2.39
30.62 -3.86 2.39
30.72 -3.24 2.39
30.80 -2.63 2.39
30.87 -2.01 2.39
30.93 -1.39 2.39
30.98 -0.77 2.39
31.02 -0.15 2.39
31.04 0.48 2.39
31.05 1.10 2.39
31.05 1.72 2.39
31.04 2.35 2.39
31.02 2.98 2.39
30.98 3.60 2.39
30.94 4.23 2.39
30.88 4.85 2.39
30.81 5.48 2.39
30.72 6.10 2.39
30.63 6.72 2.39
30.52 7.35 2.39
30.40 7.97 2.39
30.27 8.58 2.39
28.69 8.76 2.28
27.92 9.14 2.23
27.93 9.77 2.24
23.94 8.92 1.93
23.96 9.48 1.95
23.97 10.04 1.96
23.67 10.48 1.95
23.99 11.21 1.99
23.97 11.79 2.01
23.98 12.40 2.03
24.03 13.04 2.05
24.02 13.66 2.07
24.03 14.32 2.09
24.07 15.00 2.12
24.08 15.69 2.15
25.28 17.21 2.28
24.19 17.18 2.21
22.99 17.04 2.13
22.05 17.04 2.07
21.91 17.64 2.09
21.87 18.34 2.11
22.16 19.36 2.18
23.96 21.80 2.39
23.56 22.31 2.39
23.14 22.81 2.39
22.71 23.30 2.39
22.27 23.79 2.39
21.81 24.26 2.39
21.35 24.73 2.39
20.88 25.19 2.39
20.40 25.64 2.39
19.91 26.08 2.39
19.41 26.51 2.39
18.90 26.93 2.39
18.38 27.35 2.39
17.85 27.75 2.39
17.32 28.14 2.39
14.57 24.77 2.08
14.05 25.03 2.07
15.66 29.25 2.39
14.52 28.49 2.30
14.51 29.94 2.39
13.93 30.27 2.39
13.33 30.58 2.39
12.73 30.88 2.39
12.13 31.18 2.39
11.52 31.45 2.39
10.90 31.72 2.39
10.27 31.98 2.39
9.64 32.22 2.39
9.00 32.45 2.39
8.36 32.66 2.39
6.07 25.88 1.88
5.58 26.13 1.89
6.40 33.20 2.39
5.74 33.36 2.39
3.18 21.00 1.50
4.40 33.64 2.39
3.73 33.77 2.39
3.19 35.33 2.49
2.48 35.43 2.49
1.77 35.52 2.49
1.06 35.59 2.49
0.35 35.64 2.49
-0.37 35.68 2.49
-1.08 35.70 2.49
-1.80 35.71 2.49
-2.52 35.70 2.49
-3.24 35.68 2.49
-3.96 35.65 2.49
-4.68 35.59 2.49
-5.17 34.06 2.39
-5.86 33.98 2.39
-6.55 33.88 2.39
-7.23 33.77 2.39
-7.92 33.65 2.39
-8.60 33.51 2.39
-9.90 35.61 2.55
-10.15 33.85 2.44
-10.27 31.91 2.31
-10.40 30.23 2.20
-10.70 29.17 2.14
-10.90 27.96 2.06
-11.09 26.85 2.00
-11.29 25.86 1.94
-11.37 24.67 1.86
-11.44 23.58 1.80
-11.63 22.78 1.75
-11.79 22.00 1.71
-11.94 21.25 1.67
-12.12 20.59 1.64
-12.30 19.96 1.60
-12.47 19.37 1.58
-12.64 18.79 1.55
-12.79 18.21 1.52
-12.87 17.56 1.49
-12.93 16.93 1.46
-13.04 16.37 1.43
-13.12 15.81 1.40
-13.15 15.21 1.37
-13.19 14.66 1.35
-13.25 14.15 1.32
-13.32 13.66 1.30
-13.39 13.19 1.28
-13.42 12.70 1.26
-13.44 12.21 1.24
-13.49 11.78 1.22
-13.56 11.37 1.21
-13.61 10.95 1.19
-13.63 10.52 1.17
-13.65 10.11 1.16
-13.67 9.70 1.14
-13.68 9.30 1.13
-13.72 8.93 1.12
-13.77 8.58 1.11
-13.82 8.23 1.10
-13.86 7.88 1.09
-13.85 7.51 1.08
-13.85 7.16 1.07
-13.86 6.81 1.06
-13.86 6.47 1.05
-13.86 6.14 1.04
-13.85 5.80 1.03
-13.82 5.47 1.02
-13.79 5.14 1.01
-13.76 4.81 1.00
-13.72 4.49 0.99
-13.68 4.18 0.98
-13.63 3.86 0.97
-13.52 3.54 0.96
-13.40 3.22 0.95
-13.29 2.91 0.94
-5.96 1.18 0.42
-13.07 2.32 0.92
-13.00 2.04 0.91
-12.92 1.76 0.90
-12.83 1.49 0.89
-12.75 1.22 0.89
-12.66 0.96 0.88
-12.58 0.70 0.87
-12.51 0.44 0.87
-12.44 0.19 0.86
-12.37 -0.06 0.86
-12.33 -0.31 0.86
-12.30 -0.55 0.86
-12.24 -0.80 0.86
-12.19 -1.04 0.85
-12.14 -1.28 0.85
-12.09 -1.52 0.85
-12.04 -1.76 0.85
-11.99 -2.00 0.85
-11.94 -2.24 0.85
-11.92 -2.48 0.86
-11.90 -2.73 0.86
-11.88 -2.98 0.86
-11.87 -3.23 0.87
-11.87 -3.49 0.87
-11.86 -3.75 0.88
-11.86 -4.01 0.89
-11.85 -4.27 0.89
-11.82 -4.53 0.90
-11.78 -4.79 0.90
-11.74 -5.05 0.91
-11.70 -5.31 0.92
-11.67 -5.58 0.92
-11.63 -5.86 0.93
-11.59 -6.13 0.94
-11.57 -6.42 0.95
-11.55 -6.71 0.96
-11.53 -7.02 0.97
-11.51 -7.33 0.98
-11.49 -7.64 0.99
-11.46 -7.95 1.01
-11.42 -8.27 1.02
-11.40 -8.62 1.03
-11.40 -8.97 1.05
-11.39 -9.34 1.07
-11.38 -9.72 1.09
-11.37 -10.12 1.11
-11.37 -10.54 1.13
-11.36 -10.96 1.15
-11.35 -11.39 1.17
-11.33 -11.85 1.20
-11.34 -12.35 1.23
-11.33 -12.84 1.26
-11.31 -13.35 1.28
-11.29 -13.88 1.32
-11.26 -14.42 1.35
-11.37 -15.18 1.40
-11.48 -15.99 1.45
-11.54 -16.78 1.51
-11.57 -17.57 1.56
-11.60 -18.41 1.61
-11.58 -19.21 1.67
-11.55 -20.06 1.72
-11.50 -20.94 1.78
-11.43 -21.84 1.84
-11.38 -22.86 1.91
-11.40 -24.08 1.99
-11.50 -25.61 2.10
-11.59 -27.28 2.22
-11.54 -28.74 2.32
-11.35 -30.01 2.41
-11.02 -30.99 2.47
-10.03 -30.10 2.39
-9.41 -30.26 2.39
-8.79 -30.40 2.39
-8.17 -30.53 2.39
-7.54 -30.66 2.39
-6.92 -30.76 2.39
-6.29 -30.86 2.39
-5.91 -32.28 2.49
-5.25 -32.36 2.49
-4.60 -32.42 2.49
-3.94 -32.47 2.49
-3.28 -32.51 2.49
-2.63 -32.53 2.49
-1.97 -32.54 2.49
-1.32 -32.54 2.49
-0.66 -32.53 2.49
-0.01 -25.08 2.49
0.49 -25.06 2.49
1.00 -25.02 2.49
1.50 -24.98 2.49
2.00 -24.92 2.49
2.39 -23.84 2.39
2.42 -20.02 2.01
3.34 -23.69 2.39
3.82 -23.60 2.39
4.29 -23.50 2.39
4.75 -23.40 2.39
5.22 -23.28 2.39
5.68 -23.16 2.39
6.15 -23.06 2.39
6.61 -22.92 2.39
7.06 -22.77 2.39
7.52 -22.61 2.39
7.97 -22.44 2.39
8.41 -22.27 2.39
8.85 -22.09 2.39
9.29 -21.89 2.39
9.72 -21.69 2.39
10.15 -21.49 2.39
10.58 -21.27 2.39
11.00 -21.04 2.39
11.42 -20.81 2.39
11.83 -20.57 2.39
12.23 -20.32 2.39
12.64 -20.07 2.39
13.03 -19.80 2.39
13.42 -19.53 2.39
13.81 -19.26 2.39
14.19 -18.97 2.39
14.57 -18.68 2.39
14.80 -18.21 2.37
14.78 -17.46 2.31
14.88 -16.87 2.27
15.04 -16.38 2.25
15.28 -15.99 2.24
15.52 -15.60 2.22
15.75 -15.21 2.21
15.98 -14.82 2.20
16.21 -14.44 2.20
16.44 -14.06 2.19
15.49 -12.72 2.03
15.70 -12.37 2.02
15.91 -12.03 2.02
16.12 -11.69 2.01
16.33 -11.34 2.01
16.53 -11.00 2.01
16.74 -10.66 2.01
16.95 -10.32 2.00
17.15 -9.98 2.00
17.36 -9.64 2.01
17.57 -9.29 2.01
17.77 -8.95 2.01
17.98 -8.61 2.01
18.19 -8.26 2.02
18.40 -7.92 2.02
18.61 -7.57 2.03
18.82 -7.22 2.03
19.03 -6.86 2.04
19.25 -6.51 2.05
19.47 -6.15 2.06
19.69 -5.79 2.07
19.91 -5.42 2.08
20.13 -5.05 2.09
23.21 -5.33 2.39
23.32 -4.86 2.39
23.43 -4.39 2.39
23.52 -3.93 2.39
23.61 -3.45 2.39
23.69 -2.98 2.39
23.76 -2.51 2.39
23.82 -2.03 2.39
23.87 -1.55 2.39
23.91 -1.07 2.39
23.94 -0.59 2.39
23.97 -0.11 2.39
23.98 0.37 2.39
23.98 0.85 2.39
23.98 1.33 2.39
23.97 1.82 2.39
23.94 2.30 2.39
23.91 2.78 2.39
23.87 3.26 2.39
23.82 3.74 2.39
23.76 4.23 2.39
23.69 4.71 2.39
23.61 5.18 2.39
23.52 5.66 2.39
23.42 6.14 2.39
23.31 6.61 2.39
23.19 7.09 2.39
23.07 7.56 2.39
22.93 8.03 2.39
22.79 8.49 2.39
22.63 8.96 2.39
22.47 9.42 2.39
22.30 9.88 2.39
22.12 10.33 2.39
21.93 10.79 2.39
21.73 11.23 2.39
21.52 11.68 2.39
21.30 12.12 2.39
21.07 12.56 2.39
20.84 12.99 2.39
20.59 13.42 2.39
20.34 13.85 2.39
20.08 14.27 2.39
19.81 14.68 2.39
19.53 15.09 2.39
19.24 15.50 2.39
18.95 15.90 2.39
18.65 16.29 2.39
18.33 16.68 2.39
18.02 17.06 2.39
14.45 14.24 1.95
13.89 14.26 1.92
17.01 18.18 2.39
16.66 18.53 2.39
16.30 18.88 2.39
14.83 17.90 2.23
14.25 17.91 2.19
13.91 18.23 2.19
14.80 20.22 2.39
14.40 20.53 2.39
14.00 20.84 2.39
13.60 21.14 2.39
13.19 21.43 2.39
12.77 21.71 2.39
12.34 21.99 2.39
11.91 22.26 2.39
9.04 17.74 1.89
8.69 17.93 1.88
8.33 18.12 1.88
10.13 23.24 2.39
9.67 23.46 2.39
9.21 23.67 2.39
8.74 23.88 2.39
8.27 24.07 2.39
7.79 24.26 2.39
7.31 24.43 2.39
6.82 24.57 2.39
6.33 24.73 2.39
5.84 24.87 2.39
5.34 25.01 2.39
4.84 25.14 2.39
4.34 25.25 2.39
3.17 20.99 1.98
3.33 25.45 2.39
2.94 26.64 2.49
2.41 26.72 2.49
1.87 26.78 2.49
1.34 26.84 2.49
0.80 26.88 2.49
0.26 26.92 2.49
-0.28 26.94 2.49
-0.82 26.95 2.49
-1.36 26.95 2.49
-1.90 26.94 2.49
-2.45 26.92 2.49
-2.99 26.88 2.49
-3.53 26.84 2.49
-4.07 26.78 2.49
-4.61 26.71 2.49
-5.02 25.98 2.43
-5.45 25.44 2.39
-5.96 25.34 2.39
-6.48 25.23 2.39
-6.98 25.11 2.39
-7.49 24.98 2.39
-8.00 24.84 2.39
-8.50 24.69 2.39
-9.00 24.53 2.39
-10.05 25.80 2.53
-10.22 24.74 2.45
-10.35 23.69 2.36
-10.47 22.71 2.28
-10.62 21.88 2.22
-10.71 20.99 2.15
-10.87 20.28 2.10
-11.02 19.61 2.05
-11.17 18.98 2.01
-11.53 18.71 2.00
-11.87 18.43 2.00
-12.22 18.16 1.99
-12.34 17.57 1.95
-12.42 16.95 1.91
-12.49 16.35 1.87
-12.57 15.78 1.84
-12.61 15.20 1.80
-12.65 14.64 1.76
-12.71 14.12 1.73
-12.78 13.64 1.70
-12.86 13.18 1.67
-12.93 12.74 1.65
-12.97 12.27 1.62
-13.02 11.83 1.60
-13.10 11.43 1.58
-13.17 11.04 1.56
-13.23 10.65 1.54
-13.26 10.24 1.52
-13.28 9.83 1.50
-13.30 9.44 1.48
-13.32 9.06 1.46
-13.35 8.69 1.45
-13.40 8.35 1.44
-13.45 8.01 1.42
-13.46 7.65 1.41
-13.46 7.30 1.39
-13.46 6.95 1.38
-13.47 6.62 1.37
-13.47 6.29 1.35
-13.48 5.97 1.34
-13.46 5.64 1.33
-13.44 5.31 1.32
-13.41 4.99 1.31
-13.39 4.68 1.29
-13.35 4.37 1.28
-13.32 4.07 1.27
-13.25 3.76 1.26
-13.14 3.44 1.24
-13.03 3.14 1.23
-12.93 2.84 1.21
-5.96 1.18 0.56
-12.72 2.26 1.18
-12.62 1.98 1.17
-12.54 1.71 1.16
-12.47 1.45 1.15
-12.40 1.19 1.14
-12.33 0.93 1.14
-12.27 0.68 1.13
-12.20 0.43 1.12
-12.13 0.19 1.12
-12.07 -0.06 1.11
-12.02 -0.30 1.11
-11.99 -0.54 1.11
-11.96 -0.78 1.11
-11.92 -1.02 1.11
-11.88 -1.25 1.11
-11.83 -1.49 1.10
-11.78 -1.72 1.10
-11.72 -1.96 1.10
-11.67 -2.19 1.10
-11.65 -2.43 1.11
-11.63 -2.67 1.11
-11.61 -2.91 1.11
-11.59 -3.15 1.12
-11.57 -3.40 1.12
-11.56 -3.65 1.13
-11.56 -3.90 1.14
-11.55 -4.16 1.15
-11.53 -4.42 1.16
-11.49 -4.67 1.16
-11.45 -4.92 1.17
-11.41 -5.18 1.18
-11.37 -5.44 1.18
-11.32 -5.70 1.19
-11.29 -5.97 1.20
-11.25 -6.24 1.21
-11.22 -6.52 1.23
-11.20 -6.82 1.24
-11.18 -7.11 1.25
-11.16 -7.42 1.27
-11.14 -7.73 1.29
-11.11 -8.05 1.30
-11.07 -8.36 1.32
-11.06 -8.71 1.34
-11.04 -9.06 1.36
-11.03 -9.42 1.38
-11.01 -9.80 1.41
-10.99 -10.18 1.43
-10.98 -10.59 1.46
-10.96 -11.00 1.49
-10.94 -11.43 1.52
-10.92 -11.88 1.55
-10.89 -12.34 1.58
-10.87 -12.82 1.62
-10.82 -13.29 1.65
-10.76 -13.79 1.69
-10.71 -14.30 1.72
-10.70 -14.90 1.77
-10.95 -15.91 1.87
-11.02 -16.72 1.94
-11.03 -17.50 2.00
-11.04 -18.32 2.07
-11.01 -19.12 2.14
-10.84 -19.73 2.19
-10.63 -20.31 2.23
-10.45 -20.97 2.28
-10.23 -21.60 2.33
-9.97 -22.22 2.38
-9.58 -22.53 2.39
-9.11 -22.69 2.39
-8.65 -22.85 2.39
-8.18 -22.99 2.39
-7.71 -23.13 2.39
-7.23 -23.26 2.39
-6.76 -23.38 2.39
-6.28 -23.49 2.39
-6.04 -24.55 2.49
-5.56 -24.70 2.49
-5.05 -24.78 2.49
-4.55 -24.86 2.49
-4.05 -24.92 2.49
-3.54 -24.98 2.49
-3.04 -25.02 2.49
-2.53 -25.05 2.49
-2.03 -25.08 2.49
-1.52 -25.09 2.49
-1.02 -25.10 2.49
-0.51 -25.10 2.49
-0.01 -20.40 2.49
0.40 -20.39 2.49
0.81 -20.36 2.49
1.22 -20.33 2.49
1.62 -20.29 2.49
2.03 -20.24 2.49
2.33 -19.35 2.39
2.72 -19.29 2.39
3.11 -19.22 2.39
3.49 -19.14 2.39
3.87 -19.06 2.39
4.25 -18.97 2.39
4.63 -18.87 2.39
5.00 -18.76 2.39
5.38 -18.65 2.39
5.75 -18.53 2.39
6.12 -18.40 2.39
6.49 -18.29 2.39
6.85 -18.15 2.39
7.22 -18.00 2.39
7.57 -17.85 2.39
7.93 -17.69 2.39
8.28 -17.52 2.39
8.63 -17.34 2.39
8.97 -17.16 2.39
9.31 -16.97 2.39
9.65 -16.78 2.39
9.98 -16.58 2.39
10.31 -16.37 2.39
10.63 -16.16 2.39
10.95 -15.94 2.39
11.27 -15.71 2.39
11.58 -15.48 2.39
11.88 -15.24 2.39
12.19 -15.00 2.39
12.48 -14.75 2.39
12.78 -14.49 2.39
13.06 -14.23 2.39
13.35 -13.96 2.39
13.62 -13.69 2.39
13.89 -13.41 2.39
14.16 -13.13 2.39
14.42 -12.85 2.39
14.68 -12.55 2.39
14.93 -12.26 2.39
15.17 -11.95 2.39
15.41 -11.65 2.39
15.64 -11.34 2.39
15.87 -11.02 2.39
16.09 -10.70 2.39
16.30 -10.38 2.39
16.51 -10.05 2.39
16.71 -9.72 2.39
16.90 -9.38 2.39
17.09 -9.04 2.39
17.27 -8.70 2.39
17.44 -8.35 2.39
17.61 -8.00 2.39
17.77 -7.65 2.39
17.93 -7.29 2.39
18.08 -6.93 2.39
18.22 -6.57 2.39
18.35 -6.20 2.39
18.48 -5.84 2.39
18.60 -5.47 2.39
18.71 -5.09 2.39
18.82 -4.72 2.39
18.92 -4.34 2.39
19.01 -3.96 2.39
19.09 -3.58 2.39
19.17 -3.20 2.39
19.24 -2.81 2.39
19.30 -2.43 2.39
19.35 -2.04 2.39
19.40 -1.65 2.39
19.44 -1.26 2.39
19.47 -0.87 2.39
19.49 -0.48 2.39
19.51 -0.09 2.39
19.52 0.30 2.39
19.52 0.69 2.39
19.51 1.09 2.39
19.50 1.48 2.39
19.48 1.87 2.39
19.45 2.26 2.39
19.41 2.66 2.39
19.37 3.05 2.39
19.32 3.44 2.39
19.26 3.83 2.39
19.19 4.22 2.39
19.11 4.60 2.39
19.03 4.99 2.39
18.94 5.38 2.39
18.84 5.76 2.39
18.74 6.14 2.39
18.62 6.52 2.39
18.50 6.90 2.39
18.37 7.27 2.39
18.24 7.65 2.39
18.09 8.02 2.39
17.94 8.39 2.39
17.79 8.75 2.39
17.62 9.11 2.39
17.45 9.47 2.39
17.27 9.83 2.39
17.08 10.18 2.39
16.89 10.53 2.39
16.69 10.88 2.39
16.48 11.22 2.39
14.66 10.42 2.16
14.07 10.43 2.10
13.76 10.64 2.08
15.58 12.55 2.39
15.34 12.87 2.39
15.09 13.19 2.39
14.83 13.50 2.39
14.57 13.81 2.39
14.30 14.11 2.39
13.91 14.28 2.37
13.75 14.70 2.39
13.46 14.98 2.39
13.17 15.26 2.39
12.87 15.54 2.39
12.57 15.81 2.39
12.26 16.07 2.39
11.95 16.33 2.39
9.16 13.05 1.88
8.91 13.26 1.89
8.64 13.43 1.88
8.38 13.62 1.88
10.30 17.52 2.39
9.95 17.73 2.39
9.60 17.95 2.39
9.25 18.15 2.39
8.89 18.35 2.39
8.52 18.54 2.39
8.16 18.72 2.39
7.79 18.90 2.39
7.41 19.07 2.39
7.03 19.23 2.39
6.64 19.36 2.39
6.26 19.50 2.39
5.87 19.64 2.39
5.48 19.77 2.39
5.09 19.89 2.39
4.69 20.01 2.39
4.29 20.11 2.39
3.89 20.21 2.39
3.49 20.30 2.39
3.08 20.38 2.39
2.79 21.34 2.49
2.36 21.40 2.49
1.93 21.46 2.49
1.50 21.51 2.49
1.07 21.55 2.49
0.64 21.58 2.49
0.21 21.61 2.49
-0.23 21.62 2.49
-0.66 21.63 2.49
-1.10 21.62 2.49
-1.53 21.61 2.49
-1.96 21.59 2.49
-2.40 21.56 2.49
-2.83 21.52 2.49
-3.27 21.47 2.49
-3.70 21.41 2.49
-4.13 21.35 2.49
-4.56 21.27 2.49
-4.99 21.18 2.49
-5.19 20.22 2.39
-5.60 20.12 2.39
-6.00 20.01 2.39
-6.41 19.90 2.39
-6.81 19.77 2.39
-7.21 19.64 2.39
-7.60 19.50 2.39
-7.99 19.35 2.39
-8.38 19.20 2.39
-8.77 19.03 2.39
-9.15 18.86 2.39
-9.52 18.65 2.39
-9.80 18.28 2.36
-10.08 17.93 2.34
-10.34 17.57 2.32
-10.56 17.14 2.29
-10.78 16.73 2.27
-10.99 16.33 2.24
-11.20 15.94 2.22
-11.37 15.51 2.19
-11.53 15.08 2.16
-11.65 14.63 2.13
-11.77 14.18 2.09
-11.96 13.84 2.08
-12.15 13.50 2.07
-12.31 13.14 2.05
-12.42 12.74 2.02
-12.50 12.31 1.99
-12.56 11.89 1.97
-12.65 11.49 1.94
-12.73 11.11 1.92
-12.81 10.73 1.90
-12.87 10.36 1.88
-12.90 9.96 1.85
-12.93 9.57 1.83
-12.95 9.19 1.81
-12.97 8.82 1.78
-12.99 8.46 1.76
-13.05 8.13 1.75
-13.08 7.79 1.73
-13.08 7.44 1.71
-13.09 7.10 1.69
-13.09 6.77 1.68
-13.10 6.44 1.66
-13.11 6.12 1.65
-13.11 5.80 1.63
-13.09 5.48 1.62
-13.07 5.17 1.60
-13.05 4.86 1.59
-13.03 4.56 1.57
-13.00 4.26 1.56
-12.97 3.96 1.55
-12.89 3.65 1.53
-12.78 3.35 1.51
-12.68 3.05 1.49
-12.59 2.76 1.47
-5.96 1.18 0.70
-12.34 2.19 1.43
-12.22 1.92 1.42
-12.17 1.66 1.41
-12.15 1.41 1.40
-12.09 1.16 1.39
-12.03 0.91 1.38
-11.96 0.67 1.38
-11.90 0.42 1.37
-11.84 0.18 1.36
-11.77 -0.05 1.35
-11.73 -0.29 1.35
-11.70 -0.52 1.35
-11.67 -0.76 1.35
-11.64 -0.99 1.35
-11.62 -1.22 1.35
-11.57 -1.45 1.35
-11.52 -1.68 1.34
-11.47 -1.91 1.34
-11.42 -2.14 1.34
-11.39 -2.37 1.35
-11.37 -2.61 1.35
-11.35 -2.84 1.36
-11.33 -3.08 1.36
-11.31 -3.32 1.37
-11.29 -3.56 1.37
-11.27 -3.81 1.38
-11.26 -4.06 1.39
-11.25 -4.31 1.40
-11.21 -4.55 1.41
-11.17 -4.80 1.42
-11.13 -5.05 1.43
-11.09 -5.30 1.44
-11.04 -5.56 1.45
-11.00 -5.81 1.46
-10.95 -6.07 1.47
-10.92 -6.34 1.48
-10.89 -6.63 1.50
-10.87 -6.91 1.51
-10.84 -7.21 1.53
-10.82 -7.51 1.55
-10.79 -7.81 1.57
-10.76 -8.12 1.59
-10.71 -8.43 1.61
-10.68 -8.76 1.63
-10.65 -9.10 1.65
-10.61 -9.44 1.68
-10.57 -9.79 1.70
-10.53 -10.16 1.73
-10.48 -10.53 1.76
-10.43 -10.90 1.79
-10.38 -11.29 1.82
-10.33 -11.70 1.85
-10.28 -12.12 1.89
-10.22 -12.56 1.93
-10.15 -13.00 1.97
-10.09 -13.47 2.01
-10.02 -13.95 2.05
-9.95 -14.45 2.10
-9.85 -14.94 2.14
-9.74 -15.44 2.18
-9.78 -16.22 2.27
-9.70 -16.85 2.33
-9.52 -17.33 2.37
-9.24 -17.64 2.39
-8.87 -17.81 2.39
-8.51 -17.97 2.39
-8.14 -18.12 2.39
-7.77 -18.26 2.39
-7.39 -18.40 2.39
-7.02 -18.53 2.39
-6.64 -18.65 2.39
-6.26 -18.77 2.39
-5.94 -19.08 2.42
-5.73 -19.79 2.49
-5.32 -19.89 2.49
-4.92 -19.98 2.49
-4.51 -20.06 2.49
-4.11 -20.13 2.49
-3.70 -20.19 2.49
-3.29 -20.25 2.49
-2.88 -20.30 2.49
-2.47 -20.33 2.49
-2.06 -20.37 2.49
-1.65 -20.39 2.49
-1.24 -20.40 2.49
-0.83 -20.41 2.49
-0.42 -20.41 2.49
-0.01 -17.18 2.49
0.34 -17.17 2.49
0.68 -17.15 2.49
1.02 -17.12 2.49
1.37 -17.09 2.49
1.71 -17.05 2.49
2.05 -17.00 2.49
2.29 -16.25 2.39
2.62 -16.19 2.39
2.94 -16.13 2.39
3.26 -16.06 2.39
3.58 -15.99 2.39
3.90 -15.91 2.39
4.22 -15.82 2.39
4.53 -15.72 2.39
4.85 -15.62 2.39
5.16 -15.52 2.39
5.47 -15.41 2.39
5.77 -15.29 2.39
6.08 -15.16 2.39
6.39 -15.05 2.39
6.68 -14.92 2.39
6.98 -14.78 2.39
7.27 -14.63 2.39
7.56 -14.48 2.39
7.85 -14.32 2.39
8.14 -14.15 2.39
8.42 -13.98 2.39
8.69 -13.81 2.39
8.97 -13.63 2.39
9.24 -13.45 2.39
9.51 -13.25 2.39
9.77 -13.06 2.39
10.03 -12.86 2.39
10.28 -12.65 2.39
10.53 -12.44 2.39
10.78 -12.23 2.39
11.02 -12.01 2.39
11.26 -11.78 2.39
11.49 -11.55 2.39
11.72 -11.32 2.39
11.95 -11.08 2.39
12.17 -10.84 2.39
12.38 -10.59 2.39
12.60 -10.34 2.39
12.80 -10.09 2.39
13.00 -9.83 2.39
13.20 -9.57 2.39
13.39 -9.30 2.39
13.57 -9.03 2.39
13.75 -8.76 2.39
13.92 -8.48 2.39
14.09 -8.20 2.39
14.26 -7.91 2.39
14.42 -7.63 2.39
14.57 -7.34 2.39
14.72 -7.04 2.39
14.86 -6.75 2.39
14.99 -6.45 2.39
15.12 -6.15 2.39
15.25 -5.85 2.39
15.37 -5.54 2.39
15.48 -5.23 2.39
15.59 -4.92 2.39
15.69 -4.61 2.39
15.78 -4.29 2.39
15.87 -3.98 2.39
15.95 -3.66 2.39
16.03 -3.34 2.39
16.10 -3.02 2.39
16.16 -2.69 2.39
16.22 -2.37 2.39
16.27 -2.04 2.39
16.31 -1.72 2.39
16.35 -1.39 2.39
16.38 -1.06 2.39
16.41 -0.73 2.39
16.43 -0.40 2.39
16.44 -0.07 2.39
16.44 0.26 2.39
16.44 0.59 2.39
16.44 0.92 2.39
16.42 1.25 2.39
16.40 1.58 2.39
16.38 1.91 2.39
16.34 2.24 2.39
16.31 2.57 2.39
16.26 2.90 2.39
16.21 3.22 2.39
16.15 3.55 2.39
16.08 3.88 2.39
16.01 4.20 2.39
15.93 4.52 2.39
15.85 4.85 2.39
15.76 5.17 2.39
15.66 5.49 2.39
15.56 5.80 2.39
15.45 6.12 2.39
15.33 6.43 2.39
15.21 6.74 2.39
15.08 7.05 2.39
14.95 7.36 2.39
14.81 7.66 2.39
14.66 7.96 2.39
14.51 8.26 2.39
14.35 8.56 2.39
14.18 8.85 2.39
14.01 9.14 2.39
13.84 9.42 2.39
13.65 9.71 2.39
13.47 9.99 2.39
13.27 10.26 2.39
13.07 10.53 2.39
12.87 10.80 2.39
12.66 11.07 2.39
12.44 11.33 2.39
12.22 11.58 2.39
12.00 11.83 2.39
11.76 12.08 2.39
11.53 12.32 2.39
11.29 12.56 2.39
11.04 12.79 2.39
10.79 13.02 2.39
10.53 13.25 2.39
10.27 13.47 2.39
10.01 13.68 2.39
9.74 13.89 2.39
9.46 14.09 2.39
9.19 14.29 2.39
8.90 14.48 2.39
8.62 14.67 2.39
8.33 14.85 2.39
6.33 11.83 1.88
6.10 11.98 1.89
5.86 12.09 1.88
5.62 12.21 1.88
5.37 12.33 1.88
6.50 15.79 2.39
6.17 15.87 2.38
5.87 16.06 2.39
5.55 16.19 2.39
5.23 16.31 2.39
4.91 16.42 2.39
4.58 16.52 2.39
4.25 16.62 2.39
3.92 16.72 2.39
3.58 16.80 2.39
3.25 16.88 2.39
2.91 16.96 2.39
2.68 17.76 2.49
2.33 17.82 2.49
1.97 17.87 2.49
1.61 17.92 2.49
1.25 17.96 2.49
0.89 17.99 2.49
0.53 18.01 2.49
0.17 18.03 2.49
-0.19 18.04 2.49
-0.55 18.04 2.49
-0.92 18.04 2.49
-1.28 18.03 2.49
-1.64 18.01 2.49
-2.00 17.98 2.49
-2.36 17.94 2.49
-2.72 17.90 2.49
-3.08 17.85 2.49
-3.44 17.79 2.49
-3.80 17.73 2.49
-4.16 17.66 2.49
-4.51 17.58 2.49
-4.87 17.49 2.49
-5.20 17.32 2.48
-5.34 16.58 2.39
-5.67 16.48 2.39
-6.00 16.36 2.39
-6.33 16.25 2.39
-6.66 16.12 2.39
-6.98 15.99 2.39
-7.31 15.85 2.39
-7.62 15.71 2.39
-7.94 15.55 2.39
-8.25 15.40 2.39
-8.56 15.23 2.39
-8.87 15.06 2.39
-9.17 14.88 2.39
-9.67 15.01 2.44
-9.86 14.66 2.41
-10.05 14.31 2.39
-10.24 13.97 2.37
-10.48 13.72 2.36
-10.72 13.46 2.35
-10.95 13.19 2.34
-11.17 12.93 2.33
-11.35 12.61 2.32
-11.50 12.27 2.30
-11.65 11.94 2.28
-11.79 11.61 2.26
-11.95 11.31 2.25
-12.13 11.03 2.24
-12.31 10.75 2.23
-12.45 10.44 2.22
-12.53 10.08 2.20
-12.56 9.70 2.17
-12.59 9.32 2.14
-12.62 8.96 2.11
-12.64 8.60 2.09
-12.67 8.25 2.06
-12.71 7.92 2.04
-12.72 7.57 2.02
-12.73 7.24 2.00
-12.74 6.91 1.98
-12.74 6.58 1.96
-12.75 6.27 1.94
-12.76 5.96 1.93
-12.75 5.64 1.91
-12.73 5.33 1.89
-12.72 5.03 1.87
-12.70 4.73 1.86
-12.68 4.44 1.84
-12.67 4.15 1.83
-12.64 3.86 1.81
-12.53 3.55 1.79
-12.41 3.25 1.76
-12.30 2.96 1.73
-12.18 2.67 1.71
-5.96 1.18 0.83
-11.96 2.13 1.67
-11.85 1.86 1.65
-11.82 1.62 1.64
-11.79 1.37 1.63
-11.77 1.13 1.63
-11.73 0.89 1.62
-11.67 0.65 1.61
-11.61 0.41 1.60
-11.55 0.18 1.59
-11.49 -0.05 1.58
-11.45 -0.28 1.58
-11.42 -0.51 1.58
-11.39 -0.74 1.58
-11.37 -0.97 1.58
-11.34 -1.19 1.58
-11.31 -1.42 1.58
-11.28 -1.65 1.58
-11.23 -1.87 1.58
-11.18 -2.09 1.58
-11.14 -2.32 1.58
-11.12 -2.55 1.58
-11.10 -2.78 1.59
-11.08 -3.01 1.59
-11.06 -3.25 1.60
-11.04 -3.48 1.61
-11.01 -3.72 1.62
-10.99 -3.96 1.63
-10.98 -4.20 1.64
-10.94 -4.45 1.65
-10.90 -4.69 1.66
-10.86 -4.93 1.67
-10.82 -5.17 1.68
-10.78 -5.42 1.69
-10.73 -5.67 1.70
-10.67 -5.91 1.71
-10.60 -6.16 1.72
-10.55 -6.42 1.73
-10.52 -6.69 1.75
-10.48 -6.96 1.77
-10.44 -7.24 1.78
-10.40 -7.53 1.80
-10.36 -7.82 1.83
-10.31 -8.11 1.85
-10.26 -8.42 1.87
-10.20 -8.72 1.89
-10.15 -9.02 1.92
-10.10 -9.36 1.94
-10.06 -9.70 1.97
-10.01 -10.05 2.01
-9.96 -10.41 2.04
-9.89 -10.76 2.07
-9.82 -11.12 2.10
-9.75 -11.49 2.14
-9.68 -11.90 2.18
-9.62 -12.31 2.22
-9.54 -12.74 2.26
-9.46 -13.17 2.31
-9.38 -13.62 2.35
-9.24 -14.01 2.39
-8.95 -14.18 2.39
-8.65 -14.35 2.39
-8.36 -14.51 2.39
-8.06 -14.66 2.39
-7.76 -14.81 2.39
-7.45 -14.95 2.39
-7.15 -15.09 2.39
-6.84 -15.22 2.39
-6.53 -15.34 2.39
-6.21 -15.46 2.39
-5.90 -15.57 2.39
-5.82 -16.35 2.49
-5.49 -16.46 2.49
-5.15 -16.55 2.49
-4.82 -16.64 2.49
-4.48 -16.72 2.49
-4.14 -16.80 2.49
-3.80 -16.87 2.49
-3.46 -16.93 2.49
-3.11 -16.99 2.49
-2.77 -17.04 2.49
-2.43 -17.08 2.49
-2.08 -17.11 2.49
-1.74 -17.14 2.49
-1.39 -17.16 2.49
-1.05 -17.18 2.49
-0.70 -17.18 2.49
-0.35 -17.19 2.49
-0.01 -14.82 2.49
0.29 -14.81 2.49
0.59 -14.80 2.49
0.88 -14.78 2.49
1.18 -14.75 2.49
1.47 -14.72 2.49
1.77 -14.68 2.49
2.06 -14.63 2.49
2.26 -13.98 2.39
2.54 -13.93 2.39
2.81 -13.87 2.39
3.09 -13.80 2.39
3.37 -13.73 2.39
3.64 -13.66 2.39
3.91 -13.58 2.39
4.18 -13.49 2.39
4.45 -13.40 2.39
4.72 -13.31 2.39
4.98 -13.20 2.39
5.25 -13.10 2.39
5.51 -12.99 2.39
5.77 -12.87 2.39
6.02 -12.75 2.39
6.28 -12.64 2.39
6.53 -12.51 2.39
6.78 -12.37 2.39
7.03 -12.23 2.39
7.27 -12.08 2.39
7.51 -11.93 2.39
7.75 -11.78 2.39
7.98 -11.62 2.39
8.21 -11.45 2.39
8.44 -11.28 2.39
8.66 -11.11 2.39
8.89 -10.93 2.39
9.10 -10.75 2.39
9.32 -10.57 2.39
9.53 -10.38 2.39
9.73 -10.18 2.39
9.93 -9.98 2.39
10.13 -9.78 2.39
10.33 -9.58 2.39
10.52 -9.37 2.39
10.70 -9.15 2.39
10.88 -8.94 2.39
11.06 -8.72 2.39
11.23 -8.49 2.39
11.40 -8.26 2.39
11.57 -8.03 2.39
11.73 -7.80 2.39
11.88 -7.56 2.39
12.03 -7.33 2.39
12.18 -7.08 2.39
12.32 -6.84 2.39
12.46 -6.59 2.39
12.59 -6.34 2.39
12.72 -6.09 2.39
12.84 -5.83 2.39
12.95 -5.57 2.39
13.07 -5.31 2.39
13.17 -5.05 2.39
13.28 -4.79 2.39
13.37 -4.52 2.39
13.46 -4.25 2.39
13.55 -3.98 2.39
13.63 -3.71 2.39
13.71 -3.43 2.39
13.78 -3.16 2.39
13.84 -2.88 2.39
13.90 -2.60 2.39
13.95 -2.33 2.39
14.00 -2.05 2.39
14.05 -1.76 2.39
14.08 -1.48 2.39
14.12 -1.20 2.39
14.14 -0.92 2.39
14.16 -0.63 2.39
14.18 -0.35 2.39
14.19 -0.06 2.39
14.19 0.22 2.39
14.19 0.51 2.39
14.19 0.79 2.39
14.17 1.08 2.39
14.15 1.36 2.39
14.13 1.65 2.39
14.10 1.93 2.39
14.07 2.22 2.39
14.03 2.50 2.39
13.98 2.78 2.39
13.93 3.06 2.39
13.87 3.34 2.39
13.81 3.62 2.39
13.74 3.90 2.39
13.67 4.18 2.39
13.59 4.46 2.39
13.50 4.73 2.39
13.41 5.00 2.39
13.32 5.27 2.39
13.21 5.54 2.39
13.11 5.81 2.39
13.00 6.08 2.39
12.88 6.34 2.39
12.76 6.60 2.39
12.63 6.86 2.39
12.50 7.12 2.39
12.36 7.37 2.39
12.22 7.62 2.39
12.07 7.87 2.39
11.91 8.12 2.39
11.76 8.36 2.39
11.59 8.60 2.39
11.42 8.83 2.39
11.25 9.07 2.39
11.07 9.30 2.39
10.89 9.52 2.39
10.71 9.75 2.39
10.51 9.97 2.39
10.32 10.18 2.39
10.12 10.39 2.39
9.91 10.60 2.39
9.71 10.81 2.39
9.49 11.00 2.39
9.28 11.20 2.39
9.06 11.39 2.39
8.83 11.58 2.39
8.60 11.76 2.39
8.37 11.94 2.39
8.13 12.11 2.39
7.89 12.28 2.39
7.65 12.44 2.39
7.40 12.60 2.39
7.15 12.76 2.39
6.90 12.91 2.39
6.64 13.04 2.39
6.38 13.17 2.39
6.12 13.31 2.39
5.85 13.44 2.39
5.58 13.56 2.39
5.31 13.68 2.39
5.04 13.79 2.39
4.77 13.90 2.39
4.49 14.00 2.39
4.21 14.09 2.39
3.93 14.18 2.39
3.65 14.27 2.39
3.36 14.34 2.39
3.07 14.42 2.39
2.80 14.58 2.41
2.60 15.17 2.49
2.30 15.23 2.49
1.99 15.28 2.49
1.69 15.33 2.49
1.38 15.36 2.49
1.07 15.40 2.49
0.76 15.42 2.49
0.46 15.44 2.49
0.15 15.46 2.49
-0.16 15.46 2.49
-0.48 15.47 2.49
-0.79 15.46 2.49
-1.10 15.45 2.49
-1.41 15.43 2.49
-1.72 15.41 2.49
-2.03 15.37 2.49
-2.34 15.34 2.49
-2.64 15.29 2.49
-2.95 15.24 2.49
-3.26 15.19 2.49
-3.56 15.12 2.49
-3.87 15.06 2.49
-4.17 14.98 2.49
-4.47 14.90 2.49
-4.77 14.81 2.49
-5.07 14.72 2.49
-5.26 14.33 2.44
-5.42 13.91 2.39
-5.70 13.80 2.39
-5.98 13.69 2.39
-6.26 13.57 2.39
-6.53 13.45 2.39
-6.80 13.32 2.39
-7.07 13.18 2.39
-7.33 13.04 2.39
-7.59 12.89 2.39
-7.85 12.74 2.39
-8.11 12.58 2.39
-8.36 12.42 2.39
-8.61 12.25 2.39
-8.85 12.08 2.39
-9.09 11.90 2.39
-9.98 12.53 2.56
-10.24 12.34 2.56
-10.48 12.12 2.56
-10.63 11.81 2.54
-10.78 11.50 2.52
-10.92 11.20 2.50
-11.06 10.89 2.48
-11.21 10.61 2.46
-11.38 10.35 2.45
-11.55 10.09 2.45
-11.69 9.80 2.43
-11.81 9.50 2.42
-11.90 9.19 2.40
-11.97 8.86 2.38
-12.03 8.54 2.35
-12.09 8.23 2.33
-12.15 7.91 2.31
-12.22 7.61 2.30
-12.24 7.29 2.27
-12.26 6.97 2.25
-12.28 6.66 2.23
-12.30 6.35 2.21
-12.31 6.05 2.19
-12.32 5.75 2.17
-12.30 5.45 2.15
-12.27 5.14 2.13
-12.24 4.84 2.10
-12.21 4.55 2.08
-12.18 4.26 2.06
-12.15 3.98 2.05
-12.13 3.71 2.03
-12.12 3.44 2.02
-12.01 3.15 1.99
-11.91 2.87 1.96
-11.80 2.59 1.94
-5.96 1.18 0.97
-11.59 2.06 1.89
-11.50 1.81 1.87
-11.48 1.57 1.86
-11.46 1.33 1.85
-11.43 1.10 1.84
-11.41 0.87 1.84
-11.39 0.64 1.83
-11.34 0.40 1.82
-11.28 0.18 1.81
-11.22 -0.05 1.81
-11.18 -0.27 1.80
-11.15 -0.50 1.80
-11.13 -0.72 1.80
-11.10 -0.94 1.80
-11.07 -1.16 1.80
-11.05 -1.39 1.80
-11.02 -1.61 1.80
-10.99 -1.83 1.80
-10.95 -2.05 1.80
-10.90 -2.27 1.80
-10.88 -2.49 1.81
-10.86 -2.72 1.81
-10.84 -2.95 1.82
-10.82 -3.17 1.83
-10.80 -3.40 1.83
-10.77 -3.64 1.84
-10.75 -3.87 1.85
-10.72 -4.10 1.86
-10.69 -4.34 1.87
-10.63 -4.57 1.88
-10.57 -4.79 1.89
-10.51 -5.02 1.90
-10.45 -5.25 1.90
-10.39 -5.49 1.91
-10.32 -5.72 1.92
-10.26 -5.96 1.93
-10.19 -6.19 1.95
-10.14 -6.44 1.96
-10.10 -6.71 1.98
-10.07 -6.99 2.00
-10.03 -7.26 2.03
-9.98 -7.54 2.05
-9.94 -7.82 2.07
-9.89 -8.11 2.10
-9.83 -8.40 2.12
-9.77 -8.69 2.15
-9.71 -8.99 2.17
-9.64 -9.29 2.20
-9.57 -9.60 2.23
-9.52 -9.94 2.26
-9.46 -10.28 2.30
-9.39 -10.63 2.34
-9.31 -10.98 2.37
-9.15 -11.24 2.39
-8.91 -11.41 2.39
-8.68 -11.58 2.39
-8.44 -11.74 2.39
-8.20 -11.90 2.39
-7.95 -12.06 2.39
-7.70 -12.21 2.39
-7.45 -12.35 2.39
-7.20 -12.49 2.39
-6.94 -12.62 2.39
-6.68 -12.75 2.39
-6.42 -12.88 2.39
-6.16 -13.00 2.39
-5.89 -13.11 2.39
-5.82 -13.69 2.48
-5.58 -13.89 2.49
-5.30 -14.00 2.49
-5.02 -14.09 2.49
-4.73 -14.18 2.49
-4.44 -14.26 2.49
-4.15 -14.34 2.49
-3.86 -14.42 2.49
-3.57 -14.48 2.49
-3.28 -14.54 2.49
-2.98 -14.60 2.49
-2.69 -14.65 2.49
-2.39 -14.69 2.49
-2.09 -14.73 2.49
-1.80 -14.76 2.49
-1.50 -14.78 2.49
-1.20 -14.80 2.49
-0.90 -14.82 2.49
-0.61 -14.83 2.49
-0.31 -14.83 2.49
-0.01 -13.02 2.49
0.25 -13.02 2.49
0.51 -13.00 2.49
0.77 -12.98 2.49
1.03 -12.96 2.49
1.29 -12.93 2.49
1.55 -12.90 2.49
1.81 -12.86 2.49
2.07 -12.82 2.49
2.26 -12.39 2.42
2.47 -12.19 2.39
2.72 -12.13 2.39
2.96 -12.07 2.39
3.20 -12.01 2.39
3.44 -11.94 2.39
