ply
format ascii 1.0
element vertex 2844
property float32 x
property float32 y
property float32 z
end_header
8.35 -5.80 0.98
8.36 -5.57 0.96
30.86 -19.65 3.51
25.59 -15.59 2.88
25.95 -15.10 2.88
31.98 -17.76 3.51
7.80 -4.13 0.85
7.89 -3.98 0.85
7.83 -3.75 0.83
8.00 -3.64 0.84
7.77 -3.35 0.81
7.87 -3.20 0.82
7.75 -2.97 0.80
8.31 -3.00 0.85
8.21 -2.78 0.83
8.75 -2.76 0.88
18.37 -5.40 1.84
18.37 -5.00 1.83
18.37 -4.61 1.82
18.37 -4.22 1.81
18.30 -3.82 1.80
16.30 -3.06 1.59
18.30 -3.06 1.78
8.15 -1.20 0.79
8.02 -1.01 0.78
8.00 -0.85 0.77
8.06 -0.69 0.78
7.97 -0.52 0.77
7.94 -0.36 0.76
7.75 -0.19 0.74
7.84 -0.04 0.75
7.75 0.12 0.74
8.29 0.29 0.80
8.14 0.45 0.78
18.30 1.38 1.76
18.30 1.75 1.77
16.27 1.89 1.57
17.70 2.41 1.72
18.30 2.87 1.78
18.37 3.26 1.79
18.37 3.64 1.80
18.37 4.03 1.81
18.37 4.42 1.81
18.37 4.81 1.82
18.30 5.18 1.83
18.37 5.60 1.84
18.37 6.01 1.86
18.37 6.42 1.87
18.37 6.84 1.88
18.32 7.24 1.89
19.77 8.27 2.06
19.77 8.75 2.08
26.13 12.19 2.77
27.82 13.67 2.98
22.16 11.45 2.39
21.66 11.74 2.37
21.57 12.26 2.38
8.85 5.27 0.99
8.17 5.09 0.92
8.22 5.35 0.94
7.81 5.31 0.91
7.86 5.58 0.93
7.64 5.66 0.91
7.89 6.09 0.96
7.88 6.34 0.97
18.50 15.51 2.32
15.66 13.67 2.00
17.06 15.51 2.21
8.80 8.33 1.16
8.55 8.42 1.15
8.25 8.46 1.13
8.04 8.58 1.13
7.80 8.66 1.12
7.99 9.24 1.17
16.71 20.14 2.51
8.82 11.07 1.36
8.57 11.22 1.36
8.18 11.17 1.33
8.17 11.63 1.36
7.90 11.74 1.36
7.83 12.16 1.39
16.57 26.90 3.03
15.81 26.87 2.99
15.11 26.90 2.96
14.41 26.90 2.93
13.71 26.87 2.90
13.05 26.90 2.87
12.39 26.90 2.84
11.73 26.87 2.81
11.10 26.90 2.79
10.48 26.90 2.77
9.85 26.87 2.75
9.25 26.90 2.73
8.64 26.87 2.71
8.06 26.90 2.70
7.47 26.90 2.68
6.89 26.87 2.66
6.33 26.93 2.66
6.40 29.91 2.94
6.40 33.15 3.24
6.50 37.74 3.68
5.72 37.69 3.66
4.96 37.80 3.66
4.20 37.89 3.66
3.44 37.97 3.66
2.68 38.03 3.66
1.97 39.15 3.76
1.18 39.18 3.76
0.39 39.20 3.76
-0.39 39.20 3.76
-1.18 39.18 3.76
-1.97 39.15 3.76
-2.75 39.10 3.76
-3.54 39.04 3.76
-4.32 38.96 3.76
-5.10 38.87 3.76
-5.73 37.74 3.66
-6.40 37.17 3.62
-7.23 37.44 3.66
-7.98 37.28 3.66
-8.72 37.12 3.66
-9.47 36.93 3.66
-10.89 39.19 3.90
-13.70 45.73 4.58
-14.76 45.90 4.63
-16.09 46.78 4.75
-5.99 8.18 0.97
-47.47 -7.93 4.62
-42.24 -7.93 4.13
-38.01 -7.93 3.73
-34.53 -7.93 3.40
-31.61 -7.93 3.13
-29.20 -7.96 2.91
-35.21 -10.36 3.52
-25.18 -7.96 2.54
-34.77 -11.76 3.52
-34.17 -12.33 3.49
-31.65 -12.14 3.25
-30.73 -12.50 3.19
-28.80 -12.40 3.01
-33.41 -15.19 3.52
-33.10 -15.85 3.52
-32.78 -16.51 3.52
-31.32 -16.58 3.40
-29.86 -16.58 3.28
-28.49 -16.58 3.16
-20.47 -12.47 2.30
-26.03 -16.58 2.96
-25.20 -16.77 2.91
-23.90 -16.60 2.79
-21.07 -16.60 2.58
-20.45 -43.26 4.59
-19.34 -43.13 4.54
-18.27 -43.03 4.49
-17.27 -43.07 4.46
-16.32 -43.19 4.43
-15.42 -43.41 4.42
-14.40 -43.29 4.38
-13.32 -42.90 4.31
-11.80 -40.87 4.08
-10.63 -39.79 3.95
-9.10 -37.03 3.66
-8.35 -37.20 3.66
-7.60 -37.36 3.66
-6.66 -36.46 3.56
-6.10 -37.64 3.66
-5.49 -38.81 3.76
-4.71 -38.92 3.76
-3.93 -39.00 3.76
-3.14 -39.07 3.76
-2.36 -39.13 3.76
-1.57 -39.17 3.76
-0.79 -39.19 3.76
-0.00 -31.68 3.76
0.64 -31.68 3.76
1.27 -31.66 3.76
1.91 -31.63 3.76
2.47 -30.71 3.66
3.09 -30.66 3.66
3.70 -30.59 3.66
4.32 -30.51 3.66
4.93 -30.42 3.66
5.54 -30.31 3.66
6.14 -30.19 3.66
6.19 -27.58 3.36
6.19 -25.20 3.08
2.66 -9.95 1.22
6.19 -21.44 2.65
6.19 -19.93 2.48
6.39 -19.22 2.41
6.19 -17.43 2.20
10.65 -28.18 3.58
6.19 -15.44 1.98
8.38 -19.75 2.55
9.00 -20.07 2.61
12.64 -26.73 3.51
13.17 -26.47 3.51
7.97 -15.23 2.04
8.32 -15.16 2.05
8.64 -15.02 2.06
14.77 -24.52 3.40
15.09 -23.96 3.36
15.42 -23.43 3.33
16.00 -23.28 3.36
17.09 -23.83 3.48
17.71 -23.67 3.51
8.06 -10.34 1.56
8.00 -9.84 1.51
8.14 -9.62 1.50
8.32 -9.44 1.49
8.43 -9.19 1.48
9.11 -9.53 1.57
20.86 -20.96 3.51
21.27 -20.54 3.51
21.68 -20.11 3.51
19.62 -17.47 3.12
22.47 -19.22 3.51
8.02 -6.59 1.23
8.05 -6.35 1.22
8.07 -6.10 1.20
8.09 -5.86 1.19
8.19 -5.69 1.18
8.36 -5.56 1.19
8.75 -5.58 1.23
25.25 -15.38 3.51
25.56 -14.87 3.51
25.85 -14.35 3.51
26.13 -13.83 3.51
7.93 -4.00 1.06
8.01 -3.84 1.06
7.83 -3.56 1.02
7.85 -3.38 1.02
7.98 -3.25 1.02
7.85 -3.01 1.00
8.38 -3.02 1.06
8.48 -2.87 1.06
8.72 -2.76 1.09
18.37 -5.40 2.27
18.37 -5.00 2.26
18.37 -4.61 2.25
18.37 -4.22 2.24
18.30 -3.82 2.22
16.30 -3.06 1.97
18.30 -3.06 2.20
8.19 -1.20 0.98
7.83 -0.99 0.94
7.92 -0.84 0.95
7.72 -0.66 0.92
7.83 -0.51 0.93
8.02 -0.36 0.95
7.91 -0.20 0.94
7.91 -0.04 0.94
7.83 0.12 0.93
8.23 0.29 0.98
8.46 0.47 1.01
18.30 1.38 2.18
18.30 1.75 2.18
16.27 1.89 1.95
17.70 2.41 2.12
18.30 2.87 2.20
18.37 3.26 2.22
18.37 3.64 2.22
18.37 4.03 2.23
18.37 4.42 2.24
18.37 4.81 2.26
18.30 5.18 2.26
18.37 5.60 2.28
18.37 6.01 2.30
18.37 6.42 2.31
18.37 6.84 2.33
18.32 7.24 2.34
19.77 8.27 2.55
19.77 8.75 2.57
26.79 12.50 3.51
26.54 13.04 3.51
26.27 13.57 3.51
21.86 11.85 2.95
9.09 5.17 1.24
8.60 5.12 1.19
8.47 5.28 1.19
8.27 5.38 1.17
7.91 5.38 1.14
7.96 5.65 1.16
7.74 5.73 1.14
8.04 6.20 1.21
7.94 6.39 1.21
16.31 13.67 2.53
15.66 13.67 2.47
8.79 7.99 1.41
8.73 8.26 1.43
8.49 8.36 1.42
8.29 8.50 1.41
8.01 8.55 1.39
7.88 8.76 1.40
7.93 9.18 1.44
16.71 20.14 3.11
9.01 11.31 1.72
8.65 11.33 1.69
8.38 11.43 1.68
8.06 11.48 1.67
7.87 11.71 1.68
7.73 12.01 1.70
15.51 25.18 3.51
15.00 25.48 3.51
14.48 25.78 3.51
13.96 26.06 3.51
13.44 26.34 3.51
12.91 26.60 3.51
12.37 26.86 3.51
11.73 26.87 3.48
11.10 26.90 3.46
10.48 26.90 3.43
9.85 26.87 3.40
9.25 26.90 3.38
8.64 26.87 3.35
8.06 26.90 3.34
4.47 16.10 1.98
4.14 16.17 1.98
6.33 26.93 3.29
6.40 29.91 3.63
5.84 30.26 3.66
5.23 30.37 3.66
4.62 30.47 3.66
4.01 30.55 3.66
3.40 30.63 3.66
2.78 30.69 3.66
2.22 31.60 3.76
1.59 31.64 3.76
0.95 31.67 3.76
0.32 31.68 3.76
-0.32 31.68 3.76
-0.95 31.67 3.76
-1.59 31.64 3.76
-2.22 31.60 3.76
-2.86 31.55 3.76
-3.49 31.49 3.76
-4.12 31.41 3.76
-4.75 31.32 3.76
-5.38 31.22 3.76
-5.84 30.26 3.66
-6.45 30.13 3.66
-7.05 30.00 3.66
-7.65 29.85 3.66
-8.25 29.69 3.66
-8.84 29.52 3.66
-8.12 25.25 3.15
-9.70 28.21 3.54
-12.53 34.18 4.32
-9.71 24.92 3.18
-14.96 36.25 4.66
-16.40 37.58 4.87
-19.42 42.17 5.51
-5.99 8.18 1.20
-42.24 -7.93 5.10
-38.01 -7.93 4.61
-34.53 -7.93 4.21
-31.61 -7.93 3.87
-29.12 -7.93 3.59
-26.97 -7.93 3.34
-25.10 -7.93 3.13
-23.45 -7.93 2.94
-22.39 -8.08 2.83
-27.69 -10.63 3.52
-19.71 -8.02 2.53
-27.25 -11.73 3.52
-26.91 -12.23 3.51
-25.89 -12.40 3.41
-26.49 -13.35 3.52
-23.52 -12.45 3.16
-25.93 -14.40 3.52
-25.64 -14.92 3.52
-19.85 -12.09 2.76
-25.02 -15.93 3.52
-24.69 -16.43 3.52
-23.86 -16.58 3.45
-22.87 -16.58 3.36
-21.93 -16.58 3.27
-21.04 -16.58 3.18
-20.19 -16.58 3.10
-19.38 -16.58 3.03
-18.61 -16.58 2.96
-17.88 -16.58 2.90
-15.87 -16.60 2.73
-15.26 -16.62 2.68
-22.37 -40.78 5.52
-20.97 -40.10 5.38
-19.95 -40.08 5.32
-18.94 -40.05 5.26
-9.74 -21.73 2.83
-9.76 -22.98 2.97
-15.93 -39.72 5.08
-9.75 -25.80 3.28
-13.82 -38.92 4.91
-9.73 -29.24 3.66
-9.14 -29.43 3.66
-8.55 -29.61 3.66
-7.95 -29.77 3.66
-7.35 -29.93 3.66
-6.75 -30.07 3.66
-6.14 -30.20 3.66
-5.69 -31.17 3.76
-5.07 -31.28 3.76
-4.44 -31.37 3.76
-3.81 -31.45 3.76
-3.17 -31.52 3.76
-2.54 -31.58 3.76
-1.91 -31.63 3.76
-1.27 -31.66 3.76
-0.64 -31.68 3.76
-0.00 -26.56 3.76
0.53 -26.56 3.76
1.07 -26.54 3.76
1.60 -26.51 3.76
2.13 -26.48 3.76
2.59 -25.70 3.66
3.10 -25.65 3.66
3.62 -25.58 3.66
4.13 -25.50 3.66
4.64 -25.41 3.66
5.15 -25.31 3.66
5.66 -25.21 3.66
6.16 -25.09 3.66
2.66 -9.95 1.46
6.19 -21.44 3.16
6.19 -19.93 2.96
6.19 -18.61 2.78
6.19 -17.43 2.62
6.19 -16.38 2.48
6.19 -15.44 2.36
8.52 -20.06 3.09
6.30 -14.05 2.18
6.25 -13.22 2.07
11.47 -23.06 3.65
8.12 -15.53 2.48
8.32 -15.16 2.45
8.70 -15.12 2.47
12.95 -21.51 3.56
13.27 -21.08 3.53
13.63 -20.71 3.51
14.04 -20.43 3.51
14.45 -20.14 3.51
14.85 -19.85 3.51
7.88 -10.10 1.81
7.92 -9.75 1.78
8.12 -9.59 1.78
8.30 -9.41 1.78
8.38 -9.13 1.76
8.92 -9.33 1.83
17.48 -17.57 3.51
17.83 -17.22 3.51
18.18 -16.86 3.51
18.51 -16.49 3.51
18.84 -16.11 3.51
7.99 -6.56 1.47
7.97 -6.28 1.44
7.93 -6.00 1.41
7.91 -5.73 1.38
8.25 -5.73 1.42
8.45 -5.62 1.44
8.71 -5.55 1.46
21.17 -12.89 3.51
21.43 -12.47 3.51
21.67 -12.03 3.51
21.91 -11.60 3.51
7.97 -4.02 1.26
8.06 -3.86 1.27
8.01 -3.64 1.25
7.93 -3.41 1.22
7.99 -3.25 1.22
7.95 -3.05 1.21
8.14 -2.94 1.23
8.37 -2.83 1.25
8.44 -2.67 1.25
18.37 -5.40 2.71
18.37 -5.00 2.70
18.37 -4.61 2.68
18.37 -4.22 2.67
17.64 -3.68 2.55
16.30 -3.06 2.35
16.53 -2.76 2.37
8.14 -1.19 1.17
8.25 -1.04 1.18
7.96 -0.84 1.13
8.05 -0.69 1.15
7.95 -0.52 1.13
8.11 -0.37 1.15
8.08 -0.20 1.14
7.99 -0.04 1.13
7.90 0.12 1.12
8.17 0.29 1.16
8.42 0.47 1.19
18.30 1.38 2.60
18.30 1.75 2.61
16.26 1.89 2.32
17.70 2.41 2.53
18.30 2.87 2.63
18.37 3.26 2.64
18.37 3.64 2.65
18.37 4.03 2.66
18.37 4.42 2.68
18.37 4.81 2.69
18.30 5.18 2.70
18.37 5.60 2.72
18.37 6.01 2.74
18.37 6.42 2.76
18.30 6.81 2.77
18.23 7.21 2.78
19.77 8.27 3.04
19.77 8.75 3.06
22.46 10.48 3.51
22.25 10.93 3.51
22.02 11.38 3.51
21.79 11.82 3.51
8.78 4.99 1.43
8.81 5.24 1.45
8.55 5.32 1.43
8.32 5.42 1.41
8.00 5.44 1.37
8.05 5.71 1.40
7.84 5.80 1.38
7.97 6.15 1.43
7.61 6.12 1.38
16.31 13.67 3.01
15.66 13.67 2.94
9.26 8.42 1.77
8.72 8.25 1.70
8.54 8.41 1.70
8.31 8.52 1.69
8.08 8.63 1.67
7.84 8.71 1.66
7.81 9.04 1.69
11.34 13.67 2.52
8.89 11.16 2.02
8.64 11.31 2.02
8.46 11.55 2.03
8.18 11.65 2.02
7.93 11.79 2.01
7.98 12.39 2.09
12.48 20.26 3.37
12.09 20.54 3.38
7.73 13.75 2.23
11.30 21.09 3.39
6.37 12.48 1.99
6.19 12.76 2.01
6.26 13.59 2.12
9.92 22.72 3.51
9.46 22.92 3.51
9.10 23.37 3.55
8.74 23.84 3.60
8.33 24.22 3.63
7.18 22.33 3.32
7.44 24.83 3.67
4.44 16.00 2.35
4.13 16.12 2.36
5.91 25.15 3.66
5.40 25.26 3.66
4.90 25.36 3.66
4.39 25.46 3.66
3.87 25.54 3.66
3.36 25.61 3.66
2.85 25.68 3.66
2.34 25.83 3.68
1.86 26.50 3.76
1.33 26.53 3.76
0.80 26.55 3.76
0.27 26.56 3.76
-0.27 26.56 3.76
-0.80 26.55 3.76
-1.33 26.53 3.76
-1.86 26.50 3.76
-2.40 26.45 3.76
-2.93 26.40 3.76
-3.46 26.34 3.76
-3.98 26.26 3.76
-4.51 26.18 3.76
-5.03 26.08 3.76
-5.56 25.97 3.76
-5.91 25.15 3.66
-6.41 25.02 3.66
-6.92 24.89 3.66
-7.41 24.75 3.66
-7.91 24.59 3.66
-8.40 24.43 3.66
-8.08 22.05 3.33
-8.47 21.74 3.31
-10.68 25.87 3.97
-12.21 27.98 4.33
-13.40 29.10 4.54
-14.22 29.30 4.61
-15.10 29.60 4.71
-9.70 18.11 2.91
-9.70 17.27 2.81
-5.99 8.18 1.44
-40.00 -8.35 5.79
-34.53 -7.93 5.02
-31.61 -7.93 4.62
-29.12 -7.93 4.28
-26.97 -7.93 3.98
-25.10 -7.93 3.73
-23.45 -7.93 3.51
-21.99 -7.93 3.31
-20.68 -7.93 3.14
-19.50 -7.93 2.98
-18.84 -8.11 2.91
-22.64 -10.29 3.52
-16.70 -8.00 2.62
-22.21 -11.19 3.52
-21.98 -11.63 3.52
-21.74 -12.07 3.52
-21.49 -12.51 3.52
-19.86 -12.09 3.29
-20.98 -13.36 3.52
-18.57 -12.36 3.16
-20.42 -14.19 3.52
-20.13 -14.60 3.52
-19.84 -15.00 3.52
-19.53 -15.39 3.52
-19.22 -15.78 3.52
-18.90 -16.16 3.52
-18.57 -16.54 3.52
-17.88 -16.58 3.45
-17.17 -16.58 3.38
-16.50 -16.58 3.31
-15.85 -16.58 3.25
-15.22 -16.58 3.19
-14.62 -16.58 3.13
-14.04 -16.58 3.08
-13.48 -16.58 3.03
-12.93 -16.58 2.98
-12.40 -16.58 2.93
-11.95 -16.66 2.91
-10.46 -16.60 2.78
-10.05 -16.69 2.76
-21.97 -38.20 6.24
-20.86 -38.01 6.14
-19.87 -38.01 6.08
-9.77 -19.63 3.11
-17.88 -37.82 5.93
-9.75 -21.75 3.38
-9.75 -22.97 3.54
-9.62 -23.98 3.66
-9.13 -24.17 3.66
-8.65 -24.34 3.66
-8.16 -24.51 3.66
-7.66 -24.67 3.66
-7.17 -24.82 3.66
-6.59 -24.69 3.62
-6.07 -24.72 3.61
-5.72 -25.47 3.70
-5.30 -26.03 3.76
-4.77 -26.13 3.76
-4.25 -26.22 3.76
-3.72 -26.30 3.76
-3.19 -26.37 3.76
-2.66 -26.43 3.76
-2.13 -26.48 3.76
-1.60 -26.51 3.76
-1.07 -26.54 3.76
-0.53 -26.56 3.76
0.00 -22.85 3.76
0.46 -22.84 3.76
0.92 -22.83 3.76
1.37 -22.80 3.76
1.83 -22.77 3.76
2.29 -22.73 3.76
2.67 -22.06 3.66
3.11 -22.00 3.66
3.55 -21.93 3.66
3.99 -21.86 3.66
4.43 -21.77 3.66
4.87 -21.68 3.66
5.30 -21.58 3.66
2.66 -9.95 1.70
6.16 -21.35 3.66
6.19 -19.93 3.44
6.19 -18.61 3.23
6.19 -17.43 3.05
6.19 -16.38 2.88
6.19 -15.44 2.74
6.19 -14.58 2.61
6.19 -13.80 2.49
6.25 -13.22 2.41
10.10 -20.30 3.74
6.30 -12.05 2.24
6.19 -11.28 2.12
8.74 -15.19 2.89
11.84 -19.66 3.78
12.18 -19.33 3.76
12.51 -19.00 3.75
12.83 -18.67 3.73
13.15 -18.33 3.72
13.47 -18.00 3.70
13.78 -17.67 3.69
8.00 -9.84 2.09
8.16 -9.64 2.08
8.34 -9.46 2.08
8.55 -9.31 2.08
8.85 -9.26 2.11
15.18 -15.26 3.55
15.39 -14.86 3.52
15.63 -14.50 3.51
15.92 -14.18 3.51
16.20 -13.86 3.51
8.03 -6.60 1.71
8.05 -6.35 1.69
7.99 -6.04 1.65
8.07 -5.85 1.64
8.38 -5.83 1.68
8.49 -5.65 1.68
8.70 -5.54 1.70
18.21 -11.09 3.51
18.43 -10.72 3.51
18.64 -10.35 3.51
18.84 -9.97 3.51
8.03 -4.05 1.48
8.01 -3.84 1.46
8.07 -3.67 1.46
7.67 -3.30 1.38
7.93 -3.23 1.41
7.89 -3.03 1.39
8.19 -2.95 1.43
8.44 -2.86 1.47
8.42 -2.66 1.45
18.30 -5.38 3.14
18.30 -4.99 3.13
18.30 -4.59 3.11
18.30 -4.21 3.09
17.58 -3.67 2.96
16.12 -3.03 2.70
16.23 -2.71 2.71
8.77 -1.28 1.46
8.24 -1.04 1.37
8.00 -0.85 1.33
8.10 -0.69 1.34
8.08 -0.53 1.33
7.97 -0.36 1.31
7.91 -0.20 1.30
7.92 -0.04 1.30
8.07 0.12 1.33
8.42 0.30 1.39
8.45 0.47 1.39
8.34 0.63 1.38
16.27 1.56 2.69
16.16 1.87 2.68
16.37 2.23 2.72
17.57 2.76 2.93
18.30 3.25 3.06
18.30 3.63 3.07
18.30 4.01 3.09
18.30 4.40 3.10
18.30 4.79 3.12
18.30 5.18 3.13
18.30 5.58 3.15
18.30 5.99 3.17
18.30 6.40 3.19
18.30 6.81 3.22
18.30 7.23 3.24
19.67 8.23 3.51
19.50 8.63 3.51
19.32 9.02 3.51
19.14 9.40 3.51
18.94 9.78 3.51
18.74 10.16 3.51
18.53 10.54 3.51
8.73 5.20 1.67
8.41 5.24 1.63
8.20 5.34 1.61
8.04 5.47 1.60
7.94 5.64 1.60
7.76 5.75 1.59
7.90 6.10 1.64
7.84 6.31 1.66
16.31 13.67 3.50
15.66 13.67 3.42
15.04 13.67 3.35
8.64 8.17 1.96
8.56 8.43 1.98
8.10 8.31 1.91
8.15 8.70 1.96
7.90 8.78 1.95
7.90 9.15 1.99
7.84 9.45 2.02
10.88 13.67 2.88
8.75 11.45 2.37
8.47 11.56 2.36
8.24 11.74 2.36
7.99 11.87 2.36
7.94 12.33 2.42
8.41 13.65 2.64
6.19 10.52 2.01
7.66 13.64 2.58
7.31 13.64 2.55
6.30 12.35 2.28
6.19 12.76 2.34
6.24 13.54 2.46
5.96 13.66 2.46
7.54 18.26 3.25
7.14 18.35 3.24
7.47 20.38 3.58
7.10 20.65 3.60
6.73 20.93 3.62
6.35 21.19 3.64
4.44 16.00 2.74
4.13 16.12 2.74
5.08 21.63 3.66
4.65 21.73 3.66
4.21 21.82 3.66
3.77 21.90 3.66
3.33 21.97 3.66
2.89 22.03 3.66
2.45 22.08 3.66
2.06 22.75 3.76
1.60 22.79 3.76
1.15 22.82 3.76
0.69 22.83 3.76
0.23 22.84 3.76
-0.23 22.84 3.76
-0.69 22.83 3.76
-1.15 22.82 3.76
-1.60 22.79 3.76
-2.06 22.75 3.76
-2.52 22.71 3.76
-2.97 22.65 3.76
-3.43 22.59 3.76
-3.88 22.51 3.76
-4.33 22.43 3.76
-4.78 22.34 3.76
-5.23 22.24 3.76
-5.67 22.13 3.76
-5.95 21.41 3.66
-6.16 20.58 3.54
-6.64 20.64 3.57
-7.23 21.01 3.66
-7.65 20.86 3.66
-8.06 20.70 3.66
-8.48 20.54 3.66
-8.89 20.36 3.66
-9.29 20.18 3.66
-9.70 19.99 3.66
-9.72 19.05 3.52
-13.39 24.99 4.67
-14.05 25.00 4.72
-14.71 24.99 4.78
-9.71 15.76 3.05
-16.43 25.51 5.00
-17.61 26.18 5.20
-5.99 8.18 1.67
-37.20 -8.55 6.29
-32.95 -8.27 5.60
-29.12 -7.93 4.97
-26.97 -7.93 4.63
-25.10 -7.93 4.34
-23.45 -7.93 4.08
-21.99 -7.93 3.85
-20.68 -7.93 3.65
-19.50 -7.93 3.47
-18.43 -7.93 3.31
-17.46 -7.93 3.16
-16.57 -7.93 3.03
-15.75 -7.94 2.91
-18.90 -10.01 3.52
-14.33 -7.96 2.70
-13.91 -8.09 2.65
-18.27 -11.12 3.52
-18.04 -11.49 3.52
-17.81 -11.85 3.52
-17.56 -12.20 3.52
-17.32 -12.55 3.52
-17.06 -12.90 3.52
-15.41 -12.14 3.23
-14.83 -12.18 3.16
-14.58 -12.47 3.16
-15.97 -14.23 3.52
-15.68 -14.54 3.52
-15.39 -14.86 3.52
-12.28 -12.35 2.87
-14.78 -15.46 3.52
-14.47 -15.75 3.52
-14.15 -16.04 3.52
-13.82 -16.32 3.52
-13.48 -16.58 3.52
-12.93 -16.58 3.46
-12.40 -16.58 3.41
-11.89 -16.58 3.36
-11.40 -16.58 3.31
-10.91 -16.58 3.27
-10.44 -16.58 3.23
-9.98 -16.58 3.19
-20.65 -35.91 6.82
-19.71 -35.93 6.75
-9.75 -18.65 3.47
-10.90 -21.91 4.03
-9.50 -20.09 3.66
-9.09 -20.27 3.66
-8.68 -20.45 3.66
-8.27 -20.62 3.66
-7.86 -20.78 3.66
-7.44 -20.94 3.66
-6.78 -20.38 3.54
-6.52 -20.99 3.62
-6.07 -21.03 3.61
-5.73 -21.47 3.66
-5.45 -22.19 3.76
-5.00 -22.29 3.76
-4.56 -22.39 3.76
-4.10 -22.47 3.76
-3.65 -22.55 3.76
-3.20 -22.62 3.76
-2.74 -22.68 3.76
-2.29 -22.73 3.76
-1.83 -22.77 3.76
-1.37 -22.80 3.76
-0.92 -22.83 3.76
-0.46 -22.84 3.76
-0.00 -20.02 3.76
0.40 -20.02 3.76
0.80 -20.01 3.76
1.21 -19.99 3.76
1.61 -19.96 3.76
2.01 -19.92 3.76
2.34 -19.36 3.66
2.73 -19.28 3.66
3.11 -19.22 3.66
3.50 -19.16 3.66
3.88 -19.08 3.66
4.27 -19.00 3.66
4.65 -18.91 3.66
2.66 -9.95 1.94
5.40 -18.71 3.66
5.78 -18.60 3.66
6.15 -18.48 3.66
6.19 -17.43 3.48
6.19 -16.38 3.29
6.19 -15.44 3.13
6.19 -14.58 2.98
6.19 -13.80 2.84
6.19 -13.09 2.72
6.19 -12.44 2.61
6.19 -11.84 2.51
6.19 -11.28 2.42
8.83 -15.35 3.33
10.43 -17.32 3.80
10.95 -17.38 3.86
6.19 -9.40 2.12
6.33 -9.21 2.10
11.97 -16.69 3.86
12.22 -16.33 3.83
12.45 -15.97 3.81
8.08 -9.94 2.41
8.05 -9.51 2.34
8.32 -9.43 2.36
8.67 -9.44 2.41
13.47 -14.09 3.66
13.66 -13.73 3.64
13.88 -13.40 3.63
14.06 -13.04 3.61
14.22 -12.67 3.58
14.36 -12.29 3.55
14.50 -11.91 3.53
8.11 -6.39 1.94
7.87 -5.95 1.86
8.05 -5.84 1.87
8.22 -5.71 1.88
8.44 -5.62 1.91
8.66 -5.52 1.93
15.96 -9.72 3.51
16.15 -9.40 3.51
16.34 -9.07 3.51
16.52 -8.74 3.51
8.06 -4.06 1.70
7.91 -3.79 1.65
8.07 -3.67 1.67
7.78 -3.35 1.59
8.05 -3.28 1.63
7.99 -3.07 1.61
8.13 -2.93 1.62
8.48 -2.87 1.68
8.33 -2.63 1.64
17.93 -5.27 3.51
18.03 -4.91 3.51
18.12 -4.55 3.51
17.43 -4.00 3.36
16.53 -3.45 3.17
15.93 -2.99 3.05
15.91 -2.66 3.03
15.96 -2.34 3.03
8.00 -1.01 1.52
8.02 -0.85 1.52
8.01 -0.68 1.51
8.01 -0.52 1.51
7.98 -0.36 1.50
7.65 -0.19 1.44
8.00 -0.04 1.50
7.93 0.12 1.49
8.09 0.28 1.52
8.38 0.46 1.58
16.08 1.21 3.03
16.06 1.54 3.03
16.02 1.86 3.03
16.37 2.23 3.11
16.94 2.66 3.22
18.30 3.25 3.49
18.30 3.63 3.51
18.25 4.00 3.51
18.17 4.37 3.51
18.08 4.73 3.51
17.98 5.09 3.51
17.87 5.45 3.51
17.76 5.81 3.51
17.64 6.17 3.51
17.51 6.52 3.51
17.38 6.87 3.51
17.24 7.22 3.51
17.09 7.56 3.51
16.93 7.90 3.51
16.77 8.24 3.51
16.60 8.58 3.51
16.43 8.91 3.51
16.24 9.23 3.51
8.65 5.15 1.89
8.68 5.41 1.92
8.42 5.48 1.89
8.11 5.52 1.84
8.04 5.71 1.85
7.83 5.80 1.83
7.94 6.13 1.88
8.01 6.45 1.93
14.49 12.15 3.55
14.17 12.37 3.54
13.86 12.59 3.52
8.80 8.33 2.28
8.58 8.45 2.26
8.20 8.40 2.21
8.21 8.76 2.26
7.96 8.85 2.24
8.05 9.32 2.31
11.34 13.67 3.34
10.88 13.67 3.28
8.88 11.62 2.75
6.22 8.48 1.98
8.29 11.80 2.71
8.04 11.96 2.71
6.30 9.78 2.19
8.41 13.65 3.01
6.19 10.52 2.29
6.40 11.39 2.46
6.19 11.56 2.46
6.19 12.13 2.56
6.19 12.76 2.67
6.19 13.44 2.78
5.94 13.62 2.79
7.22 17.50 3.56
7.10 18.23 3.68
6.73 18.36 3.68
6.33 18.41 3.66
5.96 18.54 3.66
5.59 18.65 3.66
4.44 16.00 3.12
4.13 16.12 3.13
4.46 18.96 3.66
4.07 19.04 3.66
3.69 19.12 3.66
3.31 19.19 3.66
2.92 19.25 3.66
2.54 19.37 3.67
2.21 19.90 3.76
1.81 19.94 3.76
1.41 19.97 3.76
1.00 20.00 3.76
0.60 20.01 3.76
0.20 20.02 3.76
-0.20 20.02 3.76
-0.60 20.01 3.76
-1.00 20.00 3.76
-1.41 19.97 3.76
-1.81 19.94 3.76
-2.21 19.90 3.76
-2.61 19.85 3.76
-3.00 19.80 3.76
-3.40 19.73 3.76
-3.80 19.66 3.76
-4.19 19.58 3.76
-4.58 19.49 3.76
-4.97 19.40 3.76
-5.36 19.29 3.76
-5.71 19.08 3.74
-5.96 18.54 3.66
-6.12 17.80 3.54
-6.63 18.09 3.62
-7.07 18.15 3.66
-7.43 18.00 3.66
-7.79 17.85 3.66
-8.15 17.69 3.66
-8.50 17.52 3.66
-8.85 17.35 3.66
-9.20 17.17 3.66
-9.54 16.98 3.66
-10.62 18.05 3.94
-9.71 15.76 3.48
-14.19 22.04 4.93
-14.91 22.16 5.02
-9.69 13.80 3.17
-5.99 8.18 1.91
-17.50 22.90 5.42
-18.71 23.50 5.65
-9.70 11.69 2.86
-31.21 36.12 8.97
-32.41 36.02 9.11
-33.57 35.83 9.23
-47.20 -11.85 9.15
-31.01 -8.45 6.04
-27.96 -8.22 5.48
-25.10 -7.93 4.95
-23.45 -7.93 4.65
-21.99 -7.93 4.39
-20.68 -7.93 4.16
-19.50 -7.93 3.96
-18.43 -7.93 3.77
-17.46 -7.93 3.60
-16.57 -7.93 3.45
-15.75 -7.93 3.31
-14.99 -7.93 3.19
-14.29 -7.93 3.07
-13.64 -7.93 2.97
-13.20 -8.04 2.91
-15.81 -10.07 3.52
-15.61 -10.39 3.52
-11.45 -7.96 2.62
-15.18 -11.00 3.52
-14.95 -11.31 3.52
-14.72 -11.60 3.52
-14.49 -11.90 3.52
-14.25 -12.19 3.52
-14.00 -12.47 3.52
-13.74 -12.75 3.52
-13.49 -13.02 3.52
-12.27 -12.33 3.27
-12.95 -13.55 3.52
-12.68 -13.81 3.52
-12.40 -14.06 3.52
-12.11 -14.31 3.52
-11.82 -14.55 3.52
-11.53 -14.78 3.52
-11.23 -15.01 3.52
-10.93 -15.23 3.52
-10.62 -15.45 3.52
-10.31 -15.66 3.52
-9.99 -15.86 3.52
-9.75 -16.19 3.55
-9.71 -16.88 3.66
-9.37 -17.07 3.66
-9.02 -17.26 3.66
-8.68 -17.44 3.66
-8.32 -17.61 3.66
-7.97 -17.77 3.66
-7.61 -17.93 3.66
-7.25 -18.07 3.66
-6.66 -17.64 3.54
-6.45 -18.15 3.62
-6.07 -18.25 3.62
-5.78 -18.60 3.66
-5.55 -19.24 3.76
-5.17 -19.34 3.76
-4.78 -19.44 3.76
-4.39 -19.54 3.76
-3.99 -19.62 3.76
-3.60 -19.70 3.76
-3.20 -19.77 3.76
-2.80 -19.83 3.76
-2.41 -19.88 3.76
-2.01 -19.92 3.76
-1.61 -19.96 3.76
-1.21 -19.99 3.76
-0.80 -20.01 3.76
-0.40 -20.02 3.76
-0.00 -17.80 3.76
0.36 -17.80 3.76
0.71 -17.79 3.76
1.07 -17.77 3.76
1.43 -17.75 3.76
1.78 -17.71 3.76
2.14 -17.68 3.76
2.43 -17.15 3.66
2.77 -17.09 3.66
3.11 -17.03 3.66
3.45 -16.97 3.66
3.79 -16.90 3.66
4.13 -16.82 3.66
2.66 -9.95 2.18
4.80 -16.64 3.66
5.14 -16.54 3.66
5.47 -16.43 3.66
5.80 -16.32 3.66
6.12 -16.20 3.66
6.19 -15.44 3.52
6.19 -14.58 3.35
6.19 -13.80 3.20
6.19 -13.09 3.06
6.19 -12.44 2.94
6.19 -11.84 2.82
6.19 -11.28 2.72
6.18 -10.74 2.62
6.18 -10.26 2.53
6.19 -9.82 2.45
6.19 -9.40 2.38
6.33 -9.21 2.36
10.29 -14.35 3.73
6.32 -8.45 2.23
10.95 -14.04 3.76
8.04 -9.89 2.69
6.32 -7.47 2.07
6.21 -7.05 1.99
6.29 -6.85 1.97
12.01 -12.56 3.67
12.15 -12.21 3.64
12.28 -11.86 3.61
12.44 -11.54 3.59
12.63 -11.25 3.57
12.80 -10.95 3.56
12.97 -10.65 3.55
7.92 -6.25 2.13
7.96 -6.02 2.11
8.06 -5.85 2.11
8.23 -5.72 2.12
8.49 -5.65 2.16
8.75 -5.57 2.19
14.19 -8.64 3.51
14.36 -8.36 3.51
14.53 -8.07 3.51
14.69 -7.77 3.51
8.11 -4.09 1.92
8.13 -3.90 1.91
8.15 -3.70 1.89
7.89 -3.40 1.82
8.04 -3.27 1.84
8.09 -3.11 1.83
8.19 -2.96 1.84
8.39 -2.84 1.87
8.86 -2.80 1.96
15.94 -4.69 3.51
16.03 -4.37 3.51
16.12 -4.04 3.51
16.19 -3.72 3.51
15.79 -3.30 3.41
15.63 -2.94 3.36
15.23 -2.55 3.26
14.86 -2.18 3.17
8.05 -1.01 1.71
8.07 -0.85 1.72
8.09 -0.69 1.72
8.08 -0.53 1.71
7.81 -0.35 1.65
7.91 -0.20 1.67
8.08 -0.04 1.71
8.00 0.12 1.69
8.43 0.30 1.78
8.32 0.46 1.76
14.87 1.12 3.15
15.00 1.43 3.18
15.42 1.79 3.28
15.76 2.15 3.36
16.30 2.56 3.49
16.36 2.90 3.51
16.30 3.23 3.51
16.23 3.56 3.51
16.16 3.88 3.51
16.07 4.21 3.51
15.99 4.53 3.51
15.89 4.85 3.51
15.79 5.17 3.51
15.69 5.48 3.51
15.57 5.80 3.51
15.46 6.11 3.51
15.36 6.43 3.52
15.31 6.77 3.54
15.22 7.10 3.55
15.12 7.43 3.56
15.02 7.76 3.57
14.91 8.09 3.59
14.76 8.39 3.59
8.84 5.26 2.17
8.60 5.36 2.14
8.44 5.50 2.13
8.18 5.57 2.09
8.13 5.77 2.11
7.90 5.85 2.08
7.97 6.16 2.13
7.97 6.41 2.16
13.24 11.10 3.65
13.01 11.36 3.65
12.77 11.61 3.65
8.99 8.51 2.62
8.70 8.57 2.58
6.36 6.52 1.93
6.23 6.65 1.93
8.02 8.91 2.53
6.30 7.29 2.04
11.04 13.31 3.66
10.77 13.53 3.66
8.83 11.56 3.08
6.22 8.48 2.22
8.20 11.68 3.02
8.15 12.11 3.09
6.29 9.77 2.46
6.19 10.05 2.50
6.19 10.52 2.58
6.19 11.02 2.67
6.19 11.56 2.77
6.19 12.13 2.88
6.19 12.76 3.00
6.19 13.44 3.13
5.94 13.62 3.14
6.64 16.08 3.68
6.28 16.14 3.66
5.96 16.26 3.66
5.63 16.37 3.66
5.30 16.48 3.66
4.97 16.59 3.66
4.47 16.10 3.53
4.17 16.29 3.55
3.96 16.86 3.66
3.62 16.93 3.66
3.28 17.00 3.66
2.94 17.06 3.66
2.60 17.12 3.66
2.32 17.65 3.76
1.96 17.70 3.76
1.61 17.73 3.76
1.25 17.76 3.76
0.89 17.78 3.76
0.54 17.80 3.76
0.18 17.80 3.76
-0.18 17.80 3.76
-0.54 17.80 3.76
-0.89 17.78 3.76
-1.25 17.76 3.76
-1.61 17.73 3.76
-1.96 17.70 3.76
-2.32 17.65 3.76
-2.67 17.60 3.76
-3.02 17.55 3.76
-3.37 17.48 3.76
-3.73 17.41 3.76
-4.07 17.33 3.76
-4.42 17.25 3.76
-4.77 17.15 3.76
-5.11 17.06 3.76
-5.45 16.95 3.76
-5.71 16.62 3.71
-5.96 16.26 3.66
-6.20 15.92 3.61
-6.57 15.92 3.64
-6.93 15.87 3.66
-7.24 15.73 3.66
-7.56 15.58 3.66
-7.87 15.43 3.66
-8.18 15.26 3.66
-8.48 15.10 3.66
-8.78 14.92 3.66
-9.08 14.74 3.66
-9.38 14.56 3.66
-9.67 14.37 3.66
-9.69 13.80 3.57
-5.99 8.18 2.14
-15.30 20.03 5.33
-16.07 20.18 5.45
-16.83 20.29 5.57
-17.76 20.55 5.74
-18.76 20.85 5.93
-9.70 10.36 3.00
-22.18 22.75 6.72
-32.30 31.82 9.58
-9.69 9.17 2.82
-34.96 31.78 9.99
-36.41 31.78 10.22
-47.20 -11.85 10.29
-43.02 -11.72 9.42
-29.31 -8.62 6.46
-26.53 -8.38 5.88
-23.71 -8.02 5.29
-21.99 -7.93 4.94
-20.68 -7.93 4.68
-19.50 -7.93 4.45
-18.43 -7.93 4.24
-17.46 -7.93 4.05
-16.57 -7.93 3.88
-15.75 -7.93 3.73
-14.99 -7.93 3.59
-14.29 -7.93 3.45
-13.64 -7.93 3.33
-13.03 -7.93 3.22
-12.46 -7.93 3.12
-11.92 -7.93 3.03
-11.42 -7.93 2.94
-11.05 -8.01 2.89
-13.30 -10.05 3.52
-13.09 -10.32 3.52
-12.88 -10.58 3.52
-12.67 -10.84 3.52
-12.45 -11.09 3.52
-12.22 -11.33 3.52
-11.99 -11.58 3.52
-11.76 -11.82 3.52
-11.52 -12.05 3.52
-11.27 -12.28 3.52
-11.02 -12.50 3.52
-10.77 -12.72 3.52
-10.51 -12.93 3.52
-10.25 -13.14 3.52
-9.99 -13.35 3.52
-9.75 -13.59 3.54
-9.75 -14.18 3.64
-9.52 -14.46 3.66
-9.23 -14.65 3.66
-8.93 -14.83 3.66
-8.63 -15.01 3.66
-8.33 -15.18 3.66
-8.02 -15.35 3.66
-7.71 -15.50 3.66
-7.40 -15.66 3.66
-7.09 -15.80 3.66
-6.77 -15.94 3.66
-6.45 -16.07 3.66
-6.12 -16.20 3.66
-5.80 -16.32 3.66
-5.62 -16.89 3.76
-5.28 -17.00 3.76
-4.94 -17.11 3.76
-4.59 -17.20 3.76
-4.25 -17.29 3.76
-3.90 -17.37 3.76
-3.55 -17.45 3.76
-3.20 -17.51 3.76
-2.85 -17.58 3.76
-2.49 -17.63 3.76
-2.14 -17.68 3.76
-1.78 -17.71 3.76
-1.43 -17.75 3.76
-1.07 -17.77 3.76
-0.71 -17.79 3.76
-0.36 -17.80 3.76
0.00 -16.01 3.76
0.32 -16.01 3.76
0.64 -16.00 3.76
0.96 -15.98 3.76
1.28 -15.96 3.76
1.60 -15.93 3.76
1.92 -15.90 3.76
2.24 -15.86 3.76
2.49 -15.37 3.66
2.80 -15.32 3.66
3.11 -15.26 3.66
3.41 -15.20 3.66
3.72 -15.12 3.66
2.66 -9.95 2.42
4.32 -14.96 3.66
4.62 -14.87 3.66
4.92 -14.78 3.66
5.21 -14.68 3.66
5.51 -14.57 3.66
5.80 -14.45 3.66
6.09 -14.34 3.66
6.19 -13.80 3.56
6.19 -13.09 3.40
6.19 -12.44 3.27
6.19 -11.84 3.14
6.19 -11.28 3.02
6.18 -10.74 2.91
6.18 -10.26 2.82
6.18 -9.82 2.73
6.19 -9.40 2.65
6.21 -9.03 2.57
6.21 -8.66 2.50
6.31 -8.43 2.47
9.64 -12.36 3.68
8.23 -10.13 3.07
8.23 -9.72 2.99
6.22 -7.06 2.21
6.29 -6.85 2.19
6.33 -6.63 2.15
6.33 -6.36 2.11
6.33 -6.11 2.07
11.37 -10.54 3.64
11.54 -10.28 3.63
11.70 -10.01 3.62
11.86 -9.74 3.61
8.21 -6.47 2.46
8.06 -6.09 2.37
8.16 -5.92 2.37
8.30 -5.77 2.37
8.31 -5.53 2.35
8.79 -5.60 2.45
12.87 -7.84 3.54
13.00 -7.56 3.53
13.13 -7.29 3.53
13.25 -7.01 3.52
13.37 -6.73 3.52
8.17 -3.91 2.13
7.96 -3.62 2.06
8.01 -3.45 2.05
8.12 -3.30 2.06
8.20 -3.15 2.06
8.25 -2.98 2.06
8.26 -2.79 2.05
14.25 -4.50 3.51
14.34 -4.22 3.51
14.42 -3.93 3.51
14.49 -3.64 3.51
14.56 -3.35 3.51
14.63 -3.05 3.51
14.69 -2.76 3.51
14.74 -2.46 3.51
14.60 -2.14 3.47
8.61 -1.09 2.04
8.09 -0.86 1.91
8.15 -0.70 1.92
7.90 -0.52 1.86
7.90 -0.36 1.86
7.98 -0.20 1.88
7.88 -0.04 1.85
8.10 0.12 1.90
8.23 0.29 1.93
14.35 0.79 3.38
14.44 1.09 3.40
14.74 1.41 3.48
14.92 1.73 3.53
14.90 2.03 3.53
14.90 2.34 3.55
14.89 2.64 3.55
14.84 2.94 3.56
14.79 3.24 3.56
14.74 3.54 3.56
14.68 3.84 3.57
14.61 4.14 3.57
14.53 4.43 3.57
14.45 4.73 3.57
14.37 5.02 3.58
14.29 5.32 3.58
14.26 5.64 3.60
14.24 5.96 3.63
14.22 6.29 3.65
14.19 6.62 3.68
14.10 6.93 3.69
13.99 7.23 3.70
13.85 7.51 3.70
13.71 7.79 3.71
13.57 8.08 3.71
8.75 5.45 2.42
8.55 5.57 2.40
8.26 5.62 2.35
8.21 5.83 2.37
7.97 5.90 2.33
8.15 6.29 2.42
7.92 6.37 2.39
12.29 10.30 3.77
12.11 10.57 3.78
11.90 10.81 3.78
6.30 5.96 2.04
8.62 8.50 2.85
6.32 6.48 2.13
6.19 6.61 2.13
6.30 7.00 2.21
10.22 11.83 3.67
9.99 12.04 3.68
9.75 12.25 3.68
6.34 8.30 2.46
6.19 8.45 2.46
6.19 8.81 2.53
6.19 9.20 2.61
6.19 9.61 2.69
6.19 10.05 2.77
6.19 10.52 2.87
6.19 11.02 2.97
6.19 11.56 3.08
6.19 12.13 3.20
6.19 12.76 3.33
6.19 13.44 3.48
5.94 13.62 3.49
5.94 14.40 3.66
5.65 14.51 3.66
5.36 14.62 3.66
5.06 14.73 3.66
4.77 14.83 3.66
4.47 14.92 3.66
4.17 15.01 3.66
3.87 15.09 3.66
3.56 15.16 3.66
3.26 15.23 3.66
2.95 15.29 3.66
2.64 15.35 3.66
2.34 15.44 3.67
2.08 15.88 3.76
1.76 15.92 3.76
1.44 15.95 3.76
1.12 15.97 3.76
0.80 15.99 3.76
0.48 16.01 3.76
0.16 16.01 3.76
-0.16 16.01 3.76
-0.48 16.01 3.76
-0.80 15.99 3.76
-1.12 15.97 3.76
-1.44 15.95 3.76
-1.76 15.92 3.76
-2.08 15.88 3.76
-2.40 15.83 3.76
-2.72 15.78 3.76
-3.04 15.72 3.76
-3.35 15.66 3.76
-3.66 15.59 3.76
-3.98 15.51 3.76
-4.29 15.43 3.76
-4.60 15.34 3.76
-4.90 15.24 3.76
-5.21 15.14 3.76
-5.51 15.04 3.76
-5.72 14.68 3.70
-5.94 14.40 3.66
-6.07 13.91 3.57
-6.45 13.99 3.62
-6.66 13.73 3.59
-7.08 13.87 3.66
-7.35 13.73 3.66
-7.63 13.58 3.66
-7.90 13.42 3.66
-8.17 13.26 3.66
-8.43 13.09 3.66
-8.69 12.92 3.66
-8.95 12.75 3.66
-5.99 8.18 2.38
-9.46 12.38 3.66
-9.70 12.18 3.66
-14.99 18.07 5.52
-15.72 18.19 5.65
-16.46 18.29 5.78
-9.70 10.36 3.34
-18.17 18.64 6.12
-19.16 18.87 6.32
-20.37 19.28 6.59
-9.71 8.83 3.08
-23.61 20.61 7.37
-26.31 22.05 8.07
-9.69 7.80 2.92
-31.33 24.19 9.30
-9.69 7.18 2.83
-26.53 18.83 7.64
-26.34 17.91 7.49
-26.55 17.29 7.45
-27.48 17.12 7.61
-47.20 -11.85 11.44
-43.02 -11.72 10.48
-39.43 -11.60 9.66
-38.04 -12.02 9.38
-25.23 -8.54 6.26
-23.12 -8.34 5.78
-20.85 -8.00 5.25
-19.50 -7.93 4.95
-18.43 -7.93 4.72
-17.46 -7.93 4.51
-16.57 -7.93 4.32
-15.75 -7.93 4.14
-14.99 -7.93 3.99
-14.29 -7.93 3.84
-13.64 -7.93 3.71
-13.03 -7.93 3.58
-12.46 -7.93 3.47
-11.92 -7.93 3.37
-11.42 -7.93 3.27
-9.69 -7.03 2.81
-10.49 -7.93 3.09
-10.07 -7.93 3.01
-9.68 -7.95 2.94
-11.39 -9.75 3.52
-11.19 -9.97 3.52
-10.99 -10.19 3.52
-10.79 -10.41 3.52
-10.57 -10.63 3.52
-10.36 -10.84 3.52
-10.14 -11.04 3.52
-9.92 -11.24 3.52
-9.75 -11.51 3.55
-9.75 -11.99 3.63
-9.58 -12.28 3.66
-9.33 -12.47 3.66
-9.08 -12.66 3.66
-8.82 -12.83 3.66
-8.56 -13.01 3.66
-8.30 -13.18 3.66
-8.03 -13.34 3.66
-7.76 -13.50 3.66
-7.49 -13.65 3.66
-7.22 -13.80 3.66
-6.94 -13.94 3.66
-6.66 -14.08 3.66
-6.37 -14.21 3.66
-6.09 -14.34 3.66
-5.80 -14.46 3.66
-5.66 -14.98 3.76
-5.36 -15.09 3.76
-5.06 -15.19 3.76
-4.75 -15.29 3.76
-4.44 -15.39 3.76
-4.13 -15.47 3.76
-3.82 -15.55 3.76
-3.51 -15.62 3.76
-3.19 -15.69 3.76
-2.88 -15.75 3.76
-2.56 -15.81 3.76
-2.24 -15.86 3.76
-1.92 -15.90 3.76
-1.60 -15.93 3.76
-1.28 -15.96 3.76
-0.96 -15.98 3.76
-0.64 -16.00 3.76
-0.32 -16.01 3.76
0.00 -14.54 3.76
0.29 -14.53 3.76
0.58 -14.52 3.76
0.87 -14.51 3.76
1.17 -14.49 3.76
1.46 -14.46 3.76
1.75 -14.43 3.76
2.04 -14.39 3.76
2.32 -14.35 3.76
2.54 -13.93 3.67
2.82 -13.85 3.66
3.10 -13.79 3.66
3.37 -13.73 3.66
2.65 -9.93 2.66
3.92 -13.58 3.66
4.19 -13.50 3.66
4.46 -13.41 3.66
4.73 -13.32 3.66
5.00 -13.22 3.66
5.26 -13.12 3.66
5.52 -13.01 3.66
5.78 -12.90 3.66
6.04 -12.78 3.66
6.19 -12.44 3.60
6.19 -11.84 3.46
6.19 -11.28 3.33
6.18 -10.74 3.21
6.18 -10.26 3.10
6.18 -9.82 3.00
6.19 -9.40 2.91
6.21 -9.03 2.84
6.21 -8.66 2.76
6.21 -8.30 2.68
6.22 -7.97 2.62
6.22 -7.65 2.55
6.22 -7.35 2.49
6.22 -7.06 2.44
6.29 -6.85 2.41
6.33 -6.63 2.37
6.33 -6.36 2.32
6.33 -6.11 2.28
10.36 -9.61 3.66
10.53 -9.38 3.65
10.69 -9.15 3.64
6.23 -5.11 2.09
6.23 -4.91 2.05
6.43 -4.86 2.09
8.26 -5.99 2.64
8.36 -5.81 2.64
8.51 -5.66 2.65
11.71 -7.46 3.59
11.84 -7.21 3.59
11.96 -6.96 3.58
12.08 -6.71 3.58
12.19 -6.45 3.57
12.30 -6.20 3.57
8.13 -3.89 2.33
8.23 -3.74 2.34
8.12 -3.50 2.29
8.11 -3.30 2.27
8.29 -3.18 2.30
8.31 -3.00 2.29
8.50 -2.87 2.32
13.01 -4.11 3.53
13.09 -3.85 3.53
13.17 -3.59 3.54
13.24 -3.32 3.53
13.31 -3.06 3.54
13.37 -2.79 3.54
13.42 -2.52 3.54
13.48 -2.25 3.54
13.53 -1.98 3.54
13.59 -1.71 3.55
8.18 -0.86 2.13
8.20 -0.70 2.13
8.17 -0.53 2.12
8.00 -0.36 2.07
8.04 -0.20 2.08
8.22 -0.04 2.13
7.99 0.12 2.07
8.28 0.29 2.15
13.69 0.76 3.55
13.77 1.04 3.57
13.78 1.32 3.58
13.78 1.60 3.59
12.70 1.73 3.32
12.35 1.94 3.24
12.61 2.24 3.32
12.12 2.40 3.20
13.69 3.00 3.63
13.63 3.28 3.63
13.57 3.55 3.63
13.50 3.82 3.63
13.43 4.10 3.64
13.35 4.37 3.64
13.31 4.65 3.65
13.29 4.95 3.67
13.27 5.24 3.69
13.24 5.54 3.72
13.21 5.84 3.74
13.17 6.15 3.76
13.11 6.44 3.78
12.99 6.71 3.79
12.85 6.97 3.78
12.70 7.22 3.78
12.54 7.47 3.78
8.69 5.41 2.65
8.47 5.51 2.62
8.34 5.67 2.61
6.32 4.48 2.01
6.19 4.58 1.99
6.19 4.78 2.02
11.60 9.33 3.85
6.30 5.28 2.13
11.12 9.71 3.82
10.83 9.84 3.79
10.56 9.99 3.76
8.76 8.63 3.18
6.32 6.48 2.34
6.19 6.61 2.34
6.30 7.00 2.44
6.20 7.18 2.46
6.19 7.46 2.51
6.19 7.77 2.57
6.19 8.10 2.64
6.19 8.45 2.71
6.19 8.81 2.79
6.19 9.20 2.87
6.19 9.61 2.96
6.19 10.05 3.06
6.19 10.52 3.16
6.19 11.02 3.27
6.19 11.56 3.39
6.19 12.13 3.53
6.17 12.72 3.66
5.91 12.84 3.66
5.65 12.96 3.66
5.39 13.07 3.66
5.13 13.17 3.66
4.86 13.27 3.66
4.60 13.37 3.66
4.33 13.46 3.66
4.06 13.54 3.66
3.78 13.62 3.66
3.51 13.69 3.66
3.23 13.76 3.66
2.96 13.82 3.66
2.68 13.88 3.66
2.40 13.93 3.66
2.18 14.37 3.76
1.89 14.41 3.76
1.60 14.45 3.76
1.31 14.48 3.76
1.02 14.50 3.76
0.73 14.52 3.76
0.44 14.53 3.76
0.15 14.53 3.76
-0.15 14.53 3.76
-0.44 14.53 3.76
-0.73 14.52 3.76
-1.02 14.50 3.76
-1.31 14.48 3.76
-1.60 14.45 3.76
-1.89 14.41 3.76
-2.18 14.37 3.76
-2.47 14.32 3.76
-2.76 14.27 3.76
-3.04 14.21 3.76
-3.33 14.15 3.76
-3.61 14.08 3.76
-3.89 14.00 3.76
-4.17 13.92 3.76
-4.45 13.84 3.76
-4.73 13.75 3.76
-5.00 13.65 3.76
-5.27 13.54 3.76
-5.55 13.44 3.76
-5.72 13.10 3.70
-5.91 12.84 3.66
-6.07 12.52 3.60
-6.36 12.46 3.62
-6.60 12.33 3.62
-6.69 11.92 3.54
-7.17 12.18 3.66
-7.41 12.04 3.66
-7.65 11.89 3.66
-7.89 11.73 3.66
-8.12 11.57 3.66
-5.98 8.16 2.62
-8.58 11.23 3.66
-8.81 11.06 3.66
-9.03 10.88 3.66
-9.24 10.70 3.66
-9.46 10.51 3.66
-9.67 10.32 3.66
-16.12 16.53 5.98
-9.70 9.56 3.53
-17.65 16.70 6.29
-18.51 16.83 6.48
-19.51 17.03 6.70
-20.69 17.34 6.99
-9.69 7.80 3.22
-23.44 18.10 7.67
-25.12 18.60 8.09
-26.07 18.50 8.28
-26.18 17.81 8.20
-9.70 6.32 3.00
-27.61 17.19 8.42
-9.69 5.77 2.92
-9.69 5.01 2.83
-47.30 7.42 12.40
-48.19 2.66 12.50
-46.76 -3.06 12.13
-46.13 -4.88 12.01
-44.40 -6.51 11.62
-44.89 -7.50 11.78
-43.02 -11.72 11.54
-39.43 -11.60 10.64
-38.04 -12.02 10.33
-34.28 -11.60 9.37
-32.96 -11.89 9.07
-22.12 -8.49 6.13
-20.44 -8.32 5.71
-18.57 -7.99 5.23
-17.46 -7.93 4.96
-16.57 -7.93 4.76
-9.69 -4.88 2.81
-9.69 -5.13 2.84
-14.29 -7.93 4.23
-12.48 -7.26 3.74
-12.33 -7.51 3.74
-9.69 -6.17 2.98
-11.92 -7.93 3.71
-11.42 -7.93 3.60
-10.94 -7.93 3.50
-10.49 -7.93 3.41
-10.07 -7.93 3.32
-9.68 -7.95 3.24
-10.34 -8.85 3.52
-10.16 -9.05 3.52
-9.98 -9.25 3.52
-9.79 -9.45 3.52
-9.75 -9.80 3.58
-9.75 -10.20 3.65
-9.56 -10.41 3.66
-9.35 -10.60 3.66
-9.14 -10.79 3.66
-8.92 -10.97 3.66
-8.70 -11.15 3.66
-8.47 -11.32 3.66
-8.24 -11.49 3.66
-8.01 -11.65 3.66
-7.77 -11.81 3.66
-7.53 -11.96 3.66
-7.29 -12.11 3.66
-7.05 -12.26 3.66
-6.80 -12.39 3.66
-6.55 -12.53 3.66
-6.30 -12.66 3.66
-6.04 -12.78 3.66
-5.78 -12.90 3.66
-5.68 -13.38 3.76
-5.41 -13.49 3.76
-5.14 -13.60 3.76
-4.86 -13.70 3.76
-4.59 -13.79 3.76
-4.31 -13.88 3.76
-4.03 -13.97 3.76
-3.75 -14.04 3.76
-3.47 -14.12 3.76
-3.18 -14.18 3.76
-2.90 -14.24 3.76
-2.61 -14.30 3.76
-2.32 -14.35 3.76
-2.04 -14.39 3.76
-1.75 -14.43 3.76
-1.46 -14.46 3.76
-1.17 -14.49 3.76
-0.87 -14.51 3.76
-0.58 -14.52 3.76
-0.29 -14.53 3.76
-0.00 -13.29 3.76
0.27 -13.29 3.76
0.53 -13.28 3.76
0.80 -13.27 3.76
1.07 -13.25 3.76
1.33 -13.23 3.76
1.60 -13.20 3.76
1.86 -13.16 3.76
2.13 -13.12 3.76
2.34 -12.80 3.68
2.58 -12.67 3.66
2.83 -12.62 3.66
3.08 -12.56 3.66
2.65 -9.93 2.91
3.59 -12.42 3.66
3.83 -12.35 3.66
4.08 -12.27 3.66
4.33 -12.18 3.66
4.57 -12.09 3.66
4.81 -12.00 3.66
5.05 -11.90 3.66
5.29 -11.80 3.66
5.53 -11.69 3.66
5.76 -11.58 3.66
5.99 -11.46 3.66
6.19 -11.28 3.64
6.18 -10.74 3.51
6.18 -10.26 3.39
6.18 -9.82 3.29
6.19 -9.40 3.19
6.21 -9.03 3.10
6.21 -8.66 3.02
6.21 -8.30 2.94
6.22 -7.97 2.86
6.22 -7.65 2.79
6.22 -7.35 2.73
6.22 -7.06 2.66
6.23 -6.78 2.61
6.23 -6.51 2.55
6.23 -6.26 2.50
6.31 -6.09 2.48
6.43 -5.96 2.48
9.69 -8.63 3.67
9.84 -8.42 3.67
6.23 -5.11 2.28
6.23 -4.91 2.24
6.43 -4.86 2.28
8.33 -6.04 2.91
8.43 -5.86 2.90
8.73 -5.81 2.97
6.34 -4.04 2.13
6.33 -3.86 2.10
6.33 -3.68 2.07
11.17 -6.20 3.62
11.28 -5.97 3.61
6.22 -3.13 1.97
6.22 -2.98 1.95
6.29 -2.86 1.96
8.18 -3.52 2.52
8.10 -3.30 2.48
8.36 -3.21 2.53
8.36 -3.02 2.52
12.06 -4.08 3.61
12.15 -3.84 3.61
12.23 -3.60 3.61
12.29 -3.35 3.61
12.36 -3.10 3.61
12.42 -2.85 3.61
12.48 -2.60 3.61
12.52 -2.35 3.61
12.56 -2.10 3.60
12.59 -1.85 3.60
12.62 -1.59 3.60
8.23 -0.87 2.34
8.22 -0.70 2.33
8.24 -0.54 2.34
8.10 -0.37 2.30
8.11 -0.20 2.30
8.28 -0.04 2.35
7.89 0.12 2.23
8.34 0.29 2.36
12.65 0.70 3.59
12.66 0.95 3.59
12.67 1.21 3.60
12.79 1.48 3.65
12.74 1.74 3.64
12.35 1.94 3.54
12.01 2.13 3.45
12.11 2.40 3.49
12.69 2.78 3.68
12.63 3.04 3.68
12.57 3.29 3.68
12.50 3.54 3.68
12.46 3.80 3.69
12.42 4.06 3.70
12.38 4.33 3.71
12.33 4.59 3.72
12.30 4.86 3.75
12.27 5.14 3.77
12.23 5.41 3.79
12.16 5.67 3.80
12.08 5.93 3.81
11.99 6.19 3.82
11.90 6.45 3.83
6.30 3.58 2.05
11.66 6.94 3.84
11.56 7.20 3.85
6.30 4.10 2.13
6.30 4.28 2.16
6.32 4.48 2.19
6.19 4.58 2.18
6.19 4.78 2.21
10.42 8.38 3.78
6.30 5.28 2.33
9.94 8.68 3.74
9.69 8.81 3.71
6.30 5.96 2.46
6.19 6.10 2.46
6.19 6.35 2.51
6.19 6.61 2.56
6.19 6.88 2.62
6.19 7.16 2.68
6.19 7.46 2.74
6.19 7.77 2.81
6.19 8.10 2.89
6.19 8.45 2.97
6.19 8.81 3.05
6.19 9.20 3.14
6.19 9.61 3.24
6.19 10.05 3.34
6.19 10.52 3.45
6.19 11.02 3.58
6.11 11.40 3.66
5.88 11.52 3.66
5.64 11.63 3.66
5.41 11.74 3.66
5.17 11.85 3.66
4.93 11.95 3.66
4.69 12.05 3.66
4.45 12.14 3.66
4.20 12.23 3.66
3.96 12.31 3.66
3.71 12.39 3.66
3.46 12.46 3.66
3.21 12.52 3.66
2.96 12.59 3.66
2.71 12.64 3.66
2.45 12.70 3.66
2.26 13.10 3.76
1.99 13.14 3.76
1.73 13.18 3.76
1.46 13.21 3.76
1.20 13.24 3.76
0.93 13.26 3.76
0.67 13.28 3.76
0.40 13.29 3.76
0.13 13.29 3.76
-0.13 13.29 3.76
-0.40 13.29 3.76
-0.67 13.28 3.76
-0.93 13.26 3.76
-1.20 13.24 3.76
-1.46 13.21 3.76
-1.73 13.18 3.76
-1.99 13.14 3.76
-2.26 13.10 3.76
-2.52 13.05 3.76
-2.78 13.00 3.76
-3.04 12.94 3.76
-3.30 12.88 3.76
-3.56 12.81 3.76
-3.82 12.73 3.76
-4.07 12.66 3.76
-4.32 12.57 3.76
-4.57 12.48 3.76
-4.82 12.39 3.76
-5.07 12.29 3.76
-5.32 12.18 3.76
-5.56 12.08 3.76
-5.72 11.78 3.71
-5.88 11.52 3.66
-6.07 11.33 3.64
-6.12 10.90 3.54
-6.49 11.02 3.62
-6.66 10.81 3.59
-6.77 10.51 3.54
-7.22 10.73 3.66
-7.43 10.58 3.66
-5.98 8.16 2.86
-7.85 10.27 3.66
-8.05 10.11 3.66
-8.26 9.95 3.66
-8.45 9.78 3.66
-8.65 9.61 3.66
-8.84 9.44 3.66
-9.03 9.26 3.66
-9.21 9.07 3.66
-9.39 8.89 3.66
-9.57 8.70 3.66
-17.07 14.90 6.42
-17.88 14.99 6.61
-9.69 7.80 3.52
-19.71 15.22 7.05
-20.83 15.43 7.34
-22.10 15.69 7.67
-23.47 15.96 8.04
-25.05 16.31 8.46
-26.61 16.57 8.87
-9.69 5.77 3.19
-29.87 16.98 9.73
-26.83 14.55 8.64
-9.71 5.01 3.09
-9.69 3.83 2.95
-9.69 2.54 2.84
-9.69 2.33 2.82
-9.69 2.13 2.81
-42.05 7.46 12.09
-43.78 5.08 12.48
-43.21 4.13 12.29
-43.85 3.31 12.45
-42.66 0.64 12.08
-46.20 -0.23 13.08
-46.82 -3.06 13.28
-41.86 -3.58 11.89
-41.54 -4.39 11.83
-45.19 -5.70 12.89
-42.22 -6.19 12.08
-42.82 -7.16 12.29
-43.23 -8.12 12.45
-9.71 -2.03 2.81
-9.69 -2.23 2.82
-9.69 -2.43 2.83
-9.69 -2.64 2.84
-39.42 -11.60 11.63
-38.03 -12.02 11.29
-34.28 -11.60 10.25
-32.96 -11.89 9.92
-32.96 -12.64 9.99
-21.41 -8.71 6.54
-9.69 -4.17 2.99
-18.27 -8.31 5.68
-16.69 -8.00 5.24
-9.70 -4.89 3.08
-9.71 -5.14 3.11
-11.55 -6.41 3.74
-11.42 -6.64 3.74
-11.28 -6.87 3.74
-9.69 -6.17 3.25
-11.00 -7.32 3.74
-10.86 -7.55 3.74
-10.94 -7.93 3.83
-10.49 -7.93 3.72
-10.07 -7.93 3.63
-9.68 -7.95 3.55
-9.75 -8.34 3.63
-9.66 -8.60 3.66
-9.48 -8.79 3.66
-9.30 -8.98 3.66
-9.12 -9.17 3.66
-8.93 -9.35 3.66
-8.74 -9.52 3.66
-8.55 -9.70 3.66
-8.36 -9.87 3.66
-8.16 -10.03 3.66
-7.95 -10.20 3.66
-7.75 -10.35 3.66
-7.54 -10.51 3.66
-7.32 -10.66 3.66
-7.11 -10.80 3.66
-6.89 -10.94 3.66
-6.67 -11.08 3.66
-6.45 -11.21 3.66
-6.22 -11.34 3.66
-5.99 -11.46 3.66
-5.76 -11.58 3.66
-5.68 -12.02 3.76
-5.44 -12.13 3.76
-5.20 -12.24 3.76
-4.95 -12.34 3.76
-4.70 -12.44 3.76
-4.45 -12.53 3.76
-4.20 -12.61 3.76
-3.94 -12.70 3.76
-3.69 -12.77 3.76
-3.43 -12.84 3.76
-3.17 -12.91 3.76
-2.91 -12.97 3.76
-2.65 -13.03 3.76
-2.39 -13.08 3.76
-2.13 -13.12 3.76
-1.86 -13.16 3.76
-1.60 -13.20 3.76
-1.33 -13.23 3.76
-1.07 -13.25 3.76
-0.80 -13.27 3.76
-0.53 -13.28 3.76
-0.27 -13.29 3.76
0.00 -12.24 3.76
0.25 -12.23 3.76
0.49 -12.23 3.76
0.74 -12.21 3.76
0.98 -12.20 3.76
1.23 -12.17 3.76
1.47 -12.15 3.76
1.71 -12.12 3.76
1.96 -12.08 3.76
2.20 -12.04 3.76
2.37 -11.66 3.66
2.61 -11.61 3.66
2.84 -11.56 3.66
2.65 -9.92 3.16
3.30 -11.43 3.66
3.53 -11.36 3.66
3.76 -11.29 3.66
3.98 -11.21 3.66
4.21 -11.13 3.66
4.43 -11.05 3.66
4.65 -10.95 3.66
4.87 -10.86 3.66
5.09 -10.76 3.66
5.30 -10.65 3.66
5.51 -10.55 3.66
5.72 -10.43 3.66
5.93 -10.32 3.66
6.14 -10.19 3.66
6.18 -9.82 3.57
6.19 -9.40 3.46
6.21 -9.03 3.37
6.21 -8.66 3.28
6.21 -8.30 3.19
6.22 -7.97 3.11
6.22 -7.65 3.03
6.22 -7.35 2.96
6.22 -7.06 2.89
6.23 -6.78 2.83
6.23 -6.51 2.77
6.23 -6.26 2.71
6.23 -6.01 2.66
6.23 -5.77 2.61
6.23 -5.55 2.56
6.23 -5.33 2.52
6.23 -5.11 2.48
6.23 -4.91 2.44
6.43 -4.86 2.48
8.17 -5.93 3.11
8.44 -5.86 3.16
9.92 -6.60 3.66
6.34 -4.04 2.31
6.33 -3.86 2.28
6.34 -3.69 2.25
6.34 -3.52 2.23
6.33 -3.35 2.20
6.23 -3.14 2.14
6.23 -2.98 2.12
6.29 -2.86 2.13
6.33 -2.73 2.12
8.31 -3.38 2.76
8.30 -3.19 2.74
6.32 -2.28 2.07
6.34 -2.14 2.06
11.37 -3.59 3.67
11.44 -3.37 3.67
11.50 -3.13 3.67
11.55 -2.90 3.66
11.60 -2.66 3.66
11.64 -2.43 3.66
11.68 -2.19 3.65
6.25 -1.05 1.95
6.27 -0.92 1.95
11.77 -1.48 3.65
11.80 -1.25 3.65
8.17 -0.70 2.52
8.34 -0.54 2.57
7.97 -0.36 2.45
8.07 -0.20 2.48
8.17 -0.04 2.51
8.38 0.13 2.58
11.73 0.41 3.61
11.74 0.65 3.62
11.74 0.89 3.62
11.74 1.12 3.63
11.73 1.36 3.63
6.28 0.86 1.95
6.26 0.98 1.95
6.24 1.11 1.95
11.83 2.35 3.71
11.80 2.59 3.72
11.75 2.82 3.72
11.72 3.07 3.73
11.69 3.31 3.74
11.65 3.55 3.75
11.61 3.80 3.76
11.56 4.04 3.77
11.52 4.29 3.78
11.46 4.53 3.79
11.39 4.77 3.80
11.30 5.00 3.80
11.20 5.23 3.80
6.30 3.10 2.16
10.99 5.68 3.81
10.88 5.90 3.81
10.73 6.10 3.80
10.57 6.29 3.78
10.40 6.48 3.77
6.30 4.10 2.31
6.30 4.28 2.34
6.32 4.48 2.38
6.19 4.58 2.37
6.19 4.78 2.41
6.22 5.01 2.46
6.19 5.19 2.48
6.19 5.40 2.53
6.19 5.63 2.57
6.19 5.86 2.62
6.19 6.10 2.67
6.19 6.35 2.73
6.19 6.61 2.79
6.19 6.88 2.85
6.19 7.16 2.91
6.19 7.46 2.98
6.19 7.77 3.06
6.19 8.10 3.14
6.19 8.45 3.22
6.19 8.81 3.31
6.19 9.20 3.41
6.19 9.61 3.52
6.19 10.05 3.63
6.04 10.26 3.66
5.83 10.37 3.66
5.62 10.49 3.66
5.41 10.60 3.66
5.19 10.71 3.66
4.98 10.81 3.66
4.76 10.91 3.66
4.54 11.00 3.66
4.32 11.09 3.66
4.10 11.17 3.66
3.87 11.25 3.66
3.64 11.33 3.66
3.42 11.40 3.66
3.19 11.47 3.66
2.95 11.53 3.66
2.72 11.58 3.66
2.49 11.64 3.66
2.32 12.01 3.76
2.08 12.06 3.76
1.84 12.10 3.76
1.59 12.13 3.76
1.35 12.16 3.76
1.10 12.19 3.76
0.86 12.21 3.76
0.61 12.22 3.76
0.37 12.23 3.76
0.12 12.24 3.76
-0.12 12.24 3.76
-0.37 12.23 3.76
-0.61 12.22 3.76
-0.86 12.21 3.76
-1.10 12.19 3.76
-1.35 12.16 3.76
-1.59 12.13 3.76
-1.84 12.10 3.76
-2.08 12.06 3.76
-2.32 12.01 3.76
-2.56 11.97 3.76
-2.80 11.91 3.76
-3.04 11.85 3.76
-3.28 11.79 3.76
-3.51 11.72 3.76
-3.75 11.65 3.76
-3.98 11.57 3.76
-4.21 11.49 3.76
-4.44 11.40 3.76
-4.67 11.31 3.76
-4.89 11.21 3.76
-5.12 11.11 3.76
-5.34 11.01 3.76
-5.56 10.90 3.76
-5.71 10.67 3.72
-5.83 10.38 3.66
-6.04 10.26 3.66
-6.15 9.99 3.61
-6.43 9.99 3.65
-6.64 9.87 3.66
-6.84 9.74 3.66
-5.98 8.16 3.11
-7.22 9.46 3.66
-7.41 9.31 3.66
-7.60 9.16 3.66
-7.78 9.00 3.66
-7.96 8.85 3.66
-8.14 8.69 3.66
-8.31 8.52 3.66
-8.48 8.35 3.66
-8.64 8.18 3.66
-8.81 8.00 3.66
-8.97 7.83 3.66
-9.12 7.64 3.66
-9.27 7.46 3.66
-9.42 7.27 3.66
-9.56 7.08 3.66
-9.70 6.89 3.66
-19.74 13.43 7.34
-20.79 13.53 7.63
-22.03 13.72 7.98
-9.69 5.77 3.47
-9.70 5.51 3.43
-26.34 14.28 9.21
-19.29 9.96 6.68
-29.66 14.57 10.16
-9.70 4.53 3.29
-33.90 15.00 11.40
-37.63 15.75 12.55
-9.69 3.83 3.21
-33.93 11.86 11.06
-34.22 11.20 11.08
-9.70 2.96 3.12
-9.70 2.54 3.08
-39.11 8.57 12.32
-46.69 9.26 14.64
-46.31 8.22 14.47
-46.11 7.23 14.36
-9.70 1.32 3.01
-45.99 5.33 14.24
-46.00 4.40 14.21
-46.05 3.47 14.20
-40.00 2.21 12.32
-9.70 0.34 2.99
-41.99 0.63 12.92
-45.87 -0.23 14.11
-45.70 -1.15 14.06
-45.47 -2.05 14.00
-9.70 -0.63 2.99
-40.16 -3.43 12.40
-40.19 -4.25 12.43
-40.05 -5.05 12.42
-40.64 -5.96 12.63
-9.70 -1.62 3.03
-42.79 -8.04 13.39
-40.71 -8.50 12.79
-9.69 -2.23 3.06
-39.46 -9.90 12.51
-40.60 -11.06 12.94
-38.63 -11.36 12.38
-9.70 -3.07 3.13
-9.70 -3.28 3.15
-32.96 -11.89 10.78
-32.96 -12.64 10.86
-28.50 -11.60 9.47
-9.69 -4.17 3.25
-18.89 -8.59 6.38
-12.01 -5.75 4.10
-10.86 -5.47 3.74
-10.78 -5.70 3.75
-10.69 -5.93 3.76
-10.59 -6.16 3.77
-10.49 -6.39 3.78
-9.69 -6.17 3.54
-10.28 -6.84 3.80
-10.22 -7.10 3.83
-9.63 -6.99 3.66
-9.49 -7.18 3.66
-9.35 -7.37 3.66
-9.20 -7.55 3.66
-9.04 -7.74 3.66
-8.89 -7.92 3.66
-8.73 -8.09 3.66
-8.56 -8.27 3.66
-8.39 -8.44 3.66
-8.22 -8.60 3.66
-8.05 -8.77 3.66
-7.87 -8.93 3.66
-7.69 -9.08 3.66
-7.51 -9.23 3.66
-7.32 -9.38 3.66
-7.13 -9.53 3.66
-6.94 -9.67 3.66
-6.74 -9.81 3.66
-6.54 -9.94 3.66
-6.34 -10.07 3.66
-6.14 -10.20 3.66
-5.93 -10.32 3.66
-5.73 -10.44 3.66
-5.67 -10.84 3.76
-5.45 -10.95 3.76
-5.23 -11.06 3.76
-5.01 -11.16 3.76
-4.78 -11.26 3.76
-4.55 -11.36 3.76
-4.33 -11.45 3.76
-4.10 -11.53 3.76
-3.86 -11.61 3.76
-3.63 -11.69 3.76
-3.39 -11.76 3.76
-3.16 -11.82 3.76
-2.92 -11.88 3.76
-2.68 -11.94 3.76
-2.44 -11.99 3.76
-2.20 -12.04 3.76
-1.96 -12.08 3.76
-1.71 -12.12 3.76
-1.47 -12.15 3.76
-1.23 -12.17 3.76
-0.98 -12.20 3.76
-0.74 -12.21 3.76
-0.49 -12.23 3.76
-0.25 -12.23 3.76
-0.00 -11.32 3.76
0.23 -11.32 3.76
0.45 -11.31 3.76
0.68 -11.30 3.76
0.91 -11.29 3.76
1.13 -11.26 3.76
1.36 -11.24 3.76
1.59 -11.21 3.76
1.81 -11.18 3.76
2.03 -11.14 3.76
2.26 -11.09 3.76
2.41 -10.74 3.66
2.63 -10.69 3.66
2.65 -9.92 3.41
3.05 -10.58 3.66
3.27 -10.52 3.66
3.48 -10.45 3.66
3.69 -10.38 3.66
3.89 -10.30 3.66
4.10 -10.22 3.66
4.30 -10.14 3.66
4.51 -10.05 3.66
4.71 -9.95 3.66
4.91 -9.86 3.66
5.10 -9.76 3.66
5.30 -9.65 3.66
5.49 -9.55 3.66
5.68 -9.43 3.66
5.87 -9.32 3.66
6.05 -9.20 3.66
6.21 -9.03 3.64
6.21 -8.66 3.54
6.21 -8.30 3.45
6.22 -7.97 3.36
6.22 -7.65 3.28
6.22 -7.35 3.20
6.22 -7.06 3.13
6.23 -6.78 3.06
6.23 -6.51 2.99
6.23 -6.26 2.93
6.23 -6.01 2.88
6.23 -5.77 2.82
6.23 -5.55 2.77
6.23 -5.33 2.72
6.23 -5.11 2.68
6.23 -4.91 2.63
6.23 -4.71 2.59
6.23 -4.51 2.56
6.23 -4.33 2.52
6.23 -4.14 2.49
6.30 -4.01 2.48
6.33 -3.86 2.46
6.34 -3.69 2.44
6.34 -3.52 2.41
6.33 -3.35 2.38
6.23 -3.14 2.32
6.23 -2.98 2.29
6.29 -2.86 2.30
6.33 -2.73 2.29
8.45 -3.44 3.03
8.42 -3.23 3.00
6.33 -2.28 2.24
10.48 -3.54 3.68
10.54 -3.33 3.68
6.33 -1.86 2.19
10.67 -2.91 3.67
10.72 -2.69 3.67
6.34 -1.46 2.16
10.82 -2.26 3.67
6.33 -1.19 2.14
6.23 -1.04 2.10
6.23 -0.91 2.09
6.34 -0.80 2.12
10.99 -1.16 3.67
6.33 -0.54 2.11
8.35 -0.55 2.78
6.33 -0.29 2.11
8.26 -0.21 2.75
6.34 -0.03 2.11
8.44 0.13 2.81
6.33 0.22 2.11
10.93 0.60 3.64
6.33 0.48 2.11
10.91 1.04 3.64
6.34 0.73 2.12
6.23 0.85 2.09
6.23 0.98 2.09
6.23 1.10 2.10
10.75 2.13 3.64
10.70 2.34 3.64
10.88 2.62 3.72
10.85 2.84 3.73
10.80 3.06 3.73
10.76 3.28 3.74
10.70 3.50 3.74
10.65 3.72 3.75
10.56 3.93 3.75
10.47 4.14 3.74
10.38 4.34 3.74
10.28 4.55 3.74
10.19 4.75 3.74
6.30 3.10 2.33
9.99 5.16 3.74
9.85 5.34 3.73
9.71 5.52 3.71
6.35 3.78 2.46
6.27 3.91 2.46
6.19 4.03 2.46
6.19 4.21 2.49
6.19 4.39 2.52
6.19 4.58 2.56
6.19 4.78 2.60
6.19 4.98 2.64
6.19 5.19 2.68
6.19 5.40 2.73
6.19 5.63 2.78
6.19 5.86 2.83
6.19 6.10 2.89
6.19 6.35 2.95
6.19 6.61 3.01
6.19 6.88 3.08
6.19 7.16 3.15
6.19 7.46 3.22
6.19 7.77 3.30
6.19 8.10 3.39
6.19 8.45 3.48
6.19 8.81 3.58
6.15 9.14 3.66
5.96 9.26 3.66
5.77 9.38 3.66
5.59 9.49 3.66
5.39 9.60 3.66
5.20 9.71 3.66
5.00 9.81 3.66
4.81 9.91 3.66
4.61 10.00 3.66
4.40 10.09 3.66
4.20 10.18 3.66
4.00 10.26 3.66
3.79 10.34 3.66
3.58 10.41 3.66
3.37 10.48 3.66
3.16 10.55 3.66
2.95 10.61 3.66
2.73 10.67 3.66
2.54 10.80 3.69
2.33 10.90 3.71
2.15 11.12 3.76
1.92 11.16 3.76
1.70 11.19 3.76
1.47 11.23 3.76
1.25 11.25 3.76
1.02 11.28 3.76
0.79 11.29 3.76
0.57 11.31 3.76
0.34 11.32 3.76
0.11 11.32 3.76
-0.11 11.32 3.76
-0.34 11.32 3.76
-0.57 11.31 3.76
-0.79 11.29 3.76
-1.02 11.28 3.76
-1.25 11.25 3.76
-1.47 11.23 3.76
-1.70 11.19 3.76
-1.92 11.16 3.76
-2.15 11.12 3.76
-2.37 11.07 3.76
-2.59 11.02 3.76
-2.81 10.97 3.76
-3.03 10.91 3.76
-3.25 10.85 3.76
-3.47 10.78 3.76
-3.68 10.71 3.76
-3.90 10.63 3.76
-4.11 10.55 3.76
-4.32 10.47 3.76
-4.53 10.38 3.76
-4.74 10.28 3.76
-4.94 10.19 3.76
-5.15 10.09 3.76
-5.35 9.98 3.76
-5.55 9.87 3.76
-5.71 9.71 3.75
-5.77 9.38 3.66
-5.96 9.26 3.66
-6.15 9.14 3.66
-6.33 9.01 3.66
-5.98 8.15 3.36
-6.69 8.75 3.66
-6.86 8.61 3.66
-7.03 8.47 3.66
-7.20 8.33 3.66
-7.37 8.19 3.66
-7.53 8.04 3.66
-7.69 7.88 3.66
-7.84 7.73 3.66
-8.00 7.57 3.66
-8.15 7.41 3.66
-8.30 7.24 3.66
-8.44 7.07 3.66
-8.58 6.90 3.66
-8.72 6.73 3.66
-8.85 6.55 3.66
-8.98 6.37 3.66
-9.11 6.19 3.66
-9.23 6.01 3.66
-9.35 5.82 3.66
-9.46 5.63 3.66
-9.57 5.44 3.66
-9.68 5.25 3.66
-18.48 9.55 6.91
-18.38 9.03 6.81
-18.58 8.67 6.82
-9.70 4.29 3.53
-20.07 8.40 7.23
-9.69 3.83 3.46
-9.70 3.61 3.44
-33.63 11.75 11.84
-34.03 11.13 11.90
-24.09 7.35 8.37
-33.68 9.54 11.64
-33.76 8.83 11.60
-34.47 8.29 11.79
-38.70 8.48 13.17
-43.97 8.72 14.90
-43.72 7.76 14.76
-43.62 6.84 14.68
-43.57 5.94 14.62
-43.50 5.04 14.56
-43.44 4.15 14.50
-43.36 3.27 14.45
-38.88 2.15 12.94
-43.18 1.52 14.36
-43.07 0.65 14.32
-42.80 -0.21 14.23
-42.50 -1.07 14.13
-42.16 -1.91 14.03
-41.83 -2.73 13.94
-36.89 -3.15 12.31
-9.70 -1.03 3.24
