ply
format ascii 1.0
element vertex 2888
property float32 x
property float32 y
property float32 z
end_header
-9.29 -23.30 2.39
-8.86 -23.57 2.39
-8.42 -23.83 2.39
-7.97 -24.09 2.39
-7.51 -24.34 2.39
-7.05 -24.58 2.39
-6.58 -24.81 2.39
-6.28 -25.74 2.46
-5.86 -26.33 2.49
-5.36 -26.55 2.49
-4.84 -26.75 2.49
-4.32 -26.95 2.49
-3.79 -27.13 2.49
-3.26 -27.31 2.49
-2.72 -27.47 2.49
-2.18 -27.63 2.49
-1.63 -27.77 2.49
-1.08 -27.90 2.49
-0.52 -28.03 2.49
0.04 -22.39 2.49
0.49 -22.45 2.49
0.95 -22.51 2.49
1.40 -22.55 2.49
1.84 -22.35 2.47
2.22 -21.67 2.39
2.66 -21.68 2.39
3.11 -21.69 2.39
3.55 -21.68 2.39
4.00 -21.67 2.39
4.44 -21.64 2.39
4.89 -21.61 2.39
2.55 -10.29 1.14
5.78 -21.51 2.39
6.81 -23.45 2.61
7.46 -23.88 2.67
8.22 -24.58 2.76
6.92 -19.40 2.19
8.90 -23.45 2.66
9.28 -23.03 2.63
9.53 -22.35 2.56
9.74 -21.63 2.50
10.03 -21.13 2.46
10.37 -20.77 2.43
10.84 -20.67 2.44
11.24 -20.42 2.43
11.50 -19.94 2.40
11.88 -19.68 2.39
12.13 -19.21 2.36
12.22 -18.52 2.30
12.31 -17.87 2.24
12.50 -17.39 2.21
12.66 -16.88 2.17
12.81 -16.39 2.14
13.01 -15.98 2.11
13.21 -15.57 2.09
13.38 -15.14 2.07
13.58 -14.77 2.05
13.95 -14.57 2.06
14.32 -14.37 2.07
14.65 -14.13 2.07
14.82 -13.73 2.05
7.45 -6.63 1.01
15.07 -12.88 2.01
15.19 -12.46 1.99
15.23 -11.99 1.96
15.04 -11.36 1.90
14.77 -10.70 1.84
14.26 -9.90 1.75
14.06 -9.35 1.70
13.89 -8.84 1.66
13.68 -8.32 1.61
13.48 -7.84 1.57
13.30 -7.38 1.53
13.13 -6.95 1.50
12.97 -6.53 1.46
12.82 -6.14 1.43
12.66 -5.75 1.40
12.57 -5.41 1.38
12.47 -5.07 1.35
12.37 -4.74 1.33
12.27 -4.43 1.31
12.17 -4.12 1.29
12.07 -3.82 1.28
12.03 -3.54 1.26
12.04 -3.28 1.26
12.05 -3.03 1.25
12.06 -2.77 1.25
12.07 -2.52 1.25
12.07 -2.27 1.24
12.08 -2.02 1.24
12.09 -1.78 1.24
12.08 -1.53 1.23
12.04 -1.28 1.23
12.01 -1.03 1.22
11.97 -0.79 1.22
11.93 -0.55 1.22
11.89 -0.31 1.21
11.85 -0.07 1.21
11.81 0.17 1.21
11.77 0.40 1.21
11.81 0.64 1.21
11.85 0.88 1.22
11.90 1.13 1.23
11.94 1.37 1.24
7.47 1.01 0.78
7.33 1.14 0.77
11.78 2.08 1.24
11.73 2.31 1.24
11.70 2.55 1.25
11.71 2.80 1.26
11.73 3.05 1.27
11.74 3.31 1.28
11.75 3.57 1.29
11.75 3.83 1.30
11.75 4.09 1.31
11.74 4.35 1.32
11.72 4.62 1.34
11.69 4.87 1.35
11.66 5.14 1.36
11.62 5.40 1.37
11.58 5.67 1.38
11.55 5.94 1.39
11.56 6.25 1.41
11.57 6.55 1.44
11.56 6.86 1.45
11.55 7.17 1.48
11.53 7.48 1.50
11.52 7.81 1.52
11.82 8.36 1.58
11.97 8.83 1.63
11.94 9.18 1.66
11.90 9.54 1.68
11.90 9.94 1.72
11.93 10.37 1.76
11.95 10.83 1.80
11.99 11.30 1.84
11.97 11.74 1.88
11.80 12.05 1.90
11.62 12.36 1.91
11.46 12.68 1.93
11.33 13.06 1.96
11.21 13.45 1.99
11.06 13.83 2.02
7.76 10.12 1.46
7.58 10.31 1.47
7.40 10.50 1.48
10.21 15.12 2.11
10.03 15.50 2.14
9.83 15.89 2.17
9.75 16.48 2.23
9.54 16.90 2.27
9.23 17.14 2.29
8.93 17.41 2.30
8.62 17.68 2.32
8.32 17.96 2.35
8.00 18.24 2.37
7.69 18.52 2.39
7.36 18.79 2.41
7.13 19.32 2.47
6.50 18.78 2.39
6.11 18.85 2.39
5.71 18.91 2.39
5.31 18.97 2.39
4.92 19.01 2.39
4.52 19.05 2.39
4.12 19.08 2.39
3.73 19.11 2.39
3.34 19.12 2.39
2.94 19.13 2.39
2.66 19.96 2.49
2.25 19.95 2.49
1.85 19.94 2.49
1.44 19.91 2.49
1.04 19.88 2.49
0.64 19.85 2.49
0.24 19.80 2.49
-0.16 19.75 2.49
-0.56 19.69 2.49
-0.95 19.62 2.49
-1.34 19.55 2.49
-1.73 19.47 2.49
-2.11 19.38 2.49
-2.50 19.29 2.49
-2.88 19.19 2.49
-3.25 19.08 2.49
-3.63 18.97 2.49
-4.00 18.85 2.49
-4.37 18.72 2.49
-4.73 18.59 2.49
-5.09 18.45 2.49
-5.38 18.07 2.46
-5.59 17.46 2.40
-5.90 17.25 2.39
-6.23 17.09 2.39
-6.56 16.93 2.39
-6.89 16.76 2.39
-7.21 16.59 2.39
-7.53 16.41 2.39
-7.84 16.23 2.39
-8.15 16.04 2.39
-5.83 10.92 1.65
-8.76 15.64 2.39
-9.06 15.44 2.39
-9.31 15.15 2.38
-9.36 14.58 2.32
-9.42 14.04 2.27
-9.48 13.53 2.22
-9.56 13.07 2.18
-9.60 12.59 2.13
-9.64 12.13 2.09
-9.67 11.68 2.05
-9.69 11.23 2.01
-9.70 10.80 1.97
-9.73 10.40 1.93
-9.75 10.02 1.90
-9.78 9.65 1.87
-9.81 9.29 1.84
-9.83 8.95 1.81
-9.85 8.61 1.78
-9.87 8.28 1.76
-9.89 7.97 1.73
-9.91 7.66 1.71
-9.95 7.37 1.69
-10.00 7.10 1.68
-10.04 6.83 1.66
-10.05 6.55 1.64
-10.07 6.28 1.62
-10.09 6.01 1.61
-10.11 5.75 1.59
-10.21 5.54 1.59
-10.37 5.36 1.60
-10.53 5.18 1.61
-10.69 4.99 1.62
-10.76 4.76 1.61
-10.79 4.52 1.60
-10.87 4.30 1.60
-11.20 4.17 1.64
-11.48 4.01 1.67
-11.57 3.78 1.67
-11.66 3.55 1.67
-11.75 3.32 1.67
-11.79 3.08 1.67
-11.80 2.83 1.66
-11.81 2.58 1.65
-11.82 2.34 1.65
-11.82 2.09 1.64
-11.83 1.85 1.63
-11.84 1.61 1.63
-11.85 1.36 1.62
-11.89 1.13 1.63
-11.98 0.89 1.63
-11.98 0.65 1.63
-11.99 0.41 1.63
-11.99 0.17 1.63
-12.00 -0.07 1.62
-12.00 -0.31 1.62
-12.01 -0.56 1.62
-12.02 -0.80 1.63
-12.04 -1.04 1.63
-12.04 -1.29 1.63
-12.03 -1.53 1.63
-12.02 -1.78 1.63
-12.01 -2.02 1.63
-10.83 -2.05 1.48
-10.53 -2.21 1.44
-10.24 -2.37 1.40
-10.55 -2.66 1.45
-12.02 -3.29 1.66
-12.02 -3.55 1.66
-12.02 -3.82 1.67
-12.02 -4.09 1.68
-12.02 -4.36 1.69
-12.03 -4.64 1.70
-12.01 -4.91 1.71
-11.98 -5.18 1.71
-12.01 -5.48 1.73
-12.04 -5.79 1.74
-12.06 -6.11 1.76
-12.09 -6.43 1.78
-12.12 -6.76 1.80
-12.12 -7.08 1.82
-12.12 -7.41 1.84
-12.13 -7.76 1.86
-12.15 -8.12 1.88
-12.16 -8.48 1.90
-12.16 -8.85 1.92
-12.10 -9.19 1.94
-12.09 -9.57 1.96
-12.09 -9.97 1.99
-12.09 -10.39 2.02
-12.09 -10.82 2.05
-12.10 -11.27 2.08
-12.08 -11.71 2.11
-12.06 -12.17 2.15
-12.03 -12.64 2.18
-12.01 -13.14 2.22
-12.01 -13.68 2.26
-11.98 -14.21 2.30
-11.94 -14.76 2.35
-11.95 -15.39 2.40
-10.79 -14.48 2.22
-10.43 -14.61 2.20
-11.58 -16.93 2.50
-11.41 -17.41 2.53
-11.22 -17.91 2.57
-11.03 -18.40 2.60
-9.84 -17.20 2.39
-9.52 -17.45 2.39
-9.20 -17.69 2.39
-8.87 -17.92 2.39
-8.53 -18.15 2.39
-8.19 -18.38 2.39
-7.85 -18.60 2.39
-7.50 -18.81 2.39
-7.14 -19.01 2.39
-6.78 -19.21 2.39
-6.41 -19.40 2.39
-6.16 -19.99 2.44
-5.90 -20.62 2.49
-5.51 -20.80 2.49
-5.10 -20.97 2.49
-4.70 -21.13 2.49
-4.29 -21.29 2.49
-3.87 -21.44 2.49
-3.45 -21.58 2.49
-3.03 -21.71 2.49
-2.60 -21.83 2.49
-2.17 -21.95 2.49
-1.73 -22.06 2.49
-1.29 -22.15 2.49
-0.85 -22.24 2.49
-0.40 -22.32 2.49
0.04 -18.58 2.49
0.42 -18.62 2.49
0.79 -18.66 2.49
1.17 -18.68 2.49
1.55 -18.70 2.49
1.92 -18.62 2.48
2.21 -17.94 2.39
2.58 -17.93 2.39
2.94 -17.92 2.39
3.31 -17.90 2.39
3.67 -17.87 2.39
4.04 -17.83 2.39
2.54 -10.25 1.38
4.77 -17.74 2.39
5.14 -17.67 2.39
5.50 -17.61 2.39
5.87 -17.53 2.39
6.93 -19.39 2.66
8.15 -21.44 2.95
8.54 -21.19 2.94
8.77 -20.56 2.87
9.06 -20.12 2.83
9.38 -19.76 2.80
9.61 -19.24 2.74
9.98 -19.02 2.74
10.41 -18.91 2.74
10.78 -18.68 2.74
11.10 -18.37 2.72
11.22 -17.77 2.66
11.39 -17.26 2.61
11.57 -16.78 2.57
11.76 -16.36 2.54
11.96 -15.94 2.51
11.88 -15.19 2.42
12.19 -14.96 2.42
12.51 -14.75 2.42
12.70 -14.37 2.40
12.91 -14.04 2.38
13.26 -13.85 2.39
13.43 -13.47 2.37
13.58 -13.09 2.35
13.85 -12.82 2.35
7.45 -6.62 1.24
14.64 -12.51 2.39
14.76 -12.11 2.37
14.71 -11.58 2.32
14.12 -10.66 2.19
13.51 -9.78 2.07
13.39 -9.29 2.02
13.28 -8.83 1.97
13.16 -8.38 1.93
13.02 -7.92 1.88
12.86 -7.47 1.84
12.70 -7.05 1.79
12.54 -6.63 1.75
12.39 -6.24 1.71
12.24 -5.86 1.67
12.15 -5.52 1.65
12.12 -5.22 1.63
12.06 -4.91 1.61
11.97 -4.59 1.58
11.88 -4.29 1.56
11.79 -3.99 1.54
11.70 -3.70 1.52
11.70 -3.44 1.51
11.71 -3.19 1.50
11.72 -2.95 1.50
11.74 -2.70 1.49
11.75 -2.46 1.49
11.75 -2.21 1.48
11.76 -1.97 1.48
11.77 -1.73 1.48
11.75 -1.49 1.47
11.72 -1.25 1.47
11.69 -1.01 1.46
11.66 -0.77 1.45
11.62 -0.53 1.45
11.59 -0.30 1.45
11.55 -0.07 1.44
11.51 0.16 1.44
11.47 0.39 1.44
11.50 0.62 1.44
11.54 0.86 1.45
11.58 1.09 1.46
11.63 1.33 1.47
7.47 1.01 0.95
7.32 1.14 0.94
11.59 2.04 1.49
11.53 2.27 1.49
11.49 2.50 1.49
11.51 2.75 1.50
11.52 3.00 1.52
11.53 3.25 1.53
11.54 3.50 1.54
11.55 3.76 1.56
11.55 4.02 1.57
11.55 4.28 1.58
11.53 4.54 1.60
11.50 4.79 1.61
11.46 5.05 1.62
11.43 5.31 1.63
11.39 5.57 1.65
11.35 5.84 1.66
11.31 6.11 1.68
11.31 6.40 1.70
11.30 6.70 1.72
11.29 7.00 1.75
11.27 7.31 1.77
11.26 7.62 1.79
11.24 7.94 1.82
11.22 8.27 1.85
11.38 8.75 1.91
11.34 9.09 1.94
11.30 9.43 1.97
11.26 9.79 2.00
11.21 10.15 2.03
11.17 10.53 2.07
11.18 10.97 2.11
11.20 11.43 2.16
11.21 11.91 2.22
11.21 12.41 2.27
11.09 12.77 2.31
10.88 13.06 2.32
10.67 13.34 2.34
7.76 10.10 1.75
7.58 10.29 1.76
7.40 10.48 1.77
9.80 14.49 2.42
9.59 14.81 2.45
9.40 15.17 2.48
9.20 15.54 2.52
8.92 15.79 2.54
8.59 15.93 2.54
8.25 16.07 2.54
7.91 16.20 2.54
7.57 16.33 2.55
7.19 16.36 2.53
6.46 15.54 2.39
6.13 15.62 2.39
5.80 15.70 2.39
5.47 15.78 2.39
5.14 15.84 2.39
4.81 15.90 2.39
4.48 15.95 2.39
4.14 16.00 2.39
3.81 16.04 2.39
3.48 16.07 2.39
3.15 16.10 2.39
2.84 16.23 2.41
2.60 16.83 2.49
2.25 16.84 2.49
1.91 16.84 2.49
1.57 16.84 2.49
1.22 16.82 2.49
0.88 16.81 2.49
0.55 16.78 2.49
0.21 16.75 2.49
-0.13 16.71 2.49
-0.46 16.67 2.49
-0.80 16.62 2.49
-1.13 16.57 2.49
-1.46 16.50 2.49
-1.79 16.44 2.49
-2.11 16.36 2.49
-2.43 16.28 2.49
-2.76 16.20 2.49
-3.07 16.11 2.49
-3.39 16.01 2.49
-3.70 15.91 2.49
-4.02 15.80 2.49
-4.32 15.69 2.49
-4.63 15.57 2.49
-4.93 15.44 2.49
-5.23 15.31 2.49
-5.45 14.94 2.46
-5.58 14.42 2.39
-5.86 14.28 2.39
-6.14 14.13 2.39
-6.41 13.99 2.39
-6.68 13.83 2.39
-6.95 13.67 2.39
-5.83 10.92 1.93
-7.47 13.34 2.39
-7.73 13.17 2.39
-7.98 13.00 2.39
-8.23 12.82 2.39
-8.47 12.63 2.39
-8.72 12.45 2.39
-8.95 12.25 2.39
-9.19 12.06 2.39
-9.42 11.86 2.39
-9.48 11.45 2.35
-9.49 11.01 2.30
-9.53 10.61 2.26
-9.56 10.23 2.22
-9.59 9.85 2.18
-9.62 9.49 2.15
-9.65 9.14 2.11
-9.67 8.80 2.08
-9.70 8.48 2.05
-9.72 8.16 2.02
-9.74 7.85 1.99
-9.76 7.54 1.97
-9.79 7.26 1.95
-9.85 7.00 1.93
-9.87 6.72 1.91
-9.89 6.45 1.89
-9.91 6.18 1.87
-9.93 5.92 1.85
-9.95 5.66 1.83
-10.01 5.43 1.82
-10.17 5.25 1.83
-10.33 5.07 1.84
-10.45 4.88 1.85
-10.49 4.64 1.84
-10.52 4.40 1.83
-10.55 4.17 1.82
-10.73 3.99 1.83
-11.04 3.86 1.87
-11.37 3.72 1.91
-11.53 3.51 1.93
-11.62 3.29 1.93
-11.68 3.05 1.93
-11.69 2.80 1.92
-11.70 2.56 1.91
-11.71 2.31 1.91
-11.72 2.07 1.90
-11.73 1.83 1.89
-11.73 1.59 1.89
-11.74 1.35 1.88
-11.75 1.11 1.88
-11.83 0.88 1.89
-11.84 0.64 1.88
-11.84 0.40 1.88
-11.85 0.17 1.88
-11.85 -0.07 1.88
-11.86 -0.31 1.88
-11.86 -0.55 1.88
-11.87 -0.79 1.88
-11.88 -1.03 1.88
-11.88 -1.27 1.88
-11.87 -1.52 1.88
-11.87 -1.76 1.89
-11.86 -2.00 1.89
-10.82 -2.05 1.73
-10.52 -2.21 1.68
-10.23 -2.37 1.64
-10.55 -2.67 1.70
-11.83 -3.25 1.91
-11.84 -3.50 1.92
-11.84 -3.77 1.93
-11.84 -4.03 1.94
-11.84 -4.30 1.95
-11.84 -4.57 1.96
-11.84 -4.84 1.98
-11.82 -5.12 1.99
-11.83 -5.41 2.00
-11.86 -5.71 2.02
-11.88 -6.02 2.04
-11.91 -6.33 2.06
-11.93 -6.66 2.09
-11.95 -6.99 2.11
-11.95 -7.31 2.13
-11.96 -7.65 2.16
-11.97 -8.00 2.18
-11.98 -8.36 2.21
-11.99 -8.74 2.24
-11.97 -9.10 2.26
-11.95 -9.46 2.29
-11.94 -9.86 2.32
-11.94 -10.27 2.36
-11.94 -10.69 2.39
-11.94 -11.13 2.43
-11.93 -11.57 2.47
-11.90 -12.02 2.51
-11.87 -12.49 2.55
-11.85 -12.97 2.59
-11.82 -13.47 2.64
-11.66 -13.84 2.66
-11.48 -14.20 2.67
-10.03 -12.93 2.39
-9.80 -13.16 2.39
-9.55 -13.39 2.39
-9.30 -13.61 2.39
-9.05 -13.83 2.39
-8.79 -14.04 2.39
-8.53 -14.25 2.39
-8.27 -14.46 2.39
-7.99 -14.66 2.39
-7.72 -14.86 2.39
-7.44 -15.05 2.39
-7.15 -15.23 2.39
-6.86 -15.41 2.39
-6.57 -15.59 2.39
-6.27 -15.76 2.39
-6.08 -16.22 2.44
-5.91 -16.77 2.49
-5.58 -16.93 2.49
-5.26 -17.09 2.49
-4.93 -17.23 2.49
-4.59 -17.37 2.49
-4.25 -17.51 2.49
-3.91 -17.64 2.49
-3.57 -17.76 2.49
-3.22 -17.87 2.49
-2.87 -17.98 2.49
-2.51 -18.08 2.49
-2.15 -18.17 2.49
-1.79 -18.26 2.49
-1.43 -18.34 2.49
-1.07 -18.41 2.49
-0.70 -18.47 2.49
-0.33 -18.53 2.49
0.04 -15.86 2.49
0.36 -15.89 2.49
0.68 -15.92 2.49
1.00 -15.93 2.49
1.32 -15.94 2.49
1.65 -15.95 2.49
1.97 -15.94 2.49
2.20 -15.27 2.39
2.51 -15.26 2.39
2.82 -15.23 2.39
3.13 -15.20 2.39
3.44 -15.17 2.39
2.54 -10.24 1.62
4.06 -15.07 2.39
4.37 -15.02 2.39
4.68 -14.95 2.39
4.99 -14.88 2.39
5.29 -14.81 2.39
5.60 -14.72 2.39
5.90 -14.63 2.39
7.02 -16.45 2.71
7.93 -17.58 2.91
8.53 -17.96 3.00
8.92 -17.84 3.00
9.26 -17.63 2.99
9.58 -17.39 2.98
9.91 -17.17 2.97
10.27 -16.99 2.97
10.55 -16.69 2.95
10.72 -16.23 2.90
10.91 -15.81 2.86
10.80 -15.01 2.75
10.70 -14.26 2.65
10.80 -13.80 2.60
10.97 -13.45 2.57
11.12 -13.10 2.55
11.26 -12.74 2.52
11.45 -12.45 2.50
11.71 -12.23 2.50
11.97 -12.00 2.50
12.22 -11.77 2.50
12.45 -11.53 2.50
7.45 -6.62 1.47
12.88 -11.00 2.49
13.09 -10.73 2.49
13.30 -10.46 2.49
12.86 -9.71 2.37
12.76 -9.24 2.31
12.66 -8.78 2.26
12.47 -8.29 2.20
12.29 -7.82 2.14
12.30 -7.49 2.11
12.25 -7.12 2.08
12.11 -6.72 2.03
11.97 -6.33 1.98
11.83 -5.96 1.94
11.72 -5.61 1.90
11.70 -5.31 1.88
11.67 -5.02 1.86
11.64 -4.74 1.84
11.60 -4.45 1.82
11.51 -4.16 1.79
11.43 -3.87 1.77
11.37 -3.60 1.75
11.39 -3.35 1.74
11.40 -3.11 1.73
11.41 -2.87 1.73
11.43 -2.63 1.72
11.44 -2.39 1.71
11.45 -2.16 1.71
11.45 -1.92 1.71
11.46 -1.69 1.70
11.44 -1.45 1.70
11.42 -1.22 1.69
11.39 -0.98 1.68
11.36 -0.75 1.68
11.32 -0.52 1.67
11.29 -0.29 1.67
11.26 -0.07 1.67
11.22 0.16 1.66
11.19 0.38 1.66
11.21 0.61 1.67
11.25 0.83 1.68
11.29 1.06 1.69
11.33 1.30 1.70
7.48 1.01 1.12
7.30 1.13 1.10
11.40 2.01 1.73
11.35 2.23 1.73
11.30 2.46 1.73
11.31 2.70 1.74
11.32 2.94 1.76
11.33 3.19 1.77
11.34 3.44 1.79
11.34 3.69 1.80
11.35 3.94 1.82
11.35 4.20 1.83
11.35 4.46 1.85
11.31 4.71 1.86
11.28 4.96 1.88
11.24 5.22 1.89
11.20 5.47 1.91
11.16 5.74 1.92
11.12 6.00 1.94
11.08 6.27 1.96
11.06 6.55 1.98
11.04 6.84 2.00
11.02 7.14 2.03
11.00 7.44 2.06
10.98 7.75 2.09
10.93 8.05 2.11
10.88 8.36 2.14
10.83 8.67 2.17
10.78 8.99 2.20
10.72 9.31 2.23
10.67 9.65 2.26
10.61 9.99 2.30
10.55 10.34 2.33
10.49 10.70 2.37
10.41 11.05 2.41
10.35 11.44 2.45
10.34 11.90 2.51
10.32 12.37 2.57
10.22 12.77 2.62
7.75 10.09 2.04
7.57 10.27 2.05
7.39 10.46 2.06
9.41 13.91 2.71
9.20 14.20 2.74
8.91 14.37 2.74
8.53 14.40 2.72
8.16 14.43 2.70
7.80 14.45 2.68
7.44 14.47 2.66
6.40 13.10 2.39
6.12 13.19 2.39
5.84 13.28 2.39
5.56 13.37 2.39
5.28 13.45 2.39
5.00 13.52 2.39
4.72 13.59 2.39
4.43 13.65 2.39
4.15 13.70 2.39
3.86 13.75 2.39
3.58 13.80 2.39
3.29 13.84 2.39
3.01 13.87 2.39
2.72 13.90 2.39
2.54 14.52 2.49
2.25 14.54 2.49
1.95 14.55 2.49
1.66 14.56 2.49
1.36 14.56 2.49
1.06 14.55 2.49
0.77 14.54 2.49
0.48 14.52 2.49
0.19 14.50 2.49
-0.11 14.47 2.49
-0.40 14.44 2.49
-0.69 14.40 2.49
-0.97 14.36 2.49
-1.26 14.31 2.49
-1.54 14.25 2.49
-1.83 14.19 2.49
-2.11 14.13 2.49
-2.39 14.06 2.49
-2.66 13.98 2.49
-2.94 13.90 2.49
-3.21 13.82 2.49
-3.48 13.73 2.49
-3.75 13.63 2.49
-4.02 13.53 2.49
-4.28 13.43 2.49
-4.55 13.32 2.49
-4.81 13.20 2.49
-5.06 13.08 2.49
-5.32 12.96 2.49
-5.49 12.65 2.46
-5.58 12.17 2.39
-5.81 12.04 2.39
-6.05 11.91 2.39
-5.83 10.92 2.22
-6.50 11.63 2.39
-6.73 11.48 2.39
-6.95 11.33 2.39
-7.17 11.17 2.39
-7.38 11.01 2.39
-7.60 10.85 2.39
-7.80 10.68 2.39
-8.01 10.51 2.39
-8.21 10.34 2.39
-8.41 10.16 2.39
-8.60 9.98 2.39
-8.80 9.80 2.39
-8.98 9.61 2.39
-9.17 9.42 2.39
-9.35 9.23 2.39
-9.49 9.00 2.38
-9.52 8.67 2.35
-9.54 8.35 2.31
-9.57 8.03 2.28
-9.59 7.73 2.25
-9.61 7.43 2.22
-9.65 7.15 2.19
-9.69 6.89 2.17
-9.71 6.61 2.15
-9.74 6.34 2.13
-9.76 6.08 2.10
-9.78 5.82 2.08
-9.79 5.57 2.06
-9.82 5.33 2.05
-9.97 5.15 2.06
-10.13 4.98 2.07
-10.19 4.76 2.06
-10.23 4.52 2.05
-10.26 4.29 2.04
-10.29 4.07 2.03
-10.33 3.84 2.02
-10.58 3.70 2.05
-10.89 3.56 2.10
-11.21 3.41 2.14
-11.49 3.25 2.19
-11.58 3.02 2.19
-11.58 2.78 2.18
-11.59 2.53 2.17
-11.60 2.29 2.16
-11.61 2.05 2.15
-11.62 1.81 2.15
-11.63 1.57 2.14
-11.63 1.34 2.14
-11.64 1.10 2.13
-11.69 0.87 2.14
-11.70 0.63 2.13
-11.70 0.40 2.13
-11.71 0.16 2.13
-11.71 -0.07 2.13
-11.72 -0.31 2.13
-11.72 -0.55 2.13
-11.72 -0.78 2.13
-11.73 -1.02 2.13
-11.73 -1.26 2.13
-11.72 -1.50 2.13
-11.71 -1.74 2.14
-11.70 -1.98 2.14
-10.80 -2.05 1.98
-10.50 -2.21 1.93
-10.22 -2.37 1.88
-10.54 -2.67 1.95
-11.66 -3.20 2.16
-11.66 -3.45 2.17
-11.66 -3.71 2.18
-11.66 -3.97 2.20
-11.66 -4.23 2.21
-11.65 -4.50 2.22
-11.65 -4.77 2.24
-11.65 -5.05 2.25
-11.66 -5.33 2.27
-11.68 -5.63 2.29
-11.70 -5.93 2.32
-11.72 -6.24 2.34
-11.75 -6.56 2.37
-11.77 -6.89 2.39
-11.78 -7.22 2.42
-11.79 -7.55 2.45
-11.80 -7.90 2.48
-11.81 -8.25 2.51
-11.81 -8.61 2.54
-11.82 -8.99 2.58
-11.80 -9.35 2.61
-11.80 -9.74 2.65
-11.80 -10.15 2.69
-11.79 -10.56 2.73
-11.79 -10.99 2.77
-11.78 -11.43 2.82
-9.82 -9.92 2.39
-9.64 -10.14 2.39
-9.45 -10.35 2.39
-9.26 -10.56 2.39
-9.06 -10.77 2.39
-8.86 -10.97 2.39
-8.66 -11.17 2.39
-8.45 -11.37 2.39
-8.24 -11.56 2.39
-8.02 -11.75 2.39
-7.80 -11.93 2.39
-7.58 -12.11 2.39
-7.35 -12.29 2.39
-7.12 -12.46 2.39
-6.88 -12.63 2.39
-6.64 -12.79 2.39
-6.40 -12.95 2.39
-6.15 -13.11 2.39
-6.03 -13.55 2.44
-5.89 -13.98 2.49
-5.62 -14.13 2.49
-5.34 -14.27 2.49
-5.07 -14.41 2.49
-4.79 -14.54 2.49
-4.51 -14.67 2.49
-4.22 -14.79 2.49
-3.93 -14.90 2.49
-3.64 -15.01 2.49
-3.35 -15.12 2.49
-3.05 -15.21 2.49
-2.75 -15.31 2.49
-2.45 -15.39 2.49
-2.14 -15.47 2.49
-1.84 -15.55 2.49
-1.53 -15.62 2.49
-1.22 -15.68 2.49
-0.90 -15.73 2.49
-0.59 -15.78 2.49
-0.27 -15.83 2.49
0.04 -13.83 2.49
0.32 -13.85 2.49
0.60 -13.87 2.49
0.88 -13.88 2.49
1.16 -13.88 2.49
1.44 -13.88 2.49
1.72 -13.87 2.49
2.00 -13.86 2.49
2.19 -13.27 2.39
2.46 -13.25 2.39
2.73 -13.22 2.39
3.00 -13.18 2.39
2.54 -10.24 1.86
3.53 -13.10 2.39
3.80 -13.04 2.39
4.07 -12.99 2.39
4.33 -12.92 2.39
4.60 -12.85 2.39
4.86 -12.78 2.39
5.13 -12.70 2.39
5.39 -12.61 2.39
5.65 -12.52 2.39
5.90 -12.42 2.39
6.86 -13.72 2.66
7.57 -14.40 2.82
8.35 -15.15 3.00
8.74 -15.12 3.02
9.04 -14.95 3.02
9.34 -14.77 3.01
9.37 -14.18 2.93
9.39 -13.61 2.85
9.54 -13.25 2.81
9.69 -12.91 2.77
9.79 -12.52 2.73
9.89 -12.13 2.68
9.99 -11.76 2.64
10.08 -11.40 2.60
10.20 -11.08 2.57
10.33 -10.78 2.55
10.46 -10.49 2.53
10.59 -10.20 2.51
10.77 -9.97 2.50
7.45 -6.62 1.70
11.15 -9.52 2.50
11.34 -9.29 2.49
11.52 -9.06 2.49
11.69 -8.83 2.49
11.60 -8.40 2.43
11.46 -7.95 2.37
11.41 -7.58 2.32
11.48 -7.30 2.31
11.54 -7.02 2.29
11.60 -6.74 2.28
11.56 -6.41 2.24
11.44 -6.05 2.19
11.32 -5.70 2.15
11.29 -5.41 2.12
11.27 -5.12 2.10
11.25 -4.84 2.07
11.23 -4.57 2.05
11.20 -4.30 2.03
11.17 -4.03 2.01
11.10 -3.76 1.99
11.07 -3.50 1.97
11.09 -3.27 1.96
11.10 -3.03 1.95
11.12 -2.80 1.95
11.13 -2.56 1.94
11.14 -2.33 1.93
11.15 -2.10 1.93
11.16 -1.87 1.92
11.17 -1.65 1.92
11.15 -1.42 1.91
11.12 -1.19 1.91
11.10 -0.96 1.90
11.07 -0.73 1.89
11.04 -0.51 1.89
11.01 -0.29 1.88
10.98 -0.07 1.88
10.95 0.15 1.87
10.91 0.37 1.87
10.93 0.59 1.88
10.97 0.81 1.89
11.00 1.04 1.90
11.04 1.26 1.91
7.48 1.01 1.30
7.28 1.13 1.27
11.15 1.96 1.95
11.17 2.19 1.97
11.12 2.41 1.97
11.11 2.65 1.98
11.12 2.89 1.99
11.13 3.13 2.01
11.14 3.37 2.02
11.14 3.62 2.04
11.15 3.87 2.06
11.16 4.12 2.08
11.16 4.38 2.10
11.13 4.63 2.11
11.10 4.88 2.13
11.06 5.13 2.14
11.02 5.38 2.16
10.98 5.64 2.18
10.94 5.89 2.19
10.84 6.13 2.20
10.74 6.36 2.21
10.66 6.60 2.23
10.61 6.87 2.25
10.57 7.14 2.27
10.52 7.42 2.30
10.47 7.71 2.32
10.41 7.99 2.35
10.36 8.28 2.38
10.30 8.58 2.41
10.24 8.88 2.44
10.17 9.19 2.47
10.11 9.51 2.51
10.04 9.83 2.55
9.97 10.17 2.58
9.90 10.51 2.63
9.82 10.85 2.67
9.74 11.20 2.71
9.64 11.55 2.75
9.55 11.91 2.80
7.75 10.07 2.33
7.57 10.26 2.34
7.39 10.45 2.36
8.92 13.17 2.94
8.57 13.22 2.92
7.92 12.77 2.79
7.28 12.28 2.65
6.33 11.18 2.39
6.09 11.28 2.39
5.85 11.38 2.39
5.61 11.47 2.39
5.37 11.56 2.39
5.13 11.64 2.39
4.88 11.72 2.39
4.64 11.79 2.39
4.39 11.86 2.39
4.14 11.92 2.39
3.90 11.98 2.39
3.65 12.03 2.39
3.40 12.08 2.39
3.15 12.12 2.39
2.90 12.16 2.39
2.65 12.19 2.39
2.50 12.74 2.49
2.24 12.77 2.49
1.98 12.79 2.49
1.72 12.80 2.49
1.46 12.81 2.49
1.20 12.81 2.49
0.94 12.81 2.49
0.68 12.80 2.49
0.43 12.79 2.49
0.17 12.77 2.49
-0.09 12.75 2.49
-0.34 12.73 2.49
-0.60 12.69 2.49
-0.85 12.66 2.49
-1.11 12.62 2.49
-1.36 12.57 2.49
-1.61 12.52 2.49
-1.85 12.47 2.49
-2.10 12.41 2.49
-2.35 12.34 2.49
-2.59 12.27 2.49
-2.83 12.20 2.49
-3.07 12.12 2.49
-3.31 12.04 2.49
-3.55 11.95 2.49
-3.78 11.86 2.49
-4.01 11.77 2.49
-4.24 11.67 2.49
-4.47 11.57 2.49
-4.70 11.46 2.49
-4.92 11.35 2.49
-5.14 11.23 2.49
-5.36 11.11 2.49
-5.53 10.89 2.47
-5.55 10.41 2.39
-5.75 10.29 2.39
-5.95 10.16 2.39
-6.15 10.03 2.39
-6.34 9.89 2.39
-6.53 9.75 2.39
-6.72 9.61 2.39
-6.91 9.46 2.39
-7.09 9.31 2.39
-7.27 9.16 2.39
-7.45 9.01 2.39
-7.62 8.85 2.39
-7.79 8.68 2.39
-7.96 8.52 2.39
-8.12 8.35 2.39
-8.29 8.18 2.39
-8.44 8.01 2.39
-8.60 7.83 2.39
-8.75 7.65 2.39
-8.90 7.47 2.39
-9.04 7.29 2.39
-9.18 7.10 2.39
-9.32 6.91 2.39
-9.45 6.72 2.39
-9.56 6.51 2.39
-9.58 6.25 2.36
-9.60 5.99 2.34
-9.62 5.73 2.31
-9.64 5.49 2.29
-9.66 5.24 2.27
-9.78 5.06 2.28
-9.90 4.87 2.28
-9.94 4.64 2.27
-9.98 4.41 2.25
-10.01 4.19 2.24
-10.05 3.97 2.23
-10.08 3.75 2.22
-10.16 3.55 2.22
-10.44 3.41 2.27
-10.74 3.27 2.32
-11.04 3.12 2.37
-11.36 2.97 2.42
-11.47 2.75 2.43
-11.49 2.51 2.43
-11.50 2.27 2.42
-11.51 2.03 2.41
-11.51 1.79 2.40
-11.52 1.56 2.39
-11.53 1.32 2.39
-11.54 1.09 2.38
-11.55 0.86 2.38
-11.56 0.62 2.38
-11.56 0.39 2.37
-11.57 0.16 2.37
-11.57 -0.08 2.37
-11.58 -0.31 2.37
-11.58 -0.54 2.37
-11.58 -0.78 2.37
-11.58 -1.01 2.38
-11.58 -1.25 2.38
-11.57 -1.48 2.38
-11.55 -1.72 2.38
-11.50 -1.94 2.37
-10.79 -2.05 2.23
-10.49 -2.21 2.18
-10.20 -2.37 2.13
-10.54 -2.67 2.20
-11.21 -3.08 2.35
-11.18 -3.32 2.36
-11.17 -3.56 2.37
-11.15 -3.80 2.38
-11.13 -4.05 2.39
-11.11 -4.30 2.40
-11.09 -4.54 2.41
-11.06 -4.80 2.42
-11.03 -5.05 2.43
-11.01 -5.31 2.45
-11.01 -5.59 2.47
-11.01 -5.87 2.49
-11.09 -6.20 2.53
-11.17 -6.54 2.58
-11.25 -6.90 2.62
-11.32 -7.26 2.67
-11.27 -7.55 2.69
-11.24 -7.86 2.71
-9.79 -7.14 2.39
-9.66 -7.35 2.39
-9.53 -7.56 2.39
-9.39 -7.76 2.39
-9.25 -7.96 2.39
-9.10 -8.16 2.39
-8.95 -8.36 2.39
-8.80 -8.55 2.39
-8.64 -8.74 2.39
-8.48 -8.93 2.39
-8.31 -9.11 2.39
-8.14 -9.30 2.39
-7.97 -9.47 2.39
-7.79 -9.65 2.39
-7.61 -9.82 2.39
-7.42 -9.99 2.39
-7.24 -10.16 2.39
-7.04 -10.32 2.39
-6.85 -10.48 2.39
-6.65 -10.64 2.39
-6.45 -10.79 2.39
-6.24 -10.94 2.39
-6.03 -11.08 2.39
-5.99 -11.55 2.46
-5.85 -11.85 2.49
-5.62 -11.99 2.49
-5.39 -12.13 2.49
-5.15 -12.26 2.49
-4.92 -12.38 2.49
-4.68 -12.50 2.49
-4.43 -12.62 2.49
-4.19 -12.73 2.49
-3.94 -12.84 2.49
-3.69 -12.94 2.49
-3.43 -13.04 2.49
-3.18 -13.13 2.49
-2.92 -13.22 2.49
-2.66 -13.30 2.49
-2.40 -13.38 2.49
-2.13 -13.45 2.49
-1.87 -13.51 2.49
-1.60 -13.57 2.49
-1.33 -13.63 2.49
-1.06 -13.68 2.49
-0.78 -13.73 2.49
-0.51 -13.77 2.49
-0.23 -13.80 2.49
0.04 -12.24 2.49
0.29 -12.26 2.49
0.53 -12.27 2.49
0.78 -12.28 2.49
1.03 -12.28 2.49
1.28 -12.28 2.49
1.53 -12.27 2.49
1.77 -12.26 2.49
2.02 -12.24 2.49
2.18 -11.71 2.39
2.41 -11.68 2.39
2.65 -11.65 2.39
2.55 -10.23 2.11
3.12 -11.57 2.39
3.36 -11.52 2.39
3.60 -11.46 2.39
3.83 -11.41 2.39
4.06 -11.34 2.39
4.30 -11.27 2.39
4.53 -11.20 2.39
4.76 -11.12 2.39
4.98 -11.04 2.39
5.21 -10.95 2.39
5.43 -10.86 2.39
5.66 -10.76 2.39
5.88 -10.66 2.39
6.10 -10.55 2.39
7.14 -11.80 2.70
7.73 -12.21 2.83
8.36 -12.65 2.97
8.65 -12.52 2.97
8.80 -12.21 2.94
8.92 -11.88 2.90
9.03 -11.54 2.86
9.14 -11.21 2.82
9.24 -10.88 2.78
9.34 -10.56 2.74
9.46 -10.28 2.71
9.59 -10.01 2.69
9.72 -9.74 2.67
9.84 -9.47 2.65
9.95 -9.21 2.63
7.45 -6.62 1.93
10.18 -8.68 2.59
10.28 -8.42 2.57
10.38 -8.16 2.55
10.48 -7.91 2.54
10.56 -7.64 2.52
10.65 -7.39 2.50
10.73 -7.13 2.49
10.80 -6.87 2.47
10.86 -6.61 2.45
10.92 -6.35 2.44
10.98 -6.09 2.42
10.95 -5.79 2.39
10.90 -5.49 2.35
10.89 -5.21 2.33
10.87 -4.94 2.30
10.85 -4.67 2.28
10.84 -4.41 2.25
10.82 -4.15 2.23
10.80 -3.90 2.21
10.77 -3.65 2.19
10.79 -3.41 2.18
10.80 -3.18 2.17
10.82 -2.95 2.16
10.83 -2.73 2.16
10.85 -2.50 2.15
10.86 -2.27 2.14
10.87 -2.05 2.14
10.88 -1.83 2.13
10.89 -1.61 2.13
10.87 -1.38 2.12
10.84 -1.16 2.11
10.82 -0.94 2.10
10.79 -0.72 2.10
10.75 -0.50 2.09
10.71 -0.28 2.08
10.67 -0.07 2.07
10.64 0.14 2.07
10.60 0.36 2.06
10.58 0.57 2.06
10.60 0.78 2.07
10.65 1.00 2.09
10.70 1.22 2.10
7.48 1.01 1.47
7.27 1.13 1.44
10.86 1.91 2.16
10.89 2.14 2.18
10.93 2.37 2.19
10.92 2.60 2.21
10.93 2.83 2.22
10.94 3.07 2.24
10.94 3.31 2.25
10.95 3.55 2.27
10.95 3.80 2.29
10.96 4.05 2.31
10.96 4.30 2.33
10.96 4.55 2.35
10.92 4.80 2.37
10.83 5.02 2.38
10.74 5.24 2.38
10.65 5.46 2.39
10.56 5.69 2.40
10.47 5.91 2.41
10.38 6.14 2.42
10.28 6.36 2.43
10.19 6.59 2.44
10.14 6.85 2.47
10.09 7.12 2.49
10.04 7.38 2.52
9.98 7.66 2.55
9.93 7.93 2.58
9.86 8.21 2.61
9.80 8.50 2.64
9.73 8.79 2.67
9.66 9.08 2.71
9.59 9.38 2.74
9.52 9.69 2.78
9.44 10.00 2.82
9.35 10.32 2.86
9.27 10.65 2.91
9.18 10.98 2.95
9.08 11.32 3.00
7.74 10.06 2.63
7.56 10.24 2.64
7.38 10.43 2.65
6.45 9.51 2.39
6.25 9.62 2.39
6.04 9.73 2.39
5.84 9.83 2.39
5.63 9.93 2.39
5.42 10.02 2.39
5.21 10.11 2.39
4.99 10.19 2.39
4.78 10.27 2.39
4.56 10.35 2.39
4.35 10.42 2.39
4.13 10.49 2.39
3.91 10.55 2.39
3.69 10.61 2.39
3.47 10.66 2.39
3.25 10.71 2.39
3.03 10.75 2.39
2.81 10.79 2.39
2.59 10.83 2.39
2.47 11.33 2.49
2.24 11.36 2.49
2.00 11.38 2.49
1.77 11.40 2.49
1.54 11.41 2.49
1.31 11.42 2.49
1.08 11.43 2.49
0.85 11.43 2.49
0.61 11.42 2.49
0.38 11.41 2.49
0.15 11.40 2.49
-0.07 11.38 2.49
-0.30 11.36 2.49
-0.53 11.34 2.49
-0.76 11.31 2.49
-0.98 11.27 2.49
-1.21 11.23 2.49
-1.43 11.19 2.49
-1.65 11.14 2.49
-1.87 11.09 2.49
-2.09 11.04 2.49
-2.31 10.98 2.49
-2.53 10.91 2.49
-2.75 10.85 2.49
-2.96 10.77 2.49
-3.17 10.70 2.49
-3.38 10.62 2.49
-3.59 10.53 2.49
-3.80 10.45 2.49
-4.00 10.36 2.49
-4.20 10.26 2.49
-4.40 10.16 2.49
-4.60 10.06 2.49
-4.80 9.96 2.49
-4.99 9.85 2.49
-5.19 9.73 2.49
-5.37 9.62 2.49
-5.56 9.49 2.49
-5.57 9.09 2.42
-5.68 8.87 2.39
-5.86 8.74 2.39
-6.02 8.62 2.39
-6.19 8.48 2.39
-6.36 8.35 2.39
-6.52 8.22 2.39
-6.68 8.08 2.39
-6.83 7.93 2.39
-6.99 7.79 2.39
-7.14 7.64 2.39
-7.29 7.49 2.39
-7.43 7.34 2.39
-7.57 7.18 2.39
-7.71 7.03 2.39
-7.85 6.87 2.39
-7.98 6.70 2.39
-8.11 6.54 2.39
-8.24 6.37 2.39
-8.36 6.20 2.39
-8.48 6.03 2.39
-8.60 5.86 2.39
-8.71 5.68 2.39
-8.82 5.50 2.39
-8.93 5.32 2.39
-9.03 5.14 2.39
-9.13 4.96 2.39
-9.23 4.77 2.39
-9.32 4.58 2.39
-9.41 4.39 2.39
-9.50 4.20 2.39
-9.58 4.01 2.39
-9.66 3.82 2.39
-9.84 3.66 2.42
-9.87 3.45 2.41
-10.02 3.27 2.43
-10.30 3.14 2.48
-10.58 2.99 2.53
-10.76 2.81 2.56
-10.79 2.58 2.55
-10.82 2.36 2.55
-10.85 2.14 2.54
-10.88 1.92 2.54
-10.91 1.70 2.54
-10.94 1.48 2.53
-10.96 1.26 2.53
-10.98 1.04 2.53
-10.99 0.81 2.52
-10.98 0.59 2.52
-10.96 0.37 2.51
-10.96 0.15 2.51
-10.96 -0.07 2.50
-10.96 -0.29 2.50
-10.96 -0.52 2.50
-10.95 -0.74 2.50
-10.94 -0.96 2.50
-10.93 -1.18 2.50
-10.95 -1.40 2.51
-10.97 -1.63 2.52
-10.95 -1.86 2.52
-10.78 -2.05 2.49
-10.48 -2.21 2.43
-10.19 -2.37 2.37
-10.54 -2.67 2.46
-10.68 -2.94 2.50
-10.62 -3.15 2.50
-10.60 -3.38 2.51
-10.58 -3.61 2.52
-10.57 -3.85 2.53
-10.55 -4.08 2.54
-10.53 -4.32 2.55
-9.79 -4.25 2.39
-9.71 -4.45 2.39
-9.63 -4.65 2.39
-9.55 -4.85 2.39
-9.46 -5.05 2.39
-9.37 -5.24 2.39
-9.28 -5.44 2.39
-9.18 -5.63 2.39
-9.08 -5.82 2.39
-8.97 -6.01 2.39
-8.86 -6.20 2.39
-8.75 -6.39 2.39
-8.63 -6.57 2.39
-8.51 -6.75 2.39
-8.38 -6.93 2.39
-8.26 -7.11 2.39
-8.12 -7.29 2.39
-7.99 -7.46 2.39
-7.85 -7.63 2.39
-7.71 -7.80 2.39
-7.56 -7.97 2.39
-7.41 -8.13 2.39
-7.26 -8.29 2.39
-7.10 -8.45 2.39
-6.94 -8.61 2.39
-6.78 -8.76 2.39
-6.61 -8.91 2.39
-6.44 -9.06 2.39
-6.27 -9.20 2.39
-6.10 -9.34 2.39
-5.95 -9.53 2.41
-5.95 -9.98 2.48
-5.79 -10.16 2.49
-5.60 -10.29 2.49
-5.40 -10.42 2.49
-5.20 -10.55 2.49
-4.99 -10.67 2.49
-4.79 -10.78 2.49
-4.58 -10.90 2.49
-4.37 -11.01 2.49
-4.15 -11.11 2.49
-3.93 -11.21 2.49
-3.71 -11.31 2.49
-3.49 -11.40 2.49
-3.27 -11.49 2.49
-3.04 -11.57 2.49
-2.82 -11.65 2.49
-2.59 -11.73 2.49
-2.36 -11.80 2.49
-2.12 -11.87 2.49
-1.89 -11.93 2.49
-1.65 -11.98 2.49
-1.41 -12.03 2.49
-1.17 -12.08 2.49
-0.93 -12.12 2.49
-0.69 -12.16 2.49
-0.45 -12.19 2.49
-0.20 -12.22 2.49
0.04 -10.97 2.49
0.26 -10.99 2.49
0.48 -11.00 2.49
0.70 -11.00 2.49
0.93 -11.00 2.49
1.15 -11.00 2.49
1.37 -10.99 2.49
1.59 -10.97 2.49
1.81 -10.95 2.49
2.04 -10.93 2.49
2.16 -10.45 2.39
2.38 -10.42 2.39
2.55 -10.23 2.35
2.80 -10.34 2.39
3.01 -10.30 2.39
3.22 -10.25 2.39
3.43 -10.20 2.39
3.64 -10.14 2.39
3.84 -10.08 2.39
4.05 -10.01 2.39
4.25 -9.94 2.39
4.46 -9.86 2.39
4.66 -9.78 2.39
4.86 -9.70 2.39
5.06 -9.61 2.39
5.25 -9.52 2.39
5.45 -9.42 2.39
5.64 -9.32 2.39
5.83 -9.21 2.39
6.02 -9.10 2.39
6.83 -9.89 2.63
7.18 -9.96 2.69
7.54 -10.03 2.74
7.90 -10.08 2.80
8.27 -10.13 2.85
8.60 -10.12 2.89
8.70 -9.83 2.86
8.82 -9.58 2.83
8.95 -9.33 2.81
9.07 -9.09 2.79
9.18 -8.84 2.77
9.30 -8.60 2.75
7.45 -6.62 2.16
9.51 -8.12 2.71
9.61 -7.88 2.69
9.70 -7.63 2.68
9.74 -7.35 2.64
9.78 -7.08 2.61
9.81 -6.81 2.59
9.91 -6.58 2.57
10.00 -6.36 2.56
10.08 -6.13 2.55
10.17 -5.91 2.54
10.25 -5.68 2.53
10.37 -5.48 2.54
10.43 -5.25 2.52
10.41 -4.98 2.50
10.39 -4.72 2.47
10.37 -4.46 2.44
10.35 -4.21 2.42
10.32 -3.96 2.39
10.30 -3.72 2.37
10.30 -3.49 2.35
10.33 -3.27 2.34
10.36 -3.05 2.34
10.39 -2.84 2.33
10.41 -2.62 2.32
10.43 -2.40 2.32
10.45 -2.19 2.31
10.47 -1.98 2.31
10.48 -1.76 2.30
10.50 -1.55 2.30
10.54 -1.34 2.31
10.51 -1.12 2.30
10.48 -0.91 2.29
10.45 -0.70 2.28
10.42 -0.49 2.27
10.38 -0.28 2.26
10.35 -0.07 2.25
10.31 0.14 2.25
10.27 0.34 2.24
10.25 0.55 2.24
10.25 0.75 2.24
10.24 0.96 2.25
10.27 1.17 2.26
7.48 1.00 1.65
7.27 1.12 1.61
10.41 1.82 2.32
10.45 2.05 2.34
10.50 2.28 2.36
10.53 2.50 2.38
10.51 2.72 2.39
10.50 2.95 2.40
10.51 3.17 2.42
10.51 3.41 2.44
10.51 3.64 2.46
10.51 3.88 2.48
10.51 4.12 2.50
10.51 4.36 2.53
10.48 4.60 2.55
10.44 4.83 2.56
10.39 5.06 2.58
10.30 5.28 2.58
10.21 5.49 2.59
10.12 5.71 2.60
10.03 5.93 2.61
9.94 6.14 2.62
9.84 6.36 2.63
9.75 6.58 2.65
9.69 6.83 2.67
9.64 7.09 2.70
9.58 7.34 2.73
9.52 7.61 2.76
9.46 7.87 2.79
9.40 8.14 2.82
9.33 8.42 2.86
9.26 8.69 2.89
9.18 8.98 2.93
9.11 9.27 2.97
9.02 9.56 3.01
8.68 9.57 2.96
8.16 9.37 2.85
7.67 9.18 2.75
7.21 8.99 2.65
6.33 8.22 2.39
6.15 8.33 2.39
5.98 8.44 2.39
5.80 8.54 2.39
5.62 8.64 2.39
5.43 8.74 2.39
5.25 8.83 2.39
5.06 8.92 2.39
4.87 9.01 2.39
4.68 9.09 2.39
4.49 9.16 2.39
4.30 9.24 2.39
4.11 9.31 2.39
3.91 9.37 2.39
3.72 9.43 2.39
3.52 9.49 2.39
3.33 9.54 2.39
3.13 9.59 2.39
2.93 9.64 2.39
2.73 9.68 2.39
2.53 9.72 2.39
2.44 10.17 2.49
2.23 10.20 2.49
2.02 10.23 2.49
1.81 10.25 2.49
1.60 10.27 2.49
1.39 10.29 2.49
1.18 10.30 2.49
0.97 10.30 2.49
0.77 10.30 2.49
0.56 10.30 2.49
0.35 10.30 2.49
0.14 10.29 2.49
-0.06 10.27 2.49
-0.27 10.25 2.49
-0.48 10.23 2.49
-0.68 10.21 2.49
-0.88 10.18 2.49
-1.09 10.14 2.49
-1.29 10.11 2.49
-1.49 10.06 2.49
-1.69 10.02 2.49
-1.89 9.97 2.49
-2.09 9.92 2.49
-2.28 9.86 2.49
-2.48 9.80 2.49
-2.67 9.74 2.49
-2.86 9.67 2.49
-3.05 9.60 2.49
-3.24 9.53 2.49
-3.43 9.45 2.49
-3.62 9.37 2.49
-3.80 9.28 2.49
-3.98 9.19 2.49
-4.16 9.10 2.49
-4.34 9.01 2.49
-4.52 8.91 2.49
-4.69 8.81 2.49
-4.86 8.70 2.49
-5.03 8.60 2.49
-5.20 8.49 2.49
-5.36 8.37 2.49
-5.53 8.26 2.49
-5.59 7.99 2.45
-5.61 7.68 2.39
-5.75 7.56 2.39
-5.90 7.44 2.39
-6.04 7.31 2.39
-6.19 7.19 2.39
-6.33 7.06 2.39
-6.46 6.92 2.39
-6.60 6.79 2.39
-6.73 6.65 2.39
-6.86 6.51 2.39
-6.98 6.37 2.39
-7.11 6.22 2.39
-7.23 6.07 2.39
-7.35 5.92 2.39
-7.46 5.77 2.39
-7.57 5.62 2.39
-7.68 5.46 2.39
-7.79 5.31 2.39
-7.89 5.15 2.39
-7.99 4.99 2.39
-8.09 4.82 2.39
-8.19 4.66 2.39
-8.28 4.49 2.39
-8.36 4.32 2.39
-8.45 4.15 2.39
-8.53 3.98 2.39
-8.61 3.81 2.39
-8.68 3.63 2.39
-8.76 3.46 2.39
-8.82 3.28 2.39
-8.89 3.10 2.39
-8.95 2.92 2.39
-9.01 2.74 2.39
-9.07 2.56 2.39
-9.12 2.38 2.39
-9.17 2.19 2.39
-9.21 2.01 2.39
-9.25 1.82 2.39
-9.29 1.64 2.39
-9.33 1.45 2.39
-9.36 1.26 2.39
-9.38 1.08 2.39
-9.41 0.89 2.39
-9.43 0.70 2.39
-9.45 0.51 2.39
-9.46 0.32 2.39
-9.47 0.13 2.39
-9.48 -0.07 2.39
-9.48 -0.26 2.39
-9.48 -0.45 2.39
-9.47 -0.64 2.39
-9.47 -0.83 2.39
-9.45 -1.02 2.39
-9.44 -1.21 2.39
-9.42 -1.40 2.39
-9.40 -1.59 2.39
-9.37 -1.79 2.39
-9.34 -1.98 2.39
-9.31 -2.17 2.39
-9.27 -2.35 2.39
-9.23 -2.54 2.39
-9.19 -2.73 2.39
-9.14 -2.92 2.39
-9.09 -3.11 2.39
-9.03 -3.29 2.39
-8.98 -3.48 2.39
-8.91 -3.66 2.39
-8.85 -3.84 2.39
-8.78 -4.02 2.39
-8.71 -4.21 2.39
-8.63 -4.39 2.39
-8.55 -4.56 2.39
-8.47 -4.74 2.39
-8.38 -4.92 2.39
-8.29 -5.09 2.39
-8.20 -5.26 2.39
-8.10 -5.43 2.39
-8.00 -5.60 2.39
-7.90 -5.77 2.39
-7.79 -5.94 2.39
-7.68 -6.10 2.39
-7.56 -6.26 2.39
-7.45 -6.42 2.39
-7.33 -6.58 2.39
-7.20 -6.74 2.39
-7.08 -6.89 2.39
-6.95 -7.04 2.39
-6.82 -7.19 2.39
-6.68 -7.34 2.39
-6.54 -7.48 2.39
-6.40 -7.62 2.39
-6.25 -7.76 2.39
-6.11 -7.90 2.39
-5.96 -8.03 2.39
-5.92 -8.33 2.44
-5.89 -8.65 2.49
-5.72 -8.78 2.49
-5.55 -8.90 2.49
-5.38 -9.03 2.49
-5.21 -9.15 2.49
-5.03 -9.27 2.49
-4.85 -9.38 2.49
-4.67 -9.49 2.49
-4.49 -9.60 2.49
-4.30 -9.70 2.49
-4.11 -9.80 2.49
-3.92 -9.90 2.49
-3.73 -9.99 2.49
-3.53 -10.08 2.49
-3.33 -10.17 2.49
-3.13 -10.25 2.49
-2.93 -10.32 2.49
-2.73 -10.40 2.49
-2.53 -10.47 2.49
-2.32 -10.53 2.49
-2.11 -10.59 2.49
-1.90 -10.65 2.49
-1.69 -10.71 2.49
-1.48 -10.75 2.49
-1.26 -10.80 2.49
-1.05 -10.84 2.49
-0.83 -10.87 2.49
-0.61 -10.91 2.49
-0.40 -10.93 2.49
-0.18 -10.96 2.49
0.04 -9.93 2.49
0.24 -9.94 2.49
0.44 -9.95 2.49
0.64 -9.95 2.49
0.84 -9.95 2.49
1.04 -9.95 2.49
1.24 -9.94 2.49
1.44 -9.92 2.49
1.64 -9.91 2.49
1.84 -9.88 2.49
2.04 -9.86 2.49
2.15 -9.42 2.39
2.34 -9.39 2.39
2.53 -9.35 2.39
2.72 -9.31 2.39
2.91 -9.26 2.39
3.10 -9.21 2.39
3.29 -9.16 2.39
3.47 -9.10 2.39
3.66 -9.04 2.39
3.84 -8.97 2.39
4.03 -8.91 2.39
4.21 -8.83 2.39
4.39 -8.75 2.39
4.57 -8.67 2.39
4.74 -8.59 2.39
4.92 -8.50 2.39
5.09 -8.41 2.39
5.26 -8.31 2.39
5.43 -8.21 2.39
5.60 -8.11 2.39
5.77 -8.00 2.39
5.93 -7.89 2.39
6.09 -7.78 2.39
6.77 -8.30 2.59
7.05 -8.29 2.63
7.34 -8.29 2.67
7.64 -8.29 2.72
7.95 -8.29 2.77
8.26 -8.28 2.82
8.58 -8.26 2.87
8.72 -8.06 2.86
7.45 -6.61 2.40
8.92 -7.61 2.82
8.97 -7.35 2.79
9.02 -7.09 2.76
9.06 -6.84 2.73
9.10 -6.59 2.70
9.14 -6.34 2.67
9.18 -6.10 2.65
9.27 -5.89 2.64
9.35 -5.69 2.63
9.46 -5.50 2.63
9.59 -5.32 2.63
9.71 -5.13 2.63
9.83 -4.95 2.64
9.90 -4.74 2.63
9.89 -4.49 2.61
9.87 -4.25 2.58
9.86 -4.01 2.55
9.84 -3.78 2.53
9.83 -3.55 2.51
9.86 -3.34 2.50
9.89 -3.13 2.49
9.92 -2.92 2.48
9.95 -2.72 2.48
9.97 -2.51 2.47
9.99 -2.30 2.46
10.01 -2.10 2.46
10.03 -1.89 2.45
10.05 -1.69 2.45
10.07 -1.49 2.45
10.11 -1.29 2.45
10.15 -1.09 2.46
10.16 -0.88 2.46
10.13 -0.68 2.45
10.10 -0.47 2.44
10.07 -0.27 2.43
10.03 -0.07 2.42
10.00 0.13 2.42
9.96 0.33 2.41
9.94 0.53 2.41
9.94 0.73 2.41
9.93 0.93 2.42
9.93 1.13 2.42
7.48 1.00 1.83
7.27 1.12 1.79
9.99 1.75 2.46
10.03 1.96 2.49
10.06 2.18 2.51
10.10 2.40 2.53
10.10 2.61 2.55
10.08 2.82 2.56
10.05 3.04 2.57
10.03 3.25 2.58
10.01 3.46 2.59
10.01 3.69 2.62
10.00 3.92 2.64
9.99 4.15 2.66
9.98 4.38 2.68
9.96 4.61 2.70
9.91 4.83 2.72
9.86 5.05 2.74
9.81 5.27 2.75
9.75 5.50 2.77
9.69 5.72 2.79
9.61 5.94 2.80
9.52 6.15 2.81
9.42 6.35 2.83
9.32 6.56 2.84
9.27 6.81 2.87
9.21 7.05 2.90
9.15 7.30 2.93
9.09 7.55 2.96
9.02 7.81 2.99
8.93 8.05 3.02
8.48 7.96 2.93
8.05 7.86 2.83
7.64 7.77 2.75
7.25 7.67 2.67
6.35 7.00 2.39
6.20 7.12 2.39
6.05 7.23 2.39
5.90 7.34 2.39
5.74 7.44 2.39
5.58 7.55 2.39
5.42 7.65 2.39
5.26 7.74 2.39
5.09 7.83 2.39
4.93 7.92 2.39
4.76 8.01 2.39
4.59 8.09 2.39
4.42 8.17 2.39
4.25 8.24 2.39
4.08 8.31 2.39
3.91 8.38 2.39
3.73 8.45 2.39
3.56 8.51 2.39
3.38 8.56 2.39
3.20 8.62 2.39
3.03 8.67 2.39
2.85 8.71 2.39
2.69 8.82 2.41
2.49 8.80 2.39
2.41 9.21 2.49
2.22 9.24 2.49
2.03 9.27 2.49
1.84 9.30 2.49
1.65 9.32 2.49
1.46 9.34 2.49
1.27 9.35 2.49
1.08 9.36 2.49
0.89 9.37 2.49
0.70 9.37 2.49
0.51 9.37 2.49
0.32 9.37 2.49
0.13 9.36 2.49
-0.05 9.35 2.49
-0.24 9.33 2.49
-0.43 9.32 2.49
-0.62 9.29 2.49
-0.80 9.27 2.49
-0.99 9.24 2.49
-1.17 9.20 2.49
-1.35 9.17 2.49
-1.54 9.13 2.49
-1.72 9.08 2.49
-1.90 9.04 2.49
-2.08 8.99 2.49
-2.25 8.93 2.49
-2.43 8.88 2.49
-2.61 8.82 2.49
-2.78 8.75 2.49
-2.95 8.68 2.49
-3.12 8.61 2.49
-3.29 8.54 2.49
-3.46 8.46 2.49
-3.63 8.38 2.49
-3.79 8.30 2.49
-3.96 8.22 2.49
-4.12 8.13 2.49
-4.28 8.04 2.49
-4.43 7.94 2.49
-4.59 7.84 2.49
-4.74 7.74 2.49
-4.89 7.64 2.49
-5.04 7.53 2.49
-5.19 7.43 2.49
-5.33 7.31 2.49
-5.48 7.20 2.49
-5.61 7.07 2.49
-5.61 6.80 2.43
-5.65 6.56 2.39
-5.77 6.44 2.39
-5.90 6.32 2.39
-6.02 6.20 2.39
-6.14 6.07 2.39
-6.26 5.94 2.39
-6.38 5.81 2.39
-6.49 5.68 2.39
-6.60 5.55 2.39
-6.71 5.41 2.39
-6.81 5.27 2.39
-6.92 5.13 2.39
-7.02 4.99 2.39
-7.11 4.85 2.39
-7.21 4.70 2.39
-7.30 4.55 2.39
-7.39 4.40 2.39
-7.48 4.25 2.39
-7.56 4.10 2.39
-7.64 3.95 2.39
-7.72 3.79 2.39
-7.79 3.64 2.39
-7.86 3.48 2.39
-7.93 3.32 2.39
-8.00 3.16 2.39
-8.06 3.00 2.39
-8.12 2.83 2.39
-8.18 2.67 2.39
-8.23 2.50 2.39
-8.28 2.34 2.39
-8.33 2.17 2.39
-8.37 2.00 2.39
-8.41 1.83 2.39
-8.45 1.67 2.39
-8.48 1.50 2.39
-8.52 1.32 2.39
-8.54 1.15 2.39
-8.57 0.98 2.39
-8.59 0.81 2.39
-8.61 0.63 2.39
-8.62 0.46 2.39
-8.64 0.29 2.39
-8.64 0.11 2.39
-8.65 -0.06 2.39
-8.65 -0.24 2.39
-8.65 -0.41 2.39
-8.65 -0.58 2.39
-8.64 -0.76 2.39
-8.63 -0.93 2.39
-8.61 -1.11 2.39
-8.60 -1.28 2.39
-8.57 -1.46 2.39
-8.55 -1.63 2.39
-8.52 -1.80 2.39
-8.49 -1.98 2.39
-8.46 -2.15 2.39
-8.42 -2.32 2.39
-8.38 -2.49 2.39
-8.33 -2.66 2.39
-8.29 -2.83 2.39
-8.24 -3.00 2.39
-8.18 -3.17 2.39
-8.13 -3.34 2.39
-8.06 -3.51 2.39
-8.00 -3.67 2.39
-7.93 -3.84 2.39
-7.86 -4.00 2.39
-7.79 -4.16 2.39
-7.71 -4.32 2.39
-7.63 -4.48 2.39
-7.55 -4.64 2.39
-7.47 -4.80 2.39
-7.38 -4.95 2.39
-7.28 -5.11 2.39
-7.19 -5.26 2.39
-7.09 -5.41 2.39
-6.99 -5.56 2.39
-6.88 -5.70 2.39
-6.78 -5.85 2.39
-6.67 -5.99 2.39
-6.55 -6.13 2.39
-6.44 -6.27 2.39
-6.32 -6.41 2.39
-6.20 -6.54 2.39
-6.08 -6.68 2.39
-5.95 -6.80 2.39
-5.90 -7.03 2.43
-5.90 -7.33 2.48
-5.79 -7.49 2.49
-5.64 -7.62 2.49
-5.50 -7.74 2.49
-5.35 -7.86 2.49
-5.20 -7.98 2.49
-5.04 -8.09 2.49
-4.89 -8.20 2.49
-4.73 -8.31 2.49
-4.57 -8.42 2.49
-4.40 -8.52 2.49
-4.24 -8.62 2.49
-4.07 -8.72 2.49
-3.90 -8.81 2.49
-3.73 -8.90 2.49
-3.55 -8.98 2.49
-3.38 -9.07 2.49
-3.20 -9.15 2.49
-3.02 -9.22 2.49
-2.84 -9.30 2.49
-2.66 -9.36 2.49
-2.47 -9.43 2.49
-2.29 -9.49 2.49
-2.10 -9.55 2.49
-1.91 -9.60 2.49
-1.72 -9.65 2.49
-1.53 -9.70 2.49
-1.33 -9.74 2.49
-1.14 -9.78 2.49
-0.94 -9.82 2.49
-0.75 -9.85 2.49
-0.55 -9.88 2.49
-0.35 -9.90 2.49
-0.16 -9.92 2.49
0.04 -9.06 2.49
0.22 -9.07 2.49
0.41 -9.08 2.49
0.59 -9.08 2.49
0.77 -9.08 2.49
0.95 -9.07 2.49
1.14 -9.06 2.49
1.32 -9.05 2.49
1.50 -9.03 2.49
1.68 -9.01 2.49
1.87 -8.98 2.49
2.05 -8.96 2.49
2.14 -8.55 2.39
2.33 -8.59 2.41
2.48 -8.48 2.39
2.66 -8.44 2.39
2.83 -8.39 2.39
3.00 -8.34 2.39
3.17 -8.29 2.39
3.34 -8.23 2.39
3.50 -8.17 2.39
3.67 -8.11 2.39
3.83 -8.04 2.39
4.00 -7.97 2.39
4.16 -7.90 2.39
4.32 -7.82 2.39
4.48 -7.74 2.39
4.64 -7.65 2.39
4.79 -7.56 2.39
4.95 -7.47 2.39
5.10 -7.38 2.39
5.25 -7.28 2.39
5.40 -7.18 2.39
5.55 -7.07 2.39
5.69 -6.97 2.39
5.83 -6.86 2.39
5.97 -6.74 2.39
6.11 -6.63 2.39
6.74 -7.03 2.58
6.99 -7.00 2.62
7.24 -6.97 2.66
7.49 -6.93 2.70
7.45 -6.61 2.64
7.93 -6.76 2.76
8.04 -6.58 2.75
8.14 -6.40 2.74
8.23 -6.21 2.72
8.32 -6.02 2.71
8.40 -5.82 2.70
8.47 -5.63 2.69
8.63 -5.49 2.70
8.78 -5.34 2.71
8.89 -5.17 2.71
9.01 -5.00 2.72
9.12 -4.82 2.72
9.23 -4.65 2.73
9.34 -4.47 2.73
9.43 -4.28 2.73
9.42 -4.05 2.70
9.41 -3.83 2.68
9.39 -3.61 2.65
9.42 -3.40 2.64
9.46 -3.20 2.63
9.49 -3.00 2.63
9.51 -2.80 2.62
9.54 -2.61 2.61
9.56 -2.41 2.60
9.59 -2.21 2.60
9.61 -2.01 2.59
9.62 -1.82 2.59
9.64 -1.62 2.58
9.67 -1.43 2.59
9.71 -1.24 2.59
9.74 -1.04 2.59
9.77 -0.85 2.60
9.80 -0.66 2.60
9.80 -0.46 2.60
9.77 -0.26 2.59
9.74 -0.07 2.58
9.70 0.13 2.58
9.67 0.32 2.57
9.64 0.51 2.57
9.64 0.71 2.57
9.64 0.90 2.58
9.63 1.09 2.58
7.48 1.00 2.01
7.27 1.12 1.96
9.60 1.68 2.60
9.63 1.88 2.62
9.66 2.09 2.64
9.69 2.30 2.67
9.72 2.51 2.69
9.70 2.71 2.70
9.67 2.92 2.71
9.64 3.12 2.72
9.62 3.32 2.74
9.58 3.53 2.75
9.55 3.74 2.76
9.53 3.95 2.78
9.51 4.17 2.80
9.50 4.39 2.83
9.47 4.61 2.85
9.42 4.82 2.87
9.36 5.03 2.88
9.31 5.24 2.90
9.25 5.46 2.92
9.19 5.67 2.94
9.13 5.89 2.96
9.06 6.11 2.98
8.99 6.33 3.00
8.90 6.53 3.02
8.53 6.53 2.94
8.17 6.52 2.87
7.83 6.50 2.79
7.49 6.48 2.72
7.16 6.45 2.65
6.33 5.94 2.39
6.20 6.05 2.39
6.07 6.17 2.39
5.94 6.28 2.39
5.80 6.39 2.39
5.67 6.50 2.39
5.53 6.60 2.39
5.39 6.70 2.39
5.25 6.80 2.39
5.10 6.89 2.39
4.96 6.98 2.39
4.81 7.07 2.39
4.66 7.16 2.39
4.51 7.24 2.39
4.36 7.32 2.39
4.20 7.39 2.39
4.05 7.47 2.39
3.89 7.54 2.39
3.73 7.60 2.39
3.58 7.66 2.39
3.42 7.72 2.39
3.26 7.78 2.39
3.10 7.83 2.39
2.93 7.88 2.39
2.77 7.93 2.39
2.61 7.97 2.39
2.47 8.09 2.42
2.38 8.40 2.49
2.21 8.43 2.49
2.03 8.46 2.49
1.86 8.49 2.49
1.69 8.51 2.49
1.51 8.54 2.49
1.34 8.55 2.49
1.17 8.57 2.49
0.99 8.58 2.49
0.82 8.59 2.49
0.65 8.59 2.49
0.47 8.59 2.49
0.30 8.59 2.49
0.13 8.58 2.49
-0.05 8.57 2.49
-0.22 8.56 2.49
-0.39 8.54 2.49
-0.56 8.52 2.49
-0.73 8.50 2.49
-0.90 8.47 2.49
-1.07 8.44 2.49
-1.24 8.41 2.49
-1.41 8.37 2.49
-1.57 8.33 2.49
-1.74 8.29 2.49
-1.90 8.25 2.49
-2.07 8.20 2.49
-2.23 8.15 2.49
-2.39 8.09 2.49
-2.55 8.03 2.49
-2.71 7.97 2.49
-2.87 7.91 2.49
-3.02 7.84 2.49
-3.18 7.77 2.49
-3.33 7.70 2.49
-3.48 7.62 2.49
-3.63 7.55 2.49
-3.78 7.46 2.49
-3.92 7.38 2.49
-4.07 7.29 2.49
-4.21 7.21 2.49
-4.35 7.11 2.49
-4.49 7.02 2.49
-4.63 6.92 2.49
-4.76 6.82 2.49
-4.90 6.72 2.49
-5.03 6.62 2.49
-5.16 6.51 2.49
-5.29 6.40 2.49
-5.41 6.29 2.49
-5.53 6.18 2.49
-5.63 6.03 2.48
-5.63 5.80 2.44
-5.65 5.58 2.39
-5.75 5.46 2.39
-5.86 5.34 2.39
-5.96 5.22 2.39
-6.07 5.10 2.39
-6.17 4.97 2.39
-6.26 4.85 2.39
-6.36 4.72 2.39
-6.45 4.59 2.39
-6.54 4.46 2.39
-6.63 4.32 2.39
-6.71 4.19 2.39
-6.79 4.05 2.39
-6.87 3.91 2.39
-6.95 3.77 2.39
-7.02 3.63 2.39
-7.09 3.49 2.39
-7.16 3.34 2.39
-7.23 3.20 2.39
-7.29 3.05 2.39
-7.35 2.90 2.39
-7.41 2.75 2.39
-7.46 2.60 2.39
-7.52 2.45 2.39
-7.56 2.30 2.39
-7.61 2.15 2.39
-7.65 2.00 2.39
-7.69 1.84 2.39
-7.73 1.69 2.39
-7.77 1.53 2.39
-7.80 1.37 2.39
-7.83 1.22 2.39
-7.85 1.06 2.39
-7.88 0.90 2.39
-7.90 0.74 2.39
-7.91 0.58 2.39
-7.93 0.42 2.39
-7.94 0.26 2.39
-7.94 0.10 2.39
-7.95 -0.06 2.39
-7.95 -0.22 2.39
-7.95 -0.38 2.39
-7.94 -0.54 2.39
-7.94 -0.70 2.39
-7.93 -0.86 2.39
-7.91 -1.02 2.39
-7.90 -1.18 2.39
-7.88 -1.34 2.39
-7.85 -1.50 2.39
-7.83 -1.66 2.39
-7.80 -1.82 2.39
-7.77 -1.98 2.39
-7.73 -2.13 2.39
-7.69 -2.29 2.39
-7.65 -2.45 2.39
-7.61 -2.60 2.39
-7.56 -2.76 2.39
-7.51 -2.91 2.39
-7.46 -3.07 2.39
-7.40 -3.22 2.39
-7.34 -3.37 2.39
-7.28 -3.52 2.39
-7.22 -3.67 2.39
-7.15 -3.82 2.39
-7.08 -3.97 2.39
-7.00 -4.11 2.39
-6.93 -4.26 2.39
-6.85 -4.40 2.39
-6.76 -4.54 2.39
-6.68 -4.68 2.39
-6.59 -4.82 2.39
-6.50 -4.96 2.39
-6.41 -5.10 2.39
-6.31 -5.23 2.39
-6.21 -5.36 2.39
-6.11 -5.49 2.39
-6.00 -5.62 2.39
-5.90 -5.75 2.39
-5.88 -5.96 2.43
-5.88 -6.21 2.48
-5.80 -6.38 2.49
-5.68 -6.50 2.49
-5.55 -6.63 2.49
-5.43 -6.75 2.49
-5.30 -6.86 2.49
-5.17 -6.98 2.49
-5.03 -7.09 2.49
-4.89 -7.20 2.49
-4.75 -7.30 2.49
-4.61 -7.41 2.49
-4.47 -7.51 2.49
-4.32 -7.61 2.49
-4.18 -7.70 2.49
-4.03 -7.80 2.49
-3.87 -7.89 2.49
-3.72 -7.97 2.49
-3.56 -8.06 2.49
-3.41 -8.14 2.49
-3.25 -8.22 2.49
-3.09 -8.29 2.49
-2.92 -8.36 2.49
-2.76 -8.43 2.49
-2.59 -8.50 2.49
-2.42 -8.56 2.49
-2.25 -8.62 2.49
-2.08 -8.67 2.49
-1.91 -8.73 2.49
-1.74 -8.77 2.49
-1.57 -8.82 2.49
-1.39 -8.86 2.49
-1.21 -8.90 2.49
-1.04 -8.93 2.49
-0.86 -8.96 2.49
-0.68 -8.99 2.49
-0.50 -9.02 2.49
-0.32 -9.04 2.49
-0.14 -9.05 2.49
0.04 -8.33 2.49
0.21 -8.33 2.49
0.38 -8.34 2.49
0.54 -8.34 2.49
0.71 -8.34 2.49
0.88 -8.33 2.49
1.05 -8.32 2.49
1.21 -8.31 2.49
1.38 -8.29 2.49
1.55 -8.27 2.49
1.72 -8.25 2.49
1.88 -8.22 2.49
2.05 -8.19 2.49
2.14 -7.89 2.41
2.28 -7.78 2.39
2.44 -7.74 2.39
2.60 -7.70 2.39
2.75 -7.65 2.39
2.91 -7.60 2.39
3.06 -7.55 2.39
3.21 -7.49 2.39
3.37 -7.44 2.39
3.52 -7.37 2.39
3.67 -7.31 2.39
3.82 -7.24 2.39
3.96 -7.17 2.39
4.11 -7.09 2.39
4.25 -7.01 2.39
4.40 -6.93 2.39
4.54 -6.85 2.39
4.68 -6.76 2.39
4.81 -6.67 2.39
4.95 -6.58 2.39
5.08 -6.48 2.39
5.21 -6.38 2.39
5.34 -6.28 2.39
5.47 -6.18 2.39
5.60 -6.07 2.39
5.72 -5.96 2.39
5.84 -5.85 2.39
5.96 -5.73 2.39
6.08 -5.61 2.39
6.19 -5.49 2.39
6.89 -5.88 2.62
7.01 -5.74 2.61
7.10 -5.58 2.61
7.23 -5.45 2.61
7.36 -5.32 2.62
7.49 -5.19 2.63
7.61 -5.06 2.63
7.73 -4.92 2.64
7.85 -4.77 2.65
8.06 -4.68 2.69
8.27 -4.59 2.72
8.49 -4.49 2.76
8.70 -4.38 2.81
8.80 -4.21 2.81
8.90 -4.04 2.82
9.00 -3.87 2.82
8.99 -3.66 2.80
9.01 -3.46 2.78
9.04 -3.27 2.77
9.08 -3.07 2.76
9.11 -2.88 2.75
9.13 -2.69 2.74
9.16 -2.50 2.74
9.18 -2.31 2.73
9.21 -2.12 2.72
9.23 -1.94 2.72
9.24 -1.75 2.71
9.26 -1.56 2.71
9.30 -1.38 2.71
9.33 -1.19 2.72
9.36 -1.01 2.72
9.39 -0.82 2.73
9.42 -0.63 2.73
9.45 -0.44 2.74
9.48 -0.26 2.74
9.45 -0.07 2.74
9.42 0.12 2.73
9.39 0.31 2.72
9.36 0.50 2.72
9.36 0.68 2.72
9.35 0.87 2.73
9.35 1.06 2.73
7.48 1.00 2.20
7.28 1.12 2.14
9.32 1.63 2.76
9.31 1.82 2.76
9.29 2.01 2.77
9.31 2.21 2.80
9.34 2.41 2.82
9.34 2.61 2.84
9.31 2.81 2.85
9.29 3.00 2.86
9.26 3.20 2.87
9.23 3.39 2.89
9.19 3.59 2.90
9.16 3.79 2.91
9.12 3.99 2.93
9.08 4.19 2.95
9.04 4.40 2.97
9.01 4.61 2.99
8.96 4.81 3.00
8.90 5.01 3.02
8.64 5.09 2.97
8.35 5.15 2.91
8.07 5.20 2.85
7.79 5.24 2.79
7.51 5.28 2.73
7.24 5.31 2.67
6.37 4.87 2.39
6.27 4.99 2.39
6.16 5.11 2.39
6.05 5.23 2.39
5.93 5.34 2.39
5.82 5.45 2.39
5.70 5.56 2.39
5.58 5.67 2.39
5.46 5.77 2.39
5.34 5.87 2.39
5.21 5.97 2.39
5.08 6.06 2.39
4.96 6.16 2.39
4.83 6.25 2.39
4.69 6.34 2.39
4.56 6.42 2.39
4.42 6.50 2.39
4.29 6.58 2.39
4.15 6.66 2.39
4.01 6.73 2.39
3.87 6.80 2.39
3.73 6.87 2.39
3.58 6.93 2.39
3.44 6.99 2.39
3.29 7.05 2.39
3.15 7.11 2.39
3.00 7.16 2.39
2.85 7.21 2.39
2.70 7.26 2.39
2.56 7.30 2.39
2.45 7.48 2.44
2.35 7.70 2.49
2.19 7.73 2.49
2.04 7.77 2.49
1.88 7.79 2.49
1.72 7.82 2.49
1.56 7.84 2.49
1.40 7.86 2.49
1.24 7.88 2.49
1.08 7.89 2.49
0.92 7.91 2.49
0.76 7.91 2.49
0.60 7.92 2.49
0.44 7.92 2.49
0.28 7.92 2.49
0.12 7.91 2.49
-0.04 7.90 2.49
-0.20 7.89 2.49
-0.36 7.88 2.49
-0.51 7.86 2.49
-0.67 7.84 2.49
-0.83 7.81 2.49
-0.98 7.79 2.49
-1.14 7.76 2.49
-1.29 7.73 2.49
-1.45 7.69 2.49
-1.60 7.65 2.49
-1.75 7.61 2.49
-1.90 7.57 2.49
-2.05 7.52 2.49
-2.20 7.47 2.49
-2.35 7.42 2.49
-2.50 7.36 2.49
-2.64 7.30 2.49
-2.79 7.24 2.49
-2.93 7.18 2.49
-3.07 7.11 2.49
-3.21 7.04 2.49
-3.35 6.97 2.49
-3.49 6.89 2.49
-3.62 6.82 2.49
-3.76 6.74 2.49
-3.89 6.66 2.49
-4.02 6.57 2.49
-4.15 6.49 2.49
-4.28 6.40 2.49
-4.40 6.30 2.49
-4.52 6.21 2.49
-4.65 6.11 2.49
-4.77 6.02 2.49
-4.88 5.92 2.49
-5.00 5.81 2.49
-5.11 5.71 2.49
-5.22 5.60 2.49
-5.33 5.49 2.49
-5.44 5.38 2.49
-5.55 5.27 2.49
-5.65 5.15 2.49
-5.65 4.95 2.45
-5.66 4.76 2.41
-5.70 4.60 2.39
-5.79 4.48 2.39
-5.88 4.36 2.39
-5.96 4.24 2.39
-6.04 4.12 2.39
-6.12 3.99 2.39
-6.20 3.87 2.39
-6.28 3.74 2.39
-6.35 3.61 2.39
-6.42 3.49 2.39
-6.49 3.35 2.39
-6.56 3.22 2.39
-6.62 3.09 2.39
-6.68 2.96 2.39
-6.74 2.82 2.39
-6.80 2.68 2.39
-6.85 2.55 2.39
-6.90 2.41 2.39
-6.95 2.27 2.39
-6.99 2.13 2.39
-7.04 1.99 2.39
-7.08 1.84 2.39
-7.11 1.70 2.39
-7.15 1.56 2.39
-7.18 1.41 2.39
-7.21 1.27 2.39
-7.23 1.12 2.39
-7.26 0.98 2.39
-7.28 0.83 2.39
-7.30 0.68 2.39
-7.31 0.54 2.39
-7.32 0.39 2.39
-7.33 0.24 2.39
-7.34 0.09 2.39
-7.35 -0.05 2.39
-7.35 -0.20 2.39
-7.34 -0.35 2.39
-7.34 -0.50 2.39
-7.33 -0.65 2.39
-7.32 -0.80 2.39
-7.31 -0.94 2.39
-7.29 -1.09 2.39
-7.28 -1.24 2.39
-7.25 -1.39 2.39
-7.23 -1.53 2.39
-7.20 -1.68 2.39
-7.17 -1.83 2.39
-7.14 -1.97 2.39
-7.10 -2.12 2.39
-7.07 -2.26 2.39
-7.02 -2.41 2.39
-6.98 -2.55 2.39
-6.93 -2.69 2.39
-6.88 -2.83 2.39
-6.83 -2.97 2.39
-6.78 -3.11 2.39
-6.72 -3.25 2.39
-6.66 -3.39 2.39
-6.59 -3.53 2.39
-6.53 -3.66 2.39
-6.46 -3.80 2.39
-6.39 -3.93 2.39
-6.32 -4.06 2.39
-6.24 -4.19 2.39
-6.16 -4.32 2.39
-6.08 -4.45 2.39
-5.99 -4.58 2.39
-5.91 -4.70 2.39
-5.86 -4.86 2.41
-5.85 -5.06 2.45
-5.86 -5.27 2.49
-5.77 -5.41 2.49
-5.67 -5.53 2.49
-5.56 -5.65 2.49
-5.46 -5.77 2.49
-5.34 -5.88 2.49
-5.23 -6.00 2.49
-5.12 -6.11 2.49
-5.00 -6.22 2.49
-4.88 -6.32 2.49
-4.76 -6.43 2.49
-4.63 -6.53 2.49
-4.51 -6.63 2.49
-4.38 -6.73 2.49
-4.25 -6.82 2.49
-4.11 -6.92 2.49
-3.98 -7.01 2.49
-3.84 -7.09 2.49
-3.70 -7.18 2.49
-3.56 -7.26 2.49
-3.42 -7.34 2.49
-3.28 -7.42 2.49
-3.13 -7.49 2.49
-2.98 -7.56 2.49
-2.84 -7.63 2.49
-2.69 -7.70 2.49
-2.53 -7.76 2.49
-2.38 -7.82 2.49
-2.23 -7.87 2.49
-2.07 -7.93 2.49
-1.91 -7.98 2.49
-1.76 -8.02 2.49
-1.60 -8.07 2.49
-1.44 -8.11 2.49
-1.27 -8.15 2.49
-1.11 -8.18 2.49
-0.95 -8.21 2.49
-0.79 -8.24 2.49
-0.62 -8.26 2.49
-0.46 -8.28 2.49
-0.29 -8.30 2.49
-0.12 -8.32 2.49
0.04 -7.69 2.49
0.20 -7.70 2.49
0.35 -7.70 2.49
0.51 -7.70 2.49
0.66 -7.70 2.49
0.81 -7.69 2.49
0.97 -7.68 2.49
1.12 -7.67 2.49
1.28 -7.65 2.49
1.43 -7.63 2.49
1.59 -7.61 2.49
1.74 -7.59 2.49
1.89 -7.56 2.49
2.05 -7.52 2.49
2.15 -7.32 2.44
2.25 -7.14 2.39
2.40 -7.10 2.39
2.54 -7.06 2.39
2.68 -7.01 2.39
2.83 -6.96 2.39
2.97 -6.91 2.39
3.11 -6.86 2.39
3.25 -6.80 2.39
3.39 -6.74 2.39
3.52 -6.68 2.39
3.66 -6.61 2.39
3.79 -6.54 2.39
3.92 -6.47 2.39
4.06 -6.39 2.39
4.19 -6.31 2.39
4.31 -6.23 2.39
4.44 -6.15 2.39
4.56 -6.06 2.39
4.69 -5.97 2.39
4.81 -5.88 2.39
4.93 -5.79 2.39
5.05 -5.69 2.39
5.16 -5.59 2.39
5.27 -5.49 2.39
5.39 -5.39 2.39
5.49 -5.28 2.39
5.60 -5.17 2.39
5.71 -5.06 2.39
5.81 -4.95 2.39
5.91 -4.83 2.39
6.00 -4.72 2.39
6.10 -4.60 2.39
6.19 -4.48 2.39
6.79 -4.71 2.59
6.91 -4.59 2.59
7.01 -4.46 2.60
7.12 -4.33 2.61
