ply
format ascii 1.0
element vertex 2745
property float32 x
property float32 y
property float32 z
end_header
28.65 0.43 -3.08
28.95 1.02 -3.11
29.72 1.64 -3.20
29.74 2.24 -3.20
29.84 2.85 -3.22
31.32 3.63 -3.39
34.01 4.64 -3.69
36.31 5.70 -3.95
38.71 6.87 -4.22
37.54 7.44 -4.11
38.03 8.34 -4.18
37.89 9.11 -4.18
3.05 6.63 -0.78
29.48 -39.40 -4.17
30.17 -38.68 -4.15
30.22 -37.18 -4.06
30.84 -36.43 -4.04
31.21 -35.40 -3.99
31.29 -34.08 -3.92
31.21 -32.66 -3.82
30.94 -31.09 -3.71
31.00 -29.93 -3.65
30.89 -28.65 -3.57
30.64 -27.30 -3.47
30.22 -25.85 -3.37
29.64 -24.34 -3.25
28.22 -22.24 -3.04
26.98 -20.40 -2.86
27.62 -20.02 -2.89
27.53 -19.13 -2.84
28.01 -18.64 -2.85
27.88 -17.76 -2.80
27.67 -16.85 -2.74
27.31 -15.89 -2.67
26.81 -14.89 -2.60
26.56 -14.06 -2.54
26.31 -13.26 -2.49
26.17 -12.53 -2.46
26.05 -11.84 -2.42
25.91 -11.16 -2.39
25.94 -10.55 -2.37
25.99 -9.97 -2.36
26.02 -9.39 -2.34
26.02 -8.80 -2.32
25.97 -8.21 -2.31
26.02 -7.65 -2.30
26.26 -7.15 -2.30
26.39 -6.62 -2.30
26.52 -6.09 -2.30
26.72 -5.58 -2.31
26.93 -5.06 -2.32
27.19 -4.54 -2.33
27.36 -4.01 -2.34
27.53 -3.47 -2.35
27.67 -2.93 -2.36
27.86 -2.38 -2.37
28.04 -1.83 -2.38
28.44 -1.29 -2.41
28.23 -0.71 -2.39
28.43 -0.14 -2.41
28.87 0.43 -2.44
30.14 1.06 -2.55
30.17 1.67 -2.56
30.38 2.29 -2.58
29.91 2.86 -2.54
31.61 3.67 -2.69
32.53 4.43 -2.78
34.34 5.39 -2.94
37.86 6.72 -3.25
37.47 7.43 -3.23
37.02 8.12 -3.21
37.47 9.00 -3.26
3.05 6.63 -0.62
28.96 -38.71 -3.00
29.85 -38.26 -3.01
30.10 -37.03 -2.96
30.45 -35.97 -2.92
30.43 -34.51 -2.85
30.58 -33.30 -2.80
30.49 -31.90 -2.74
30.26 -30.41 -2.66
30.31 -29.26 -2.61
30.02 -27.84 -2.54
29.69 -26.45 -2.47
29.25 -25.02 -2.39
28.80 -23.65 -2.31
26.91 -21.21 -2.12
27.00 -20.41 -2.10
28.06 -20.34 -2.15
27.04 -18.79 -2.04
26.90 -17.90 -2.00
27.54 -17.54 -2.02
27.38 -16.67 -1.99
26.74 -15.56 -1.92
26.29 -14.60 -1.86
26.08 -13.81 -1.83
25.86 -13.03 -1.80
25.75 -12.33 -1.77
25.65 -11.66 -1.75
25.55 -11.00 -1.72
25.60 -10.42 -1.71
25.65 -9.84 -1.70
25.69 -9.27 -1.69
25.68 -8.69 -1.68
25.64 -8.10 -1.67
25.60 -7.53 -1.65
25.80 -7.03 -1.66
25.89 -6.50 -1.66
25.98 -5.97 -1.65
26.15 -5.46 -1.66
26.34 -4.95 -1.66
26.46 -4.42 -1.66
26.77 -3.92 -1.68
27.17 -3.43 -1.70
27.33 -2.89 -1.70
27.51 -2.35 -1.71
27.70 -1.81 -1.72
28.05 -1.27 -1.74
28.41 -0.71 -1.76
28.41 -0.14 -1.76
29.58 0.45 -1.83
29.85 1.05 -1.85
29.88 1.65 -1.86
29.88 2.25 -1.86
29.72 2.84 -1.85
29.82 3.46 -1.86
31.75 4.33 -1.99
33.07 5.19 -2.08
33.88 6.01 -2.13
37.34 7.40 -2.36
37.38 8.19 -2.37
37.45 9.00 -2.39
3.05 6.63 -0.45
29.52 -39.45 -1.94
29.42 -37.71 -1.89
29.72 -36.56 -1.86
30.08 -35.52 -1.84
29.69 -33.67 -1.77
29.08 -31.67 -1.70
29.63 -31.00 -1.69
29.61 -29.76 -1.66
29.46 -28.44 -1.61
29.17 -27.05 -1.57
28.77 -25.62 -1.52
28.54 -24.42 -1.48
28.19 -23.15 -1.44
27.47 -21.65 -1.38
27.48 -20.78 -1.36
27.78 -20.14 -1.35
26.71 -18.56 -1.28
26.90 -17.90 -1.27
27.37 -17.43 -1.28
26.93 -16.40 -1.24
25.96 -15.10 -1.18
25.79 -14.32 -1.16
25.62 -13.56 -1.14
25.45 -12.82 -1.12
25.35 -12.14 -1.11
25.26 -11.48 -1.09
25.21 -10.85 -1.08
25.27 -10.28 -1.08
25.32 -9.72 -1.07
25.37 -9.15 -1.06
25.35 -8.57 -1.06
25.31 -8.00 -1.05
25.27 -7.43 -1.04
25.32 -6.90 -1.03
25.41 -6.38 -1.03
25.50 -5.86 -1.03
25.59 -5.34 -1.03
25.77 -4.84 -1.03
25.88 -4.33 -1.03
25.99 -3.81 -1.04
26.36 -3.32 -1.05
26.67 -2.82 -1.06
27.18 -2.32 -1.08
27.36 -1.79 -1.08
27.55 -1.25 -1.09
27.88 -0.70 -1.10
27.89 -0.14 -1.10
29.24 0.44 -1.15
29.56 1.04 -1.17
29.59 1.64 -1.17
29.60 2.23 -1.17
29.80 2.85 -1.18
30.48 3.53 -1.21
31.31 4.27 -1.25
31.62 4.96 -1.26
32.33 5.74 -1.29
33.43 6.63 -1.34
36.93 8.10 -1.49
3.05 6.63 -0.29
28.87 -40.24 -0.84
28.98 -38.73 -0.82
28.98 -37.15 -0.80
29.35 -36.10 -0.79
29.35 -34.66 -0.77
29.00 -32.89 -0.74
29.30 -31.91 -0.73
29.23 -30.58 -0.71
28.79 -28.93 -0.69
28.42 -27.44 -0.67
28.23 -26.18 -0.65
27.98 -24.92 -0.63
27.89 -23.85 -0.62
27.73 -22.77 -0.61
27.76 -21.88 -0.60
27.54 -20.82 -0.58
27.47 -19.92 -0.57
27.35 -19.00 -0.56
27.24 -18.12 -0.55
26.91 -17.14 -0.54
26.10 -15.89 -0.52
25.46 -14.82 -0.50
25.31 -14.05 -0.49
25.16 -13.31 -0.48
25.01 -12.60 -0.47
24.87 -11.91 -0.47
24.74 -11.24 -0.46
24.71 -10.64 -0.45
24.80 -10.09 -0.45
24.90 -9.55 -0.45
25.00 -9.02 -0.45
24.96 -8.44 -0.45
24.90 -7.87 -0.44
24.85 -7.31 -0.44
24.82 -6.76 -0.43
24.90 -6.25 -0.43
25.01 -5.75 -0.43
25.11 -5.24 -0.43
25.22 -4.74 -0.43
25.33 -4.23 -0.43
25.44 -3.73 -0.43
25.60 -3.23 -0.44
25.83 -2.73 -0.44
25.88 -2.21 -0.44
25.93 -1.69 -0.44
27.20 -1.23 -0.46
27.38 -0.69 -0.46
27.38 -0.14 -0.46
27.39 0.41 -0.46
29.28 1.03 -0.49
29.32 1.62 -0.50
29.32 2.21 -0.50
29.32 2.80 -0.50
29.68 3.44 -0.50
29.87 4.07 -0.51
30.48 4.78 -0.52
31.30 5.56 -0.54
31.61 6.27 -0.54
32.60 7.15 -0.56
34.95 8.40 -0.61
36.82 9.63 -0.64
3.05 6.63 -0.12
26.44 -41.97 0.28
26.78 -40.68 0.27
27.01 -39.29 0.27
27.85 -38.82 0.27
28.19 -37.68 0.26
28.50 -36.54 0.26
28.91 -35.57 0.26
28.55 -33.72 0.25
28.26 -32.05 0.24
28.36 -30.89 0.24
27.89 -29.18 0.23
27.67 -27.81 0.22
27.48 -26.53 0.22
27.34 -25.36 0.21
27.30 -24.32 0.21
27.26 -23.32 0.20
27.28 -22.40 0.20
27.32 -21.53 0.20
27.23 -20.59 0.19
27.17 -19.70 0.19
26.76 -18.59 0.18
26.14 -17.40 0.18
25.63 -16.32 0.17
25.16 -15.33 0.17
24.82 -14.44 0.16
24.52 -13.61 0.16
24.36 -12.90 0.16
24.43 -12.31 0.15
24.31 -11.64 0.15
24.20 -11.00 0.15
24.21 -10.42 0.15
24.26 -9.87 0.15
24.36 -9.35 0.15
24.43 -8.82 0.15
24.45 -8.27 0.15
24.40 -7.71 0.14
24.35 -7.16 0.14
24.34 -6.63 0.14
24.36 -6.11 0.14
24.46 -5.62 0.14
24.56 -5.13 0.14
24.60 -4.62 0.14
24.68 -4.13 0.14
24.83 -3.64 0.14
24.97 -3.15 0.14
25.06 -2.65 0.14
25.10 -2.15 0.14
25.14 -1.64 0.14
25.18 -1.14 0.14
25.84 -0.65 0.15
26.52 -0.13 0.15
26.53 0.40 0.15
26.54 0.93 0.15
26.77 1.48 0.15
26.97 2.03 0.15
27.16 2.60 0.15
27.77 3.22 0.16
28.74 3.92 0.16
29.04 4.55 0.17
29.37 5.21 0.17
29.76 5.90 0.17
30.30 6.64 0.17
31.25 7.51 0.18
32.05 8.39 0.19
34.51 9.77 0.20
3.05 6.63 0.04
4.65 19.78 0.11
4.34 20.27 0.12
4.01 20.77 0.12
3.67 21.29 0.12
3.31 21.84 0.12
2.93 22.30 0.13
2.52 22.75 0.13
2.10 23.20 0.13
1.67 23.68 0.13
1.21 24.06 0.14
0.74 24.53 0.14
0.25 24.91 0.14
-0.25 25.31 0.14
-0.77 25.73 0.14
-1.31 26.05 0.15
-1.86 26.39 0.15
-2.41 26.66 0.15
-2.99 26.93 0.15
-3.57 27.21 0.15
-4.17 27.50 0.16
-4.78 27.74 0.16
-5.38 27.87 0.16
-5.99 27.99 0.16
-6.61 28.12 0.16
-7.24 28.25 0.16
-7.89 28.39 0.17
-8.52 28.46 0.17
-9.15 28.46 0.17
-9.79 28.46 0.17
-10.43 28.46 0.17
-11.08 28.46 0.17
-11.74 28.46 0.17
-12.42 28.46 0.17
-13.10 28.46 0.18
-13.80 28.46 0.18
-14.52 28.46 0.18
-15.24 28.45 0.18
-15.99 28.45 0.18
-16.75 28.45 0.19
-17.53 28.45 0.19
-18.32 28.45 0.19
-19.14 28.45 0.19
-19.98 28.45 0.20
-20.85 28.45 0.20
-21.74 28.45 0.20
-22.66 28.45 0.20
-23.61 28.45 0.21
-24.59 28.45 0.21
-25.60 28.45 0.22
-26.66 28.45 0.22
-27.75 28.45 0.22
-28.89 28.45 0.23
-30.07 28.45 0.23
-31.31 28.45 0.24
-32.60 28.45 0.24
-33.95 28.45 0.25
-35.37 28.45 0.26
-36.86 28.45 0.26
-38.43 28.45 0.27
-40.09 28.45 0.28
-45.99 16.08 0.27
-25.45 6.12 0.15
-23.74 5.20 0.14
-23.82 4.72 0.14
-23.91 4.24 0.14
-23.99 3.76 0.14
-24.06 3.28 0.14
-24.12 2.80 0.14
-24.17 2.31 0.14
-24.21 1.83 0.14
-24.24 1.34 0.14
-24.26 0.85 0.14
-24.27 0.37 0.14
-24.28 -0.12 0.14
-24.27 -0.61 0.14
-24.25 -1.10 0.14
-24.23 -1.58 0.14
-24.19 -2.07 0.14
-24.14 -2.55 0.14
-24.09 -3.04 0.14
-24.02 -3.52 0.14
-23.95 -4.00 0.14
-23.86 -4.48 0.14
-23.77 -4.96 0.14
-23.66 -5.44 0.14
-23.55 -5.91 0.14
-23.42 -6.38 0.14
-23.29 -6.85 0.14
-23.15 -7.32 0.14
-23.00 -7.78 0.14
-22.84 -8.24 0.14
-22.67 -8.70 0.14
-22.49 -9.15 0.14
-22.30 -9.60 0.14
-22.10 -10.04 0.14
-21.90 -10.49 0.14
-21.68 -10.92 0.14
-21.46 -11.36 0.14
-21.22 -11.79 0.14
-20.98 -12.21 0.14
-20.73 -12.63 0.14
-20.48 -13.04 0.14
-20.21 -13.45 0.14
-19.94 -13.85 0.14
-19.66 -14.25 0.14
-19.37 -14.64 0.14
-19.07 -15.03 0.14
-18.76 -15.41 0.14
-18.45 -15.78 0.14
-18.13 -16.15 0.14
-17.80 -16.51 0.14
-17.51 -16.91 0.14
-17.29 -17.38 0.14
-24.44 -25.57 0.20
-23.93 -26.06 0.20
-23.40 -26.54 0.20
-22.86 -27.00 0.20
-22.31 -27.45 0.20
-21.76 -27.90 0.20
-21.19 -28.33 0.20
-20.62 -28.75 0.20
-15.48 -22.52 0.15
-15.45 -23.47 0.16
-15.43 -24.49 0.16
-15.41 -25.59 0.17
-15.37 -26.72 0.17
-15.47 -28.19 0.18
-15.46 -29.56 0.19
-15.44 -31.04 0.20
-15.16 -32.06 0.20
-15.04 -33.53 0.21
-14.50 -34.16 0.21
-13.96 -34.80 0.21
-15.32 -40.53 0.24
-15.35 -43.23 0.26
-15.34 -46.11 0.27
23.92 -43.60 1.40
24.29 -42.24 1.37
24.87 -41.30 1.36
25.45 -40.41 1.34
25.85 -39.27 1.32
26.45 -38.47 1.31
27.26 -38.00 1.32
27.67 -36.98 1.30
28.04 -35.95 1.28
28.22 -34.72 1.26
27.76 -32.78 1.21
27.44 -31.12 1.17
26.95 -29.35 1.12
26.74 -27.98 1.09
26.56 -26.70 1.06
26.44 -25.53 1.03
26.26 -24.35 1.01
26.23 -23.36 0.99
26.16 -22.38 0.97
26.26 -21.56 0.96
26.11 -20.57 0.94
25.77 -19.49 0.91
25.51 -18.50 0.89
25.28 -17.56 0.87
24.62 -16.38 0.83
23.72 -15.10 0.79
23.79 -14.49 0.78
23.87 -13.89 0.78
23.61 -13.11 0.76
23.71 -12.55 0.76
23.81 -12.00 0.75
23.77 -11.38 0.74
23.72 -10.78 0.73
23.73 -10.22 0.73
23.75 -9.66 0.72
23.84 -9.15 0.72
23.89 -8.62 0.72
23.93 -8.10 0.71
23.93 -7.56 0.71
23.88 -7.02 0.70
23.88 -6.51 0.70
23.89 -5.99 0.69
23.94 -5.50 0.69
24.04 -5.02 0.69
24.05 -4.52 0.69
24.05 -4.02 0.69
24.15 -3.54 0.69
24.29 -3.06 0.69
24.36 -2.58 0.69
24.40 -2.09 0.69
24.45 -1.60 0.69
24.49 -1.11 0.69
24.55 -0.62 0.69
24.73 -0.12 0.70
25.02 0.38 0.70
25.47 0.90 0.72
25.65 1.42 0.72
25.98 1.96 0.73
26.22 2.51 0.74
26.41 3.06 0.75
26.60 3.63 0.76
27.11 4.25 0.77
27.83 4.94 0.80
28.17 5.59 0.81
28.52 6.25 0.82
28.82 6.93 0.83
29.31 7.67 0.85
30.34 8.59 0.89
33.37 10.18 0.98
3.05 6.63 0.21
4.65 19.78 0.57
4.34 20.27 0.58
4.01 20.77 0.60
3.67 21.29 0.61
3.31 21.84 0.62
2.93 22.30 0.63
2.52 22.75 0.64
2.10 23.20 0.66
1.67 23.68 0.67
1.21 24.06 0.68
0.74 24.53 0.69
0.25 24.91 0.70
-0.25 25.31 0.71
-0.77 25.73 0.72
-1.31 26.05 0.73
-1.86 26.39 0.74
-2.41 26.66 0.75
-2.99 26.93 0.76
-3.57 27.21 0.77
-4.17 27.50 0.78
-4.78 27.74 0.79
-5.38 27.87 0.80
-5.99 27.99 0.81
-6.61 28.12 0.81
-7.24 28.25 0.82
-7.89 28.39 0.83
-8.52 28.46 0.84
-9.15 28.46 0.84
-9.79 28.46 0.85
-10.43 28.46 0.85
-11.08 28.46 0.86
-11.74 28.46 0.87
-12.42 28.46 0.87
-13.10 28.46 0.88
-13.80 28.46 0.89
-14.52 28.46 0.90
-15.24 28.45 0.91
-15.99 28.45 0.92
-16.75 28.45 0.93
-17.53 28.45 0.94
-18.32 28.45 0.95
-19.14 28.45 0.97
-19.98 28.45 0.98
-20.85 28.45 0.99
-21.74 28.45 1.01
-22.66 28.45 1.02
-23.61 28.45 1.04
-24.59 28.45 1.06
-25.60 28.45 1.08
-26.66 28.45 1.10
-27.75 28.45 1.12
-28.89 28.45 1.14
-30.07 28.45 1.17
-31.31 28.45 1.19
-32.60 28.45 1.22
-33.95 28.45 1.25
-35.37 28.45 1.28
-36.86 28.45 1.31
-38.43 28.45 1.35
-40.09 28.45 1.38
-22.62 7.40 0.67
-21.78 6.65 0.64
-19.71 5.58 0.58
-18.93 4.95 0.55
-18.34 4.41 0.53
-17.80 3.90 0.51
-17.19 3.41 0.49
-16.65 2.95 0.48
-16.27 2.55 0.46
-15.91 2.17 0.45
-15.57 1.81 0.44
-15.36 1.47 0.43
-15.18 1.15 0.43
-15.08 0.83 0.43
-15.01 0.53 0.42
-15.01 0.23 0.42
-15.01 -0.08 0.42
-15.01 -0.38 0.42
-15.01 -0.68 0.42
-14.98 -0.98 0.42
-14.87 -1.27 0.42
-14.77 -1.56 0.42
-14.71 -1.86 0.42
-14.71 -2.16 0.42
-14.71 -2.46 0.42
-14.70 -2.76 0.42
-14.76 -3.08 0.42
-14.89 -3.42 0.43
-14.92 -3.75 0.43
-14.92 -4.06 0.44
-14.91 -4.39 0.44
-14.91 -4.71 0.44
-14.93 -5.05 0.44
-15.03 -5.42 0.45
-15.03 -5.77 0.45
-15.03 -6.11 0.46
-15.02 -6.47 0.46
-15.01 -6.82 0.46
-15.09 -7.23 0.47
-15.14 -7.63 0.48
-15.13 -8.01 0.48
-15.13 -8.40 0.49
-15.12 -8.80 0.49
-15.10 -9.20 0.50
-15.08 -9.61 0.50
-15.08 -10.03 0.51
-15.07 -10.47 0.52
-15.06 -10.92 0.52
-15.16 -11.46 0.54
-15.16 -11.95 0.54
-15.16 -12.45 0.55
-15.16 -12.97 0.56
-15.10 -13.45 0.57
-15.06 -13.97 0.58
-15.04 -14.52 0.59
-15.02 -15.10 0.60
-15.11 -15.81 0.62
-15.10 -16.45 0.63
-15.09 -17.12 0.64
-15.10 -17.83 0.66
-15.08 -18.55 0.67
-15.04 -19.28 0.69
-14.87 -19.88 0.70
-14.85 -20.71 0.72
-14.71 -21.41 0.73
-14.39 -21.86 0.74
-14.06 -22.32 0.74
-13.72 -22.79 0.75
-13.40 -23.31 0.76
-13.35 -24.33 0.78
-13.29 -25.42 0.81
-13.28 -26.69 0.84
-14.69 -31.08 0.97
-14.29 -31.87 0.98
-13.79 -32.48 0.99
-13.28 -33.12 1.00
-12.97 -34.33 1.03
-12.79 -36.00 1.08
-13.41 -40.30 1.20
-14.07 -45.31 1.34
5.36 -44.28 2.26
4.89 -34.58 1.77
5.65 -34.88 1.79
6.26 -34.28 1.77
9.25 -45.48 2.35
10.17 -45.30 2.35
18.22 -45.44 2.48
18.92 -44.56 2.46
19.85 -44.27 2.46
20.33 -42.99 2.41
20.98 -42.16 2.39
21.70 -41.50 2.37
22.48 -40.97 2.37
23.24 -40.40 2.36
23.93 -39.74 2.35
24.54 -38.96 2.34
25.26 -38.38 2.33
25.90 -37.68 2.32
26.51 -36.95 2.31
27.22 -36.37 2.30
27.55 -35.32 2.27
27.51 -33.85 2.21
26.46 -31.25 2.08
25.77 -29.22 1.98
25.72 -28.01 1.93
25.58 -26.77 1.88
25.48 -25.61 1.83
25.33 -24.46 1.79
25.16 -23.33 1.74
25.01 -22.28 1.70
24.82 -21.23 1.66
24.15 -19.83 1.58
23.07 -18.18 1.49
22.84 -17.27 1.45
22.70 -16.46 1.42
22.68 -15.76 1.40
22.66 -15.08 1.38
22.65 -14.42 1.36
22.72 -13.84 1.35
22.79 -13.26 1.34
22.82 -12.67 1.32
23.05 -12.20 1.32
23.19 -11.68 1.32
23.26 -11.14 1.31
23.26 -10.57 1.30
23.27 -10.02 1.29
23.29 -9.48 1.28
23.34 -8.95 1.27
23.38 -8.44 1.26
23.42 -7.92 1.25
23.46 -7.41 1.25
23.43 -6.89 1.24
23.44 -6.39 1.23
23.45 -5.88 1.23
23.45 -5.39 1.22
23.52 -4.91 1.22
23.53 -4.42 1.21
23.53 -3.93 1.21
23.54 -3.45 1.21
23.64 -2.98 1.21
23.70 -2.51 1.21
23.74 -2.03 1.21
23.79 -1.55 1.21
23.83 -1.08 1.21
23.89 -0.60 1.21
23.97 -0.12 1.22
24.10 0.36 1.22
24.38 0.86 1.24
24.53 1.36 1.25
24.66 1.86 1.25
25.23 2.41 1.29
25.51 2.96 1.30
25.69 3.50 1.31
25.86 4.06 1.33
26.21 4.65 1.35
26.66 5.29 1.38
26.89 5.89 1.40
27.42 6.59 1.43
27.72 7.25 1.45
27.90 7.90 1.47
28.33 8.64 1.50
29.28 9.58 1.56
29.93 10.46 1.61
3.05 6.63 0.37
4.65 19.78 1.03
4.34 20.27 1.05
4.01 20.77 1.07
3.67 21.29 1.10
3.31 21.84 1.12
2.93 22.30 1.14
2.52 22.75 1.16
2.10 23.20 1.18
1.67 23.68 1.20
1.21 24.06 1.22
0.74 24.53 1.24
0.25 24.91 1.26
-0.25 25.31 1.28
-0.77 25.73 1.31
-1.31 26.05 1.32
-1.86 26.39 1.34
-2.41 26.66 1.36
-2.99 26.93 1.37
-3.57 27.21 1.39
-4.17 27.50 1.41
-4.78 27.74 1.43
-5.38 27.87 1.44
-5.99 27.99 1.45
-6.61 28.12 1.47
-7.24 28.25 1.48
-7.89 28.39 1.49
-8.52 28.46 1.51
-9.15 28.46 1.52
-9.79 28.46 1.53
-10.43 28.46 1.54
-11.08 28.46 1.55
-11.74 28.46 1.56
-12.42 28.46 1.57
-13.10 28.46 1.59
-13.80 28.46 1.60
-14.52 28.46 1.62
-15.24 28.45 1.64
-15.99 28.45 1.66
-13.40 22.77 1.34
-13.40 21.75 1.30
-13.78 21.40 1.29
-14.40 21.40 1.31
-15.03 21.40 1.33
-15.68 21.40 1.35
-21.74 28.45 1.82
-22.66 28.45 1.84
-23.61 28.45 1.88
-24.59 28.45 1.91
-25.60 28.45 1.94
-26.66 28.45 1.98
-27.75 28.45 2.02
-28.89 28.45 2.06
-30.07 28.45 2.10
-31.31 28.45 2.15
-32.60 28.45 2.19
-33.95 28.45 2.25
-35.37 28.45 2.30
-36.86 28.45 2.36
-38.43 28.45 2.43
-40.09 28.45 2.49
-20.20 13.15 1.22
-23.37 8.70 1.26
-21.53 7.52 1.16
-20.57 6.73 1.10
-19.49 5.95 1.03
-18.66 5.29 0.98
-18.06 4.73 0.95
-17.53 4.21 0.91
-16.84 3.69 0.87
-16.20 3.21 0.84
-15.82 2.81 0.81
-15.49 2.43 0.80
-15.31 2.09 0.78
-15.14 1.76 0.77
-14.97 1.43 0.76
-14.80 1.12 0.75
-14.71 0.81 0.75
-14.61 0.51 0.74
-14.52 0.22 0.74
-14.48 -0.07 0.73
-14.48 -0.36 0.73
-14.48 -0.65 0.73
-14.46 -0.94 0.73
-14.36 -1.23 0.73
-14.25 -1.51 0.73
-14.15 -1.78 0.72
-14.05 -2.06 0.72
-13.95 -2.33 0.72
-13.87 -2.61 0.72
-13.86 -2.89 0.72
-13.96 -3.21 0.73
-14.07 -3.53 0.74
-14.19 -3.87 0.75
-14.29 -4.20 0.76
-14.28 -4.51 0.76
-14.27 -4.83 0.76
-14.32 -5.17 0.77
-14.41 -5.53 0.78
-14.50 -5.90 0.79
-14.51 -6.25 0.80
-14.50 -6.59 0.81
-14.49 -6.94 0.81
-14.60 -7.36 0.83
-14.74 -7.80 0.85
-14.73 -8.18 0.85
-14.72 -8.56 0.86
-14.71 -8.96 0.87
-14.68 -9.35 0.88
-14.64 -9.74 0.89
-14.62 -10.16 0.90
-14.61 -10.59 0.91
-14.59 -11.03 0.93
-14.73 -11.61 0.95
-14.77 -12.13 0.97
-14.77 -12.63 0.99
-14.75 -13.14 1.00
-14.66 -13.60 1.01
-14.58 -14.07 1.03
-14.55 -14.62 1.05
-14.53 -15.21 1.07
-14.69 -16.00 1.10
-14.67 -16.64 1.12
-14.66 -17.31 1.15
-14.67 -18.05 1.18
-14.64 -18.77 1.21
-14.55 -19.44 1.23
-14.37 -20.03 1.25
-14.21 -20.68 1.27
-14.08 -21.39 1.30
-13.75 -21.83 1.31
-13.43 -22.30 1.32
-13.11 -22.80 1.33
-12.83 -23.38 1.35
-12.77 -24.42 1.40
-12.70 -25.52 1.45
-12.66 -26.78 1.50
-12.62 -28.15 1.56
-13.53 -31.88 1.76
-13.04 -32.52 1.78
-12.54 -33.18 1.80
-12.29 -34.61 1.86
-6.39 -19.20 1.03
-5.96 -19.20 1.02
-12.24 -42.41 2.24
-12.29 -46.03 2.42
0.00 -40.99 3.01
0.82 -40.98 3.01
1.65 -40.95 3.01
2.40 -39.75 2.92
3.17 -39.45 2.90
3.97 -39.38 2.90
4.21 -34.79 2.57
4.80 -33.91 2.51
5.40 -33.36 2.48
5.56 -30.42 2.27
5.37 -26.37 1.97
5.76 -25.67 1.93
5.58 -22.72 1.72
5.66 -21.21 1.61
6.24 -21.61 1.65
5.17 -16.65 1.28
5.51 -16.57 1.28
15.80 -44.50 3.46
16.74 -44.30 3.47
17.38 -43.34 3.42
17.89 -42.14 3.36
18.86 -42.07 3.38
19.45 -41.15 3.34
19.93 -40.05 3.28
20.91 -39.99 3.31
21.70 -39.54 3.31
22.04 -38.32 3.24
23.02 -38.24 3.27
23.71 -37.65 3.26
24.14 -36.67 3.22
24.90 -36.22 3.22
25.53 -35.59 3.21
26.04 -34.81 3.19
26.14 -33.51 3.12
25.58 -31.47 2.97
24.21 -28.60 2.75
24.09 -27.32 2.67
23.09 -25.15 2.50
22.93 -23.99 2.43
22.81 -22.92 2.37
22.69 -21.90 2.31
22.60 -20.96 2.26
22.55 -20.09 2.21
22.50 -19.24 2.17
22.44 -18.43 2.13
22.23 -17.52 2.08
22.02 -16.65 2.02
21.83 -15.83 1.98
21.83 -15.17 1.95
21.78 -14.50 1.92
21.74 -13.84 1.89
21.80 -13.28 1.87
21.78 -12.67 1.85
21.71 -12.06 1.82
21.75 -11.51 1.80
21.97 -11.07 1.80
21.92 -10.50 1.78
21.87 -9.94 1.76
21.92 -9.43 1.75
21.96 -8.94 1.74
21.87 -8.39 1.72
21.78 -7.86 1.70
21.92 -7.41 1.70
22.17 -7.01 1.70
22.24 -6.54 1.70
22.31 -6.08 1.70
22.37 -5.61 1.69
22.42 -5.15 1.69
22.60 -4.72 1.69
22.71 -4.27 1.69
22.74 -3.80 1.69
22.76 -3.34 1.69
22.80 -2.88 1.69
22.96 -2.43 1.69
23.11 -1.98 1.70
23.16 -1.51 1.70
23.20 -1.05 1.70
23.26 -0.58 1.71
23.34 -0.12 1.71
23.41 0.35 1.72
23.51 0.83 1.72
23.67 1.31 1.74
23.66 1.78 1.74
23.66 2.26 1.74
23.82 2.76 1.76
24.25 3.31 1.79
24.23 3.80 1.80
25.16 4.47 1.87
25.34 5.02 1.89
25.47 5.58 1.91
25.45 6.12 1.92
25.43 6.66 1.93
25.73 7.29 1.96
25.68 7.83 1.97
25.63 8.38 1.98
26.54 9.28 2.06
26.95 10.03 2.11
26.97 10.66 2.13
26.98 11.29 2.14
30.69 13.58 2.46
3.05 6.63 0.54
4.65 19.78 1.49
4.34 20.27 1.52
4.01 20.77 1.55
3.67 21.29 1.58
3.31 21.84 1.62
2.93 22.30 1.65
2.52 22.75 1.68
2.10 23.20 1.71
1.67 23.68 1.74
1.21 24.06 1.77
0.74 24.53 1.80
0.25 24.91 1.83
-0.25 25.31 1.86
-0.77 25.73 1.89
-1.31 26.05 1.91
-1.86 26.39 1.94
-2.41 26.66 1.96
-2.99 26.93 1.99
-3.57 27.21 2.01
-4.17 27.50 2.04
-4.78 27.74 2.06
-5.38 27.87 2.08
-5.99 27.99 2.10
-6.61 28.12 2.12
-7.24 28.25 2.14
-7.89 28.39 2.16
-8.52 28.46 2.18
-9.15 28.46 2.19
-9.79 28.46 2.21
-10.43 28.46 2.22
-11.08 28.46 2.24
-11.74 28.46 2.26
-12.42 28.46 2.28
-13.10 28.46 2.30
-13.80 28.46 2.32
-14.52 28.46 2.34
-12.10 22.59 1.88
-12.11 21.55 1.81
-12.63 21.45 1.83
-13.07 21.22 1.83
-13.78 21.40 1.87
-14.40 21.40 1.89
-15.03 21.40 1.92
-15.65 21.36 1.94
-16.42 21.49 1.98
-17.12 21.49 2.01
-23.56 28.40 2.71
-27.63 28.34 2.90
-28.20 27.78 2.90
-28.75 27.20 2.90
-29.29 26.62 2.90
-29.82 26.03 2.90
-30.33 25.42 2.90
-30.84 24.81 2.90
-31.64 24.42 2.93
-32.94 24.39 3.01
-33.42 23.72 3.01
-33.89 23.05 3.01
-20.09 13.08 1.76
-20.44 12.73 1.77
-35.22 20.97 3.01
-35.63 20.25 3.01
-36.03 19.54 3.01
-36.41 18.81 3.01
-36.79 18.07 3.01
-37.14 17.33 3.01
-36.19 16.01 2.90
-23.62 9.89 1.88
-21.70 8.58 1.71
-20.99 7.81 1.64
-20.31 7.10 1.58
-19.29 6.31 1.49
-18.48 5.64 1.42
-17.79 5.04 1.36
-17.16 4.49 1.30
-16.50 3.97 1.24
-15.89 3.48 1.19
-15.44 3.06 1.15
-15.26 2.71 1.14
-15.09 2.37 1.12
-14.92 2.03 1.10
-14.75 1.71 1.09
-14.59 1.40 1.07
-14.44 1.09 1.06
-14.35 0.79 1.05
-14.26 0.50 1.05
-14.17 0.21 1.04
-14.08 -0.07 1.03
-13.99 -0.35 1.03
-13.98 -0.63 1.03
-13.97 -0.91 1.03
-13.87 -1.19 1.02
-13.78 -1.46 1.02
-13.68 -1.73 1.01
-13.58 -1.99 1.01
-13.49 -2.25 1.00
-13.42 -2.52 1.00
-13.36 -2.79 1.00
-13.32 -3.06 1.00
-13.36 -3.35 1.01
-13.41 -3.65 1.02
-13.45 -3.96 1.03
-13.53 -4.28 1.04
-13.64 -4.61 1.06
-13.68 -4.93 1.07
-13.74 -5.27 1.08
-13.82 -5.62 1.09
-13.90 -5.99 1.11
-13.99 -6.36 1.13
-14.00 -6.71 1.14
-14.00 -7.06 1.15
-14.13 -7.48 1.17
-14.27 -7.92 1.20
-14.34 -8.34 1.22
-14.32 -8.72 1.23
-14.30 -9.11 1.24
-14.26 -9.49 1.26
-14.22 -9.88 1.27
-14.18 -10.28 1.28
-14.16 -10.70 1.30
-14.16 -11.16 1.32
-14.30 -11.74 1.36
-14.40 -12.31 1.39
-14.38 -12.81 1.41
-14.34 -13.29 1.43
-14.24 -13.75 1.45
-14.14 -14.21 1.47
-14.06 -14.71 1.49
-14.07 -15.32 1.53
-14.22 -16.12 1.58
-14.24 -16.82 1.62
-14.23 -17.51 1.65
-14.24 -18.25 1.70
-14.21 -18.99 1.74
-14.06 -19.60 1.77
-13.87 -20.18 1.80
-13.68 -20.78 1.82
-13.46 -21.37 1.85
-13.16 -21.85 1.87
-12.85 -22.34 1.89
-12.53 -22.84 1.91
-12.26 -23.45 1.94
-12.20 -24.52 2.01
-12.11 -25.62 2.08
-12.05 -26.86 2.16
-11.98 -28.22 2.25
-12.60 -31.42 2.48
-12.31 -32.58 2.55
-11.80 -33.23 2.59
-11.56 -34.76 2.69
-11.35 -36.55 2.81
-10.79 -37.39 2.85
-10.25 -38.40 2.91
-9.44 -38.44 2.90
-8.67 -38.62 2.90
-7.89 -38.78 2.90
-7.11 -38.94 2.90
-6.33 -39.07 2.90
-5.66 -40.00 2.96
-4.92 -40.69 3.01
-4.11 -40.78 3.01
-3.29 -40.85 3.01
-2.47 -40.91 3.01
-1.65 -40.95 3.01
-0.82 -40.98 3.01
0.00 -31.30 3.01
0.63 -31.30 3.01
1.26 -31.28 3.01
1.88 -31.25 3.01
2.42 -30.13 2.90
3.03 -30.07 2.90
3.63 -30.01 2.90
4.23 -29.93 2.90
4.40 -27.15 2.64
4.82 -26.39 2.58
4.63 -22.75 2.23
5.00 -22.28 2.19
4.92 -20.02 1.98
5.33 -19.98 1.99
6.13 -21.22 2.12
5.15 -16.58 1.67
2.49 -7.47 0.76
2.64 -7.43 0.76
2.80 -7.42 0.76
9.31 -23.20 2.40
9.46 -22.29 2.32
9.82 -21.90 2.30
13.81 -29.22 3.10
16.40 -32.97 3.54
17.06 -32.63 3.54
17.71 -32.28 3.54
18.36 -31.92 3.54
18.99 -31.54 3.54
19.62 -31.16 3.54
20.25 -30.76 3.54
20.86 -30.34 3.54
21.46 -29.92 3.54
22.06 -29.48 3.54
22.65 -29.03 3.54
21.87 -26.91 3.33
21.92 -25.88 3.26
21.81 -24.73 3.17
21.86 -23.81 3.10
21.78 -22.79 3.03
21.73 -21.83 2.96
21.67 -20.92 2.89
21.67 -20.10 2.84
21.65 -19.28 2.78
21.63 -18.50 2.73
21.62 -17.75 2.69
21.44 -16.90 2.62
21.25 -16.07 2.56
21.07 -15.28 2.50
20.79 -14.44 2.43
20.66 -13.75 2.38
20.53 -13.08 2.34
20.51 -12.49 2.31
20.39 -11.86 2.26
20.26 -11.25 2.23
20.15 -10.66 2.19
20.03 -10.09 2.15
19.97 -9.56 2.13
19.91 -9.05 2.10
20.06 -8.64 2.10
20.22 -8.23 2.10
20.18 -7.74 2.08
20.13 -7.26 2.05
20.12 -6.81 2.04
20.17 -6.37 2.03
20.21 -5.94 2.02
20.24 -5.51 2.01
20.27 -5.09 2.01
20.24 -4.65 1.99
20.19 -4.21 1.98
20.27 -3.81 1.98
20.43 -3.41 1.99
20.58 -3.02 2.00
20.62 -2.60 2.00
20.75 -2.20 2.00
20.92 -1.79 2.02
21.08 -1.38 2.03
21.20 -0.96 2.04
21.22 -0.53 2.04
21.23 -0.11 2.04
21.23 0.32 2.04
21.22 0.75 2.04
21.41 1.18 2.06
21.38 1.61 2.06
21.34 2.04 2.06
21.30 2.47 2.06
21.25 2.90 2.06
21.32 3.34 2.07
21.62 3.84 2.11
21.92 4.35 2.15
21.87 4.79 2.15
21.83 5.25 2.16
21.96 5.75 2.18
22.07 6.25 2.20
22.03 6.72 2.21
21.98 7.19 2.22
22.10 7.72 2.25
22.22 8.27 2.28
22.33 8.82 2.30
22.42 9.39 2.33
22.97 10.16 2.41
23.77 11.09 2.52
23.80 11.69 2.55
23.70 12.24 2.56
23.59 12.79 2.58
24.23 13.77 2.68
24.30 14.47 2.72
24.26 15.11 2.74
39.76 29.44 4.75
37.51 31.44 4.70
3.05 6.63 0.70
7.09 16.24 1.70
4.65 19.78 1.95
4.34 20.27 1.99
4.01 20.77 2.03
3.67 21.29 2.07
3.31 21.84 2.12
2.93 22.30 2.16
2.52 22.75 2.20
2.10 23.20 2.24
1.67 23.68 2.28
1.21 24.06 2.31
0.74 24.53 2.36
0.25 24.91 2.39
-0.25 25.31 2.43
-0.77 25.73 2.47
-1.31 26.05 2.50
-1.86 26.39 2.54
-2.41 26.66 2.57
-2.99 26.93 2.60
-3.57 27.19 2.63
-4.16 27.43 2.66
-4.02 23.36 2.28
-4.55 23.55 2.30
-5.09 23.77 2.33
-5.64 24.00 2.37
-6.20 24.17 2.40
-6.76 24.33 2.42
-7.33 24.47 2.45
-7.88 24.51 2.47
-8.44 24.55 2.49
-10.40 28.38 2.90
-10.97 28.17 2.90
-11.53 27.94 2.90
-12.09 27.70 2.90
-12.64 27.46 2.90
-13.19 27.20 2.90
-13.74 26.93 2.90
-14.27 26.65 2.90
-14.81 26.35 2.90
-15.33 26.05 2.90
-15.85 25.74 2.90
-16.37 25.41 2.90
-16.87 25.08 2.90
-17.37 24.74 2.90
-17.90 24.44 2.91
-18.66 24.42 2.95
-19.43 24.41 3.00
-19.99 24.09 3.01
-20.47 23.68 3.01
-20.94 23.27 3.01
-21.40 22.84 3.01
-21.85 22.41 3.01
-22.30 21.97 3.01
-22.74 21.51 3.01
-23.16 21.05 3.01
-23.58 20.58 3.01
-23.99 20.11 3.01
-24.39 19.62 3.01
-24.78 19.13 3.01
-25.16 18.63 3.01
-25.53 18.12 3.01
-25.88 17.60 3.01
-20.09 13.08 2.30
-20.44 12.73 2.31
-25.97 15.46 2.90
-26.28 14.94 2.90
-26.57 14.41 2.90
-26.86 13.87 2.90
-27.13 13.33 2.90
-23.42 10.93 2.48
-21.49 9.51 2.26
-20.97 8.78 2.18
-20.47 8.09 2.11
-19.90 7.41 2.04
-19.09 6.67 1.94
-18.15 5.94 1.83
-17.31 5.28 1.74
-16.59 4.70 1.66
-15.89 4.16 1.58
-15.39 3.70 1.52
-15.12 3.31 1.49
-14.94 2.96 1.46
-14.83 2.63 1.45
-14.70 2.31 1.43
-14.54 1.98 1.41
-14.39 1.67 1.39
-14.23 1.36 1.37
-14.10 1.06 1.36
-14.01 0.77 1.35
-13.93 0.49 1.34
-13.84 0.21 1.33
-13.75 -0.07 1.32
-13.67 -0.34 1.31
-13.59 -0.61 1.31
-13.50 -0.88 1.30
-13.44 -1.15 1.29
-13.38 -1.42 1.29
-13.32 -1.68 1.29
-13.26 -1.94 1.29
-13.20 -2.21 1.28
-13.14 -2.47 1.28
-13.08 -2.73 1.28
-13.03 -2.99 1.28
-13.01 -3.27 1.29
-13.02 -3.55 1.30
-13.07 -3.84 1.31
-13.11 -4.14 1.32
-13.16 -4.45 1.33
-13.20 -4.76 1.35
-13.23 -5.08 1.36
-13.26 -5.39 1.37
-13.31 -5.73 1.39
-13.37 -6.08 1.41
-13.43 -6.43 1.43
-13.49 -6.79 1.45
-13.57 -7.18 1.47
-13.68 -7.60 1.50
-13.81 -8.03 1.53
-13.93 -8.48 1.57
-13.94 -8.88 1.59
-13.90 -9.25 1.60
-13.86 -9.63 1.62
-13.81 -10.02 1.64
-13.77 -10.41 1.66
-13.72 -10.81 1.68
-13.75 -11.29 1.71
-13.88 -11.87 1.75
-14.00 -12.47 1.80
-14.00 -12.99 1.83
-13.92 -13.44 1.86
-13.82 -13.89 1.88
-13.72 -14.35 1.91
-13.61 -14.83 1.93
-13.61 -15.43 1.98
-13.74 -16.22 2.04
-13.82 -17.00 2.10
-13.81 -17.70 2.16
-13.80 -18.45 2.21
-13.77 -19.20 2.27
-13.58 -19.76 2.30
-13.33 -20.25 2.33
-13.00 -20.63 2.34
-12.66 -21.02 2.36
-12.41 -21.57 2.39
-12.25 -22.33 2.45
-11.96 -22.88 2.48
-11.70 -23.52 2.52
-11.62 -24.58 2.61
-11.53 -25.71 2.70
-11.43 -26.91 2.81
-11.04 -27.53 2.85
-10.62 -28.11 2.88
-10.20 -28.72 2.93
-9.54 -28.68 2.90
-8.97 -28.87 2.90
-8.38 -29.04 2.90
-7.80 -29.20 2.90
-7.21 -29.36 2.90
-6.62 -29.49 2.90
-6.03 -29.62 2.90
-5.62 -30.79 3.01
-5.01 -30.90 3.01
-4.38 -30.99 3.01
-3.76 -31.08 3.01
-3.14 -31.14 3.01
-2.51 -31.20 3.01
-1.88 -31.25 3.01
-1.26 -31.28 3.01
-0.63 -31.30 3.01
-0.00 -25.30 3.01
0.51 -25.29 3.01
1.02 -25.28 3.01
1.52 -25.25 3.01
2.03 -25.22 3.01
2.45 -24.31 2.90
2.94 -24.25 2.90
3.42 -24.19 2.90
3.91 -24.12 2.90
4.39 -24.03 2.90
4.43 -21.75 2.64
4.50 -20.03 2.44
4.79 -19.51 2.39
5.20 -19.49 2.40
5.66 -19.61 2.42
5.14 -16.54 2.06
2.47 -7.43 0.93
2.64 -7.43 0.94
2.81 -7.43 0.94
2.98 -7.42 0.95
7.00 -16.48 2.13
7.24 -16.14 2.10
4.54 -9.61 1.26
4.62 -9.28 1.23
4.80 -9.17 1.23
14.32 -26.09 3.54
14.84 -25.80 3.54
15.35 -25.50 3.54
15.86 -25.18 3.54
16.36 -24.86 3.54
16.86 -24.52 3.54
17.35 -24.18 3.54
17.83 -23.83 3.54
18.30 -23.47 3.54
18.77 -23.09 3.54
19.23 -22.71 3.54
19.68 -22.32 3.54
19.87 -21.65 3.49
19.98 -20.90 3.43
20.22 -20.32 3.41
20.27 -19.57 3.35
20.39 -18.91 3.30
20.48 -18.24 3.26
20.49 -17.52 3.20
20.20 -16.59 3.10
19.60 -15.45 2.97
19.11 -14.45 2.85
18.61 -13.49 2.73
18.26 -12.69 2.64
18.07 -12.02 2.58
18.09 -11.52 2.55
18.12 -11.03 2.52
18.14 -10.55 2.49
18.14 -10.07 2.46
18.06 -9.56 2.43
17.98 -9.06 2.39
17.93 -8.59 2.36
17.88 -8.13 2.33
17.93 -7.72 2.32
18.16 -7.39 2.33
18.39 -7.05 2.34
18.47 -6.67 2.33
18.58 -6.28 2.33
18.72 -5.92 2.33
18.86 -5.55 2.34
18.99 -5.17 2.34
19.02 -4.77 2.33
18.94 -4.35 2.31
18.85 -3.93 2.29
18.77 -3.52 2.27
18.67 -3.12 2.25
18.65 -2.73 2.24
18.68 -2.36 2.24
18.71 -1.98 2.24
18.74 -1.60 2.23
18.75 -1.23 2.23
18.77 -0.85 2.23
18.86 -0.47 2.24
19.06 -0.10 2.26
19.17 0.29 2.28
19.29 0.68 2.29
19.33 1.07 2.30
19.32 1.46 2.30
19.30 1.85 2.30
19.28 2.24 2.31
19.26 2.63 2.31
19.24 3.02 2.31
19.21 3.41 2.32
19.17 3.80 2.32
19.13 4.19 2.33
19.09 4.59 2.33
19.05 4.98 2.34
19.08 5.41 2.36
19.22 5.86 2.39
19.36 6.33 2.42
19.49 6.81 2.45
19.55 7.28 2.48
19.58 7.74 2.50
19.61 8.21 2.53
19.65 8.69 2.55
19.76 9.22 2.59
19.68 9.67 2.60
19.57 10.11 2.62
19.47 10.56 2.63
19.36 11.01 2.65
19.79 11.78 2.74
20.10 12.52 2.81
20.01 13.03 2.84
20.34 13.83 2.92
21.73 15.42 3.16
22.05 16.33 3.26
38.41 30.90 5.86
6.97 8.75 1.33
6.89 9.01 1.35
8.22 11.22 1.65
3.05 6.63 0.87
6.89 15.80 2.05
5.75 16.72 2.10
5.41 16.81 2.10
4.65 19.78 2.41
4.34 20.27 2.46
4.01 20.77 2.51
3.67 21.29 2.57
3.31 21.84 2.62
2.92 22.23 2.66
2.51 22.67 2.71
1.21 24.06 2.86
0.58 19.39 2.30
0.20 19.89 2.36
-0.20 20.44 2.43
-0.63 20.93 2.49
-1.07 21.30 2.53
-1.72 24.37 2.90
-2.20 24.33 2.90
-2.69 24.28 2.90
-3.18 24.22 2.90
-3.66 24.15 2.90
-4.15 24.08 2.90
-4.63 23.99 2.90
-5.11 23.89 2.90
-5.59 23.78 2.90
-6.12 23.86 2.93
-6.66 23.99 2.96
-7.22 24.12 2.99
-7.75 24.08 3.01
-8.23 23.93 3.01
-8.71 23.76 3.01
-9.18 23.58 3.01
-9.65 23.39 3.01
-10.12 23.19 3.01
-10.58 22.98 3.01
-11.04 22.77 3.01
-11.50 22.54 3.01
-11.95 22.30 3.01
-12.39 22.06 3.01
-12.83 21.80 3.01
-13.27 21.54 3.01
-13.70 21.27 3.01
-14.12 20.99 3.01
-14.54 20.70 3.01
-14.95 20.41 3.01
-15.36 20.10 3.01
-15.76 19.79 3.01
-16.15 19.47 3.01
-16.54 19.14 3.01
-16.92 18.81 3.01
-17.30 18.46 3.01
-17.66 18.11 3.01
-18.02 17.75 3.01
-18.38 17.39 3.01
-18.72 17.02 3.01
-18.41 16.07 2.90
-18.72 15.69 2.90
-19.04 15.31 2.90
-19.34 14.93 2.90
-19.63 14.54 2.90
-19.92 14.14 2.90
-20.20 13.74 2.90
-20.47 13.33 2.90
-20.74 12.92 2.90
-20.99 12.50 2.90
-21.43 12.18 2.93
-5.82 3.16 0.79
-6.05 3.13 0.81
-20.50 10.07 2.71
-20.01 9.34 2.62
-19.58 8.66 2.54
-18.95 7.93 2.44
-18.36 7.26 2.34
-17.42 6.48 2.21
-16.91 5.91 2.13
-16.44 5.38 2.05
-15.83 4.83 1.97
-15.37 4.35 1.90
-15.09 3.95 1.85
-14.83 3.56 1.81
-14.58 3.20 1.77
-14.46 2.87 1.75
-14.36 2.55 1.73
-14.26 2.24 1.71
-14.16 1.93 1.70
-14.04 1.63 1.68
-13.89 1.33 1.66
-13.77 1.04 1.64
-13.69 0.76 1.63
-13.60 0.48 1.62
-13.52 0.20 1.61
-13.44 -0.07 1.60
-13.34 -0.33 1.59
-13.25 -0.60 1.58
-13.16 -0.86 1.57
-13.14 -1.12 1.57
-13.10 -1.39 1.57
-13.04 -1.65 1.56
-12.99 -1.90 1.56
-12.93 -2.16 1.56
-12.87 -2.42 1.56
-12.81 -2.67 1.55
-12.75 -2.93 1.55
-12.73 -3.20 1.56
-12.71 -3.46 1.57
-12.70 -3.74 1.57
-12.74 -4.03 1.59
-12.78 -4.32 1.60
-12.82 -4.63 1.62
-12.86 -4.93 1.64
-12.86 -5.23 1.65
-12.85 -5.53 1.66
-12.89 -5.86 1.68
-12.94 -6.20 1.70
-12.99 -6.54 1.73
-13.04 -6.90 1.75
-13.04 -7.24 1.77
-13.10 -7.62 1.80
-13.28 -8.09 1.85
-13.47 -8.58 1.90
-13.56 -9.02 1.93
-13.51 -9.39 1.95
-13.46 -9.76 1.97
-13.37 -10.11 1.99
-13.29 -10.47 2.01
-13.20 -10.84 2.03
-13.12 -11.23 2.05
-13.39 -11.93 2.13
-13.57 -12.59 2.20
-13.62 -13.15 2.25
-13.52 -13.59 2.28
-13.36 -13.98 2.30
-13.15 -14.33 2.31
-12.95 -14.68 2.33
-12.74 -15.04 2.34
-12.61 -15.52 2.38
-12.51 -16.04 2.42
-13.02 -17.40 2.58
-12.85 -17.91 2.62
-12.73 -18.52 2.67
-12.61 -19.15 2.72
-12.34 -19.59 2.75
-12.05 -20.01 2.78
-11.76 -20.44 2.80
-11.45 -20.87 2.83
-11.14 -21.31 2.86
-10.84 -21.78 2.89
-10.52 -22.24 2.92
-10.18 -22.71 2.96
-9.55 -22.49 2.90
-9.09 -22.68 2.90
-8.64 -22.85 2.90
-8.18 -23.02 2.90
-7.71 -23.18 2.90
-7.25 -23.33 2.90
-6.78 -23.47 2.90
-6.30 -23.60 2.90
-5.85 -23.81 2.91
-5.54 -24.68 3.01
-5.04 -24.79 3.01
-4.55 -24.89 3.01
-4.05 -24.97 3.01
-3.54 -25.05 3.01
-3.04 -25.12 3.01
-2.53 -25.17 3.01
-2.03 -25.22 3.01
-1.52 -25.25 3.01
-1.02 -25.28 3.01
-0.51 -25.29 3.01
-0.00 -21.21 3.01
0.43 -21.21 3.01
0.85 -21.19 3.01
1.28 -21.17 3.01
1.70 -21.14 3.01
2.13 -21.10 3.01
2.46 -20.33 2.90
2.87 -20.28 2.90
3.27 -20.22 2.90
3.68 -20.15 2.90
4.08 -20.07 2.90
4.49 -19.98 2.90
4.79 -19.51 2.85
5.20 -19.45 2.85
5.61 -19.43 2.86
4.81 -15.49 2.30
2.47 -7.43 1.11
2.64 -7.43 1.12
2.81 -7.43 1.12
2.98 -7.42 1.13
4.63 -10.91 1.68
4.26 -9.50 1.48
4.42 -9.35 1.46
4.59 -9.23 1.46
4.81 -9.20 1.47
5.05 -9.20 1.49
12.44 -21.63 3.54
6.15 -10.21 1.69
13.30 -21.11 3.54
13.72 -20.84 3.54
14.13 -20.56 3.54
14.54 -20.27 3.54
14.95 -19.98 3.54
15.35 -19.67 3.54
15.74 -19.36 3.54
16.12 -19.04 3.54
16.50 -18.71 3.54
16.87 -18.38 3.54
17.24 -18.04 3.54
17.60 -17.69 3.54
17.95 -17.33 3.54
18.29 -16.97 3.54
18.45 -16.44 3.50
18.00 -15.40 3.36
17.56 -14.42 3.22
17.14 -13.51 3.09
16.85 -12.74 2.99
16.67 -12.09 2.92
16.50 -11.46 2.85
16.34 -10.87 2.78
16.22 -10.33 2.73
16.24 -9.89 2.69
16.28 -9.47 2.67
16.31 -9.06 2.64
16.40 -8.68 2.63
16.44 -8.28 2.61
16.42 -7.86 2.58
16.40 -7.45 2.55
16.37 -7.05 2.53
16.28 -6.62 2.49
16.18 -6.21 2.45
16.20 -5.85 2.44
16.24 -5.49 2.43
16.28 -5.15 2.42
16.32 -4.80 2.41
16.36 -4.46 2.40
16.40 -4.12 2.40
16.45 -3.78 2.39
16.49 -3.44 2.39
16.53 -3.11 2.38
16.58 -2.77 2.38
16.61 -2.44 2.38
16.64 -2.10 2.38
16.66 -1.76 2.37
16.68 -1.43 2.37
16.70 -1.09 2.37
16.70 -0.75 2.37
16.71 -0.42 2.37
16.71 -0.08 2.37
16.71 0.25 2.37
16.70 0.59 2.37
16.69 0.92 2.37
16.77 1.26 2.38
16.80 1.61 2.39
16.78 1.95 2.39
16.77 2.29 2.40
16.75 2.63 2.40
16.73 2.97 2.41
16.70 3.31 2.41
16.73 3.67 2.43
16.80 4.04 2.45
16.87 4.42 2.47
16.94 4.80 2.49
17.01 5.19 2.52
17.03 5.57 2.54
17.05 5.96 2.56
17.07 6.35 2.58
17.08 6.75 2.60
17.09 7.16 2.63
17.17 7.60 2.66
17.24 8.05 2.70
17.31 8.50 2.73
17.36 8.97 2.77
17.35 9.40 2.80
17.33 9.85 2.82
17.31 10.31 2.85
17.28 10.76 2.88
17.22 11.21 2.91
17.68 12.02 3.03
18.02 12.79 3.13
18.14 13.43 3.20
18.10 13.97 3.24
19.37 15.58 3.52
19.38 16.24 3.58
19.38 16.91 3.64
7.10 8.56 1.58
6.86 8.62 1.56
6.74 8.82 1.57
6.70 9.15 1.61
7.86 11.20 1.94
7.97 11.84 2.02
7.72 11.99 2.02
8.24 13.99 2.30
7.54 13.41 2.18
7.19 13.41 2.16
6.92 13.56 2.16
3.05 6.63 1.03
6.78 15.53 2.40
6.48 15.69 2.41
5.55 16.13 2.42
5.20 16.16 2.41
4.94 16.50 2.44
4.29 20.03 2.90
3.88 20.11 2.90
3.48 20.18 2.90
3.07 20.25 2.90
2.14 16.33 2.33
1.89 17.08 2.43
1.61 17.73 2.52
1.44 20.43 2.90
1.03 20.46 2.90
0.62 20.48 2.90
0.21 20.50 2.90
-0.21 20.50 2.91
-0.62 20.61 2.92
-1.04 20.73 2.94
-1.49 21.13 3.00
-1.91 21.12 3.01
-2.34 21.08 3.01
-2.76 21.03 3.01
-3.18 20.97 3.01
-3.60 20.91 3.01
-4.02 20.83 3.01
-4.44 20.75 3.01
-4.86 20.66 3.01
-5.27 20.56 3.01
-5.68 20.45 3.01
-6.09 20.33 3.01
-6.50 20.21 3.01
-6.90 20.08 3.01
-7.31 19.93 3.01
-7.70 19.78 3.01
-8.10 19.62 3.01
-8.49 19.46 3.01
-8.88 19.28 3.01
-9.26 19.10 3.01
-9.64 18.90 3.01
-10.02 18.70 3.01
-10.39 18.50 3.01
-10.76 18.28 3.01
-11.12 18.06 3.01
-11.48 17.83 3.01
-11.84 17.60 3.01
-12.19 17.36 3.01
-12.54 17.11 3.01
-12.43 16.28 2.90
-12.76 16.02 2.90
-13.08 15.76 2.90
-13.39 15.50 2.90
-13.70 15.23 2.90
-14.00 14.95 2.90
-14.30 14.66 2.90
-14.59 14.37 2.90
-14.88 14.08 2.90
-15.16 13.78 2.90
-15.43 13.47 2.90
-15.70 13.16 2.90
-15.96 12.84 2.90
-16.21 12.52 2.90
-17.60 13.03 3.10
-17.58 12.48 3.05
-17.54 11.93 3.01
-17.50 11.40 2.96
-17.51 10.91 2.92
-17.53 10.44 2.89
-17.53 9.97 2.86
-5.76 3.12 0.93
-6.05 3.13 0.97
-6.35 3.12 1.00
-16.97 7.92 2.65
-16.75 7.41 2.60
-16.45 6.89 2.53
-16.10 6.36 2.45
-15.77 5.87 2.38
-15.48 5.41 2.32
-15.33 5.02 2.29
-15.06 4.59 2.23
-14.80 4.19 2.18
-14.55 3.81 2.13
-14.31 3.44 2.09
-14.11 3.09 2.05
-14.01 2.78 2.02
-13.92 2.47 2.00
-13.82 2.17 1.98
-13.73 1.87 1.96
-13.63 1.58 1.94
-13.54 1.30 1.93
-13.45 1.01 1.91
-13.36 0.74 1.90
-13.27 0.47 1.88
-13.18 0.20 1.87
-13.09 -0.07 1.86
-13.01 -0.33 1.84
-12.92 -0.58 1.83
-12.83 -0.84 1.82
-12.80 -1.09 1.82
-12.79 -1.35 1.82
-12.78 -1.61 1.82
-12.72 -1.86 1.82
-12.67 -2.12 1.82
-12.61 -2.37 1.82
-12.55 -2.62 1.82
-12.49 -2.87 1.82
-12.46 -3.13 1.82
-12.44 -3.39 1.83
-12.43 -3.65 1.84
-12.41 -3.92 1.84
-12.42 -4.20 1.86
-12.46 -4.50 1.88
-12.49 -4.79 1.90
-12.51 -5.09 1.91
-12.50 -5.38 1.93
-12.49 -5.68 1.94
-12.49 -5.98 1.96
-12.53 -6.31 1.99
-12.57 -6.65 2.01
-12.61 -7.00 2.04
-12.59 -7.32 2.06
-12.57 -7.65 2.09
-12.58 -8.01 2.11
-12.74 -8.48 2.17
-12.90 -8.97 2.23
-12.88 -9.34 2.25
-12.82 -9.69 2.28
-12.73 -10.03 2.30
-12.64 -10.38 2.32
-12.55 -10.73 2.34
-12.45 -11.09 2.36
-12.39 -11.49 2.39
-12.33 -11.90 2.43
-12.32 -12.38 2.47
-12.65 -13.23 2.59
-12.51 -13.63 2.62
-12.37 -14.03 2.65
-12.21 -14.42 2.68
-12.00 -14.76 2.69
-11.78 -15.11 2.71
-11.66 -15.59 2.76
-11.54 -16.09 2.81
-11.39 -16.57 2.85
-11.10 -16.86 2.86
-10.80 -17.14 2.87
-10.53 -17.48 2.89
-10.25 -17.83 2.91
-9.97 -18.17 2.94
-9.49 -18.15 2.90
-9.12 -18.34 2.90
-8.75 -18.52 2.90
-8.38 -18.69 2.90
-8.00 -18.85 2.90
-7.62 -19.01 2.90
-7.24 -19.16 2.90
-6.85 -19.30 2.90
-6.47 -19.43 2.90
-6.07 -19.56 2.90
-5.68 -19.68 2.90
-5.47 -20.49 3.01
-5.06 -20.60 3.01
-4.65 -20.69 3.01
-4.23 -20.78 3.01
-3.81 -20.86 3.01
-3.39 -20.94 3.01
-2.97 -21.00 3.01
-2.55 -21.06 3.01
-2.13 -21.10 3.01
-1.70 -21.14 3.01
-1.28 -21.17 3.01
-0.85 -21.19 3.01
-0.43 -21.21 3.01
0.00 -18.24 3.01
0.37 -18.24 3.01
0.73 -18.23 3.01
1.10 -18.21 3.01
1.46 -18.18 3.01
1.83 -18.15 3.01
2.19 -18.11 3.01
2.47 -17.44 2.90
2.82 -17.39 2.90
3.17 -17.33 2.90
3.51 -17.26 2.90
3.86 -17.19 2.90
4.20 -17.11 2.90
4.54 -17.02 2.90
4.58 -15.87 2.72
4.76 -15.33 2.64
2.47 -7.42 1.29
2.64 -7.43 1.30
2.80 -7.42 1.31
4.37 -10.90 1.93
4.57 -10.76 1.93
4.37 -9.75 1.76
4.39 -9.29 1.69
4.58 -9.20 1.69
4.68 -8.96 1.67
5.00 -9.12 1.71
5.25 -9.12 1.73
6.01 -9.97 1.92
6.22 -9.88 1.92
6.48 -9.85 1.94
7.77 -11.31 2.26
8.09 -11.27 2.29
7.82 -10.45 2.15
13.20 -16.92 3.54
13.54 -16.65 3.54
13.87 -16.38 3.54
14.19 -16.10 3.54
14.51 -15.81 3.54
14.83 -15.51 3.54
15.14 -15.21 3.54
15.39 -14.86 3.52
15.62 -14.49 3.51
15.85 -14.12 3.50
15.62 -13.36 3.39
15.45 -12.69 3.29
15.37 -12.12 3.22
15.29 -11.56 3.16
15.19 -11.01 3.09
15.11 -10.50 3.03
15.02 -10.00 2.97
14.93 -9.51 2.92
14.82 -9.03 2.86
14.89 -8.66 2.84
15.01 -8.33 2.83
15.10 -7.99 2.81
15.19 -7.65 2.80
15.27 -7.31 2.79
15.26 -6.93 2.76
15.18 -6.53 2.72
15.10 -6.14 2.69
15.02 -5.76 2.65
14.94 -5.39 2.62
14.85 -5.02 2.58
14.87 -4.70 2.57
14.90 -4.38 2.56
14.93 -4.07 2.55
14.96 -3.75 2.54
14.98 -3.44 2.53
15.01 -3.13 2.53
15.05 -2.83 2.52
15.09 -2.52 2.52
15.13 -2.22 2.52
15.16 -1.91 2.52
15.20 -1.61 2.52
15.22 -1.30 2.52
15.24 -1.00 2.52
15.25 -0.69 2.51
15.24 -0.38 2.51
15.24 -0.08 2.51
15.23 0.23 2.51
15.22 0.53 2.51
15.20 0.84 2.51
15.19 1.15 2.51
15.36 1.47 2.54
15.53 1.80 2.57
15.69 2.14 2.61
15.78 2.48 2.63
15.76 2.80 2.64
15.74 3.12 2.64
15.71 3.44 2.65
15.68 3.77 2.66
15.65 4.09 2.66
15.61 4.42 2.67
15.62 4.76 2.69
15.66 5.12 2.72
15.68 5.48 2.74
15.68 5.84 2.76
15.68 6.20 2.78
15.67 6.56 2.80
15.66 6.93 2.82
15.64 7.30 2.84
15.55 7.64 2.85
15.47 7.99 2.87
15.38 8.34 2.88
15.28 8.69 2.90
15.18 9.04 2.91
15.33 9.55 2.97
15.64 10.19 3.08
15.77 10.72 3.14
15.72 11.16 3.18
15.73 11.65 3.22
15.75 12.16 3.28
16.05 12.91 3.39
16.20 13.58 3.48
15.99 13.96 3.50
15.77 14.33 3.51
15.54 14.70 3.52
15.32 15.09 3.54
15.11 15.50 3.57
14.90 15.91 3.59
14.70 16.34 3.62
7.30 8.45 1.84
7.02 8.47 1.81
6.83 8.58 1.81
6.71 8.79 1.82
6.68 9.12 1.86
7.28 10.37 2.09
7.26 10.79 2.14
7.05 10.94 2.14
6.95 11.28 2.18
7.74 13.16 2.52
7.34 13.07 2.47
7.08 13.22 2.47
6.94 13.61 2.52
6.71 13.83 2.53
3.05 6.63 1.20
6.71 15.38 2.77
6.39 15.49 2.76
6.50 16.68 2.95
5.96 16.25 2.85
5.53 16.07 2.80
5.17 16.08 2.78
4.92 16.43 2.83
4.72 16.97 2.90
4.37 17.06 2.90
4.03 17.15 2.90
2.89 13.52 2.28
2.67 13.83 2.32
2.55 14.80 2.47
2.64 17.42 2.90
2.29 17.47 2.90
1.94 17.51 2.90
1.59 17.54 2.90
1.24 17.57 2.90
0.90 17.96 2.96
0.55 18.23 3.01
0.18 18.24 3.01
-0.18 18.24 3.01
-0.55 18.24 3.01
-0.92 18.22 3.01
-1.28 18.20 3.01
-1.65 18.18 3.01
-2.01 18.14 3.01
-2.38 18.10 3.01
-2.74 18.05 3.01
-3.10 17.99 3.01
-3.46 17.93 3.01
-3.82 17.86 3.01
-4.18 17.78 3.01
-4.53 17.69 3.01
-4.89 17.59 3.01
-5.24 17.49 3.01
-5.59 17.38 3.01
-5.94 17.26 3.01
-6.28 17.14 3.01
-6.62 17.01 3.01
-6.96 16.87 3.01
-7.30 16.73 3.01
-7.63 16.57 3.01
-7.96 16.42 3.01
-8.29 16.25 3.01
-8.62 16.08 3.01
-8.63 15.36 2.90
-8.94 15.18 2.90
-9.24 15.00 2.90
-9.54 14.81 2.90
-9.83 14.62 2.90
-10.12 14.42 2.90
-10.41 14.21 2.90
-10.69 14.00 2.90
-10.97 13.78 2.90
-11.25 13.56 2.90
-11.52 13.33 2.90
-11.78 13.10 2.90
-12.04 12.86 2.90
-12.30 12.61 2.90
-12.55 12.36 2.90
-14.37 13.60 3.26
-14.33 13.03 3.19
-14.38 12.55 3.14
-14.43 12.09 3.10
-14.47 11.64 3.06
-14.50 11.20 3.02
-14.53 10.76 2.98
-14.55 10.33 2.94
-14.62 9.94 2.91
-14.67 9.55 2.88
-14.74 9.18 2.86
-14.87 8.85 2.85
-14.94 8.49 2.83
-5.76 3.12 1.08
-6.05 3.13 1.12
-6.35 3.12 1.17
-15.01 7.00 2.73
-15.01 6.64 2.70
-14.86 6.22 2.65
-14.71 5.81 2.61
-14.57 5.42 2.56
-14.45 5.05 2.52
-14.36 4.70 2.49
-14.27 4.35 2.46
-14.19 4.02 2.43
-14.04 3.68 2.39
-13.82 3.32 2.34
-13.67 3.00 2.31
-13.58 2.69 2.28
-13.50 2.40 2.26
-13.39 2.10 2.23
-13.27 1.81 2.21
-13.16 1.53 2.18
-13.05 1.25 2.16
-13.00 0.98 2.15
-13.00 0.72 2.14
-12.93 0.45 2.13
-12.85 0.19 2.12
-12.77 -0.06 2.10
-12.68 -0.32 2.09
-12.60 -0.57 2.08
-12.51 -0.82 2.07
-12.48 -1.07 2.06
-12.47 -1.32 2.07
-12.46 -1.57 2.07
-12.45 -1.82 2.07
-12.41 -2.07 2.07
-12.36 -2.32 2.07
-12.30 -2.57 2.07
-12.24 -2.81 2.07
-12.20 -3.06 2.07
-12.18 -3.32 2.08
-12.17 -3.58 2.09
-12.15 -3.84 2.10
-12.12 -4.10 2.11
-12.11 -4.37 2.12
-12.14 -4.66 2.14
-12.17 -4.95 2.17
-12.17 -5.24 2.18
-12.16 -5.52 2.20
-12.14 -5.82 2.22
-12.13 -6.11 2.24
-12.13 -6.42 2.26
-12.16 -6.75 2.29
-12.18 -7.09 2.32
-12.16 -7.40 2.34
-12.13 -7.72 2.37
-12.10 -8.05 2.39
-12.07 -8.39 2.42
-12.20 -8.85 2.48
-12.22 -9.24 2.52
-12.15 -9.58 2.55
-12.08 -9.92 2.58
-12.01 -10.27 2.60
-11.93 -10.63 2.63
-11.83 -10.97 2.66
-11.75 -11.34 2.69
-11.68 -11.74 2.73
-11.60 -12.14 2.77
-11.52 -12.55 2.81
-11.43 -12.96 2.85
-11.22 -13.26 2.86
-11.01 -13.54 2.87
-10.78 -13.82 2.89
-10.55 -14.11 2.90
-10.32 -14.39 2.92
-10.08 -14.66 2.93
-9.83 -14.94 2.95
-9.39 -14.91 2.90
-9.09 -15.09 2.90
-8.78 -15.27 2.90
-8.47 -15.44 2.90
-8.16 -15.61 2.90
-7.85 -15.77 2.90
-7.53 -15.93 2.90
-7.21 -16.07 2.90
-6.88 -16.22 2.90
-6.56 -16.35 2.90
-6.23 -16.48 2.90
-5.90 -16.60 2.90
-5.66 -17.00 2.95
-5.41 -17.42 3.01
-5.06 -17.53 3.01
-4.71 -17.62 3.01
-4.35 -17.72 3.01
-4.00 -17.80 3.01
-3.64 -17.88 3.01
-3.28 -17.94 3.01
-2.92 -18.01 3.01
-2.55 -18.06 3.01
-2.19 -18.11 3.01
-1.83 -18.15 3.01
-1.46 -18.18 3.01
-1.10 -18.21 3.01
-0.73 -18.23 3.01
-0.37 -18.24 3.01
0.00 -15.99 3.01
0.32 -15.98 3.01
0.64 -15.98 3.01
0.96 -15.96 3.01
1.28 -15.94 3.01
1.60 -15.91 3.01
1.92 -15.87 3.01
2.24 -15.83 3.01
2.47 -15.24 2.90
2.77 -15.19 2.90
3.08 -15.13 2.90
3.38 -15.06 2.90
3.68 -14.99 2.90
3.98 -14.92 2.90
4.28 -14.83 2.90
3.99 -12.86 2.53
4.20 -12.64 2.50
2.66 -7.48 1.49
4.17 -11.03 2.22
4.37 -10.90 2.21
4.58 -10.78 2.20
4.77 -10.64 2.19
4.37 -9.25 1.92
4.43 -8.90 1.87
4.58 -8.76 1.86
4.79 -8.72 1.87
5.18 -9.00 1.95
5.44 -9.04 1.98
6.12 -9.72 2.16
6.36 -9.66 2.17
6.97 -10.13 2.31
7.19 -10.03 2.32
7.45 -9.95 2.34
5.06 -6.49 1.55
5.17 -6.36 1.54
5.31 -6.27 1.54
5.58 -6.33 1.59
5.70 -6.21 1.58
5.84 -6.11 1.59
5.97 -6.00 1.59
6.16 -5.95 1.61
13.62 -12.63 3.49
6.04 -5.38 1.52
6.06 -5.19 1.50
13.85 -11.37 3.37
13.80 -10.88 3.30
13.78 -10.42 3.25
13.75 -9.97 3.19
13.70 -9.52 3.13
13.63 -9.07 3.08
13.61 -8.67 3.03
13.61 -8.29 2.99
13.59 -7.91 2.96
13.61 -7.56 2.93
13.72 -7.26 2.92
13.83 -6.97 2.91
13.92 -6.66 2.90
14.00 -6.36 2.89
14.06 -6.05 2.88
13.99 -5.69 2.84
13.93 -5.34 2.80
13.86 -5.00 2.77
13.90 -4.70 2.76
13.95 -4.41 2.75
13.99 -4.11 2.74
14.02 -3.82 2.73
14.05 -3.53 2.72
14.08 -3.23 2.71
14.10 -2.94 2.71
14.12 -2.65 2.70
14.15 -2.36 2.70
14.17 -2.08 2.69
14.20 -1.79 2.69
14.22 -1.50 2.69
14.24 -1.22 2.69
14.25 -0.93 2.68
14.26 -0.64 2.68
14.27 -0.36 2.68
14.27 -0.07 2.68
14.26 0.21 2.68
14.25 0.50 2.68
14.24 0.79 2.68
14.22 1.07 2.68
14.21 1.36 2.68
14.20 1.65 2.69
14.18 1.93 2.69
14.34 2.25 2.73
14.49 2.57 2.77
14.64 2.90 2.81
14.75 3.23 2.84
14.69 3.53 2.84
14.64 3.83 2.84
14.58 4.13 2.85
14.51 4.43 2.85
14.44 4.72 2.86
14.36 5.02 2.86
14.29 5.32 2.87
14.21 5.62 2.87
14.13 5.91 2.88
14.06 6.22 2.89
14.03 6.55 2.91
13.98 6.87 2.93
13.93 7.20 2.95
14.41 7.82 3.08
14.34 8.15 3.10
14.26 8.49 3.12
14.18 8.83 3.14
14.10 9.18 3.16
14.03 9.54 3.19
13.98 9.92 3.22
13.92 10.30 3.25
14.07 10.86 3.34
14.15 11.39 3.41
14.00 11.73 3.43
13.84 12.08 3.45
6.77 6.16 1.72
13.51 12.79 3.50
13.46 13.26 3.55
6.57 6.74 1.77
6.23 6.65 1.71
6.00 6.67 1.69
5.76 6.67 1.66
5.56 6.70 1.64
5.43 6.82 1.64
6.72 8.80 2.08
6.69 9.13 2.13
7.04 10.03 2.30
6.94 10.31 2.34
6.86 10.66 2.38
6.68 10.84 2.39
6.73 11.43 2.49
6.51 11.59 2.50
6.42 11.98 2.55
6.83 13.39 2.83
6.71 13.83 2.89
3.05 6.63 1.37
6.25 14.32 2.94
5.89 14.27 2.90
5.60 14.39 2.90
5.31 14.50 2.90
5.02 14.60 2.90
4.73 14.70 2.90
4.43 14.79 2.90
4.13 14.88 2.90
3.83 14.96 2.90
2.97 12.65 2.44
2.72 12.72 2.45
2.82 14.59 2.79
2.62 15.22 2.90
2.32 15.26 2.90
2.01 15.31 2.90
1.76 15.89 3.01
1.44 15.92 3.01
1.12 15.95 3.01
0.80 15.97 3.01
0.48 15.99 3.01
0.16 15.99 3.01
-0.16 15.99 3.01
-0.48 15.99 3.01
-0.80 15.98 3.01
-1.12 15.96 3.01
-1.44 15.93 3.01
-1.76 15.90 3.01
-2.08 15.87 3.01
-2.40 15.82 3.01
-2.72 15.77 3.01
-3.03 15.71 3.01
-3.35 15.65 3.01
-3.66 15.58 3.01
-3.97 15.50 3.01
-4.28 15.41 3.01
-4.59 15.32 3.01
-4.90 15.23 3.01
-5.20 15.13 3.01
-5.50 15.02 3.01
-5.80 14.90 3.01
-6.10 14.78 3.01
-6.40 14.66 3.01
-6.69 14.52 3.01
-6.98 14.39 3.01
-7.02 13.75 2.90
-7.29 13.61 2.90
-7.56 13.46 2.90
-7.83 13.31 2.90
-8.10 13.15 2.90
-8.36 12.98 2.90
-8.62 12.81 2.90
-8.87 12.64 2.90
-9.13 12.45 2.90
-9.37 12.27 2.90
-9.62 12.08 2.90
-9.86 11.88 2.90
-10.09 11.68 2.90
-11.63 12.92 3.27
-11.78 12.57 3.24
-11.92 12.23 3.21
-12.05 11.87 3.18
-12.14 11.49 3.14
-12.22 11.11 3.10
-12.31 10.75 3.07
-12.39 10.39 3.04
-12.46 10.02 3.01
-12.51 9.66 2.97
-12.55 9.30 2.94
-12.67 8.99 2.92
-12.78 8.69 2.91
-12.90 8.40 2.89
-13.01 8.10 2.88
-13.12 7.81 2.87
-13.22 7.52 2.86
-5.77 3.13 1.23
-6.05 3.13 1.28
-13.49 6.63 2.83
-13.56 6.33 2.81
-13.63 6.03 2.80
-13.69 5.73 2.79
-13.73 5.43 2.78
-13.63 5.07 2.73
-13.56 4.74 2.70
-13.49 4.41 2.67
-13.41 4.09 2.64
-13.33 3.78 2.60
-13.25 3.47 2.57
-13.16 3.16 2.54
-13.19 2.89 2.54
-13.09 2.59 2.51
-12.98 2.30 2.48
-12.88 2.02 2.45
-12.77 1.74 2.42
-12.67 1.47 2.40
-12.57 1.20 2.37
-12.54 0.95 2.36
-12.54 0.69 2.36
-12.53 0.44 2.36
-12.53 0.19 2.36
-12.45 -0.06 2.34
-12.37 -0.31 2.33
-12.29 -0.56 2.31
-12.21 -0.80 2.30
-12.17 -1.04 2.30
-12.16 -1.29 2.30
-12.15 -1.53 2.30
-12.14 -1.78 2.31
-12.13 -2.03 2.31
-12.11 -2.27 2.32
-12.06 -2.52 2.31
-12.00 -2.76 2.31
-11.95 -3.00 2.32
-11.93 -3.25 2.32
-11.91 -3.50 2.33
-11.89 -3.76 2.34
-11.87 -4.02 2.36
-11.85 -4.27 2.37
-11.82 -4.54 2.38
-11.84 -4.82 2.40
-11.85 -5.10 2.42
-11.83 -5.38 2.44
-11.82 -5.66 2.46
-11.80 -5.95 2.48
-11.78 -6.24 2.51
-11.77 -6.53 2.53
-11.77 -6.85 2.56
-11.77 -7.17 2.59
-11.74 -7.47 2.62
-11.70 -7.79 2.64
-11.67 -8.11 2.67
-11.64 -8.44 2.70
-11.60 -8.77 2.73
-11.60 -9.14 2.78
-11.53 -9.47 2.80
-11.45 -9.80 2.83
-11.31 -10.07 2.85
-11.15 -10.34 2.86
-10.99 -10.61 2.87
-10.82 -10.87 2.88
-10.65 -11.14 2.90
-10.47 -11.40 2.91
-10.29 -11.66 2.92
-10.10 -11.93 2.94
-9.91 -12.19 2.95
-9.50 -12.17 2.90
-9.25 -12.36 2.90
-9.00 -12.55 2.90
-8.75 -12.72 2.90
-8.49 -12.90 2.90
-8.23 -13.06 2.90
-7.96 -13.23 2.90
-7.70 -13.38 2.90
-7.43 -13.54 2.90
-7.15 -13.68 2.90
-6.88 -13.82 2.90
-6.60 -13.96 2.90
-6.32 -14.09 2.90
-6.03 -14.21 2.90
-5.75 -14.33 2.90
-5.65 -14.96 3.01
-5.35 -15.07 3.01
-5.05 -15.17 3.01
-4.74 -15.27 3.01
-4.43 -15.36 3.01
-4.13 -15.45 3.01
-3.81 -15.53 3.01
-3.50 -15.60 3.01
-3.19 -15.67 3.01
-2.87 -15.73 3.01
-2.56 -15.78 3.01
-2.24 -15.83 3.01
-1.92 -15.87 3.01
-1.60 -15.91 3.01
-1.28 -15.94 3.01
-0.96 -15.96 3.01
-0.64 -15.98 3.01
-0.32 -15.98 3.01
-0.00 -14.22 3.01
0.29 -14.21 3.01
0.57 -14.21 3.01
0.86 -14.19 3.01
1.14 -14.17 3.01
1.42 -14.15 3.01
1.71 -14.11 3.01
1.99 -14.08 3.01
2.27 -14.03 3.01
2.47 -13.50 2.90
2.74 -13.45 2.90
3.01 -13.39 2.90
3.28 -13.33 2.90
3.54 -13.26 2.90
3.81 -13.19 2.90
3.92 -12.62 2.79
4.14 -12.45 2.77
2.66 -7.48 1.68
4.18 -11.07 2.50
4.39 -10.96 2.50
4.63 -10.90 2.50
4.81 -10.72 2.48
4.40 -9.31 2.18
4.40 -8.84 2.09
4.55 -8.70 2.08
4.75 -8.66 2.09
4.96 -8.62 2.10
5.36 -8.89 2.19
5.56 -8.83 2.21
5.77 -8.77 2.22
6.10 -8.87 2.27
4.60 -6.41 1.67
4.68 -6.26 1.65
4.82 -6.19 1.66
4.98 -6.13 1.67
5.15 -6.08 1.68
5.33 -6.05 1.70
5.54 -6.04 1.73
5.12 -5.35 1.56
5.07 -5.09 1.52
5.08 -4.91 1.49
5.11 -4.74 1.47
5.20 -4.63 1.47
5.34 -4.57 1.49
5.60 -4.60 1.53
12.53 -9.87 3.37
12.53 -9.47 3.32
12.52 -9.08 3.27
12.59 -8.75 3.24
12.61 -8.39 3.20
12.62 -8.04 3.16
12.62 -7.69 3.12
12.62 -7.34 3.09
12.62 -7.01 3.05
12.66 -6.70 3.03
12.72 -6.41 3.01
12.78 -6.12 2.99
12.83 -5.83 2.98
12.88 -5.54 2.96
12.93 -5.26 2.95
12.97 -4.98 2.94
13.02 -4.70 2.93
13.07 -4.42 2.92
13.12 -4.15 2.91
13.16 -3.87 2.90
13.20 -3.60 2.89
13.24 -3.32 2.89
13.27 -3.05 2.88
13.29 -2.77 2.87
13.32 -2.50 2.86
13.34 -2.23 2.86
13.37 -1.96 2.86
13.38 -1.69 2.85
13.40 -1.42 2.85
13.42 -1.15 2.85
13.43 -0.88 2.85
13.44 -0.61 2.84
13.45 -0.34 2.84
13.45 -0.07 2.84
13.45 0.20 2.84
13.44 0.47 2.84
13.44 0.74 2.84
13.42 1.01 2.85
13.41 1.28 2.85
13.39 1.55 2.85
13.38 1.82 2.85
13.36 2.09 2.86
13.33 2.37 2.86
13.31 2.64 2.87
13.33 2.92 2.88
13.41 3.22 2.91
13.35 3.49 2.92
13.30 3.77 2.92
13.23 4.04 2.92
13.17 4.31 2.93
