ply
format ascii 1.0
element vertex 2733
property float32 x
property float32 y
property float32 z
end_header
-13.89 -20.09 -2.10
-14.11 -21.31 -2.21
-14.42 -22.75 -2.35
-15.64 -25.81 -2.65
-17.19 -29.69 -3.03
-18.73 -33.90 -3.44
-18.76 -35.62 -3.60
-12.99 -32.09 -3.21
-7.29 -19.11 -1.91
5.35 -29.78 -2.69
6.18 -20.11 -1.96
6.60 -20.03 -1.98
22.61 -43.56 -4.86
23.08 -42.36 -4.80
22.98 -40.23 -4.64
23.47 -39.23 -4.61
23.97 -38.30 -4.58
24.38 -37.27 -4.55
24.81 -36.31 -4.51
25.14 -35.25 -4.47
25.53 -34.32 -4.44
16.15 -20.83 -2.75
15.12 -18.70 -2.52
6.03 -7.16 -0.99
6.19 -7.05 -1.00
6.35 -6.95 -1.00
6.51 -6.85 -1.01
14.91 -15.06 -2.28
14.89 -14.45 -2.25
14.84 -13.83 -2.21
14.77 -13.22 -2.17
14.65 -12.59 -2.12
14.81 -12.22 -2.12
14.98 -11.86 -2.12
15.12 -11.49 -2.11
15.09 -10.99 -2.08
15.07 -10.52 -2.06
15.12 -10.11 -2.05
15.17 -9.70 -2.03
15.22 -9.31 -2.02
15.30 -8.94 -2.01
15.36 -8.56 -2.01
15.31 -8.14 -1.98
15.27 -7.73 -1.96
15.23 -7.33 -1.95
15.39 -7.03 -1.95
15.59 -6.74 -1.97
15.70 -6.42 -1.97
15.75 -6.07 -1.96
15.80 -5.72 -1.96
15.80 -5.37 -1.95
15.81 -5.02 -1.94
15.82 -4.67 -1.94
15.82 -4.33 -1.93
15.81 -3.99 -1.92
6.65 -1.54 -0.81
6.63 -1.39 -0.80
6.61 -1.25 -0.80
6.59 -1.11 -0.79
6.57 -0.97 -0.79
16.80 -2.13 -2.01
17.39 -1.85 -2.08
17.92 -1.54 -2.14
18.08 -1.19 -2.16
18.24 -0.83 -2.18
18.37 -0.47 -2.19
18.49 -0.10 -2.21
19.10 0.28 -2.28
19.92 0.70 -2.38
20.29 1.12 -2.43
20.75 1.57 -2.49
23.05 2.21 -2.77
27.67 3.21 -3.33
28.61 3.91 -3.45
29.97 4.71 -3.62
30.51 5.43 -3.69
33.37 6.63 -4.05
35.09 7.71 -4.28
37.25 8.98 -4.56
37.48 9.83 -4.60
3.02 1.64 -0.40
3.03 1.73 -0.40
-17.92 13.23 -1.29
-17.02 12.05 -1.20
-14.96 10.14 -1.03
-14.17 9.20 -0.96
-13.80 8.57 -0.92
-13.45 7.98 -0.87
-13.14 7.45 -0.84
-12.89 6.97 -0.81
-12.69 6.53 -0.78
-12.49 6.12 -0.76
-12.31 5.73 -0.74
-12.20 5.38 -0.72
-12.15 5.07 -0.70
-12.10 4.77 -0.69
-12.05 4.47 -0.68
-12.03 4.19 -0.67
-12.02 3.92 -0.66
-12.01 3.65 -0.65
-11.98 3.38 -0.65
-11.91 3.11 -0.64
-10.69 2.56 -0.57
-10.65 2.33 -0.56
-10.62 2.10 -0.55
-10.59 1.87 -0.55
-11.58 1.81 -0.60
-11.53 1.57 -0.59
-11.52 1.33 -0.59
-11.49 1.09 -0.58
-11.45 0.86 -0.58
-11.42 0.63 -0.57
-11.40 0.40 -0.57
-11.38 0.17 -0.57
-11.37 -0.06 -0.57
-11.36 -0.29 -0.57
-11.34 -0.51 -0.57
-11.35 -0.74 -0.57
-11.41 -0.97 -0.57
-11.47 -1.21 -0.58
-11.54 -1.45 -0.58
-11.62 -1.70 -0.59
-11.71 -1.95 -0.60
-11.79 -2.21 -0.60
-11.87 -2.47 -0.61
-11.88 -2.72 -0.62
-11.82 -2.96 -0.62
-11.76 -3.20 -0.62
-11.70 -3.43 -0.62
-11.66 -3.68 -0.62
-11.62 -3.92 -0.63
-11.59 -4.17 -0.63
-11.55 -4.42 -0.64
-11.52 -4.68 -0.65
-11.56 -4.96 -0.66
-11.71 -5.31 -0.67
-11.89 -5.68 -0.69
-12.18 -6.12 -0.72
-12.32 -6.50 -0.74
-12.29 -6.81 -0.75
-12.20 -7.08 -0.76
-12.10 -7.35 -0.77
-12.01 -7.63 -0.77
-11.94 -7.92 -0.79
-11.88 -8.23 -0.80
-11.82 -8.55 -0.81
-11.80 -8.89 -0.83
-11.83 -9.30 -0.85
-11.87 -9.72 -0.87
-11.90 -10.15 -0.89
-11.94 -10.60 -0.92
-12.01 -11.10 -0.95
-12.24 -11.78 -0.99
-12.66 -12.68 -1.05
-12.69 -13.23 -1.09
-12.71 -13.80 -1.12
-12.74 -14.39 -1.16
-12.81 -15.07 -1.20
-13.09 -16.04 -1.27
-13.23 -16.89 -1.33
-13.22 -17.60 -1.37
-13.22 -18.35 -1.42
-13.37 -19.37 -1.49
-13.49 -20.41 -1.57
-13.80 -21.81 -1.67
-14.74 -24.35 -1.85
-15.14 -26.19 -1.99
-16.68 -30.24 -2.29
-17.43 -33.15 -2.50
-17.39 -34.76 -2.62
-17.43 -36.64 -2.76
-17.32 -38.38 -2.89
-12.96 -32.08 -2.42
-7.28 -19.11 -1.44
5.37 -29.75 -2.00
6.20 -20.11 -1.48
6.62 -20.04 -1.50
18.24 -43.24 -3.46
19.30 -43.30 -3.52
20.19 -42.94 -3.56
21.04 -42.52 -3.59
22.06 -42.41 -3.65
21.91 -40.15 -3.52
22.20 -38.80 -3.47
22.86 -38.16 -3.48
23.27 -37.12 -3.45
23.68 -36.14 -3.43
24.13 -35.26 -3.42
24.83 -34.77 -3.44
16.73 -22.45 -2.27
15.16 -19.52 -2.02
14.78 -18.25 -1.93
6.03 -7.15 -0.77
6.19 -7.05 -0.78
6.35 -6.94 -0.79
6.51 -6.84 -0.80
14.34 -14.47 -1.73
14.31 -13.87 -1.70
14.28 -13.29 -1.68
14.25 -12.74 -1.65
14.36 -12.33 -1.65
14.52 -11.97 -1.65
14.69 -11.62 -1.65
14.85 -11.27 -1.65
14.83 -10.79 -1.63
14.85 -10.36 -1.62
14.90 -9.95 -1.61
14.95 -9.55 -1.60
15.00 -9.17 -1.59
15.08 -8.80 -1.59
15.10 -8.41 -1.58
15.06 -8.00 -1.56
15.02 -7.59 -1.55
14.98 -7.20 -1.54
15.04 -6.86 -1.53
15.22 -6.58 -1.54
15.27 -6.24 -1.54
15.32 -5.90 -1.54
15.37 -5.57 -1.54
15.42 -5.23 -1.53
15.42 -4.89 -1.53
15.43 -4.55 -1.52
15.43 -4.22 -1.52
15.43 -3.89 -1.51
6.65 -1.53 -0.65
6.63 -1.39 -0.65
6.61 -1.25 -0.64
6.59 -1.11 -0.64
6.57 -0.97 -0.64
16.00 -2.03 -1.55
16.20 -1.72 -1.57
17.01 -1.46 -1.64
17.54 -1.15 -1.70
17.69 -0.81 -1.71
17.82 -0.45 -1.72
17.94 -0.09 -1.73
18.05 0.27 -1.74
18.49 0.65 -1.79
19.13 1.06 -1.85
19.63 1.48 -1.90
20.06 1.92 -1.95
22.34 2.59 -2.17
22.85 3.12 -2.23
28.21 4.43 -2.76
29.97 5.33 -2.94
31.63 6.28 -3.11
33.14 7.28 -3.27
35.10 8.45 -3.47
39.86 10.45 -3.96
3.02 1.64 -0.32
3.03 1.73 -0.32
-17.53 14.07 -0.82
-16.54 12.74 -0.75
-16.33 12.06 -0.72
-16.37 11.59 -0.70
-14.17 9.62 -0.59
-13.80 8.97 -0.56
-13.46 8.37 -0.54
-13.14 7.81 -0.51
-12.87 7.30 -0.49
-12.67 6.86 -0.47
-12.47 6.43 -0.45
-12.29 6.03 -0.44
-12.11 5.64 -0.42
-12.03 5.31 -0.41
-11.98 5.01 -0.40
-11.94 4.71 -0.39
-11.89 4.42 -0.39
-11.85 4.14 -0.38
-11.84 3.87 -0.37
-11.84 3.60 -0.37
-11.79 3.33 -0.36
-11.73 3.06 -0.35
-10.68 2.56 -0.32
-10.65 2.33 -0.31
-10.61 2.10 -0.31
-10.58 1.87 -0.31
-11.41 1.79 -0.33
-11.35 1.54 -0.32
-11.31 1.31 -0.32
-11.30 1.08 -0.32
-11.29 0.85 -0.31
-11.27 0.62 -0.31
-11.26 0.39 -0.31
-11.25 0.17 -0.31
-11.23 -0.06 -0.31
-11.22 -0.28 -0.31
-11.21 -0.51 -0.31
-11.21 -0.73 -0.31
-11.24 -0.96 -0.31
-11.30 -1.19 -0.31
-11.36 -1.43 -0.32
-11.43 -1.67 -0.32
-11.50 -1.92 -0.32
-11.57 -2.17 -0.33
-11.64 -2.43 -0.33
-11.69 -2.68 -0.34
-11.64 -2.92 -0.34
-11.60 -3.16 -0.34
-11.57 -3.40 -0.34
-11.53 -3.64 -0.35
-11.50 -3.88 -0.35
-11.46 -4.13 -0.35
-11.43 -4.38 -0.36
-11.39 -4.63 -0.36
-11.40 -4.90 -0.37
-11.47 -5.20 -0.38
-11.62 -5.56 -0.39
-11.78 -5.92 -0.40
-12.00 -6.34 -0.42
-12.11 -6.71 -0.43
-12.01 -6.98 -0.43
-11.93 -7.25 -0.44
-11.87 -7.55 -0.45
-11.81 -7.85 -0.46
-11.75 -8.15 -0.47
-11.69 -8.46 -0.48
-11.63 -8.78 -0.49
-11.67 -9.18 -0.50
-11.70 -9.59 -0.52
-11.73 -10.01 -0.53
-11.77 -10.46 -0.55
-11.80 -10.92 -0.57
-11.93 -11.49 -0.59
-12.16 -12.19 -0.63
-12.35 -12.89 -0.66
-12.37 -13.44 -0.68
-12.39 -14.02 -0.71
-12.41 -14.62 -0.73
-12.57 -15.43 -0.77
-12.85 -16.43 -0.82
-12.91 -17.20 -0.86
-12.89 -17.92 -0.89
-12.88 -18.68 -0.93
-12.98 -19.66 -0.98
-13.10 -20.72 -1.03
-13.49 -22.33 -1.11
-14.80 -25.64 -1.28
-14.94 -27.13 -1.35
-16.18 -30.81 -1.54
-16.67 -33.37 -1.67
-16.61 -34.98 -1.76
-16.68 -37.03 -1.87
-16.39 -38.43 -1.95
-12.93 -32.08 -1.64
-7.27 -19.13 -0.98
-0.90 -40.68 -2.41
5.39 -29.73 -1.32
6.21 -20.12 -1.01
16.74 -44.50 -2.37
17.07 -42.75 -2.32
17.81 -42.12 -2.34
18.68 -41.83 -2.37
19.37 -41.12 -2.38
20.02 -40.40 -2.39
20.58 -39.51 -2.39
20.98 -38.37 -2.37
21.60 -37.68 -2.39
21.96 -36.60 -2.37
22.50 -35.83 -2.38
13.41 -20.43 -1.39
14.03 -20.47 -1.42
14.66 -20.50 -1.46
15.30 -20.51 -1.50
14.51 -18.65 -1.40
14.45 -17.83 -1.37
6.03 -7.14 -0.56
6.19 -7.04 -0.57
6.35 -6.94 -0.58
6.51 -6.83 -0.58
13.89 -14.00 -1.23
13.90 -13.45 -1.22
13.90 -12.92 -1.20
13.91 -12.42 -1.19
14.07 -12.06 -1.19
14.25 -11.73 -1.20
14.41 -11.38 -1.20
14.57 -11.04 -1.20
14.59 -10.61 -1.19
14.64 -10.20 -1.19
14.69 -9.80 -1.18
14.74 -9.41 -1.18
14.79 -9.03 -1.18
14.86 -8.67 -1.17
14.85 -8.26 -1.17
14.81 -7.86 -1.16
14.78 -7.46 -1.15
14.75 -7.08 -1.14
14.71 -6.70 -1.13
14.82 -6.40 -1.14
14.87 -6.07 -1.13
14.92 -5.74 -1.13
14.97 -5.42 -1.13
15.02 -5.09 -1.13
15.06 -4.77 -1.13
15.07 -4.44 -1.13
15.07 -4.12 -1.13
15.07 -3.79 -1.13
6.65 -1.53 -0.50
6.63 -1.39 -0.49
6.61 -1.24 -0.49
6.58 -1.10 -0.49
6.56 -0.96 -0.49
15.45 -1.95 -1.14
15.59 -1.65 -1.15
15.73 -1.35 -1.16
16.41 -1.08 -1.21
17.17 -0.78 -1.27
17.31 -0.44 -1.28
17.42 -0.09 -1.29
17.53 0.26 -1.30
17.64 0.62 -1.31
17.93 0.99 -1.33
18.47 1.39 -1.37
18.64 1.78 -1.38
19.43 2.25 -1.45
19.86 2.71 -1.48
22.10 3.47 -1.65
22.52 4.00 -1.69
29.98 5.95 -2.25
31.82 6.98 -2.40
33.46 8.05 -2.53
34.52 9.05 -2.62
3.02 1.64 -0.24
3.03 1.72 -0.25
-16.76 13.47 -0.30
-16.31 12.58 -0.28
-16.11 11.91 -0.26
-15.80 11.20 -0.24
-13.80 9.37 -0.20
-13.45 8.75 -0.19
-13.13 8.17 -0.17
-12.82 7.62 -0.16
-12.65 7.18 -0.15
-12.46 6.75 -0.14
-12.27 6.33 -0.13
-12.09 5.94 -0.13
-11.92 5.56 -0.12
-11.87 5.25 -0.11
-11.82 4.94 -0.11
-11.78 4.65 -0.10
-11.73 4.36 -0.10
-11.69 4.08 -0.09
-11.67 3.81 -0.09
-11.66 3.56 -0.09
-11.62 3.29 -0.08
-11.55 3.02 -0.08
-10.67 2.56 -0.07
-10.64 2.33 -0.07
-10.61 2.10 -0.07
-10.57 1.88 -0.06
-11.25 1.76 -0.07
-11.19 1.52 -0.06
-11.17 1.29 -0.06
-11.17 1.07 -0.06
-11.15 0.84 -0.06
-11.14 0.62 -0.06
-11.13 0.39 -0.06
-11.11 0.17 -0.06
-11.10 -0.06 -0.06
-11.09 -0.28 -0.06
-11.08 -0.50 -0.06
-11.08 -0.72 -0.06
-11.09 -0.95 -0.06
-11.13 -1.18 -0.06
-11.19 -1.41 -0.06
-11.26 -1.65 -0.06
-11.32 -1.89 -0.06
-11.39 -2.14 -0.06
-11.46 -2.39 -0.06
-11.53 -2.65 -0.06
-11.51 -2.89 -0.07
-11.48 -3.12 -0.07
-11.44 -3.36 -0.07
-11.41 -3.60 -0.07
-11.37 -3.84 -0.07
-11.34 -4.09 -0.08
-11.30 -4.33 -0.08
-11.27 -4.58 -0.08
-11.26 -4.84 -0.09
-11.28 -5.12 -0.09
-11.38 -5.45 -0.10
-11.53 -5.81 -0.10
-11.69 -6.18 -0.11
-11.85 -6.58 -0.11
-11.86 -6.90 -0.12
-11.80 -7.18 -0.12
-11.74 -7.47 -0.13
-11.68 -7.77 -0.14
-11.62 -8.07 -0.14
-11.56 -8.37 -0.15
-11.50 -8.68 -0.16
-11.51 -9.06 -0.16
-11.54 -9.46 -0.17
-11.57 -9.88 -0.18
-11.60 -10.32 -0.19
-11.63 -10.77 -0.20
-11.67 -11.25 -0.22
-11.84 -11.89 -0.23
-12.07 -12.61 -0.25
-12.12 -13.18 -0.26
-12.13 -13.74 -0.28
-12.15 -14.33 -0.30
-12.18 -14.96 -0.31
-12.37 -15.83 -0.34
-12.61 -16.82 -0.36
-12.60 -17.53 -0.38
-12.58 -18.27 -0.41
-12.59 -19.09 -0.43
-12.67 -20.08 -0.46
-12.79 -21.19 -0.50
-13.17 -22.85 -0.54
-14.60 -26.56 -0.64
-15.33 -29.25 -0.72
-15.65 -31.38 -0.78
-15.92 -33.58 -0.85
-15.91 -35.38 -0.91
-15.99 -37.56 -0.99
-12.90 -32.07 -0.86
-7.26 -19.15 -0.52
5.40 -29.70 -0.64
6.23 -20.12 -0.53
15.45 -46.56 -1.27
15.54 -43.85 -1.24
16.02 -42.48 -1.24
16.65 -41.60 -1.25
17.37 -40.99 -1.27
18.06 -40.36 -1.29
12.53 -26.55 -0.88
12.64 -25.46 -0.87
12.84 -24.60 -0.86
13.14 -24.00 -0.87
13.36 -23.27 -0.87
13.37 -22.24 -0.86
13.03 -20.73 -0.82
12.97 -19.74 -0.81
13.57 -19.78 -0.83
14.18 -19.80 -0.86
14.54 -19.46 -0.87
14.19 -18.22 -0.84
14.14 -17.43 -0.83
6.03 -7.13 -0.35
6.19 -7.03 -0.36
6.35 -6.93 -0.36
6.52 -6.83 -0.37
6.68 -6.72 -0.38
13.59 -13.14 -0.76
13.60 -12.63 -0.76
13.63 -12.16 -0.75
13.77 -11.79 -0.76
13.95 -11.47 -0.76
14.12 -11.15 -0.77
14.30 -10.83 -0.77
14.39 -10.45 -0.78
14.44 -10.05 -0.77
14.49 -9.66 -0.77
14.54 -9.27 -0.77
14.59 -8.90 -0.77
14.64 -8.53 -0.77
14.61 -8.12 -0.77
14.58 -7.73 -0.77
14.55 -7.34 -0.76
14.47 -6.94 -0.76
14.38 -6.55 -0.75
14.44 -6.23 -0.75
14.49 -5.91 -0.75
14.54 -5.59 -0.75
14.59 -5.27 -0.75
14.64 -4.96 -0.76
14.69 -4.65 -0.76
14.71 -4.33 -0.76
14.71 -4.01 -0.76
14.71 -3.70 -0.76
6.65 -1.53 -0.34
6.62 -1.38 -0.34
6.60 -1.24 -0.34
6.58 -1.10 -0.34
6.56 -0.96 -0.34
14.94 -1.89 -0.77
15.07 -1.60 -0.77
15.21 -1.30 -0.78
15.34 -1.01 -0.79
15.84 -0.72 -0.81
16.46 -0.42 -0.84
16.76 -0.09 -0.86
16.95 0.25 -0.87
17.13 0.60 -0.88
17.24 0.95 -0.89
17.40 1.31 -0.90
17.65 1.69 -0.91
17.80 2.06 -0.92
17.96 2.45 -0.93
18.88 2.96 -0.98
20.68 3.67 -1.07
21.79 4.32 -1.13
28.15 6.17 -1.47
31.51 7.58 -1.65
33.15 8.68 -1.74
33.94 9.62 -1.78
3.02 1.64 -0.17
3.02 1.72 -0.17
-17.07 14.30 0.18
-16.45 13.23 0.18
-16.24 12.53 0.19
-16.07 11.90 0.19
-13.99 9.93 0.17
-13.45 9.14 0.17
-13.12 8.54 0.17
-12.80 7.97 0.17
-12.53 7.46 0.17
-12.44 7.07 0.17
-12.25 6.64 0.17
-12.07 6.23 0.17
-11.90 5.85 0.17
-11.75 5.48 0.17
-11.71 5.18 0.18
-11.66 4.88 0.18
-11.62 4.59 0.18
-11.58 4.31 0.18
-11.54 4.03 0.18
-11.50 3.76 0.18
-11.50 3.51 0.19
-11.44 3.24 0.19
-11.38 2.98 0.19
-10.67 2.56 0.18
-10.63 2.33 0.18
-10.60 2.10 0.18
-10.57 1.88 0.18
-11.09 1.74 0.19
-11.04 1.51 0.19
-11.02 1.28 0.19
-11.04 1.06 0.19
-11.02 0.83 0.19
-11.01 0.61 0.19
-11.00 0.39 0.19
-10.99 0.17 0.19
-10.97 -0.05 0.19
-10.96 -0.27 0.19
-10.95 -0.49 0.19
-10.94 -0.71 0.19
-10.96 -0.94 0.19
-10.98 -1.16 0.19
-11.03 -1.39 0.19
-11.09 -1.63 0.20
-11.15 -1.86 0.20
-11.22 -2.11 0.20
-11.28 -2.35 0.20
-11.35 -2.61 0.20
-11.38 -2.85 0.20
-11.35 -3.09 0.20
-11.32 -3.33 0.20
-11.28 -3.57 0.20
-11.25 -3.81 0.19
-11.21 -4.05 0.19
-11.18 -4.29 0.19
-11.14 -4.53 0.19
-11.12 -4.79 0.19
-11.14 -5.06 0.19
-11.16 -5.35 0.19
-11.30 -5.69 0.19
-11.45 -6.06 0.19
-11.60 -6.44 0.19
-11.72 -6.82 0.19
-11.68 -7.11 0.18
-11.62 -7.40 0.18
-11.56 -7.69 0.18
-11.50 -7.99 0.17
-11.43 -8.29 0.17
-11.37 -8.60 0.17
-11.35 -8.94 0.16
-11.38 -9.34 0.16
-11.40 -9.75 0.16
-11.43 -10.18 0.15
-11.46 -10.62 0.15
-11.49 -11.09 0.15
-11.55 -11.60 0.14
-11.76 -12.30 0.14
-11.90 -12.96 0.14
-11.89 -13.48 0.13
-11.90 -14.05 0.13
-11.91 -14.64 0.12
-11.96 -15.33 0.11
-12.16 -16.25 0.11
-12.33 -17.17 0.10
-12.30 -17.89 0.09
-12.28 -18.64 0.08
-12.32 -19.55 0.07
-12.40 -20.58 0.06
-12.54 -21.80 0.05
-14.28 -26.00 0.04
-14.40 -27.51 0.02
-15.00 -30.12 0.01
-15.25 -32.22 -0.02
-15.37 -34.25 -0.04
-15.51 -36.49 -0.07
-12.87 -32.06 -0.08
-7.25 -19.17 -0.06
0.01 -40.84 0.31
5.42 -29.67 0.04
13.86 -48.01 -0.10
6.25 -20.12 -0.06
14.58 -43.82 -0.16
14.86 -41.85 -0.18
10.93 -28.92 -0.15
10.99 -27.42 -0.16
11.12 -26.19 -0.17
11.35 -25.30 -0.19
11.61 -24.56 -0.20
12.05 -24.22 -0.22
12.48 -23.87 -0.23
12.71 -23.17 -0.24
12.91 -22.44 -0.25
12.74 -21.17 -0.26
12.27 -19.49 -0.25
12.56 -19.09 -0.27
13.14 -19.12 -0.28
13.73 -19.15 -0.30
13.92 -18.62 -0.31
13.89 -17.81 -0.32
13.85 -17.04 -0.32
6.03 -7.13 -0.14
6.19 -7.02 -0.15
6.35 -6.92 -0.15
6.52 -6.82 -0.16
6.68 -6.72 -0.16
13.30 -12.85 -0.33
13.32 -12.36 -0.33
13.36 -11.91 -0.34
13.48 -11.53 -0.34
13.66 -11.22 -0.35
13.83 -10.91 -0.36
14.01 -10.59 -0.36
14.02 -10.17 -0.37
14.11 -9.81 -0.37
14.19 -9.45 -0.37
14.27 -9.09 -0.38
14.35 -8.74 -0.38
14.35 -8.36 -0.38
14.26 -7.92 -0.38
14.18 -7.51 -0.38
14.09 -7.10 -0.38
14.01 -6.71 -0.38
14.00 -6.36 -0.38
14.08 -6.06 -0.39
14.14 -5.75 -0.39
14.19 -5.45 -0.39
14.24 -5.14 -0.39
14.29 -4.84 -0.40
14.34 -4.53 -0.40
14.30 -4.21 -0.40
14.27 -3.89 -0.40
14.27 -3.58 -0.40
6.64 -1.53 -0.19
6.62 -1.38 -0.19
6.60 -1.24 -0.19
6.58 -1.10 -0.19
6.56 -0.96 -0.19
14.18 -1.79 -0.40
14.29 -1.51 -0.41
14.50 -1.24 -0.41
14.72 -0.96 -0.42
14.95 -0.68 -0.43
15.22 -0.38 -0.44
15.54 -0.08 -0.45
15.88 0.24 -0.46
16.17 0.57 -0.47
16.35 0.90 -0.47
16.52 1.25 -0.48
16.66 1.59 -0.48
16.71 1.94 -0.48
16.90 2.30 -0.49
17.11 2.68 -0.50
17.32 3.07 -0.50
17.67 3.50 -0.51
17.92 3.93 -0.52
18.18 4.37 -0.53
22.04 5.77 -0.64
32.32 9.16 -0.94
33.26 10.15 -0.97
3.02 1.64 -0.09
3.02 1.72 -0.09
-16.71 14.02 0.67
-16.35 13.16 0.66
-16.15 12.48 0.65
-16.03 11.88 0.64
-13.44 9.55 0.54
-13.11 8.92 0.52
-12.78 8.33 0.51
-12.42 7.74 0.49
-12.26 7.31 0.49
-12.17 6.93 0.48
-12.05 6.54 0.48
-11.88 6.14 0.47
-11.71 5.76 0.47
-11.59 5.42 0.46
-11.55 5.12 0.46
-11.51 4.82 0.46
-11.47 4.54 0.46
-11.43 4.26 0.45
-11.39 3.99 0.45
-11.35 3.72 0.45
-11.33 3.46 0.45
-11.28 3.20 0.45
-11.22 2.94 0.45
-10.66 2.57 0.42
-10.63 2.33 0.42
-10.60 2.10 0.42
-10.56 1.88 0.42
-10.94 1.72 0.44
-10.89 1.49 0.43
-10.88 1.26 0.43
-10.89 1.04 0.43
-10.90 0.82 0.43
-10.88 0.60 0.43
-10.87 0.38 0.43
-10.86 0.16 0.43
-10.85 -0.05 0.43
-10.83 -0.27 0.43
-10.82 -0.49 0.43
-10.82 -0.71 0.43
-10.83 -0.93 0.44
-10.85 -1.15 0.44
-10.87 -1.37 0.44
-10.93 -1.60 0.44
-10.99 -1.84 0.44
-11.05 -2.08 0.45
-11.11 -2.32 0.45
-11.18 -2.57 0.45
-11.21 -2.82 0.46
-11.23 -3.06 0.46
-11.20 -3.30 0.46
-11.16 -3.53 0.46
-11.13 -3.77 0.46
-11.09 -4.01 0.46
-11.06 -4.25 0.46
-11.02 -4.49 0.45
-10.99 -4.73 0.45
-11.01 -5.01 0.46
-11.03 -5.28 0.46
-11.07 -5.58 0.46
-11.21 -5.94 0.47
-11.36 -6.31 0.48
-11.51 -6.70 0.48
-11.54 -7.03 0.49
-11.50 -7.33 0.49
-11.44 -7.62 0.49
-11.38 -7.91 0.48
-11.31 -8.21 0.48
-11.25 -8.51 0.48
-11.19 -8.83 0.48
-11.22 -9.22 0.49
-11.25 -9.63 0.49
-11.27 -10.05 0.49
-11.29 -10.48 0.50
-11.32 -10.94 0.50
-11.35 -11.42 0.50
-11.46 -12.00 0.51
-11.67 -12.72 0.52
-11.67 -13.25 0.53
-11.66 -13.78 0.53
-11.66 -14.36 0.53
-11.67 -14.98 0.54
-11.75 -15.72 0.55
-11.96 -16.68 0.56
-12.04 -17.53 0.57
-12.01 -18.26 0.57
-11.99 -19.05 0.58
-12.05 -20.04 0.59
-12.12 -21.09 0.59
-12.29 -22.43 0.61
-14.07 -26.93 0.71
-14.48 -29.12 0.74
-14.65 -31.02 0.76
-14.82 -33.07 0.78
-14.83 -34.97 0.79
-12.84 -32.06 0.70
-15.14 -40.10 0.84
-15.48 -43.64 0.88
-13.76 -44.35 0.82
0.04 -40.82 1.23
5.44 -29.64 0.72
11.93 -48.39 1.09
12.57 -46.92 1.03
5.85 -20.20 0.43
6.27 -20.12 0.42
10.62 -31.84 0.64
10.41 -29.24 0.57
10.46 -27.61 0.53
10.54 -26.22 0.48
10.69 -25.14 0.45
10.85 -24.14 0.42
11.30 -23.85 0.40
11.72 -23.52 0.38
12.08 -23.07 0.36
12.28 -22.36 0.34
12.44 -21.61 0.32
12.08 -20.04 0.28
11.62 -18.42 0.25
12.05 -18.28 0.24
12.57 -18.27 0.23
13.11 -18.25 0.22
13.11 -17.50 0.20
12.86 -16.48 0.18
12.98 -15.95 0.16
6.03 -7.12 0.07
6.19 -7.02 0.06
6.35 -6.91 0.06
6.52 -6.81 0.05
6.68 -6.71 0.05
13.02 -12.57 0.09
13.06 -12.11 0.08
13.10 -11.66 0.07
13.20 -11.29 0.06
13.38 -10.98 0.05
13.55 -10.67 0.04
13.62 -10.29 0.03
13.60 -9.86 0.02
13.67 -9.49 0.02
13.75 -9.15 0.01
13.83 -8.80 0.00
13.89 -8.46 -0.00
13.86 -8.06 -0.01
13.80 -7.66 -0.02
13.72 -7.26 -0.02
13.65 -6.87 -0.03
13.58 -6.50 -0.03
13.64 -6.20 -0.04
13.72 -5.90 -0.04
13.80 -5.61 -0.04
13.85 -5.31 -0.05
13.90 -5.01 -0.05
13.95 -4.72 -0.06
13.99 -4.42 -0.06
13.94 -4.10 -0.06
13.89 -3.78 -0.07
13.85 -3.47 -0.07
6.64 -1.53 -0.03
6.62 -1.38 -0.03
6.60 -1.24 -0.04
6.58 -1.10 -0.04
6.56 -0.96 -0.04
13.77 -1.74 -0.08
13.74 -1.45 -0.08
13.71 -1.17 -0.08
13.87 -0.91 -0.08
14.07 -0.64 -0.09
14.25 -0.36 -0.09
14.27 -0.07 -0.09
14.30 0.22 -0.09
14.85 0.52 -0.09
15.34 0.85 -0.10
15.62 1.18 -0.10
15.78 1.51 -0.10
15.83 1.84 -0.10
15.88 2.16 -0.10
15.93 2.50 -0.10
15.97 2.83 -0.10
16.16 3.20 -0.10
16.33 3.58 -0.10
16.40 3.94 -0.10
16.47 4.31 -0.10
16.62 4.71 -0.09
16.81 5.12 -0.09
17.14 5.60 -0.09
20.34 7.11 -0.11
3.02 1.64 -0.01
3.02 1.72 -0.01
-6.21 47.70 1.48
-6.53 43.36 1.38
-16.54 13.89 1.15
-16.24 13.09 1.12
-16.07 12.43 1.10
-14.41 10.69 0.98
-13.10 9.31 0.89
-12.77 8.70 0.86
-12.40 8.09 0.83
-12.09 7.54 0.80
-12.00 7.16 0.79
-11.92 6.79 0.78
-11.84 6.43 0.77
-11.69 6.05 0.76
-11.53 5.68 0.75
-11.44 5.35 0.74
-11.40 5.05 0.73
-11.36 4.77 0.73
-11.32 4.48 0.72
-11.28 4.21 0.72
-11.25 3.94 0.72
-11.21 3.67 0.71
-11.17 3.41 0.71
-11.11 3.15 0.70
-11.06 2.90 0.70
-10.66 2.57 0.67
-10.62 2.33 0.67
-10.59 2.10 0.66
-10.56 1.88 0.66
-10.80 1.70 0.68
-10.75 1.47 0.67
-10.73 1.25 0.67
-10.75 1.03 0.67
-10.76 0.81 0.67
-10.76 0.60 0.67
-10.75 0.38 0.67
-10.73 0.16 0.67
-10.72 -0.05 0.67
-10.71 -0.27 0.67
-10.70 -0.48 0.67
-10.69 -0.70 0.67
-10.71 -0.92 0.67
-10.72 -1.13 0.68
-10.74 -1.35 0.68
-10.77 -1.58 0.68
-10.83 -1.81 0.69
-10.89 -2.05 0.69
-10.95 -2.29 0.70
-11.01 -2.53 0.70
-11.05 -2.78 0.71
-11.07 -3.02 0.71
-11.08 -3.26 0.71
-11.05 -3.50 0.71
-11.01 -3.73 0.71
-10.98 -3.97 0.71
-10.94 -4.20 0.72
-10.90 -4.44 0.72
-10.87 -4.68 0.72
-10.87 -4.95 0.72
-10.89 -5.22 0.73
-10.91 -5.50 0.73
-10.99 -5.82 0.74
-11.12 -6.19 0.75
-11.27 -6.57 0.77
-11.34 -6.92 0.78
-11.36 -7.25 0.79
-11.32 -7.54 0.79
-11.26 -7.83 0.79
-11.19 -8.13 0.79
-11.13 -8.43 0.79
-11.06 -8.73 0.79
-11.07 -9.10 0.80
-11.09 -9.50 0.81
-11.11 -9.92 0.82
-11.13 -10.34 0.83
-11.15 -10.79 0.84
-11.18 -11.26 0.85
-11.21 -11.75 0.87
-11.37 -12.40 0.89
-11.47 -13.04 0.91
-11.44 -13.54 0.92
-11.42 -14.08 0.93
-11.42 -14.67 0.95
-11.46 -15.34 0.96
-11.54 -16.13 0.99
-11.71 -17.07 1.02
-11.75 -17.88 1.04
-11.71 -18.63 1.06
-11.72 -19.51 1.08
-11.78 -20.53 1.11
-11.83 -21.62 1.14
-12.02 -23.05 1.19
-13.85 -27.90 1.41
-14.11 -29.92 1.48
-14.19 -31.74 1.53
-14.30 -33.78 1.59
-12.81 -32.05 1.48
-14.67 -38.95 1.75
-14.82 -41.88 1.84
-15.29 -46.12 1.98
-13.71 -44.33 1.87
0.07 -40.78 2.15
1.00 -46.00 2.39
1.95 -46.59 2.39
2.93 -47.18 2.39
5.46 -29.61 1.40
9.75 -47.53 2.22
10.43 -46.12 2.13
11.28 -45.59 2.08
9.79 -36.44 1.65
5.87 -20.21 0.90
6.28 -20.13 0.89
9.88 -29.55 1.30
9.91 -27.76 1.21
10.05 -26.48 1.14
10.10 -25.09 1.07
10.27 -24.10 1.02
10.55 -23.43 0.99
10.98 -23.15 0.97
11.42 -22.87 0.95
11.68 -22.27 0.92
11.85 -21.54 0.88
11.89 -20.61 0.84
11.15 -18.46 0.75
11.15 -17.66 0.71
11.42 -17.30 0.69
11.68 -16.95 0.67
12.03 -16.73 0.66
12.08 -16.11 0.64
12.20 -15.61 0.61
12.32 -15.12 0.59
6.03 -7.11 0.28
6.19 -7.01 0.27
6.35 -6.91 0.27
6.52 -6.80 0.27
6.68 -6.70 0.26
12.77 -12.30 0.48
12.81 -11.86 0.47
12.86 -11.43 0.45
12.94 -11.05 0.44
13.11 -10.75 0.43
13.24 -10.42 0.42
13.23 -9.99 0.40
13.23 -9.57 0.39
13.26 -9.20 0.38
13.34 -8.86 0.37
13.42 -8.54 0.36
13.41 -8.15 0.35
13.38 -7.77 0.34
13.35 -7.40 0.33
13.30 -7.03 0.32
13.23 -6.66 0.31
13.22 -6.32 0.30
13.30 -6.04 0.29
13.38 -5.75 0.29
13.46 -5.47 0.28
13.52 -5.18 0.28
13.57 -4.89 0.27
13.62 -4.60 0.27
13.64 -4.30 0.26
13.59 -3.99 0.26
13.55 -3.69 0.25
13.51 -3.39 0.25
6.64 -1.52 0.12
6.62 -1.38 0.12
6.59 -1.24 0.12
6.57 -1.10 0.11
6.55 -0.96 0.11
13.39 -1.69 0.23
13.36 -1.41 0.22
13.33 -1.14 0.22
13.30 -0.87 0.22
13.29 -0.60 0.22
13.47 -0.34 0.22
13.49 -0.07 0.22
13.51 0.20 0.22
13.53 0.48 0.22
13.55 0.75 0.22
13.57 1.02 0.22
13.92 1.33 0.23
14.71 1.70 0.24
14.81 2.02 0.24
14.89 2.33 0.25
14.97 2.65 0.25
15.05 2.98 0.25
15.13 3.31 0.26
15.27 3.67 0.26
15.33 4.01 0.27
15.38 4.35 0.27
15.43 4.70 0.28
15.49 5.06 0.28
15.54 5.43 0.29
16.41 6.10 0.31
18.89 7.46 0.37
3.03 1.64 0.07
3.02 1.72 0.07
8.88 31.79 1.31
9.44 36.58 1.52
9.40 39.71 1.67
9.81 45.49 1.94
5.30 39.84 1.78
-2.29 47.33 2.39
-2.96 43.22 2.22
-3.21 36.20 1.88
-3.60 33.06 1.75
-5.76 44.50 2.39
-6.48 43.23 2.36
-6.74 39.55 2.19
-6.96 36.42 2.05
-7.15 33.73 1.93
-7.32 31.39 1.83
-7.46 29.34 1.74
-7.59 27.52 1.66
-7.75 26.05 1.60
-8.07 23.62 1.50
-8.13 20.99 1.38
-8.40 18.34 1.28
-16.80 14.71 1.68
-16.41 13.80 1.63
-16.14 13.03 1.58
-15.99 12.39 1.55
-13.17 9.78 1.27
-12.76 9.08 1.22
-12.38 8.45 1.17
-12.04 7.86 1.13
-11.83 7.39 1.10
-11.75 7.02 1.09
-11.67 6.65 1.07
-11.60 6.31 1.06
-11.51 5.96 1.04
-11.36 5.60 1.02
-11.29 5.28 1.01
-11.25 4.99 1.00
-11.21 4.71 1.00
-11.18 4.43 0.99
-11.14 4.16 0.98
-11.06 3.88 0.97
-10.99 3.60 0.96
-10.95 3.35 0.95
-10.96 3.11 0.95
-10.91 2.86 0.94
-10.85 2.62 0.94
-10.80 2.38 0.93
-10.75 2.14 0.92
-10.70 1.91 0.92
-10.65 1.68 0.91
-10.60 1.45 0.91
-10.59 1.23 0.90
-10.61 1.02 0.91
-10.62 0.80 0.91
-10.64 0.59 0.91
-10.63 0.38 0.91
-10.61 0.16 0.90
-10.60 -0.05 0.90
-10.59 -0.26 0.90
-10.58 -0.48 0.90
-10.57 -0.69 0.90
-10.58 -0.91 0.91
-10.60 -1.12 0.91
-10.61 -1.34 0.91
-10.62 -1.56 0.91
-10.67 -1.79 0.92
-10.73 -2.02 0.93
-10.79 -2.26 0.94
-10.85 -2.50 0.94
-10.90 -2.74 0.95
-10.91 -2.98 0.96
-10.92 -3.22 0.96
-10.93 -3.46 0.97
-10.90 -3.69 0.97
-10.86 -3.93 0.97
-10.82 -4.16 0.97
-10.79 -4.40 0.97
-10.75 -4.64 0.97
-10.75 -4.89 0.98
-10.76 -5.16 0.99
-10.78 -5.44 1.00
-10.79 -5.72 1.00
-10.90 -6.07 1.02
-11.04 -6.44 1.04
-11.15 -6.81 1.06
-11.17 -7.13 1.07
-11.19 -7.46 1.08
-11.14 -7.76 1.09
-11.07 -8.05 1.09
-11.01 -8.34 1.10
-10.94 -8.65 1.10
-10.92 -8.99 1.11
-10.94 -9.38 1.13
-10.96 -9.79 1.14
-10.98 -10.21 1.16
-11.00 -10.65 1.18
-11.02 -11.10 1.20
-11.04 -11.59 1.22
-11.08 -12.10 1.24
-11.27 -12.82 1.28
-11.24 -13.32 1.30
-11.21 -13.83 1.32
-11.18 -14.38 1.34
-11.18 -14.99 1.36
-11.23 -15.71 1.40
-11.33 -16.54 1.44
-11.42 -17.41 1.48
-11.45 -18.24 1.52
-11.41 -19.01 1.56
-11.45 -19.99 1.60
-11.49 -21.03 1.65
-11.54 -22.16 1.71
-11.66 -23.54 1.78
-12.25 -26.03 1.93
-13.72 -30.75 2.24
-13.67 -32.37 2.32
-12.79 -32.04 2.25
-13.37 -35.56 2.46
-14.35 -40.64 2.76
-11.83 -35.77 2.39
-11.22 -36.37 2.39
-10.60 -36.98 2.39
-9.96 -37.58 2.39
-9.31 -38.18 2.39
-8.63 -38.79 2.39
-8.28 -41.09 2.49
-7.54 -41.72 2.49
-6.78 -42.35 2.49
-6.00 -42.98 2.49
-5.20 -43.61 2.49
-4.38 -44.24 2.49
-3.53 -44.87 2.49
-2.66 -45.50 2.49
-1.77 -46.12 2.49
-0.84 -46.10 2.46
0.08 -33.02 2.48
0.72 -32.05 2.39
1.38 -32.33 2.39
2.05 -32.60 2.39
2.73 -32.87 2.39
3.42 -33.13 2.39
4.46 -36.10 2.58
5.67 -39.39 2.80
6.52 -39.66 2.80
5.48 -29.58 2.08
7.58 -36.80 2.57
8.04 -35.41 2.45
8.29 -33.42 2.30
8.55 -31.71 2.18
5.88 -20.21 1.38
6.30 -20.13 1.37
9.34 -27.86 1.89
9.55 -26.69 1.80
9.57 -25.15 1.69
9.71 -24.06 1.61
9.85 -23.06 1.54
10.26 -22.76 1.52
10.64 -22.38 1.49
10.85 -21.70 1.45
11.13 -21.17 1.41
11.39 -20.66 1.38
10.76 -18.62 1.24
10.56 -17.46 1.17
10.72 -16.95 1.13
10.98 -16.62 1.11
11.20 -16.23 1.09
11.37 -15.79 1.07
11.50 -15.31 1.04
11.62 -14.84 1.01
11.73 -14.38 0.98
6.03 -7.10 0.49
6.19 -7.00 0.49
6.36 -6.90 0.48
6.52 -6.80 0.48
6.68 -6.69 0.48
12.53 -12.06 0.87
12.57 -11.62 0.84
12.62 -11.21 0.82
12.69 -10.82 0.81
12.86 -10.53 0.80
12.88 -10.12 0.78
12.87 -9.71 0.76
12.87 -9.31 0.74
12.87 -8.92 0.72
12.95 -8.60 0.71
12.98 -8.24 0.70
12.96 -7.87 0.68
12.94 -7.51 0.66
12.92 -7.15 0.65
12.89 -6.81 0.64
12.84 -6.45 0.62
12.90 -6.16 0.62
12.98 -5.88 0.61
13.06 -5.61 0.60
13.13 -5.33 0.60
13.21 -5.06 0.59
13.27 -4.78 0.59
13.32 -4.49 0.58
13.30 -4.20 0.57
13.26 -3.89 0.56
13.23 -3.59 0.56
13.19 -3.30 0.55
6.63 -1.52 0.27
6.61 -1.38 0.27
6.59 -1.24 0.27
6.57 -1.10 0.26
6.55 -0.96 0.26
13.03 -1.64 0.52
13.00 -1.37 0.51
12.97 -1.11 0.51
12.93 -0.84 0.51
12.84 -0.58 0.50
12.75 -0.32 0.50
12.67 -0.06 0.49
12.62 0.19 0.49
12.63 0.44 0.49
12.64 0.70 0.49
12.66 0.95 0.49
12.67 1.21 0.49
12.67 1.47 0.50
12.68 1.73 0.50
12.83 2.01 0.51
12.89 2.28 0.51
12.93 2.56 0.52
12.97 2.84 0.52
13.01 3.12 0.53
13.05 3.41 0.53
13.09 3.70 0.54
13.85 4.22 0.58
14.53 4.74 0.61
14.57 5.08 0.62
14.60 5.43 0.63
14.69 5.80 0.64
15.70 6.56 0.69
18.22 8.04 0.82
3.03 1.64 0.14
3.02 1.71 0.15
8.28 21.14 1.34
8.34 24.07 1.53
8.43 26.00 1.66
8.60 28.48 1.83
8.81 31.44 2.03
9.07 35.04 2.27
8.69 36.61 2.39
7.88 36.40 2.39
7.07 36.17 2.39
6.28 35.93 2.39
4.57 29.63 1.98
4.94 36.95 2.49
4.15 36.66 2.49
3.38 36.37 2.49
2.63 36.07 2.49
1.88 35.76 2.49
1.16 35.43 2.49
0.44 35.10 2.49
-0.26 34.77 2.49
-0.95 34.42 2.49
-1.62 34.07 2.49
-2.29 33.71 2.49
-2.93 33.34 2.49
-3.42 31.60 2.39
-3.90 30.34 2.32
-3.90 26.17 2.03
-4.08 24.03 1.88
-4.22 22.14 1.76
-6.28 29.73 2.39
-6.82 29.35 2.39
-7.34 28.95 2.39
-7.59 27.59 2.31
-7.70 25.96 2.20
-7.81 24.50 2.11
-7.90 23.17 2.02
-7.99 21.97 1.95
-8.06 20.87 1.88
-8.14 19.86 1.82
-8.20 18.93 1.76
-8.26 18.06 1.71
-8.32 17.26 1.66
-8.47 16.70 1.63
-8.45 15.87 1.58
-8.62 15.43 1.56
-8.67 12.96 1.42
-8.78 12.57 1.40
-8.86 10.30 1.28
-8.89 9.92 1.27
-16.43 13.83 2.12
-16.04 12.96 2.04
-14.97 11.60 1.89
-12.74 9.47 1.59
-12.36 8.81 1.52
-12.02 8.21 1.47
-11.70 7.65 1.42
-11.58 7.24 1.39
-11.51 6.88 1.37
-11.44 6.53 1.35
-11.37 6.19 1.33
-11.30 5.86 1.31
-11.19 5.52 1.29
-11.14 5.22 1.28
-11.11 4.93 1.27
-11.04 4.64 1.25
-10.96 4.35 1.24
-10.89 4.07 1.22
-10.82 3.80 1.21
-10.75 3.53 1.20
-10.74 3.29 1.19
-10.77 3.06 1.19
-10.76 2.83 1.18
-10.71 2.58 1.17
-10.66 2.35 1.17
-10.61 2.11 1.16
-10.56 1.88 1.15
-10.51 1.66 1.14
-10.47 1.43 1.13
-10.46 1.22 1.13
-10.47 1.01 1.13
-10.49 0.80 1.13
-10.50 0.58 1.13
-10.51 0.37 1.13
-10.49 0.16 1.13
-10.48 -0.05 1.13
-10.47 -0.26 1.13
-10.46 -0.47 1.13
-10.45 -0.68 1.13
-10.46 -0.90 1.13
-10.48 -1.11 1.14
-10.49 -1.32 1.14
-10.50 -1.54 1.15
-10.52 -1.76 1.15
-10.58 -1.99 1.16
-10.63 -2.22 1.17
-10.69 -2.46 1.18
-10.74 -2.70 1.19
-10.76 -2.94 1.20
-10.77 -3.18 1.20
-10.78 -3.42 1.21
-10.78 -3.66 1.22
-10.75 -3.89 1.22
-10.71 -4.12 1.22
-10.67 -4.36 1.22
-10.64 -4.59 1.23
-10.62 -4.84 1.23
-10.63 -5.11 1.24
-10.65 -5.38 1.25
-10.66 -5.66 1.27
-10.68 -5.95 1.28
-10.81 -6.31 1.31
-10.95 -6.69 1.33
-10.98 -7.02 1.35
-11.00 -7.34 1.36
-11.01 -7.67 1.38
-10.96 -7.97 1.39
-10.89 -8.26 1.40
-10.82 -8.56 1.40
-10.77 -8.88 1.41
-10.79 -9.26 1.43
-10.81 -9.66 1.46
-10.82 -10.08 1.48
-10.84 -10.51 1.50
-10.86 -10.95 1.53
-10.88 -11.42 1.56
-10.90 -11.92 1.59
-10.98 -12.51 1.63
-11.05 -13.11 1.67
-11.01 -13.61 1.69
-10.97 -14.13 1.72
-10.94 -14.69 1.75
-10.96 -15.35 1.79
-11.01 -16.09 1.84
-11.11 -16.96 1.91
-11.13 -17.76 1.96
-11.15 -18.61 2.01
-11.14 -19.47 2.07
-11.17 -20.47 2.14
-11.20 -21.55 2.21
-11.23 -22.71 2.29
-11.30 -24.04 2.39
-10.90 -24.46 2.39
-10.48 -24.85 2.39
-10.05 -25.23 2.39
-9.61 -25.62 2.39
-9.16 -25.99 2.39
-8.70 -26.37 2.39
-8.23 -26.74 2.39
-7.76 -27.13 2.39
-7.58 -28.66 2.49
-7.05 -29.03 2.49
-6.52 -29.40 2.49
-5.98 -29.77 2.49
-5.42 -30.13 2.49
-4.86 -30.49 2.49
-4.28 -30.84 2.49
-3.69 -31.19 2.49
-3.09 -31.53 2.49
-2.48 -31.86 2.49
-1.86 -32.19 2.49
-1.22 -32.51 2.49
-0.58 -32.83 2.49
0.08 -25.46 2.49
0.60 -25.64 2.49
1.07 -24.74 2.39
1.58 -24.89 2.39
2.10 -25.03 2.39
2.62 -25.17 2.39
3.15 -25.30 2.39
3.68 -25.42 2.39
4.22 -25.53 2.39
5.40 -29.02 2.70
6.47 -31.29 2.91
7.07 -31.02 2.87
7.37 -29.60 2.73
7.77 -28.74 2.65
5.90 -20.21 1.86
6.32 -20.13 1.85
8.95 -26.64 2.44
8.94 -24.92 2.28
9.08 -23.81 2.18
9.30 -22.99 2.10
9.51 -22.22 2.04
9.72 -21.51 1.97
9.93 -20.85 1.91
10.20 -20.36 1.87
10.47 -19.89 1.83
10.41 -18.84 1.74
10.15 -17.55 1.63
10.07 -16.62 1.55
10.31 -16.27 1.52
10.50 -15.86 1.49
10.69 -15.47 1.47
10.85 -15.04 1.43
10.97 -14.59 1.40
11.08 -14.13 1.37
11.17 -13.67 1.34
6.04 -7.09 0.70
6.20 -6.99 0.70
6.36 -6.89 0.69
6.52 -6.79 0.69
6.68 -6.69 0.69
12.29 -11.82 1.23
12.34 -11.40 1.21
12.39 -10.99 1.18
12.44 -10.60 1.16
12.53 -10.25 1.14
12.53 -9.84 1.11
12.53 -9.44 1.09
12.53 -9.05 1.07
12.53 -8.68 1.05
12.56 -8.33 1.03
12.55 -7.96 1.01
12.53 -7.61 0.99
12.52 -7.26 0.97
12.48 -6.91 0.95
12.41 -6.55 0.93
12.34 -6.20 0.91
12.59 -6.01 0.92
12.67 -5.74 0.91
12.75 -5.47 0.90
12.82 -5.20 0.89
12.90 -4.93 0.89
12.97 -4.66 0.88
13.02 -4.39 0.88
12.99 -4.09 0.87
12.95 -3.80 0.85
12.92 -3.51 0.84
12.88 -3.22 0.84
6.63 -1.52 0.43
6.61 -1.38 0.42
6.59 -1.23 0.42
6.57 -1.09 0.41
6.55 -0.96 0.41
12.43 -1.56 0.78
12.35 -1.30 0.77
12.27 -1.05 0.76
12.20 -0.79 0.75
12.12 -0.54 0.75
12.05 -0.30 0.74
11.97 -0.06 0.74
11.90 0.18 0.73
11.83 0.42 0.73
11.75 0.65 0.72
11.68 0.88 0.72
11.61 1.11 0.72
11.53 1.33 0.71
11.52 1.57 0.71
11.52 1.80 0.72
11.63 2.06 0.73
11.76 2.33 0.74
11.89 2.60 0.75
12.02 2.88 0.77
12.08 3.15 0.77
12.11 3.42 0.78
12.14 3.69 0.79
12.25 4.00 0.81
12.45 4.34 0.83
12.87 4.78 0.86
13.77 5.43 0.93
13.80 5.76 0.95
14.00 6.18 0.97
14.21 6.61 1.00
16.22 7.95 1.16
16.46 8.48 1.19
3.03 1.64 0.22
3.02 1.71 0.23
7.75 15.88 1.40
8.04 18.29 1.60
7.93 19.07 1.67
8.03 20.45 1.79
8.14 22.02 1.93
8.27 23.83 2.09
8.42 25.92 2.28
8.23 27.18 2.39
7.62 27.12 2.39
7.02 27.06 2.39
6.43 26.98 2.39
5.84 26.90 2.39
3.89 19.81 1.77
4.45 25.35 2.27
4.30 27.73 2.49
3.71 27.60 2.49
3.13 27.46 2.49
2.56 27.30 2.49
2.00 27.14 2.49
1.44 26.97 2.49
0.89 26.80 2.49
0.35 26.61 2.49
-0.18 26.42 2.49
-0.70 26.21 2.49
-1.22 26.00 2.49
-1.73 25.79 2.49
-2.23 25.56 2.49
-2.72 25.33 2.49
-3.21 25.09 2.49
-3.68 24.85 2.49
-3.98 23.58 2.39
-4.42 23.33 2.39
-4.52 21.50 2.23
-4.41 19.04 1.99
-4.52 17.87 1.89
-4.57 16.68 1.79
-4.86 16.43 1.78
-6.91 21.74 2.39
-7.30 21.46 2.39
-7.68 21.17 2.39
-8.05 20.88 2.39
-8.13 19.89 2.31
-8.20 18.96 2.23
-8.26 18.09 2.16
-8.32 17.29 2.10
-8.37 16.54 2.04
-8.42 15.84 1.99
-8.47 15.19 1.93
-8.51 14.57 1.89
-8.55 13.99 1.84
-8.59 13.44 1.80
-8.63 12.91 1.77
-8.66 12.42 1.73
-8.70 11.95 1.70
-8.73 11.50 1.67
-8.76 11.07 1.64
-8.80 10.67 1.61
-8.84 10.29 1.59
-8.88 9.93 1.57
-9.13 9.80 1.58
-9.05 7.63 1.44
-9.11 7.36 1.43
-12.37 9.60 1.92
-12.30 9.16 1.88
-11.99 8.56 1.82
-11.67 7.98 1.75
-11.42 7.47 1.69
-11.35 7.10 1.67
-11.28 6.75 1.64
-11.21 6.40 1.62
-11.15 6.07 1.59
-11.08 5.75 1.57
-11.01 5.43 1.55
-10.94 5.13 1.53
-10.86 4.83 1.51
-10.79 4.54 1.49
-10.72 4.26 1.47
-10.65 3.98 1.45
-10.58 3.72 1.44
-10.52 3.46 1.42
-10.53 3.23 1.42
-10.57 3.01 1.42
-10.60 2.79 1.42
-10.56 2.55 1.41
-10.51 2.32 1.40
-10.47 2.09 1.39
-10.42 1.86 1.38
-10.37 1.64 1.37
-10.33 1.42 1.36
-10.33 1.20 1.36
-10.34 1.00 1.36
-10.35 0.79 1.36
-10.37 0.58 1.36
-10.38 0.37 1.36
-10.38 0.16 1.36
-10.37 -0.05 1.36
-10.36 -0.26 1.36
-10.34 -0.47 1.36
-10.33 -0.68 1.36
-10.34 -0.89 1.36
-10.36 -1.10 1.36
-10.37 -1.31 1.37
-10.38 -1.53 1.37
-10.39 -1.74 1.38
-10.43 -1.96 1.39
-10.48 -2.19 1.40
-10.53 -2.43 1.41
-10.59 -2.67 1.42
-10.61 -2.90 1.43
-10.62 -3.13 1.44
-10.63 -3.37 1.45
-10.64 -3.61 1.46
-10.64 -3.85 1.46
-10.60 -4.08 1.47
-10.56 -4.31 1.47
-10.52 -4.55 1.48
-10.49 -4.79 1.48
-10.51 -5.05 1.49
-10.52 -5.32 1.51
-10.53 -5.60 1.52
-10.54 -5.88 1.54
-10.59 -6.19 1.56
-10.72 -6.56 1.59
-10.80 -6.91 1.62
-10.81 -7.22 1.64
-10.82 -7.55 1.66
-10.83 -7.89 1.68
-10.78 -8.18 1.69
-10.71 -8.48 1.70
-10.64 -8.78 1.71
-10.64 -9.15 1.74
-10.66 -9.54 1.76
-10.67 -9.94 1.79
-10.69 -10.37 1.82
-10.70 -10.81 1.85
-10.71 -11.27 1.89
-10.73 -11.75 1.92
-10.75 -12.26 1.96
-10.87 -12.90 2.02
-10.82 -13.39 2.06
-10.78 -13.90 2.09
-10.73 -14.42 2.13
-10.70 -15.01 2.17
-10.74 -15.72 2.23
-10.77 -16.47 2.30
-10.82 -17.30 2.37
-10.61 -17.74 2.39
-10.30 -18.04 2.39
-9.99 -18.34 2.39
-9.67 -18.64 2.39
-9.34 -18.93 2.39
-9.01 -19.22 2.39
-8.67 -19.50 2.39
-8.32 -19.78 2.39
-7.97 -20.06 2.39
-7.61 -20.33 2.39
-7.24 -20.60 2.39
-7.16 -21.77 2.49
-6.77 -22.04 2.49
-6.36 -22.30 2.49
-5.95 -22.57 2.49
-5.53 -22.82 2.49
-5.10 -23.08 2.49
-4.67 -23.32 2.49
-4.22 -23.57 2.49
-3.77 -23.80 2.49
-3.32 -24.03 2.49
-2.85 -24.26 2.49
-2.38 -24.47 2.49
-1.90 -24.68 2.49
-1.42 -24.89 2.49
-0.92 -25.09 2.49
-0.42 -25.28 2.49
0.08 -20.65 2.49
0.50 -20.77 2.49
0.92 -20.88 2.49
1.29 -20.11 2.39
1.71 -20.20 2.39
2.12 -20.28 2.39
2.55 -20.36 2.39
2.97 -20.42 2.39
3.40 -20.48 2.39
3.83 -20.53 2.39
4.27 -20.58 2.39
4.71 -20.61 2.39
5.91 -23.66 2.74
7.08 -26.13 3.02
5.92 -20.21 2.34
6.34 -20.13 2.33
7.92 -23.52 2.72
8.17 -22.74 2.63
8.40 -21.99 2.55
8.63 -21.30 2.47
8.86 -20.66 2.40
9.07 -20.03 2.34
9.35 -19.59 2.29
9.63 -19.19 2.25
9.89 -18.77 2.21
9.75 -17.62 2.09
9.38 -16.19 1.93
9.54 -15.73 1.88
9.83 -15.50 1.87
10.04 -15.14 1.84
10.22 -14.77 1.81
10.36 -14.35 1.77
10.47 -13.90 1.73
10.56 -13.46 1.69
10.66 -13.03 1.66
6.04 -7.09 0.91
6.20 -6.99 0.91
6.36 -6.88 0.91
6.52 -6.78 0.90
6.68 -6.68 0.90
11.73 -11.26 1.55
11.84 -10.92 1.52
11.94 -10.59 1.50
11.98 -10.19 1.47
11.94 -9.76 1.44
11.90 -9.34 1.40
11.87 -8.93 1.37
11.83 -8.54 1.34
11.79 -8.15 1.31
11.75 -7.78 1.28
11.70 -7.42 1.25
11.65 -7.06 1.23
11.60 -6.72 1.20
11.54 -6.38 1.18
11.49 -6.06 1.16
11.44 -5.74 1.13
11.38 -5.43 1.11
11.33 -5.13 1.09
11.42 -4.89 1.09
11.79 -4.78 1.11
12.18 -4.65 1.13
12.58 -4.52 1.16
12.71 -4.28 1.16
12.56 -3.95 1.14
12.39 -3.63 1.11
12.22 -3.32 1.09
6.65 -1.66 0.59
6.63 -1.52 0.58
6.61 -1.37 0.57
6.59 -1.23 0.57
6.57 -1.09 0.56
6.54 -0.95 0.56
11.61 -1.46 0.99
11.60 -1.22 0.98
11.59 -0.99 0.98
11.55 -0.75 0.97
11.48 -0.52 0.97
11.41 -0.28 0.96
11.34 -0.05 0.95
11.28 0.17 0.95
11.21 0.39 0.94
11.15 0.62 0.94
11.08 0.83 0.93
11.03 1.05 0.93
10.99 1.27 0.93
10.95 1.49 0.93
10.91 1.71 0.93
10.89 1.93 0.93
10.93 2.16 0.94
10.98 2.40 0.95
11.04 2.64 0.96
11.09 2.89 0.97
11.14 3.15 0.98
11.19 3.40 0.99
11.25 3.67 1.01
11.35 3.95 1.03
11.51 4.27 1.05
11.68 4.60 1.08
11.86 4.95 1.10
12.16 5.36 1.15
12.69 5.90 1.21
12.65 6.20 1.22
12.61 6.49 1.23
3.03 1.64 0.30
3.02 1.71 0.30
14.46 8.57 1.48
14.63 9.08 1.52
14.86 9.63 1.57
7.47 10.56 1.26
7.61 12.85 1.48
7.58 13.39 1.54
7.72 14.30 1.63
7.63 14.84 1.69
7.70 15.73 1.78
7.77 16.71 1.89
7.84 17.80 2.00
7.93 19.02 2.14
8.03 20.40 2.29
7.91 21.35 2.39
7.44 21.38 2.39
6.97 21.39 2.39
6.50 21.39 2.39
6.03 21.39 2.39
5.56 21.37 2.39
3.82 15.96 1.79
3.69 16.95 1.90
4.12 20.92 2.35
3.90 22.14 2.49
3.44 22.08 2.49
2.98 22.00 2.49
2.52 21.93 2.49
2.07 21.84 2.49
1.62 21.74 2.49
1.17 21.64 2.49
0.74 21.53 2.49
0.30 21.41 2.49
-0.13 21.28 2.49
-0.55 21.15 2.49
-0.97 21.01 2.49
-1.38 20.86 2.49
-1.79 20.71 2.49
-2.19 20.55 2.49
-2.59 20.38 2.49
-2.98 20.21 2.49
-3.37 20.03 2.49
-3.75 19.85 2.49
-4.12 19.66 2.49
-4.32 18.73 2.40
-4.65 18.46 2.39
-4.99 18.27 2.39
-4.85 16.43 2.17
-4.71 14.85 1.99
-4.79 14.11 1.91
-4.81 13.30 1.82
-4.88 12.69 1.76
-6.93 16.99 2.39
-7.23 16.76 2.39
-7.53 16.53 2.39
-7.82 16.29 2.39
-8.11 16.05 2.39
-8.39 15.81 2.39
-8.47 15.21 2.33
-8.51 14.59 2.28
-8.55 14.01 2.22
-8.59 13.45 2.17
-8.63 12.93 2.12
-8.66 12.43 2.08
-8.70 11.96 2.04
-8.73 11.51 2.00
-8.76 11.08 1.96
-8.79 10.67 1.93
-8.82 10.28 1.90
-8.84 9.90 1.87
-8.87 9.53 1.84
-8.89 9.18 1.81
-8.92 8.84 1.79
-8.94 8.52 1.76
-8.96 8.20 1.74
-8.98 7.89 1.72
-9.01 7.60 1.70
-9.03 7.31 1.68
-9.05 7.03 1.66
-9.42 7.02 1.71
-11.64 8.32 2.09
-11.35 7.76 2.02
-11.18 7.32 1.97
-11.12 6.96 1.93
-11.05 6.62 1.90
-10.99 6.28 1.88
-10.81 5.90 1.83
-10.65 5.53 1.79
-10.65 5.26 1.77
-10.69 5.02 1.77
-10.62 4.72 1.74
-10.55 4.44 1.72
-10.48 4.17 1.70
-10.42 3.90 1.68
-10.36 3.64 1.66
-10.29 3.39 1.64
-10.33 3.17 1.64
-10.36 2.95 1.64
-10.40 2.74 1.64
-10.42 2.52 1.63
-10.37 2.29 1.62
-10.33 2.06 1.61
-10.28 1.84 1.60
-10.24 1.62 1.59
-10.20 1.40 1.58
-10.19 1.19 1.57
-10.21 0.98 1.57
-10.22 0.78 1.57
-10.24 0.57 1.58
-10.25 0.37 1.58
-10.26 0.16 1.58
-10.25 -0.05 1.58
-10.24 -0.26 1.58
-10.23 -0.46 1.58
-10.22 -0.67 1.58
-10.23 -0.88 1.58
-10.24 -1.09 1.58
-10.25 -1.30 1.59
-10.26 -1.51 1.59
-10.28 -1.72 1.60
-10.29 -1.94 1.61
-10.33 -2.16 1.62
-10.38 -2.39 1.63
-10.43 -2.63 1.65
-10.46 -2.86 1.66
-10.47 -3.09 1.67
-10.48 -3.33 1.68
-10.49 -3.56 1.69
-10.50 -3.80 1.70
-10.49 -4.04 1.71
-10.45 -4.27 1.72
-10.41 -4.50 1.72
-10.38 -4.74 1.73
-10.38 -4.99 1.74
-10.39 -5.26 1.76
-10.40 -5.53 1.78
-10.42 -5.81 1.79
-10.43 -6.09 1.81
-10.50 -6.43 1.84
-10.62 -6.80 1.88
-10.63 -7.11 1.91
-10.64 -7.43 1.93
-10.65 -7.76 1.95
-10.65 -8.10 1.98
-10.60 -8.40 1.99
-10.53 -8.69 2.01
-10.50 -9.03 2.03
-10.51 -9.42 2.06
-10.52 -9.82 2.10
-10.54 -10.23 2.13
-10.55 -10.66 2.17
-10.56 -11.11 2.21
-10.57 -11.59 2.26
-10.58 -12.08 2.30
-10.60 -12.60 2.35
-10.55 -13.06 2.39
-10.32 -13.32 2.39
-10.09 -13.58 2.39
-9.85 -13.83 2.39
-9.61 -14.08 2.39
-9.36 -14.33 2.39
-9.11 -14.57 2.39
-8.85 -14.82 2.39
-8.59 -15.06 2.39
-8.32 -15.29 2.39
-8.04 -15.52 2.39
-7.76 -15.75 2.39
-7.48 -15.98 2.39
-7.19 -16.20 2.39
-6.89 -16.42 2.39
-6.87 -17.32 2.49
-6.56 -17.57 2.49
-6.24 -17.78 2.49
-5.91 -17.99 2.49
-5.57 -18.20 2.49
-5.23 -18.40 2.49
-4.89 -18.60 2.49
-4.54 -18.79 2.49
-4.18 -18.98 2.49
-3.82 -19.16 2.49
-3.45 -19.33 2.49
-3.08 -19.50 2.49
-2.70 -19.67 2.49
-2.32 -19.83 2.49
-1.93 -19.98 2.49
-1.54 -20.13 2.49
-1.14 -20.27 2.49
-0.74 -20.40 2.49
-0.33 -20.53 2.49
0.08 -17.36 2.49
0.44 -17.44 2.49
0.79 -17.51 2.49
1.15 -17.58 2.49
1.44 -16.91 2.39
1.79 -16.97 2.39
2.14 -17.01 2.39
2.50 -17.05 2.39
2.85 -17.08 2.39
3.21 -17.11 2.39
3.57 -17.13 2.39
3.93 -17.14 2.39
4.30 -17.15 2.39
4.66 -17.14 2.39
5.03 -17.14 2.39
6.19 -19.61 2.74
7.18 -21.25 2.97
7.59 -21.08 2.95
7.83 -20.44 2.87
8.05 -19.83 2.79
8.26 -19.23 2.72
8.53 -18.80 2.66
8.81 -18.43 2.62
8.85 -17.60 2.52
8.54 -16.17 2.33
8.55 -15.42 2.23
8.63 -14.86 2.16
8.90 -14.65 2.15
9.17 -14.43 2.13
9.24 -13.92 2.07
9.26 -13.36 2.01
9.57 -13.24 2.01
9.88 -13.11 2.01
10.09 -12.84 1.99
10.19 -12.45 1.95
6.04 -7.08 1.12
6.20 -6.98 1.12
6.36 -6.88 1.12
6.52 -6.77 1.12
6.68 -6.67 1.12
10.94 -10.50 1.79
10.99 -10.13 1.75
10.98 -9.72 1.71
10.97 -9.32 1.67
10.95 -8.94 1.64
10.94 -8.57 1.60
10.92 -8.21 1.57
10.90 -7.86 1.54
10.88 -7.52 1.51
10.86 -7.18 1.48
10.83 -6.86 1.45
10.81 -6.55 1.43
10.77 -6.23 1.40
10.73 -5.93 1.37
10.69 -5.63 1.35
10.66 -5.34 1.33
10.62 -5.06 1.31
10.56 -4.78 1.28
10.51 -4.50 1.26
10.45 -4.23 1.24
10.41 -3.97 1.22
10.45 -3.75 1.22
10.51 -3.54 1.21
10.57 -3.32 1.21
10.63 -3.11 1.20
10.68 -2.89 1.20
6.65 -1.66 0.74
6.63 -1.51 0.73
6.60 -1.37 0.73
6.58 -1.23 0.72
6.56 -1.09 0.72
6.54 -0.95 0.71
10.82 -1.36 1.17
10.81 -1.14 1.16
10.80 -0.92 1.16
10.79 -0.70 1.16
10.78 -0.48 1.15
10.77 -0.27 1.15
10.82 -0.05 1.16
10.81 0.16 1.15
10.78 0.38 1.15
10.74 0.59 1.15
10.71 0.81 1.15
10.67 1.02 1.14
10.64 1.23 1.14
10.60 1.44 1.14
10.56 1.65 1.14
10.52 1.86 1.14
10.55 2.08 1.15
10.59 2.31 1.16
10.63 2.55 1.17
10.68 2.78 1.18
10.72 3.03 1.20
10.77 3.27 1.21
10.81 3.52 1.23
10.86 3.78 1.24
10.86 4.03 1.25
10.82 4.26 1.26
10.84 4.52 1.28
10.98 4.84 1.31
11.12 5.17 1.34
11.27 5.52 1.37
11.43 5.88 1.41
3.03 1.63 0.38
3.02 1.71 0.38
11.37 6.74 1.46
11.35 7.04 1.48
11.32 7.34 1.50
11.29 7.64 1.52
11.26 7.95 1.54
11.41 8.41 1.59
11.49 8.82 1.63
11.57 9.26 1.68
11.65 9.71 1.72
7.41 7.86 1.26
7.22 7.97 1.26
7.42 10.06 1.49
7.37 10.41 1.53
7.61 11.23 1.63
7.39 11.38 1.64
7.43 11.96 1.71
7.47 12.59 1.79
7.52 13.27 1.87
7.57 14.01 1.96
7.63 14.81 2.07
7.69 15.70 2.18
7.76 16.68 2.30
7.67 17.37 2.39
7.28 17.43 2.39
6.90 17.49 2.39
6.51 17.54 2.39
6.13 17.57 2.39
5.75 17.60 2.39
5.37 17.62 2.39
4.99 17.64 2.39
3.41 13.05 1.77
3.51 14.61 1.98
3.86 17.63 2.39
3.64 18.38 2.49
3.25 18.35 2.49
2.87 18.32 2.49
2.49 18.28 2.49
2.11 18.23 2.49
1.73 18.18 2.49
1.36 18.12 2.49
0.99 18.05 2.49
0.63 17.97 2.49
0.27 17.89 2.49
-0.09 17.80 2.49
-0.45 17.71 2.49
-0.80 17.61 2.49
-1.15 17.50 2.49
-1.49 17.39 2.49
-1.83 17.27 2.49
-2.16 17.15 2.49
-2.50 17.02 2.49
-2.82 16.88 2.49
-3.15 16.74 2.49
-3.46 16.59 2.49
-3.78 16.44 2.49
-4.09 16.29 2.49
-4.40 16.13 2.49
-4.55 15.46 2.41
-4.79 15.14 2.39
-4.94 14.58 2.33
-5.34 14.80 2.39
-5.61 14.62 2.39
-4.90 12.04 1.99
-4.97 11.53 1.93
-4.99 10.98 1.86
-5.01 10.46 1.80
-5.07 10.06 1.76
-7.15 13.49 2.39
-5.36 9.65 1.73
-7.62 13.09 2.39
-7.85 12.88 2.39
-8.08 12.67 2.39
-8.30 12.46 2.39
-8.52 12.24 2.39
-8.69 11.98 2.38
-8.73 11.53 2.33
-8.76 11.10 2.29
-8.79 10.68 2.25
-8.81 10.29 2.21
-8.84 9.91 2.17
-8.87 9.54 2.14
-8.89 9.19 2.11
-8.92 8.85 2.08
-8.94 8.53 2.05
-8.96 8.21 2.02
-8.98 7.90 2.00
-9.01 7.60 1.97
-9.03 7.32 1.95
-9.05 7.03 1.93
-9.41 7.02 1.98
-11.18 7.99 2.32
-11.03 7.56 2.27
-10.95 7.18 2.23
-10.81 6.78 2.18
-10.64 6.38 2.12
-10.48 6.00 2.07
-10.33 5.64 2.02
-10.25 5.33 1.99
-10.31 5.10 1.98
-10.37 4.87 1.98
-10.38 4.62 1.97
-10.32 4.35 1.94
-10.26 4.08 1.92
-10.20 3.82 1.89
-10.14 3.57 1.87
-10.10 3.33 1.86
-10.13 3.11 1.85
-10.17 2.90 1.85
-10.21 2.69 1.85
-10.24 2.48 1.85
-10.24 2.26 1.84
-10.19 2.04 1.83
-10.15 1.82 1.82
-10.11 1.60 1.80
-10.07 1.38 1.79
-10.07 1.18 1.79
-10.08 0.97 1.79
-10.09 0.77 1.79
-10.11 0.57 1.79
-10.12 0.36 1.79
-10.14 0.16 1.79
-10.14 -0.05 1.79
-10.13 -0.25 1.79
-10.12 -0.46 1.79
-10.11 -0.66 1.79
-10.11 -0.87 1.80
-10.12 -1.07 1.80
-10.14 -1.28 1.81
-10.15 -1.49 1.81
-10.16 -1.70 1.82
-10.17 -1.92 1.83
-10.18 -2.13 1.84
-10.23 -2.36 1.85
-10.28 -2.59 1.87
-10.32 -2.82 1.89
-10.33 -3.05 1.90
-10.34 -3.28 1.91
-10.35 -3.52 1.92
-10.35 -3.75 1.93
-10.36 -4.00 1.95
-10.34 -4.23 1.96
-10.31 -4.46 1.96
-10.27 -4.69 1.97
-10.26 -4.94 1.99
-10.27 -5.20 2.00
-10.28 -5.47 2.02
-10.29 -5.74 2.04
-10.30 -6.03 2.07
-10.31 -6.31 2.09
-10.41 -6.67 2.13
-10.46 -7.00 2.17
-10.46 -7.31 2.19
-10.47 -7.63 2.22
-10.47 -7.97 2.25
-10.47 -8.31 2.28
-10.41 -8.61 2.30
-10.36 -8.92 2.32
-10.37 -9.30 2.36
-10.34 -9.66 2.39
-10.18 -9.89 2.39
-10.00 -10.12 2.39
-9.82 -10.35 2.39
-9.64 -10.58 2.39
-9.46 -10.80 2.39
-9.26 -11.03 2.39
-9.07 -11.25 2.39
-8.87 -11.46 2.39
-8.67 -11.68 2.39
-8.46 -11.89 2.39
-8.24 -12.10 2.39
-8.03 -12.31 2.39
-7.80 -12.51 2.39
-7.58 -12.71 2.39
-7.35 -12.91 2.39
-7.11 -13.10 2.39
-6.87 -13.29 2.39
-6.63 -13.48 2.39
-6.65 -14.23 2.49
-6.40 -14.44 2.49
-6.13 -14.63 2.49
-5.86 -14.81 2.49
-5.58 -14.98 2.49
-5.30 -15.15 2.49
-5.02 -15.32 2.49
-4.73 -15.49 2.49
-4.44 -15.65 2.49
-4.14 -15.80 2.49
-3.84 -15.95 2.49
-3.53 -16.10 2.49
-3.22 -16.24 2.49
-2.91 -16.38 2.49
-2.59 -16.51 2.49
-2.27 -16.63 2.49
-1.94 -16.75 2.49
-1.62 -16.87 2.49
-1.28 -16.98 2.49
-0.95 -17.08 2.49
-0.61 -17.18 2.49
-0.26 -17.27 2.49
0.08 -14.96 2.49
0.39 -15.02 2.49
0.69 -15.07 2.49
1.00 -15.12 2.49
1.31 -15.16 2.49
1.55 -14.57 2.39
1.85 -14.60 2.39
2.15 -14.62 2.39
2.45 -14.64 2.39
2.76 -14.65 2.39
3.07 -14.66 2.39
3.37 -14.66 2.39
3.68 -14.65 2.39
3.99 -14.64 2.39
4.31 -14.62 2.39
4.62 -14.59 2.39
4.93 -14.56 2.39
5.24 -14.53 2.39
6.04 -15.72 2.59
6.43 -15.79 2.61
6.82 -15.84 2.63
7.22 -15.89 2.65
7.50 -15.65 2.63
7.48 -14.84 2.50
7.49 -14.15 2.40
7.70 -13.88 2.37
7.65 -13.16 2.27
7.61 -12.50 2.17
7.65 -12.02 2.10
7.81 -11.75 2.07
7.96 -11.47 2.04
8.11 -11.19 2.01
8.33 -11.03 2.01
8.58 -10.91 2.01
8.83 -10.77 2.01
6.04 -7.07 1.33
6.20 -6.97 1.33
6.36 -6.87 1.33
6.52 -6.77 1.33
6.68 -6.66 1.33
9.97 -9.55 1.94
9.96 -9.17 1.90
9.96 -8.80 1.86
9.95 -8.45 1.82
9.98 -8.13 1.79
10.06 -7.87 1.77
10.05 -7.55 1.73
10.04 -7.23 1.70
10.03 -6.92 1.67
10.01 -6.62 1.64
10.00 -6.32 1.61
9.97 -6.03 1.58
9.94 -5.75 1.55
9.91 -5.47 1.53
9.87 -5.19 1.50
9.84 -4.92 1.48
9.80 -4.66 1.45
9.76 -4.41 1.43
9.72 -4.16 1.41
9.69 -3.92 1.39
9.66 -3.68 1.37
9.63 -3.45 1.35
9.60 -3.23 1.34
9.57 -3.00 1.32
9.59 -2.80 1.31
9.64 -2.61 1.31
6.64 -1.66 0.90
6.62 -1.51 0.89
6.60 -1.37 0.88
6.58 -1.23 0.87
6.56 -1.09 0.87
6.54 -0.95 0.86
10.14 -1.27 1.33
10.14 -1.06 1.33
10.13 -0.86 1.32
10.12 -0.66 1.32
10.11 -0.45 1.31
10.10 -0.25 1.31
10.12 -0.05 1.31
10.25 0.16 1.33
10.38 0.37 1.35
10.41 0.57 1.35
10.38 0.78 1.35
10.34 0.99 1.35
10.31 1.19 1.34
10.27 1.40 1.34
10.23 1.60 1.34
10.20 1.80 1.34
10.19 2.01 1.35
10.22 2.23 1.36
10.26 2.46 1.37
10.30 2.68 1.39
10.33 2.91 1.40
10.37 3.15 1.42
10.41 3.39 1.43
10.45 3.64 1.45
10.49 3.89 1.47
10.47 4.12 1.48
10.43 4.34 1.49
10.38 4.57 1.49
10.34 4.80 1.50
10.33 5.05 1.52
10.45 5.37 1.56
3.03 1.63 0.46
3.02 1.70 0.46
10.71 6.34 1.66
10.74 6.65 1.69
10.71 6.94 1.71
10.68 7.22 1.73
10.64 7.51 1.76
10.61 7.81 1.78
10.66 8.18 1.82
10.91 8.72 1.90
10.97 9.14 1.95
11.03 9.57 2.00
7.35 7.48 1.45
7.17 7.59 1.45
7.19 7.93 1.50
7.45 8.91 1.63
7.25 9.03 1.63
7.25 9.41 1.68
7.28 9.85 1.74
7.31 10.32 1.81
7.35 10.82 1.88
7.39 11.36 1.95
7.43 11.94 2.03
7.47 12.57 2.12
7.52 13.24 2.22
7.57 13.98 2.33
7.46 14.45 2.39
7.14 14.54 2.39
6.82 14.62 2.39
6.50 14.69 2.39
6.17 14.75 2.39
5.85 14.81 2.39
5.53 14.86 2.39
5.21 14.90 2.39
4.89 14.94 2.39
3.48 11.41 1.82
3.29 11.62 1.85
3.62 13.81 2.20
3.61 15.02 2.39
3.44 15.67 2.49
3.11 15.67 2.49
2.79 15.66 2.49
2.46 15.64 2.49
2.14 15.62 2.49
1.82 15.59 2.49
1.50 15.56 2.49
1.18 15.51 2.49
0.86 15.47 2.49
0.55 15.41 2.49
0.24 15.35 2.49
-0.07 15.29 2.49
-0.37 15.22 2.49
-0.67 15.14 2.49
-0.97 15.06 2.49
-1.27 14.97 2.49
-1.56 14.88 2.49
-1.85 14.78 2.49
-2.14 14.68 2.49
-2.43 14.57 2.49
-2.71 14.46 2.49
-2.98 14.35 2.49
-3.26 14.22 2.49
-3.53 14.10 2.49
-3.79 13.97 2.49
-4.06 13.83 2.49
-4.32 13.69 2.49
-4.57 13.55 2.49
-4.71 13.09 2.43
-4.87 12.70 2.39
-5.10 12.55 2.39
-5.33 12.40 2.39
-5.56 12.25 2.39
-5.78 12.09 2.39
-5.05 10.03 2.01
-5.09 9.63 1.96
-5.13 9.25 1.91
-5.14 8.83 1.85
-5.16 8.47 1.80
-5.20 8.17 1.76
-7.24 10.88 2.39
-7.43 10.70 2.39
-7.62 10.51 2.39
-7.81 10.32 2.39
-7.99 10.13 2.39
-8.16 9.94 2.39
-8.34 9.74 2.39
-8.50 9.54 2.39
-8.67 9.34 2.39
-8.83 9.14 2.39
-8.92 8.86 2.37
-8.94 8.53 2.34
-8.96 8.22 2.31
-8.98 7.91 2.28
-9.00 7.61 2.25
-9.03 7.32 2.22
-9.05 7.04 2.20
-9.40 7.02 2.25
-10.58 7.57 2.50
-10.55 7.23 2.47
-10.46 6.86 2.42
-10.30 6.47 2.36
-10.15 6.09 2.30
-10.01 5.74 2.25
-9.88 5.40 2.19
-9.93 5.17 2.19
-9.99 4.95 2.18
-10.05 4.72 2.18
-10.10 4.50 2.17
-10.09 4.26 2.16
-10.04 4.00 2.13
-9.98 3.74 2.10
-9.93 3.50 2.08
-9.91 3.27 2.06
-9.95 3.06 2.06
-9.98 2.85 2.06
-10.02 2.64 2.06
-10.05 2.44 2.06
-10.08 2.23 2.06
-10.06 2.01 2.04
-10.02 1.79 2.03
-9.98 1.58 2.02
-9.94 1.37 2.00
-9.94 1.16 2.00
-9.95 0.96 2.00
-9.97 0.76 2.00
-9.98 0.56 2.00
-10.00 0.36 2.00
-10.01 0.16 2.00
-10.02 -0.05 2.01
-10.02 -0.25 2.01
-10.01 -0.45 2.01
-9.99 -0.65 2.01
-10.00 -0.86 2.01
-10.01 -1.06 2.02
-10.02 -1.27 2.02
-10.03 -1.48 2.03
-10.04 -1.69 2.04
-10.05 -1.90 2.05
-10.06 -2.11 2.06
-10.09 -2.33 2.07
-10.14 -2.56 2.09
-10.18 -2.79 2.11
-10.19 -3.01 2.12
-10.19 -3.24 2.13
-10.20 -3.47 2.14
-10.21 -3.70 2.16
-10.22 -3.94 2.17
-10.22 -4.18 2.19
-10.20 -4.42 2.20
-10.16 -4.64 2.21
-10.14 -4.89 2.22
-10.15 -5.14 2.25
-10.16 -5.41 2.27
-10.16 -5.68 2.29
-10.17 -5.96 2.32
-10.18 -6.24 2.34
-10.20 -6.54 2.37
-10.28 -6.89 2.42
-10.04 -7.02 2.39
-9.92 -7.24 2.39
-9.79 -7.45 2.39
-9.66 -7.66 2.39
-9.52 -7.88 2.39
-9.38 -8.08 2.39
-9.24 -8.29 2.39
-9.09 -8.49 2.39
-8.94 -8.70 2.39
-8.78 -8.90 2.39
-8.62 -9.10 2.39
-8.46 -9.29 2.39
-8.29 -9.49 2.39
-8.12 -9.68 2.39
-7.95 -9.87 2.39
-7.77 -10.05 2.39
-7.59 -10.24 2.39
-7.40 -10.42 2.39
-7.21 -10.60 2.39
-7.02 -10.77 2.39
-6.82 -10.95 2.39
-6.62 -11.12 2.39
-6.45 -11.35 2.40
-6.48 -11.94 2.49
-6.25 -12.11 2.49
-6.03 -12.28 2.49
-5.80 -12.44 2.49
-5.57 -12.60 2.49
-5.33 -12.75 2.49
-5.09 -12.90 2.49
-4.85 -13.05 2.49
-4.60 -13.19 2.49
-4.35 -13.33 2.49
-4.10 -13.47 2.49
-3.84 -13.60 2.49
-3.58 -13.73 2.49
-3.32 -13.85 2.49
