ply
format ascii 1.0
element vertex 2989
property float32 x
property float32 y
property float32 z
end_header
-6.29 -0.56 1.88
-6.29 -0.68 1.89
-6.29 -0.81 1.89
-6.30 -0.94 1.90
-6.30 -1.07 1.90
-6.30 -1.20 1.91
-6.30 -1.33 1.91
-6.30 -1.46 1.92
-6.30 -1.60 1.93
-6.30 -1.73 1.94
-6.30 -1.87 1.95
-6.29 -2.00 1.96
-6.29 -2.14 1.97
-6.28 -2.28 1.98
-6.28 -2.42 1.99
-6.27 -2.57 2.01
-6.28 -2.71 2.02
-6.28 -2.87 2.04
-6.29 -3.03 2.06
-6.45 -3.26 2.14
-7.16 -3.80 2.39
-7.08 -3.95 2.39
-7.01 -4.09 2.39
-6.92 -4.23 2.39
-6.57 -4.20 2.30
-6.75 -4.51 2.39
-6.66 -4.64 2.39
-6.57 -4.78 2.39
-6.48 -4.91 2.39
-6.38 -5.04 2.39
-6.28 -5.16 2.39
-6.18 -5.30 2.39
-6.17 -5.51 2.43
-6.17 -5.73 2.48
-6.10 -5.90 2.50
-5.98 -6.02 2.50
-5.86 -6.14 2.50
-5.74 -6.26 2.50
-5.61 -6.37 2.50
-5.49 -6.48 2.50
-5.36 -6.59 2.50
-5.22 -6.70 2.50
-5.09 -6.80 2.50
-4.95 -6.90 2.50
-4.81 -7.00 2.50
-4.67 -7.09 2.50
-4.53 -7.18 2.50
-4.38 -7.27 2.50
-4.24 -7.36 2.50
-4.09 -7.44 2.50
-3.94 -7.52 2.50
-3.79 -7.59 2.50
-3.63 -7.67 2.50
-3.48 -7.74 2.50
-3.32 -7.80 2.50
-3.16 -7.86 2.50
-3.00 -7.92 2.50
-2.85 -7.98 2.50
-2.68 -8.03 2.50
-2.52 -8.08 2.50
-2.36 -8.13 2.50
-2.20 -8.17 2.50
-2.03 -8.21 2.50
-1.87 -8.25 2.50
-1.70 -8.28 2.50
-1.53 -8.31 2.50
-1.37 -8.33 2.50
-1.20 -8.36 2.50
-1.03 -8.37 2.50
-0.86 -8.39 2.50
-0.69 -8.40 2.50
-0.53 -8.41 2.50
-0.36 -8.41 2.50
-0.19 -8.41 2.50
-0.02 -7.77 2.50
0.14 -7.76 2.50
0.29 -7.75 2.50
0.45 -7.74 2.50
0.60 -7.73 2.50
0.75 -7.71 2.50
0.91 -7.69 2.50
1.06 -7.66 2.50
1.21 -7.63 2.50
1.36 -7.60 2.50
1.52 -7.57 2.50
1.67 -7.53 2.50
1.82 -7.49 2.50
1.88 -7.14 2.39
2.02 -7.10 2.39
2.08 -6.78 2.30
1.91 -5.82 1.99
1.94 -5.52 1.90
1.92 -5.14 1.78
2.71 -6.84 2.39
2.07 -4.93 1.74
2.19 -4.93 1.76
3.11 -6.65 2.39
3.24 -6.58 2.39
3.37 -6.51 2.39
3.50 -6.43 2.39
3.62 -6.36 2.39
3.75 -6.28 2.39
3.87 -6.20 2.39
3.99 -6.11 2.39
4.11 -6.03 2.39
4.22 -5.94 2.39
4.34 -5.85 2.39
4.45 -5.75 2.39
4.56 -5.66 2.39
4.67 -5.56 2.39
4.78 -5.46 2.39
4.88 -5.36 2.39
4.98 -5.26 2.39
5.08 -5.15 2.39
5.18 -5.05 2.39
5.28 -4.94 2.39
5.37 -4.83 2.39
5.46 -4.71 2.39
5.55 -4.60 2.39
5.64 -4.48 2.39
5.72 -4.36 2.39
5.80 -4.24 2.39
5.88 -4.12 2.39
6.03 -4.05 2.42
6.03 -3.87 2.39
6.03 -3.71 2.36
6.03 -3.54 2.34
6.03 -3.38 2.31
6.03 -3.22 2.29
6.03 -3.07 2.27
6.03 -2.92 2.25
6.03 -2.77 2.23
6.03 -2.63 2.21
6.03 -2.48 2.19
6.03 -2.34 2.18
6.03 -2.20 2.16
6.03 -2.07 2.15
6.03 -1.93 2.14
6.04 -1.80 2.12
6.04 -1.67 2.11
6.04 -1.54 2.10
6.04 -1.41 2.10
6.04 -1.28 2.09
6.04 -1.16 2.08
6.04 -1.03 2.08
6.04 -0.91 2.07
6.04 -0.78 2.07
6.04 -0.66 2.06
6.04 -0.54 2.06
6.04 -0.42 2.06
6.04 -0.29 2.06
6.04 -0.17 2.06
6.04 -0.05 2.06
6.04 0.07 2.06
6.04 0.19 2.06
6.04 0.31 2.07
6.04 0.44 2.07
6.05 0.56 2.08
6.05 0.68 2.08
6.05 0.81 2.09
5.85 0.90 2.03
5.85 1.02 2.04
5.85 1.14 2.05
5.86 1.27 2.06
5.86 1.39 2.07
5.86 1.52 2.08
5.86 1.64 2.09
5.86 1.77 2.10
5.86 1.90 2.12
5.86 2.03 2.13
5.86 2.17 2.15
5.87 2.30 2.17
5.87 2.44 2.19
5.87 2.58 2.21
5.87 2.73 2.23
5.88 2.87 2.26
5.88 3.02 2.28
5.88 3.18 2.31
5.88 3.33 2.33
5.89 3.49 2.36
5.88 3.65 2.39
5.81 3.77 2.39
5.73 3.88 2.39
5.65 4.00 2.39
5.56 4.11 2.39
5.48 4.22 2.39
5.39 4.33 2.39
5.30 4.43 2.39
5.21 4.54 2.39
5.12 4.64 2.39
5.02 4.74 2.39
4.92 4.84 2.39
4.82 4.94 2.39
4.72 5.04 2.39
4.62 5.13 2.39
4.52 5.22 2.39
4.41 5.31 2.39
4.30 5.40 2.39
4.19 5.49 2.39
4.08 5.57 2.39
3.97 5.65 2.39
3.85 5.73 2.39
3.74 5.81 2.39
3.62 5.88 2.39
3.50 5.95 2.39
3.38 6.02 2.39
3.26 6.09 2.39
3.14 6.16 2.39
3.01 6.22 2.39
2.89 6.28 2.39
2.76 6.34 2.39
2.63 6.39 2.39
2.50 6.45 2.39
2.37 6.50 2.39
2.24 6.55 2.39
2.11 6.59 2.39
1.98 6.63 2.39
1.92 6.96 2.50
1.78 7.00 2.50
1.64 7.04 2.50
1.50 7.07 2.50
1.36 7.10 2.50
1.21 7.13 2.50
1.07 7.16 2.50
0.93 7.18 2.50
0.78 7.20 2.50
0.64 7.22 2.50
0.49 7.23 2.50
0.35 7.25 2.50
0.20 7.25 2.50
0.05 7.26 2.50
-0.09 7.26 2.50
-0.24 7.26 2.50
-0.38 7.26 2.50
-0.53 7.26 2.50
-0.68 7.25 2.50
-0.82 7.24 2.50
-0.97 7.22 2.50
-1.12 7.21 2.50
-1.26 7.19 2.50
-1.41 7.16 2.50
-1.55 7.14 2.50
-1.70 7.11 2.50
-1.84 7.08 2.50
-1.98 7.05 2.50
-2.13 7.01 2.50
-2.27 6.97 2.50
-2.41 6.93 2.50
-2.55 6.88 2.50
-2.69 6.83 2.50
-2.83 6.78 2.50
-2.97 6.73 2.50
-3.10 6.67 2.50
-3.24 6.62 2.50
-3.37 6.55 2.50
-3.51 6.49 2.50
-3.64 6.42 2.50
-3.77 6.35 2.50
-3.90 6.28 2.50
-4.03 6.21 2.50
-4.16 6.13 2.50
-4.28 6.05 2.50
-4.41 5.97 2.50
-4.53 5.88 2.50
-4.65 5.79 2.50
-4.77 5.70 2.50
-4.89 5.61 2.50
-5.00 5.52 2.50
-5.12 5.42 2.50
-5.23 5.32 2.50
-5.34 5.22 2.50
-5.45 5.11 2.50
-5.56 5.01 2.50
-5.66 4.90 2.50
-5.76 4.79 2.50
-5.86 4.68 2.50
-5.96 4.56 2.50
-6.05 4.44 2.50
-6.13 4.31 2.49
-6.13 4.13 2.45
-6.14 3.96 2.42
-6.15 3.79 2.39
-6.23 3.67 2.39
-6.32 3.56 2.40
-6.38 3.43 2.39
-6.45 3.30 2.39
-6.52 3.17 2.39
-6.59 3.04 2.39
-6.66 2.91 2.39
-6.72 2.78 2.39
-6.78 2.65 2.39
-6.84 2.51 2.39
-6.89 2.38 2.39
-6.94 2.24 2.39
-6.99 2.10 2.39
-7.04 1.96 2.39
-7.08 1.82 2.39
-7.12 1.68 2.39
-7.16 1.54 2.39
-7.20 1.40 2.39
-7.23 1.26 2.39
-7.26 1.11 2.39
-7.28 0.97 2.39
-7.31 0.82 2.39
-7.33 0.68 2.39
-7.35 0.53 2.39
-7.36 0.38 2.39
-7.37 0.23 2.39
-7.38 0.09 2.39
-7.38 -0.06 2.39
-7.39 -0.21 2.39
-7.39 -0.36 2.39
-6.27 -0.43 2.03
-6.27 -0.55 2.03
-6.27 -0.68 2.04
-6.27 -0.81 2.04
-6.27 -0.94 2.04
-6.27 -1.07 2.05
-6.28 -1.20 2.06
-6.29 -1.33 2.07
-7.24 -1.68 2.39
-7.21 -1.83 2.39
-7.18 -1.97 2.39
-7.14 -2.12 2.39
-6.45 -2.05 2.17
-7.06 -2.40 2.39
-7.01 -2.55 2.39
-6.96 -2.69 2.39
-6.91 -2.83 2.39
-6.85 -2.97 2.39
-6.80 -3.10 2.39
-6.74 -3.24 2.39
-6.45 -3.27 2.31
-6.61 -3.51 2.39
-6.54 -3.64 2.39
-6.46 -3.77 2.39
-6.39 -3.90 2.39
-6.31 -4.03 2.39
-6.23 -4.16 2.39
-6.17 -4.30 2.40
-6.17 -4.48 2.43
-6.17 -4.67 2.47
-6.14 -4.85 2.50
-6.04 -4.97 2.50
-5.94 -5.09 2.50
-5.84 -5.21 2.50
-5.74 -5.33 2.50
-5.63 -5.44 2.50
-5.52 -5.55 2.50
-5.41 -5.66 2.50
-5.30 -5.77 2.50
-5.18 -5.88 2.50
-5.06 -5.98 2.50
-4.94 -6.08 2.50
-4.82 -6.18 2.50
-4.69 -6.27 2.50
-4.57 -6.37 2.50
-4.44 -6.45 2.50
-4.31 -6.54 2.50
-4.18 -6.63 2.50
-4.04 -6.71 2.50
-3.91 -6.79 2.50
-3.77 -6.86 2.50
-3.63 -6.94 2.50
-3.49 -7.01 2.50
-3.35 -7.07 2.50
-3.21 -7.14 2.50
-3.06 -7.20 2.50
-2.92 -7.26 2.50
-2.77 -7.31 2.50
-2.63 -7.36 2.50
-2.48 -7.41 2.50
-2.33 -7.46 2.50
-2.18 -7.50 2.50
-2.03 -7.54 2.50
-1.87 -7.58 2.50
-1.72 -7.61 2.50
-1.57 -7.64 2.50
-1.42 -7.67 2.50
-1.26 -7.69 2.50
-1.11 -7.71 2.50
-0.95 -7.73 2.50
-0.80 -7.74 2.50
-0.64 -7.75 2.50
-0.49 -7.76 2.50
-0.33 -7.77 2.50
-0.18 -7.77 2.50
-0.02 -7.20 2.50
0.12 -7.20 2.50
0.27 -7.19 2.50
0.41 -7.18 2.50
0.56 -7.17 2.50
0.70 -7.15 2.50
0.84 -7.13 2.50
0.98 -7.11 2.50
1.12 -7.08 2.50
1.26 -7.06 2.50
1.41 -7.03 2.50
1.54 -6.99 2.50
1.68 -6.96 2.50
1.82 -6.92 2.50
1.88 -6.61 2.40
2.01 -6.55 2.39
2.14 -6.50 2.39
1.91 -5.45 2.02
1.94 -5.19 1.94
1.91 -4.83 1.82
1.94 -4.63 1.76
2.19 -4.93 1.89
2.89 -6.17 2.39
3.01 -6.11 2.39
3.13 -6.04 2.39
3.25 -5.97 2.39
3.36 -5.90 2.39
3.48 -5.83 2.39
3.59 -5.76 2.39
3.70 -5.68 2.39
3.81 -5.60 2.39
3.92 -5.52 2.39
4.03 -5.43 2.39
4.13 -5.35 2.39
4.24 -5.26 2.39
4.34 -5.17 2.39
4.44 -5.08 2.39
4.53 -4.98 2.39
4.63 -4.89 2.39
4.72 -4.79 2.39
4.81 -4.69 2.39
4.90 -4.59 2.39
4.99 -4.49 2.39
5.08 -4.38 2.39
5.16 -4.28 2.39
5.24 -4.17 2.39
5.32 -4.06 2.39
5.39 -3.95 2.39
5.47 -3.84 2.39
5.54 -3.72 2.39
5.61 -3.61 2.39
5.67 -3.49 2.39
5.74 -3.37 2.39
5.80 -3.26 2.39
5.86 -3.14 2.39
6.03 -3.07 2.44
6.03 -2.92 2.42
6.03 -2.77 2.39
6.03 -2.63 2.37
6.03 -2.49 2.36
6.03 -2.35 2.34
6.03 -2.21 2.32
6.03 -2.07 2.31
6.03 -1.94 2.30
6.04 -1.80 2.28
6.04 -1.67 2.27
6.04 -1.54 2.26
6.04 -1.41 2.25
6.04 -1.29 2.24
6.04 -1.16 2.24
6.04 -1.03 2.23
6.04 -0.91 2.23
6.04 -0.79 2.22
6.04 -0.66 2.22
6.04 -0.54 2.21
6.04 -0.42 2.21
6.04 -0.30 2.21
6.04 -0.17 2.21
6.04 -0.05 2.21
6.04 0.07 2.21
6.04 0.19 2.22
6.04 0.31 2.22
6.04 0.43 2.22
6.05 0.56 2.23
6.05 0.68 2.24
6.05 0.80 2.24
5.85 0.90 2.18
5.85 1.02 2.19
5.85 1.14 2.20
5.86 1.26 2.21
5.86 1.39 2.22
5.86 1.51 2.23
5.86 1.64 2.24
5.86 1.77 2.26
5.86 1.90 2.27
5.86 2.03 2.29
5.86 2.17 2.31
5.87 2.30 2.33
5.87 2.44 2.35
5.87 2.58 2.37
5.86 2.72 2.39
5.80 2.84 2.39
5.74 2.95 2.39
5.68 3.07 2.39
5.62 3.18 2.39
5.55 3.29 2.39
5.48 3.40 2.39
5.41 3.51 2.39
5.34 3.62 2.39
5.26 3.72 2.39
5.18 3.83 2.39
5.10 3.93 2.39
5.02 4.03 2.39
4.94 4.13 2.39
4.85 4.23 2.39
4.77 4.32 2.39
4.68 4.42 2.39
4.59 4.51 2.39
4.49 4.60 2.39
4.40 4.69 2.39
4.30 4.78 2.39
4.21 4.87 2.39
4.11 4.95 2.39
4.01 5.03 2.39
3.91 5.11 2.39
3.80 5.19 2.39
3.70 5.26 2.39
3.59 5.34 2.39
3.48 5.41 2.39
3.37 5.48 2.39
3.26 5.55 2.39
3.15 5.61 2.39
3.03 5.67 2.39
2.92 5.74 2.39
2.80 5.79 2.39
2.69 5.85 2.39
2.57 5.90 2.39
2.45 5.96 2.39
2.33 6.01 2.39
2.21 6.05 2.39
2.09 6.10 2.39
1.96 6.14 2.39
1.92 6.45 2.50
1.79 6.49 2.50
1.66 6.52 2.50
1.53 6.56 2.50
1.40 6.59 2.50
1.26 6.62 2.50
1.13 6.64 2.50
1.00 6.67 2.50
0.86 6.69 2.50
0.73 6.71 2.50
0.59 6.72 2.50
0.46 6.74 2.50
0.32 6.75 2.50
0.19 6.76 2.50
0.05 6.76 2.50
-0.09 6.76 2.50
-0.22 6.76 2.50
-0.36 6.76 2.50
-0.50 6.76 2.50
-0.63 6.75 2.50
-0.77 6.74 2.50
-0.90 6.72 2.50
-1.04 6.71 2.50
-1.18 6.69 2.50
-1.31 6.67 2.50
-1.45 6.65 2.50
-1.58 6.62 2.50
-1.71 6.59 2.50
-1.85 6.56 2.50
-1.98 6.52 2.50
-2.11 6.49 2.50
-2.24 6.45 2.50
-2.37 6.40 2.50
-2.50 6.36 2.50
-2.63 6.31 2.50
-2.76 6.26 2.50
-2.89 6.21 2.50
-3.02 6.15 2.50
-3.14 6.10 2.50
-3.27 6.04 2.50
-3.39 5.97 2.50
-3.51 5.91 2.50
-3.63 5.84 2.50
-3.75 5.77 2.50
-3.87 5.70 2.50
-3.99 5.62 2.50
-4.10 5.55 2.50
-4.22 5.47 2.50
-4.33 5.39 2.50
-4.44 5.30 2.50
-4.55 5.22 2.50
-4.66 5.13 2.50
-4.76 5.04 2.50
-4.87 4.94 2.50
-4.97 4.85 2.50
-5.07 4.75 2.50
-5.17 4.65 2.50
-5.26 4.55 2.50
-5.36 4.45 2.50
-5.45 4.34 2.50
-5.54 4.24 2.50
-5.63 4.13 2.50
-5.72 4.02 2.50
-5.80 3.91 2.50
-5.88 3.79 2.50
-5.96 3.68 2.50
-6.04 3.56 2.50
-6.11 3.44 2.50
-6.13 3.29 2.47
-6.13 3.13 2.45
-6.14 2.98 2.42
-6.15 2.84 2.40
-6.19 2.70 2.39
-6.24 2.58 2.39
-6.30 2.46 2.39
-6.35 2.33 2.39
-6.40 2.21 2.39
-6.45 2.08 2.39
-6.50 1.95 2.39
-6.54 1.82 2.39
-6.58 1.69 2.39
-6.62 1.56 2.39
-6.65 1.43 2.39
-6.68 1.30 2.39
-6.71 1.16 2.39
-6.74 1.03 2.39
-6.76 0.90 2.39
-6.78 0.76 2.39
-6.80 0.62 2.39
-6.82 0.49 2.39
-6.83 0.35 2.39
-6.84 0.22 2.39
-6.85 0.08 2.39
-6.85 -0.06 2.39
-6.86 -0.20 2.39
-6.85 -0.33 2.39
-6.85 -0.47 2.39
-6.84 -0.61 2.39
-6.84 -0.75 2.39
-6.82 -0.88 2.39
-6.56 -0.98 2.30
-6.79 -1.16 2.39
-6.77 -1.29 2.39
-6.75 -1.43 2.39
-6.72 -1.56 2.39
-6.69 -1.70 2.39
-6.66 -1.83 2.39
-6.62 -1.97 2.39
-6.45 -2.06 2.34
-6.55 -2.23 2.39
-6.50 -2.36 2.39
-6.46 -2.49 2.39
-6.41 -2.62 2.39
-6.36 -2.75 2.39
-6.30 -2.88 2.39
-6.25 -3.01 2.39
-6.19 -3.13 2.39
-6.17 -3.28 2.41
-6.16 -3.44 2.43
-6.16 -3.60 2.46
-6.16 -3.77 2.49
-6.11 -3.90 2.50
-6.03 -4.02 2.50
-5.95 -4.14 2.50
-5.87 -4.26 2.50
-5.78 -4.38 2.50
-5.69 -4.50 2.50
-5.60 -4.61 2.50
-5.51 -4.72 2.50
-5.42 -4.83 2.50
-5.32 -4.94 2.50
-5.22 -5.05 2.50
-5.12 -5.15 2.50
-5.02 -5.25 2.50
-4.91 -5.35 2.50
-4.80 -5.45 2.50
-4.69 -5.54 2.50
-4.58 -5.64 2.50
-4.47 -5.73 2.50
-4.35 -5.82 2.50
-4.24 -5.90 2.50
-4.12 -5.99 2.50
-4.00 -6.07 2.50
-3.87 -6.14 2.50
-3.75 -6.22 2.50
-3.62 -6.29 2.50
-3.50 -6.36 2.50
-3.37 -6.43 2.50
-3.24 -6.50 2.50
-3.11 -6.56 2.50
-2.98 -6.62 2.50
-2.84 -6.68 2.50
-2.71 -6.73 2.50
-2.57 -6.78 2.50
-2.44 -6.83 2.50
-2.30 -6.87 2.50
-2.16 -6.92 2.50
-2.02 -6.96 2.50
-1.88 -6.99 2.50
-1.74 -7.03 2.50
-1.60 -7.06 2.50
-1.46 -7.09 2.50
-1.31 -7.11 2.50
-1.17 -7.13 2.50
-1.03 -7.15 2.50
-0.88 -7.17 2.50
-0.74 -7.18 2.50
-0.60 -7.19 2.50
-0.45 -7.20 2.50
-0.31 -7.21 2.50
-0.16 -7.21 2.50
-0.02 -6.71 2.50
0.11 -6.71 2.50
0.25 -6.70 2.50
0.38 -6.69 2.50
0.52 -6.68 2.50
0.65 -6.66 2.50
0.78 -6.65 2.50
0.91 -6.63 2.50
1.05 -6.60 2.50
1.18 -6.58 2.50
1.31 -6.55 2.50
1.44 -6.52 2.50
1.57 -6.48 2.50
1.70 -6.45 2.50
1.82 -6.41 2.50
1.88 -6.14 2.41
1.99 -6.06 2.39
2.11 -6.01 2.39
2.14 -5.72 2.29
1.93 -4.87 1.97
1.94 -4.61 1.88
1.92 -4.33 1.78
2.69 -5.75 2.39
2.80 -5.70 2.39
2.91 -5.63 2.39
3.03 -5.57 2.39
3.13 -5.51 2.39
3.24 -5.44 2.39
3.35 -5.37 2.39
3.45 -5.30 2.39
3.55 -5.22 2.39
3.66 -5.15 2.39
3.76 -5.07 2.39
3.85 -4.99 2.39
3.95 -4.91 2.39
4.04 -4.82 2.39
4.14 -4.74 2.39
4.23 -4.65 2.39
4.32 -4.56 2.39
4.40 -4.47 2.39
4.49 -4.38 2.39
4.57 -4.28 2.39
4.65 -4.19 2.39
4.73 -4.09 2.39
4.81 -3.99 2.39
4.89 -3.89 2.39
4.96 -3.79 2.39
5.03 -3.69 2.39
5.10 -3.58 2.39
5.17 -3.48 2.39
5.23 -3.37 2.39
5.30 -3.26 2.39
5.36 -3.15 2.39
5.41 -3.04 2.39
5.47 -2.93 2.39
5.52 -2.82 2.39
5.57 -2.70 2.39
5.62 -2.59 2.39
5.67 -2.47 2.39
5.71 -2.36 2.39
5.76 -2.24 2.39
5.80 -2.12 2.39
5.83 -2.00 2.39
5.87 -1.88 2.39
5.90 -1.77 2.39
6.04 -1.67 2.43
6.04 -1.54 2.42
6.04 -1.42 2.41
6.04 -1.29 2.40
6.04 -1.16 2.40
6.04 -1.04 2.39
6.04 -0.91 2.38
6.04 -0.79 2.38
6.04 -0.66 2.37
6.04 -0.54 2.37
6.04 -0.42 2.37
6.04 -0.30 2.37
6.04 -0.18 2.37
6.04 -0.05 2.37
6.04 0.07 2.37
6.04 0.19 2.37
6.04 0.31 2.38
6.04 0.43 2.38
6.05 0.56 2.39
6.05 0.68 2.39
6.05 0.80 2.40
5.85 0.90 2.33
5.85 1.02 2.34
5.85 1.14 2.35
5.86 1.26 2.36
5.86 1.39 2.37
5.86 1.51 2.39
5.83 1.63 2.39
5.80 1.75 2.39
5.76 1.87 2.39
5.72 1.98 2.39
5.67 2.09 2.39
5.63 2.21 2.39
5.58 2.32 2.39
5.53 2.43 2.39
5.48 2.54 2.39
5.42 2.65 2.39
5.37 2.76 2.39
5.31 2.86 2.39
5.25 2.97 2.39
5.19 3.07 2.39
5.12 3.18 2.39
5.06 3.28 2.39
4.99 3.38 2.39
4.92 3.48 2.39
4.85 3.58 2.39
4.77 3.67 2.39
4.70 3.77 2.39
4.62 3.86 2.39
4.54 3.95 2.39
4.46 4.04 2.39
4.37 4.13 2.39
4.29 4.22 2.39
4.20 4.30 2.39
4.11 4.39 2.39
4.03 4.47 2.39
3.93 4.55 2.39
3.84 4.63 2.39
3.75 4.70 2.39
3.65 4.78 2.39
3.55 4.85 2.39
3.46 4.92 2.39
3.36 4.99 2.39
3.25 5.06 2.39
3.15 5.12 2.39
3.05 5.19 2.39
2.94 5.25 2.39
2.84 5.31 2.39
2.73 5.36 2.39
2.62 5.42 2.39
2.51 5.47 2.39
2.40 5.52 2.39
2.29 5.57 2.39
2.18 5.61 2.39
2.06 5.66 2.39
1.95 5.70 2.39
1.92 5.99 2.50
1.79 6.03 2.50
1.67 6.06 2.50
1.55 6.10 2.50
1.43 6.13 2.50
1.30 6.16 2.50
1.18 6.19 2.50
1.06 6.21 2.50
0.93 6.23 2.50
0.81 6.25 2.50
0.68 6.27 2.50
0.55 6.28 2.50
0.43 6.30 2.50
0.30 6.31 2.50
0.17 6.31 2.50
0.05 6.32 2.50
-0.08 6.32 2.50
-0.21 6.32 2.50
-0.34 6.32 2.50
-0.46 6.31 2.50
-0.59 6.31 2.50
-0.72 6.30 2.50
-0.85 6.28 2.50
-0.97 6.27 2.50
-1.10 6.25 2.50
-1.23 6.23 2.50
-1.35 6.21 2.50
-1.48 6.18 2.50
-1.60 6.16 2.50
-1.73 6.13 2.50
-1.85 6.09 2.50
-1.98 6.06 2.50
-2.10 6.02 2.50
-2.22 5.98 2.50
-2.34 5.94 2.50
-2.46 5.90 2.50
-2.58 5.85 2.50
-2.70 5.80 2.50
-2.82 5.75 2.50
-2.94 5.69 2.50
-3.05 5.64 2.50
-3.17 5.58 2.50
-3.28 5.52 2.50
-3.39 5.45 2.50
-3.50 5.39 2.50
-3.61 5.32 2.50
-3.72 5.25 2.50
-3.83 5.18 2.50
-3.94 5.10 2.50
-4.04 5.03 2.50
-4.15 4.95 2.50
-4.25 4.87 2.50
-4.35 4.79 2.50
-4.45 4.70 2.50
-4.54 4.61 2.50
-4.64 4.53 2.50
-4.73 4.43 2.50
-4.82 4.34 2.50
-4.91 4.25 2.50
-5.00 4.15 2.50
-5.09 4.05 2.50
-5.17 3.95 2.50
-5.25 3.85 2.50
-5.33 3.75 2.50
-5.41 3.64 2.50
-5.49 3.54 2.50
-5.56 3.43 2.50
-5.63 3.32 2.50
-5.70 3.21 2.50
-5.77 3.09 2.50
-5.84 2.98 2.50
-5.90 2.86 2.50
-5.96 2.75 2.50
-6.02 2.63 2.50
-6.07 2.51 2.50
-6.13 2.39 2.50
-6.14 2.25 2.48
-6.14 2.11 2.46
-6.14 1.98 2.44
-6.14 1.84 2.43
-6.15 1.71 2.41
-6.15 1.58 2.40
-6.17 1.45 2.39
-6.20 1.33 2.39
-6.23 1.21 2.39
-6.26 1.08 2.39
-6.28 0.96 2.39
-6.30 0.83 2.39
-6.34 0.71 2.40
-6.34 0.58 2.39
-6.36 0.45 2.39
-6.37 0.33 2.39
-6.38 0.20 2.39
-6.38 0.07 2.39
-6.39 -0.06 2.39
-6.39 -0.18 2.39
-6.39 -0.31 2.39
-6.38 -0.44 2.39
-6.38 -0.57 2.39
-6.37 -0.70 2.39
-6.36 -0.82 2.39
-6.34 -0.95 2.39
-6.34 -1.08 2.40
-6.31 -1.21 2.39
-6.28 -1.33 2.39
-6.26 -1.46 2.39
-6.23 -1.58 2.39
-6.20 -1.71 2.39
-6.17 -1.83 2.39
-6.16 -1.97 2.40
-6.16 -2.10 2.42
-6.16 -2.24 2.43
-6.16 -2.38 2.45
-6.16 -2.52 2.47
-6.16 -2.67 2.49
-6.12 -2.80 2.50
-6.07 -2.92 2.50
-6.01 -3.04 2.50
-5.95 -3.16 2.50
-5.89 -3.28 2.50
-5.82 -3.40 2.50
-5.76 -3.52 2.50
-5.69 -3.63 2.50
-5.61 -3.75 2.50
-5.54 -3.86 2.50
-5.46 -3.97 2.50
-5.38 -4.08 2.50
-5.30 -4.19 2.50
-5.22 -4.29 2.50
-5.13 -4.40 2.50
-5.04 -4.50 2.50
-4.95 -4.60 2.50
-4.86 -4.70 2.50
-4.77 -4.80 2.50
-4.67 -4.89 2.50
-4.57 -4.98 2.50
-4.47 -5.07 2.50
-4.37 -5.16 2.50
-4.27 -5.25 2.50
-4.16 -5.33 2.50
-4.05 -5.42 2.50
-3.94 -5.50 2.50
-3.83 -5.57 2.50
-3.72 -5.65 2.50
-3.61 -5.72 2.50
-3.49 -5.79 2.50
-3.38 -5.86 2.50
-3.26 -5.93 2.50
-3.14 -5.99 2.50
-3.02 -6.05 2.50
-2.90 -6.11 2.50
-2.77 -6.16 2.50
-2.65 -6.22 2.50
-2.52 -6.27 2.50
-2.40 -6.31 2.50
-2.27 -6.36 2.50
-2.14 -6.40 2.50
-2.01 -6.44 2.50
-1.88 -6.48 2.50
-1.75 -6.51 2.50
-1.62 -6.55 2.50
-1.49 -6.57 2.50
-1.36 -6.60 2.50
-1.22 -6.62 2.50
-1.09 -6.65 2.50
-0.96 -6.66 2.50
-0.82 -6.68 2.50
-0.69 -6.69 2.50
-0.56 -6.70 2.50
-0.42 -6.71 2.50
-0.29 -6.71 2.50
-0.15 -6.71 2.50
-0.02 -6.28 2.50
0.11 -6.27 2.50
0.23 -6.27 2.50
0.36 -6.26 2.50
0.48 -6.25 2.50
0.61 -6.23 2.50
0.73 -6.21 2.50
0.85 -6.20 2.50
0.98 -6.17 2.50
1.10 -6.15 2.50
1.22 -6.12 2.50
1.34 -6.09 2.50
1.46 -6.06 2.50
1.58 -6.03 2.50
1.70 -5.99 2.50
1.82 -5.95 2.50
1.88 -5.73 2.42
1.97 -5.63 2.39
2.09 -5.60 2.40
2.19 -5.54 2.39
1.92 -4.57 1.99
1.95 -4.39 1.93
1.92 -4.10 1.82
1.94 -3.94 1.77
1.98 -3.84 1.74
2.07 -3.82 1.75
2.19 -3.85 1.79
3.03 -5.09 2.39
3.13 -5.02 2.39
3.23 -4.96 2.39
3.32 -4.89 2.39
3.42 -4.82 2.39
3.51 -4.74 2.39
3.60 -4.67 2.39
3.70 -4.59 2.39
3.78 -4.51 2.39
3.87 -4.43 2.39
3.96 -4.35 2.39
4.04 -4.27 2.39
4.12 -4.19 2.39
4.20 -4.10 2.39
4.28 -4.01 2.39
4.36 -3.92 2.39
4.43 -3.83 2.39
4.50 -3.74 2.39
4.57 -3.64 2.39
4.64 -3.55 2.39
4.71 -3.45 2.39
4.78 -3.35 2.39
4.84 -3.26 2.39
4.90 -3.16 2.39
4.96 -3.05 2.39
5.01 -2.95 2.39
5.07 -2.85 2.39
5.12 -2.74 2.39
5.17 -2.64 2.39
5.22 -2.53 2.39
5.27 -2.43 2.39
5.31 -2.32 2.39
5.35 -2.21 2.39
5.39 -2.10 2.39
5.43 -1.99 2.39
5.46 -1.88 2.39
5.50 -1.77 2.39
5.53 -1.66 2.39
5.56 -1.54 2.39
5.58 -1.43 2.39
5.61 -1.32 2.39
5.63 -1.20 2.39
5.65 -1.09 2.39
5.67 -0.97 2.39
5.68 -0.86 2.39
5.69 -0.74 2.39
5.70 -0.63 2.39
5.71 -0.51 2.39
5.72 -0.40 2.39
5.72 -0.28 2.39
5.72 -0.17 2.39
5.72 -0.05 2.39
5.72 0.06 2.39
5.71 0.18 2.39
5.70 0.29 2.39
5.69 0.41 2.39
5.68 0.52 2.39
5.67 0.64 2.39
5.65 0.75 2.39
5.63 0.86 2.39
5.61 0.97 2.39
5.59 1.09 2.39
5.56 1.20 2.39
5.53 1.31 2.39
5.50 1.42 2.39
5.47 1.53 2.39
5.44 1.64 2.39
5.40 1.75 2.39
5.36 1.86 2.39
5.32 1.96 2.39
5.28 2.07 2.39
5.23 2.17 2.39
5.19 2.28 2.39
5.14 2.38 2.39
5.09 2.48 2.39
5.03 2.59 2.39
4.98 2.69 2.39
4.92 2.79 2.39
4.87 2.88 2.39
4.80 2.98 2.39
4.74 3.08 2.39
4.68 3.17 2.39
4.61 3.26 2.39
4.54 3.35 2.39
4.48 3.44 2.39
4.40 3.53 2.39
4.33 3.62 2.39
4.26 3.71 2.39
4.18 3.79 2.39
4.10 3.88 2.39
4.02 3.96 2.39
3.94 4.04 2.39
3.86 4.12 2.39
3.78 4.19 2.39
3.69 4.27 2.39
3.60 4.34 2.39
3.51 4.41 2.39
3.42 4.48 2.39
3.33 4.55 2.39
3.24 4.62 2.39
3.15 4.68 2.39
3.05 4.74 2.39
2.96 4.80 2.39
2.86 4.86 2.39
2.76 4.92 2.39
2.66 4.98 2.39
2.56 5.03 2.39
2.46 5.08 2.39
2.36 5.13 2.39
2.25 5.18 2.39
2.15 5.22 2.39
2.04 5.27 2.39
1.94 5.31 2.39
1.91 5.58 2.50
1.80 5.62 2.50
1.68 5.65 2.50
1.57 5.69 2.50
1.45 5.72 2.50
1.34 5.75 2.50
1.22 5.78 2.50
1.11 5.80 2.50
0.99 5.82 2.50
0.87 5.84 2.50
0.75 5.86 2.50
0.64 5.88 2.50
0.52 5.89 2.50
0.40 5.90 2.50
0.28 5.91 2.50
0.16 5.92 2.50
0.04 5.92 2.50
-0.08 5.93 2.50
-0.20 5.93 2.50
-0.32 5.92 2.50
-0.44 5.92 2.50
-0.56 5.91 2.50
-0.68 5.90 2.50
-0.79 5.89 2.50
-0.91 5.88 2.50
-1.03 5.86 2.50
-1.15 5.84 2.50
-1.27 5.82 2.50
-1.39 5.80 2.50
-1.50 5.77 2.50
-1.62 5.74 2.50
-1.74 5.71 2.50
-1.85 5.68 2.50
-1.97 5.64 2.50
-2.08 5.61 2.50
-2.20 5.57 2.50
-2.31 5.52 2.50
-2.42 5.48 2.50
-2.53 5.43 2.50
-2.64 5.39 2.50
-2.75 5.33 2.50
-2.86 5.28 2.50
-2.97 5.23 2.50
-3.08 5.17 2.50
-3.18 5.11 2.50
-3.29 5.05 2.50
-3.39 4.98 2.50
-3.49 4.92 2.50
-3.59 4.85 2.50
-3.69 4.78 2.50
-3.79 4.71 2.50
-3.88 4.63 2.50
-3.98 4.56 2.50
-4.07 4.48 2.50
-4.17 4.40 2.50
-4.26 4.32 2.50
-4.35 4.24 2.50
-4.43 4.15 2.50
-4.52 4.06 2.50
-4.60 3.98 2.50
-4.68 3.89 2.50
-4.76 3.79 2.50
-4.84 3.70 2.50
-4.92 3.60 2.50
-5.00 3.51 2.50
-5.07 3.41 2.50
-5.14 3.31 2.50
-5.21 3.21 2.50
-5.28 3.10 2.50
-5.34 3.00 2.50
-5.40 2.89 2.50
-5.46 2.79 2.50
-5.52 2.68 2.50
-5.58 2.57 2.50
-5.63 2.46 2.50
-5.69 2.35 2.50
-5.74 2.23 2.50
-5.78 2.12 2.50
-5.83 2.01 2.50
-5.87 1.89 2.50
-5.91 1.77 2.50
-5.95 1.66 2.50
-5.99 1.54 2.50
-6.02 1.42 2.50
-6.05 1.30 2.50
-6.08 1.18 2.50
-6.11 1.06 2.50
-6.13 0.93 2.50
-6.14 0.81 2.49
-6.14 0.69 2.48
-6.15 0.56 2.48
-6.15 0.44 2.47
-6.15 0.31 2.47
-6.15 0.19 2.46
-6.15 0.07 2.46
-6.15 -0.06 2.46
-6.15 -0.18 2.46
-6.15 -0.30 2.46
-6.15 -0.43 2.46
-6.15 -0.55 2.47
-6.15 -0.67 2.47
-6.15 -0.80 2.47
-6.15 -0.92 2.48
-6.15 -1.05 2.49
-6.15 -1.18 2.50
-6.13 -1.30 2.50
-6.10 -1.42 2.50
-6.08 -1.55 2.50
-6.05 -1.67 2.50
-6.02 -1.79 2.50
-5.98 -1.91 2.50
-5.95 -2.03 2.50
-5.91 -2.15 2.50
-5.86 -2.27 2.50
-5.82 -2.39 2.50
-5.77 -2.50 2.50
-5.72 -2.62 2.50
-5.67 -2.73 2.50
-5.62 -2.85 2.50
-5.56 -2.96 2.50
-5.50 -3.07 2.50
-5.44 -3.18 2.50
-5.38 -3.29 2.50
-5.31 -3.40 2.50
-5.25 -3.50 2.50
-5.18 -3.61 2.50
-5.11 -3.71 2.50
-5.03 -3.81 2.50
-4.95 -3.91 2.50
-4.88 -4.01 2.50
-4.80 -4.11 2.50
-4.71 -4.21 2.50
-4.63 -4.30 2.50
-4.54 -4.39 2.50
-4.45 -4.48 2.50
-4.36 -4.57 2.50
-4.27 -4.66 2.50
-4.18 -4.74 2.50
-4.08 -4.83 2.50
-3.99 -4.91 2.50
-3.89 -4.99 2.50
-3.79 -5.06 2.50
-3.69 -5.14 2.50
-3.58 -5.21 2.50
-3.48 -5.28 2.50
-3.37 -5.35 2.50
-3.26 -5.41 2.50
-3.15 -5.48 2.50
-3.04 -5.54 2.50
-2.93 -5.60 2.50
-2.82 -5.65 2.50
-2.71 -5.71 2.50
-2.59 -5.76 2.50
-2.48 -5.81 2.50
-2.36 -5.86 2.50
-2.24 -5.90 2.50
-2.12 -5.94 2.50
-2.00 -5.98 2.50
-1.88 -6.02 2.50
-1.76 -6.06 2.50
-1.64 -6.09 2.50
-1.52 -6.12 2.50
-1.39 -6.15 2.50
-1.27 -6.17 2.50
-1.15 -6.19 2.50
-1.02 -6.21 2.50
-0.90 -6.23 2.50
-0.77 -6.24 2.50
-0.65 -6.26 2.50
-0.52 -6.26 2.50
-0.40 -6.27 2.50
-0.27 -6.28 2.50
-0.14 -6.28 2.50
-0.02 -5.89 2.50
0.10 -5.88 2.50
0.22 -5.88 2.50
0.33 -5.87 2.50
0.45 -5.86 2.50
0.57 -5.85 2.50
0.68 -5.83 2.50
0.80 -5.81 2.50
0.91 -5.79 2.50
1.03 -5.77 2.50
1.14 -5.75 2.50
1.26 -5.72 2.50
1.37 -5.69 2.50
1.48 -5.66 2.50
1.60 -5.62 2.50
1.71 -5.59 2.50
1.82 -5.55 2.50
1.88 -5.37 2.43
1.95 -5.24 2.39
2.06 -5.20 2.39
2.16 -5.15 2.39
1.92 -4.33 2.03
1.93 -4.14 1.96
1.94 -3.95 1.89
1.92 -3.71 1.79
1.95 -3.60 1.76
2.19 -3.85 1.91
2.84 -4.78 2.39
2.94 -4.72 2.39
3.03 -4.65 2.39
3.12 -4.59 2.39
3.21 -4.52 2.39
3.30 -4.45 2.39
3.38 -4.38 2.39
3.47 -4.31 2.39
3.55 -4.24 2.39
3.63 -4.16 2.39
3.71 -4.09 2.39
3.79 -4.01 2.39
3.87 -3.93 2.39
3.94 -3.85 2.39
4.02 -3.77 2.39
4.09 -3.68 2.39
4.16 -3.60 2.39
4.23 -3.51 2.39
4.29 -3.42 2.39
4.36 -3.33 2.39
4.42 -3.24 2.39
4.48 -3.15 2.39
4.54 -3.06 2.39
4.60 -2.97 2.39
4.66 -2.87 2.39
4.71 -2.77 2.39
4.76 -2.68 2.39
4.81 -2.58 2.39
4.86 -2.48 2.39
4.90 -2.38 2.39
4.95 -2.28 2.39
4.99 -2.18 2.39
5.03 -2.08 2.39
5.07 -1.97 2.39
5.10 -1.87 2.39
5.13 -1.77 2.39
5.17 -1.66 2.39
5.19 -1.56 2.39
5.22 -1.45 2.39
5.25 -1.35 2.39
5.27 -1.24 2.39
5.29 -1.13 2.39
5.31 -1.02 2.39
5.32 -0.92 2.39
5.34 -0.81 2.39
5.35 -0.70 2.39
5.36 -0.59 2.39
5.37 -0.48 2.39
5.37 -0.38 2.39
5.38 -0.27 2.39
5.38 -0.16 2.39
5.38 -0.05 2.39
5.37 0.06 2.39
5.37 0.17 2.39
5.36 0.27 2.39
5.35 0.38 2.39
5.34 0.49 2.39
5.33 0.60 2.39
5.31 0.70 2.39
5.29 0.81 2.39
5.27 0.92 2.39
5.25 1.02 2.39
5.23 1.13 2.39
5.20 1.23 2.39
5.17 1.33 2.39
5.14 1.44 2.39
5.11 1.54 2.39
5.08 1.64 2.39
5.04 1.74 2.39
5.00 1.85 2.39
4.96 1.94 2.39
4.92 2.04 2.39
4.88 2.14 2.39
4.83 2.24 2.39
4.78 2.34 2.39
4.73 2.43 2.39
4.68 2.53 2.39
4.63 2.62 2.39
4.58 2.71 2.39
4.52 2.80 2.39
4.46 2.89 2.39
4.40 2.98 2.39
4.34 3.07 2.39
4.27 3.15 2.39
4.21 3.24 2.39
4.14 3.32 2.39
4.07 3.41 2.39
4.00 3.49 2.39
3.93 3.57 2.39
3.86 3.64 2.39
3.78 3.72 2.39
3.71 3.80 2.39
3.63 3.87 2.39
3.55 3.94 2.39
3.47 4.01 2.39
3.39 4.08 2.39
3.31 4.15 2.39
3.22 4.22 2.39
3.14 4.28 2.39
3.05 4.34 2.39
2.96 4.40 2.39
2.87 4.46 2.39
2.78 4.52 2.39
2.69 4.57 2.39
2.60 4.63 2.39
2.50 4.68 2.39
2.41 4.73 2.39
2.31 4.78 2.39
2.22 4.82 2.39
2.13 4.90 2.40
2.02 4.91 2.39
1.93 4.98 2.40
1.90 5.21 2.50
1.79 5.25 2.50
1.69 5.28 2.50
1.58 5.32 2.50
1.47 5.35 2.50
1.37 5.38 2.50
1.26 5.41 2.50
1.15 5.43 2.50
1.04 5.46 2.50
0.93 5.48 2.50
0.82 5.50 2.50
0.71 5.51 2.50
0.60 5.53 2.50
0.49 5.54 2.50
0.37 5.55 2.50
0.26 5.56 2.50
0.15 5.57 2.50
0.04 5.57 2.50
-0.07 5.57 2.50
-0.19 5.57 2.50
-0.30 5.57 2.50
-0.41 5.57 2.50
-0.52 5.56 2.50
-0.64 5.55 2.50
-0.75 5.54 2.50
-0.86 5.52 2.50
-0.97 5.51 2.50
-1.08 5.49 2.50
-1.19 5.47 2.50
-1.30 5.45 2.50
-1.42 5.42 2.50
-1.52 5.40 2.50
-1.63 5.37 2.50
-1.74 5.34 2.50
-1.85 5.30 2.50
-1.96 5.27 2.50
-2.07 5.23 2.50
-2.17 5.19 2.50
-2.28 5.15 2.50
-2.38 5.11 2.50
-2.49 5.06 2.50
-2.59 5.01 2.50
-2.69 4.96 2.50
-2.79 4.91 2.50
-2.89 4.86 2.50
-2.99 4.80 2.50
-3.09 4.74 2.50
-3.18 4.68 2.50
-3.28 4.62 2.50
-3.38 4.56 2.50
-3.47 4.49 2.50
-3.56 4.42 2.50
-3.65 4.35 2.50
-3.74 4.28 2.50
-3.83 4.21 2.50
-3.91 4.13 2.50
-4.00 4.06 2.50
-4.08 3.98 2.50
-4.16 3.90 2.50
-4.24 3.82 2.50
-4.32 3.73 2.50
-4.40 3.65 2.50
-4.48 3.56 2.50
-4.55 3.47 2.50
-4.62 3.38 2.50
-4.69 3.29 2.50
-4.76 3.20 2.50
-4.83 3.11 2.50
-4.89 3.01 2.50
-4.95 2.91 2.50
-5.02 2.82 2.50
-5.07 2.72 2.50
-5.13 2.62 2.50
-5.19 2.51 2.50
-5.24 2.41 2.50
-5.29 2.31 2.50
-5.34 2.20 2.50
-5.39 2.10 2.50
-5.43 1.99 2.50
-5.47 1.88 2.50
-5.51 1.77 2.50
-5.55 1.66 2.50
-5.59 1.55 2.50
-5.62 1.44 2.50
-5.65 1.33 2.50
-5.68 1.22 2.50
-5.71 1.10 2.50
-5.73 0.99 2.50
-5.75 0.87 2.50
-5.77 0.76 2.50
-5.79 0.64 2.50
-5.81 0.53 2.50
-5.82 0.41 2.50
-5.83 0.30 2.50
-5.84 0.18 2.50
-5.84 0.06 2.50
-5.85 -0.05 2.50
-5.85 -0.17 2.50
-5.85 -0.29 2.50
-5.84 -0.41 2.50
-5.84 -0.52 2.50
-5.83 -0.64 2.50
-5.82 -0.76 2.50
-5.80 -0.87 2.50
-5.79 -0.99 2.50
-5.77 -1.11 2.50
-5.75 -1.22 2.50
-5.73 -1.34 2.50
-5.70 -1.45 2.50
-5.67 -1.57 2.50
-5.64 -1.68 2.50
-5.61 -1.79 2.50
-5.58 -1.90 2.50
-5.54 -2.02 2.50
-5.50 -2.13 2.50
-5.46 -2.24 2.50
-5.41 -2.35 2.50
-5.37 -2.46 2.50
-5.32 -2.56 2.50
-5.27 -2.67 2.50
-5.22 -2.78 2.50
-5.16 -2.88 2.50
-5.10 -2.98 2.50
-5.04 -3.09 2.50
-4.98 -3.19 2.50
-4.92 -3.29 2.50
-4.85 -3.38 2.50
-4.79 -3.48 2.50
-4.72 -3.58 2.50
-4.65 -3.67 2.50
-4.57 -3.76 2.50
-4.50 -3.86 2.50
-4.42 -3.94 2.50
-4.34 -4.03 2.50
-4.26 -4.12 2.50
-4.18 -4.20 2.50
-4.09 -4.29 2.50
-4.01 -4.37 2.50
-3.92 -4.45 2.50
-3.83 -4.52 2.50
-3.74 -4.60 2.50
-3.65 -4.67 2.50
-3.55 -4.75 2.50
-3.46 -4.82 2.50
-3.36 -4.88 2.50
-3.26 -4.95 2.50
-3.16 -5.01 2.50
-3.06 -5.08 2.50
-2.96 -5.14 2.50
-2.85 -5.19 2.50
-2.75 -5.25 2.50
-2.64 -5.30 2.50
-2.54 -5.35 2.50
-2.43 -5.40 2.50
-2.32 -5.45 2.50
-2.21 -5.49 2.50
-2.10 -5.53 2.50
-1.99 -5.57 2.50
-1.88 -5.61 2.50
-1.76 -5.65 2.50
-1.65 -5.68 2.50
-1.54 -5.71 2.50
-1.42 -5.74 2.50
-1.31 -5.76 2.50
-1.19 -5.79 2.50
-1.08 -5.81 2.50
-0.96 -5.83 2.50
-0.84 -5.84 2.50
-0.72 -5.85 2.50
-0.61 -5.87 2.50
-0.49 -5.87 2.50
-0.37 -5.88 2.50
-0.25 -5.89 2.50
-0.14 -5.89 2.50
-0.02 -5.54 2.50
0.09 -5.53 2.50
0.20 -5.53 2.50
0.31 -5.52 2.50
0.42 -5.51 2.50
0.53 -5.50 2.50
0.64 -5.48 2.50
0.75 -5.47 2.50
0.86 -5.45 2.50
0.97 -5.43 2.50
1.08 -5.40 2.50
1.18 -5.38 2.50
1.29 -5.35 2.50
1.40 -5.32 2.50
1.50 -5.29 2.50
1.61 -5.26 2.50
1.71 -5.22 2.50
1.81 -5.18 2.50
1.88 -5.04 2.45
1.93 -4.89 2.39
2.03 -4.85 2.39
2.12 -4.80 2.39
2.22 -4.76 2.39
1.92 -3.91 1.99
1.95 -3.77 1.94
1.92 -3.54 1.84
1.93 -3.39 1.78
2.67 -4.50 2.39
2.76 -4.44 2.39
2.85 -4.38 2.39
2.93 -4.32 2.39
3.02 -4.26 2.39
3.10 -4.19 2.39
3.18 -4.13 2.39
3.26 -4.06 2.39
3.34 -3.99 2.39
3.42 -3.92 2.39
3.49 -3.85 2.39
3.57 -3.78 2.39
3.64 -3.70 2.39
3.71 -3.63 2.39
3.78 -3.55 2.39
3.85 -3.47 2.39
3.92 -3.39 2.39
3.98 -3.31 2.39
4.04 -3.22 2.39
4.10 -3.14 2.39
4.16 -3.06 2.39
4.22 -2.97 2.39
4.28 -2.88 2.39
4.33 -2.79 2.39
4.38 -2.70 2.39
4.43 -2.61 2.39
4.48 -2.52 2.39
4.53 -2.43 2.39
4.57 -2.34 2.39
4.62 -2.24 2.39
4.66 -2.15 2.39
4.70 -2.05 2.39
4.74 -1.96 2.39
4.77 -1.86 2.39
4.80 -1.76 2.39
4.84 -1.67 2.39
4.86 -1.57 2.39
4.89 -1.47 2.39
4.92 -1.37 2.39
4.94 -1.27 2.39
4.96 -1.17 2.39
4.98 -1.07 2.39
5.00 -0.97 2.39
5.02 -0.87 2.39
5.03 -0.76 2.39
5.04 -0.66 2.39
5.05 -0.56 2.39
5.06 -0.46 2.39
5.06 -0.36 2.39
5.07 -0.25 2.39
5.07 -0.15 2.39
5.07 -0.05 2.39
5.06 0.05 2.39
5.06 0.15 2.39
5.05 0.26 2.39
5.04 0.36 2.39
5.03 0.46 2.39
5.02 0.56 2.39
5.01 0.66 2.39
4.99 0.76 2.39
4.97 0.86 2.39
4.95 0.96 2.39
4.93 1.06 2.39
4.90 1.16 2.39
4.88 1.26 2.39
4.85 1.35 2.39
4.82 1.45 2.39
4.79 1.55 2.39
4.75 1.64 2.39
4.72 1.74 2.39
4.68 1.83 2.39
4.64 1.93 2.39
4.60 2.02 2.39
4.56 2.11 2.39
4.51 2.20 2.39
4.46 2.29 2.39
4.42 2.38 2.39
4.37 2.47 2.39
4.31 2.55 2.39
4.26 2.64 2.39
4.20 2.73 2.39
4.15 2.81 2.39
4.09 2.89 2.39
4.03 2.97 2.39
3.97 3.05 2.39
3.91 3.13 2.39
3.84 3.21 2.39
3.77 3.29 2.39
3.71 3.36 2.39
3.64 3.44 2.39
3.57 3.51 2.39
3.50 3.58 2.39
3.42 3.65 2.39
3.35 3.72 2.39
3.27 3.78 2.39
3.19 3.85 2.39
3.12 3.91 2.39
3.04 3.97 2.39
2.96 4.03 2.39
2.87 4.09 2.39
2.79 4.15 2.39
2.71 4.21 2.39
2.62 4.26 2.39
2.53 4.31 2.39
2.45 4.36 2.39
2.36 4.41 2.39
2.27 4.46 2.39
2.18 4.50 2.39
2.09 4.55 2.39
2.00 4.59 2.39
1.92 4.68 2.42
1.89 4.87 2.50
1.79 4.91 2.50
1.69 4.94 2.50
1.59 4.98 2.50
1.49 5.01 2.50
1.39 5.04 2.50
1.29 5.07 2.50
1.19 5.10 2.50
1.08 5.12 2.50
0.98 5.14 2.50
0.88 5.16 2.50
0.77 5.18 2.50
0.67 5.20 2.50
0.56 5.21 2.50
0.46 5.22 2.50
0.35 5.23 2.50
0.25 5.24 2.50
0.14 5.25 2.50
0.03 5.25 2.50
-0.07 5.25 2.50
-0.18 5.25 2.50
-0.28 5.25 2.50
-0.39 5.24 2.50
-0.50 5.24 2.50
-0.60 5.23 2.50
-0.71 5.22 2.50
-0.81 5.21 2.50
-0.92 5.19 2.50
-1.02 5.17 2.50
-1.13 5.15 2.50
-1.23 5.13 2.50
-1.33 5.11 2.50
-1.44 5.09 2.50
-1.54 5.06 2.50
-1.64 5.03 2.50
-1.75 5.00 2.50
-1.85 4.96 2.50
-1.95 4.93 2.50
-2.05 4.89 2.50
-2.15 4.85 2.50
-2.25 4.81 2.50
-2.34 4.77 2.50
-2.44 4.72 2.50
-2.54 4.67 2.50
-2.63 4.62 2.50
-2.73 4.57 2.50
-2.82 4.52 2.50
-2.91 4.47 2.50
-3.00 4.41 2.50
-3.09 4.35 2.50
-3.18 4.29 2.50
-3.27 4.23 2.50
-3.35 4.16 2.50
-3.44 4.10 2.50
-3.52 4.03 2.50
-3.61 3.96 2.50
-3.69 3.89 2.50
-3.77 3.82 2.50
-3.85 3.75 2.50
-3.92 3.67 2.50
-4.00 3.59 2.50
-4.07 3.51 2.50
-4.14 3.43 2.50
-4.22 3.35 2.50
-4.28 3.27 2.50
-4.35 3.18 2.50
-4.42 3.10 2.50
-4.48 3.01 2.50
-4.55 2.92 2.50
-4.61 2.83 2.50
-4.67 2.74 2.50
-4.72 2.65 2.50
-4.78 2.56 2.50
-4.83 2.46 2.50
-4.88 2.36 2.50
-4.93 2.27 2.50
-4.98 2.17 2.50
-5.03 2.07 2.50
-5.07 1.97 2.50
-5.11 1.87 2.50
-5.15 1.77 2.50
-5.19 1.67 2.50
-5.22 1.56 2.50
-5.26 1.46 2.50
-5.29 1.35 2.50
-5.32 1.25 2.50
-5.35 1.14 2.50
-5.37 1.04 2.50
-5.39 0.93 2.50
-5.41 0.82 2.50
-5.43 0.71 2.50
-5.45 0.60 2.50
-5.46 0.50 2.50
-5.48 0.39 2.50
-5.48 0.28 2.50
-5.49 0.17 2.50
-5.50 0.06 2.50
-5.50 -0.05 2.50
-5.50 -0.16 2.50
-5.50 -0.27 2.50
-5.50 -0.38 2.50
-5.49 -0.49 2.50
-5.48 -0.60 2.50
-5.47 -0.71 2.50
-5.46 -0.82 2.50
-5.44 -0.93 2.50
-5.43 -1.04 2.50
-5.41 -1.15 2.50
-5.39 -1.26 2.50
-5.36 -1.37 2.50
-5.33 -1.47 2.50
-5.31 -1.58 2.50
-5.28 -1.69 2.50
-5.24 -1.79 2.50
-5.21 -1.90 2.50
-5.17 -2.00 2.50
-5.13 -2.11 2.50
-5.09 -2.21 2.50
-5.05 -2.31 2.50
-5.00 -2.41 2.50
-4.95 -2.51 2.50
-4.90 -2.61 2.50
-4.85 -2.71 2.50
-4.80 -2.81 2.50
-4.74 -2.90 2.50
-4.69 -3.00 2.50
-4.63 -3.09 2.50
-4.56 -3.18 2.50
-4.50 -3.27 2.50
-4.43 -3.36 2.50
-4.37 -3.45 2.50
-4.30 -3.54 2.50
-4.23 -3.63 2.50
-4.16 -3.71 2.50
-4.08 -3.79 2.50
-4.00 -3.87 2.50
-3.93 -3.95 2.50
-3.85 -4.03 2.50
-3.77 -4.11 2.50
-3.68 -4.18 2.50
-3.60 -4.25 2.50
-3.51 -4.33 2.50
-3.43 -4.39 2.50
-3.34 -4.46 2.50
-3.25 -4.53 2.50
-3.16 -4.59 2.50
-3.07 -4.65 2.50
-2.97 -4.71 2.50
-2.88 -4.77 2.50
-2.78 -4.83 2.50
-2.68 -4.88 2.50
-2.59 -4.93 2.50
-2.49 -4.98 2.50
-2.39 -5.03 2.50
-2.29 -5.08 2.50
-2.18 -5.12 2.50
-2.08 -5.16 2.50
-1.98 -5.20 2.50
-1.87 -5.24 2.50
-1.77 -5.28 2.50
-1.66 -5.31 2.50
-1.55 -5.34 2.50
-1.45 -5.37 2.50
-1.34 -5.39 2.50
-1.23 -5.42 2.50
-1.12 -5.44 2.50
-1.01 -5.46 2.50
-0.90 -5.48 2.50
-0.79 -5.49 2.50
-0.68 -5.51 2.50
-0.57 -5.52 2.50
-0.46 -5.52 2.50
-0.35 -5.53 2.50
-0.24 -5.53 2.50
-0.13 -5.54 2.50
-0.02 -5.22 2.50
0.08 -5.22 2.50
0.19 -5.21 2.50
0.29 -5.20 2.50
0.40 -5.19 2.50
0.50 -5.18 2.50
0.60 -5.17 2.50
0.71 -5.15 2.50
0.81 -5.14 2.50
0.91 -5.12 2.50
1.01 -5.10 2.50
1.11 -5.07 2.50
1.21 -5.05 2.50
1.31 -5.02 2.50
1.41 -4.99 2.50
1.51 -4.96 2.50
1.61 -4.92 2.50
1.71 -4.89 2.50
1.80 -4.85 2.50
1.88 -4.76 2.47
1.91 -4.57 2.39
2.00 -4.53 2.39
2.09 -4.49 2.39
2.18 -4.44 2.39
1.92 -3.72 2.02
1.93 -3.57 1.97
1.95 -3.43 1.91
1.92 -3.23 1.82
1.93 -3.11 1.78
2.69 -4.13 2.39
2.01 -2.97 1.74
2.09 -2.95 1.76
2.21 -2.98 1.80
3.00 -3.89 2.39
3.08 -3.83 2.39
3.15 -3.77 2.39
3.22 -3.70 2.39
3.29 -3.63 2.39
3.36 -3.56 2.39
3.43 -3.49 2.39
3.50 -3.42 2.39
3.57 -3.35 2.39
3.63 -3.27 2.39
3.69 -3.20 2.39
3.75 -3.12 2.39
3.81 -3.04 2.39
3.87 -2.97 2.39
3.93 -2.89 2.39
3.98 -2.80 2.39
4.04 -2.72 2.39
4.09 -2.64 2.39
4.14 -2.55 2.39
4.18 -2.47 2.39
4.23 -2.38 2.39
4.27 -2.30 2.39
4.32 -2.21 2.39
4.36 -2.12 2.39
4.40 -2.03 2.39
4.43 -1.94 2.39
4.47 -1.85 2.39
4.50 -1.76 2.39
4.53 -1.67 2.39
4.56 -1.57 2.39
4.59 -1.48 2.39
4.62 -1.39 2.39
4.64 -1.29 2.39
4.66 -1.20 2.39
4.69 -1.10 2.39
4.70 -1.01 2.39
4.72 -0.91 2.39
4.74 -0.82 2.39
4.75 -0.72 2.39
4.76 -0.63 2.39
4.77 -0.53 2.39
4.78 -0.43 2.39
4.78 -0.34 2.39
4.78 -0.24 2.39
4.79 -0.14 2.39
4.78 -0.05 2.39
4.78 0.05 2.39
4.78 0.14 2.39
4.77 0.24 2.39
4.76 0.34 2.39
4.75 0.43 2.39
4.74 0.53 2.39
4.73 0.62 2.39
4.71 0.72 2.39
4.69 0.81 2.39
4.68 0.91 2.39
4.65 1.00 2.39
4.63 1.09 2.39
4.61 1.19 2.39
4.58 1.28 2.39
4.55 1.37 2.39
4.52 1.46 2.39
4.49 1.55 2.39
4.46 1.64 2.39
4.42 1.73 2.39
4.38 1.82 2.39
4.34 1.91 2.39
4.30 1.99 2.39
4.26 2.08 2.39
4.22 2.16 2.39
4.17 2.25 2.39
4.12 2.33 2.39
4.08 2.41 2.39
4.02 2.49 2.39
3.97 2.57 2.39
3.92 2.65 2.39
3.86 2.73 2.39
3.81 2.81 2.39
3.75 2.88 2.39
3.69 2.96 2.39
3.63 3.03 2.39
3.57 3.10 2.39
3.50 3.18 2.39
3.44 3.25 2.39
3.37 3.31 2.39
3.30 3.38 2.39
3.23 3.45 2.39
3.16 3.51 2.39
3.09 3.57 2.39
3.02 3.64 2.39
2.94 3.70 2.39
2.87 3.75 2.39
2.79 3.81 2.39
2.71 3.87 2.39
2.64 3.92 2.39
2.56 3.97 2.39
2.48 4.03 2.39
2.39 4.07 2.39
2.31 4.12 2.39
2.23 4.17 2.39
2.14 4.21 2.39
2.06 4.26 2.39
1.97 4.30 2.39
1.92 4.41 2.43
1.88 4.56 2.50
1.78 4.60 2.50
1.69 4.64 2.50
1.60 4.67 2.50
1.50 4.70 2.50
1.41 4.73 2.50
1.31 4.76 2.50
1.22 4.79 2.50
1.12 4.81 2.50
1.02 4.84 2.50
0.92 4.86 2.50
0.83 4.88 2.50
0.73 4.89 2.50
0.63 4.91 2.50
0.53 4.92 2.50
0.43 4.93 2.50
0.33 4.94 2.50
0.23 4.95 2.50
0.13 4.96 2.50
0.03 4.96 2.50
-0.07 4.96 2.50
-0.17 4.96 2.50
-0.27 4.96 2.50
-0.37 4.95 2.50
-0.47 4.95 2.50
-0.57 4.94 2.50
-0.67 4.93 2.50
-0.77 4.92 2.50
-0.87 4.90 2.50
-0.97 4.89 2.50
-1.07 4.87 2.50
-1.16 4.85 2.50
-1.26 4.83 2.50
-1.36 4.80 2.50
-1.46 4.78 2.50
-1.55 4.75 2.50
-1.65 4.72 2.50
-1.75 4.69 2.50
-1.84 4.65 2.50
-1.93 4.62 2.50
-2.03 4.58 2.50
-2.12 4.54 2.50
-2.21 4.50 2.50
-2.30 4.46 2.50
-2.40 4.41 2.50
-2.49 4.37 2.50
-2.57 4.32 2.50
-2.66 4.27 2.50
-2.75 4.21 2.50
-2.83 4.16 2.50
-2.92 4.11 2.50
-3.00 4.05 2.50
-3.09 3.99 2.50
-3.17 3.93 2.50
-3.25 3.87 2.50
-3.33 3.80 2.50
-3.41 3.74 2.50
-3.48 3.67 2.50
-3.56 3.60 2.50
-3.63 3.53 2.50
-3.70 3.46 2.50
-3.77 3.39 2.50
-3.84 3.31 2.50
-3.91 3.24 2.50
-3.98 3.16 2.50
-4.04 3.08 2.50
-4.11 3.00 2.50
-4.17 2.92 2.50
-4.23 2.84 2.50
-4.29 2.76 2.50
-4.35 2.67 2.50
-4.40 2.58 2.50
-4.46 2.50 2.50
-4.51 2.41 2.50
-4.56 2.32 2.50
-4.61 2.23 2.50
-4.65 2.14 2.50
-4.70 2.05 2.50
-4.74 1.95 2.50
-4.78 1.86 2.50
-4.82 1.76 2.50
-4.86 1.67 2.50
-4.89 1.57 2.50
-4.93 1.47 2.50
-4.96 1.37 2.50
-4.99 1.28 2.50
-5.02 1.18 2.50
-5.04 1.08 2.50
-5.07 0.98 2.50
-5.09 0.87 2.50
-5.11 0.77 2.50
-5.12 0.67 2.50
-5.14 0.57 2.50
-5.15 0.47 2.50
-5.16 0.36 2.50
-5.17 0.26 2.50
-5.18 0.16 2.50
-5.18 0.05 2.50
-5.19 -0.05 2.50
-5.19 -0.15 2.50
-5.19 -0.26 2.50
-5.18 -0.36 2.50
-5.18 -0.47 2.50
-5.17 -0.57 2.50
-5.16 -0.67 2.50
-5.15 -0.78 2.50
-5.13 -0.88 2.50
-5.12 -0.98 2.50
-5.10 -1.08 2.50
-5.08 -1.19 2.50
-5.05 -1.29 2.50
-5.03 -1.39 2.50
-5.00 -1.49 2.50
-4.97 -1.59 2.50
-4.94 -1.69 2.50
-4.91 -1.79 2.50
-4.87 -1.89 2.50
-4.84 -1.99 2.50
-4.80 -2.08 2.50
-4.76 -2.18 2.50
-4.71 -2.27 2.50
-4.67 -2.37 2.50
-4.62 -2.46 2.50
-4.57 -2.55 2.50
-4.52 -2.65 2.50
-4.47 -2.74 2.50
-4.42 -2.83 2.50
-4.36 -2.91 2.50
-4.30 -3.00 2.50
-4.24 -3.09 2.50
-4.18 -3.17 2.50
-4.12 -3.25 2.50
-4.05 -3.34 2.50
-3.98 -3.42 2.50
-3.92 -3.50 2.50
-3.85 -3.57 2.50
-3.77 -3.65 2.50
-3.70 -3.73 2.50
-3.63 -3.80 2.50
-3.55 -3.87 2.50
-3.47 -3.94 2.50
-3.39 -4.01 2.50
-3.31 -4.08 2.50
-3.23 -4.14 2.50
-3.15 -4.21 2.50
-3.06 -4.27 2.50
-2.98 -4.33 2.50
-2.89 -4.39 2.50
-2.80 -4.44 2.50
-2.71 -4.50 2.50
-2.62 -4.55 2.50
-2.53 -4.60 2.50
-2.44 -4.65 2.50
-2.34 -4.70 2.50
-2.25 -4.74 2.50
-2.15 -4.79 2.50
-2.06 -4.83 2.50
-1.96 -4.87 2.50
-1.86 -4.90 2.50
-1.76 -4.94 2.50
-1.67 -4.97 2.50
-1.57 -5.00 2.50
-1.46 -5.03 2.50
-1.36 -5.06 2.50
-1.26 -5.08 2.50
-1.16 -5.11 2.50
-1.06 -5.13 2.50
-0.95 -5.15 2.50
-0.85 -5.16 2.50
-0.75 -5.18 2.50
-0.64 -5.19 2.50
-0.54 -5.20 2.50
-0.44 -5.21 2.50
-0.33 -5.21 2.50
-0.23 -5.22 2.50
-0.12 -5.22 2.50
-0.02 -4.93 2.50
0.08 -4.93 2.50
0.18 -4.92 2.50
0.28 -4.92 2.50
0.37 -4.91 2.50
0.47 -4.90 2.50
0.57 -4.89 2.50
0.67 -4.87 2.50
0.76 -4.85 2.50
0.86 -4.84 2.50
0.96 -4.82 2.50
1.05 -4.79 2.50
1.15 -4.77 2.50
1.24 -4.74 2.50
1.33 -4.71 2.50
1.43 -4.68 2.50
1.52 -4.65 2.50
1.61 -4.62 2.50
1.70 -4.58 2.50
1.79 -4.55 2.50
1.88 -4.50 2.49
1.89 -4.29 2.39
1.97 -4.24 2.39
2.06 -4.20 2.39
2.14 -4.15 2.39
2.09 -3.87 2.25
1.92 -3.39 1.99
1.94 -3.27 1.95
1.95 -3.14 1.89
1.92 -2.96 1.81
1.94 -2.86 1.77
2.09 -2.95 1.86
2.20 -2.98 1.91
2.84 -3.68 2.39
2.91 -3.62 2.39
2.98 -3.56 2.39
3.05 -3.50 2.39
3.11 -3.44 2.39
3.18 -3.37 2.39
3.24 -3.30 2.39
3.31 -3.24 2.39
3.37 -3.17 2.39
3.43 -3.10 2.39
3.49 -3.03 2.39
3.55 -2.95 2.39
3.60 -2.88 2.39
3.66 -2.80 2.39
3.71 -2.73 2.39
3.76 -2.65 2.39
3.81 -2.57 2.39
3.86 -2.50 2.39
3.91 -2.42 2.39
3.96 -2.34 2.39
4.00 -2.25 2.39
4.04 -2.17 2.39
4.08 -2.09 2.39
4.12 -2.01 2.39
4.16 -1.92 2.39
4.19 -1.84 2.39
4.23 -1.75 2.39
4.26 -1.66 2.39
4.29 -1.58 2.39
4.32 -1.49 2.39
4.34 -1.40 2.39
4.37 -1.31 2.39
4.39 -1.23 2.39
4.41 -1.14 2.39
4.43 -1.05 2.39
4.45 -0.96 2.39
4.47 -0.87 2.39
4.48 -0.78 2.39
4.49 -0.69 2.39
4.50 -0.59 2.39
4.51 -0.50 2.39
4.52 -0.41 2.39
4.52 -0.32 2.39
4.53 -0.23 2.39
4.53 -0.14 2.39
4.53 -0.05 2.39
4.52 0.04 2.39
4.52 0.14 2.39
4.51 0.23 2.39
4.51 0.32 2.39
4.50 0.41 2.39
4.49 0.50 2.39
4.47 0.59 2.39
4.46 0.68 2.39
4.44 0.77 2.39
4.42 0.86 2.39
4.40 0.95 2.39
4.38 1.03 2.39
4.36 1.12 2.39
4.33 1.21 2.39
4.31 1.30 2.39
4.28 1.38 2.39
4.25 1.47 2.39
4.22 1.55 2.39
4.18 1.64 2.39
4.15 1.72 2.39
4.11 1.80 2.39
4.07 1.88 2.39
4.03 1.97 2.39
3.99 2.05 2.39
3.95 2.13 2.39
3.90 2.21 2.39
3.86 2.28 2.39
3.81 2.36 2.39
3.76 2.44 2.39
3.71 2.51 2.39
3.66 2.58 2.39
3.60 2.66 2.39
3.55 2.73 2.39
3.49 2.80 2.39
3.43 2.87 2.39
3.38 2.94 2.39
3.31 3.01 2.39
3.25 3.07 2.39
3.19 3.14 2.39
3.13 3.20 2.39
3.06 3.26 2.39
2.99 3.32 2.39
2.93 3.38 2.39
2.86 3.44 2.39
2.79 3.50 2.39
2.72 3.55 2.39
2.64 3.61 2.39
2.57 3.66 2.39
2.50 3.71 2.39
2.42 3.76 2.39
2.34 3.81 2.39
2.27 3.86 2.39
2.19 3.90 2.39
2.12 3.97 2.41
2.03 3.99 2.39
1.95 4.03 2.39
1.92 4.18 2.46
1.86 4.28 2.50
1.77 4.32 2.50
1.69 4.36 2.50
1.60 4.39 2.50
1.51 4.42 2.50
1.42 4.45 2.50
1.33 4.48 2.50
1.24 4.51 2.50
1.15 4.53 2.50
1.06 4.56 2.50
0.97 4.58 2.50
0.87 4.60 2.50
0.78 4.62 2.50
0.69 4.63 2.50
0.59 4.65 2.50
0.50 4.66 2.50
0.41 4.67 2.50
0.31 4.68 2.50
0.22 4.68 2.50
0.12 4.69 2.50
0.03 4.69 2.50
-0.07 4.69 2.50
-0.16 4.69 2.50
-0.26 4.69 2.50
-0.35 4.69 2.50
-0.44 4.68 2.50
-0.54 4.67 2.50
-0.63 4.66 2.50
-0.73 4.65 2.50
-0.82 4.64 2.50
-0.92 4.62 2.50
-1.01 4.61 2.50
-1.10 4.59 2.50
-1.20 4.57 2.50
-1.29 4.54 2.50
-1.38 4.52 2.50
-1.47 4.49 2.50
-1.56 4.46 2.50
-1.65 4.43 2.50
-1.74 4.40 2.50
-1.83 4.37 2.50
-1.92 4.33 2.50
-2.01 4.29 2.50
-2.10 4.26 2.50
-2.18 4.22 2.50
-2.27 4.17 2.50
-2.35 4.13 2.50
-2.44 4.08 2.50
-2.52 4.04 2.50
-2.60 3.99 2.50
-2.68 3.94 2.50
-2.76 3.88 2.50
-2.84 3.83 2.50
-2.92 3.77 2.50
-3.00 3.72 2.50
-3.07 3.66 2.50
-3.15 3.60 2.50
-3.22 3.53 2.50
-3.29 3.47 2.50
-3.36 3.41 2.50
-3.43 3.34 2.50
-3.50 3.27 2.50
-3.57 3.20 2.50
-3.64 3.13 2.50
-3.70 3.06 2.50
-3.76 2.99 2.50
-3.83 2.91 2.50
-3.89 2.84 2.50
-3.94 2.76 2.50
-4.00 2.68 2.50
-4.06 2.60 2.50
-4.11 2.52 2.50
-4.16 2.44 2.50
-4.21 2.36 2.50
-4.26 2.28 2.50
-4.31 2.19 2.50
-4.36 2.11 2.50
-4.40 2.02 2.50
-4.44 1.93 2.50
-4.48 1.84 2.50
-4.52 1.75 2.50
-4.56 1.66 2.50
-4.59 1.57 2.50
-4.63 1.48 2.50
-4.66 1.39 2.50
-4.69 1.30 2.50
-4.72 1.20 2.50
-4.74 1.11 2.50
-4.77 1.02 2.50
-4.79 0.92 2.50
-4.81 0.82 2.50
-4.83 0.73 2.50
-4.84 0.63 2.50
-4.86 0.54 2.50
-4.87 0.44 2.50
-4.88 0.34 2.50
-4.89 0.24 2.50
-4.89 0.15 2.50
-4.90 0.05 2.50
-4.90 -0.05 2.50
-4.90 -0.15 2.50
-4.90 -0.25 2.50
-4.90 -0.34 2.50
-4.89 -0.44 2.50
-4.88 -0.54 2.50
-4.87 -0.64 2.50
-4.86 -0.73 2.50
-4.85 -0.83 2.50
-4.83 -0.93 2.50
-4.82 -1.03 2.50
-4.80 -1.12 2.50
-4.77 -1.22 2.50
-4.75 -1.31 2.50
-4.73 -1.41 2.50
-4.70 -1.50 2.50
-4.67 -1.60 2.50
-4.64 -1.69 2.50
-4.60 -1.78 2.50
-4.57 -1.88 2.50
-4.53 -1.97 2.50
-4.49 -2.06 2.50
-4.45 -2.15 2.50
-4.41 -2.24 2.50
-4.37 -2.33 2.50
-4.32 -2.41 2.50
-4.27 -2.50 2.50
-4.22 -2.58 2.50
-4.17 -2.67 2.50
-4.12 -2.75 2.50
-4.06 -2.83 2.50
-4.01 -2.92 2.50
-3.95 -3.00 2.50
-3.89 -3.07 2.50
-3.83 -3.15 2.50
-3.76 -3.23 2.50
-3.70 -3.30 2.50
-3.63 -3.38 2.50
-3.56 -3.45 2.50
-3.50 -3.52 2.50
-3.42 -3.59 2.50
-3.35 -3.66 2.50
-3.28 -3.72 2.50
-3.20 -3.79 2.50
-3.13 -3.85 2.50
-3.05 -3.91 2.50
-2.97 -3.97 2.50
-2.89 -4.03 2.50
-2.81 -4.09 2.50
-2.73 -4.14 2.50
-2.65 -4.20 2.50
-2.56 -4.25 2.50
-2.48 -4.30 2.50
-2.39 -4.35 2.50
-2.30 -4.39 2.50
-2.21 -4.44 2.50
-2.13 -4.48 2.50
-2.04 -4.52 2.50
-1.94 -4.56 2.50
-1.85 -4.60 2.50
-1.76 -4.63 2.50
-1.67 -4.67 2.50
-1.57 -4.70 2.50
-1.48 -4.73 2.50
-1.38 -4.75 2.50
-1.29 -4.78 2.50
-1.19 -4.80 2.50
-1.10 -4.82 2.50
-1.00 -4.84 2.50
-0.90 -4.86 2.50
-0.81 -4.88 2.50
-0.71 -4.89 2.50
-0.61 -4.90 2.50
-0.51 -4.91 2.50
-0.41 -4.92 2.50
-0.31 -4.93 2.50
-0.22 -4.93 2.50
-0.12 -4.93 2.50
-0.02 -4.67 2.50
0.07 -4.66 2.50
0.17 -4.66 2.50
0.26 -4.65 2.50
0.35 -4.65 2.50
0.45 -4.64 2.50
0.54 -4.62 2.50
0.63 -4.61 2.50
0.72 -4.60 2.50
0.81 -4.58 2.50
0.90 -4.56 2.50
0.99 -4.54 2.50
1.08 -4.51 2.50
1.17 -4.49 2.50
1.26 -4.46 2.50
1.35 -4.44 2.50
1.44 -4.41 2.50
1.53 -4.37 2.50
1.61 -4.34 2.50
1.70 -4.30 2.50
1.78 -4.27 2.50
1.87 -4.23 2.50
1.89 -4.06 2.42
1.95 -3.97 2.39
2.03 -3.93 2.39
2.09 -3.87 2.38
2.18 -3.84 2.39
1.92 -3.24 2.04
1.93 -3.11 1.98
1.95 -3.00 1.94
1.94 -2.86 1.88
1.92 -2.72 1.81
1.94 -2.63 1.77
2.68 -3.49 2.39
2.75 -3.43 2.39
2.82 -3.37 2.39
2.88 -3.31 2.39
2.95 -3.25 2.39
3.01 -3.19 2.39
3.07 -3.13 2.39
3.13 -3.07 2.39
3.19 -3.00 2.39
3.25 -2.93 2.39
3.31 -2.87 2.39
3.36 -2.80 2.39
3.41 -2.73 2.39
3.47 -2.66 2.39
3.52 -2.59 2.39
3.57 -2.51 2.39
3.61 -2.44 2.39
3.66 -2.37 2.39
3.70 -2.29 2.39
3.75 -2.21 2.39
3.79 -2.14 2.39
3.83 -2.06 2.39
3.87 -1.98 2.39
3.90 -1.90 2.39
3.94 -1.82 2.39
3.97 -1.74 2.39
4.00 -1.66 2.39
4.03 -1.58 2.39
4.06 -1.50 2.39
4.09 -1.41 2.39
4.11 -1.33 2.39
4.14 -1.25 2.39
4.16 -1.16 2.39
4.18 -1.08 2.39
4.20 -0.99 2.39
4.22 -0.91 2.39
4.23 -0.82 2.39
4.24 -0.74 2.39
4.26 -0.65 2.39
4.27 -0.56 2.39
4.27 -0.48 2.39
4.28 -0.39 2.39
4.29 -0.31 2.39
4.29 -0.22 2.39
4.29 -0.13 2.39
4.29 -0.05 2.39
4.29 0.04 2.39
4.28 0.13 2.39
4.28 0.21 2.39
4.27 0.30 2.39
4.26 0.39 2.39
4.25 0.47 2.39
4.24 0.56 2.39
4.23 0.64 2.39
4.21 0.73 2.39
4.19 0.81 2.39
4.17 0.90 2.39
4.15 0.98 2.39
4.13 1.06 2.39
4.11 1.14 2.39
4.08 1.23 2.39
4.06 1.31 2.39
4.03 1.39 2.39
4.00 1.47 2.39
3.97 1.55 2.39
3.93 1.63 2.39
3.90 1.71 2.39
3.86 1.79 2.39
3.82 1.86 2.39
3.78 1.94 2.39
3.74 2.02 2.39
3.70 2.09 2.39
3.66 2.16 2.39
3.61 2.24 2.39
3.56 2.31 2.39
3.52 2.38 2.39
3.47 2.45 2.39
3.42 2.52 2.39
3.36 2.59 2.39
3.31 2.65 2.39
3.26 2.72 2.39
3.20 2.79 2.39
3.14 2.85 2.39
3.08 2.91 2.39
3.02 2.97 2.39
2.96 3.03 2.39
2.90 3.09 2.39
2.84 3.15 2.39
2.77 3.21 2.39
2.71 3.26 2.39
2.64 3.32 2.39
2.57 3.37 2.39
2.51 3.42 2.39
2.44 3.47 2.39
2.37 3.52 2.39
2.29 3.57 2.39
2.22 3.61 2.39
2.15 3.66 2.39
2.07 3.70 2.39
2.00 3.74 2.39
1.93 3.79 2.40
1.92 3.96 2.48
1.85 4.02 2.50
1.76 4.06 2.50
1.68 4.09 2.50
1.60 4.13 2.50
1.52 4.16 2.50
1.43 4.19 2.50
1.35 4.22 2.50
1.26 4.25 2.50
0.88 3.21 1.88
0.81 3.20 1.86
0.75 3.24 1.87
0.92 4.34 2.50
0.83 4.36 2.50
0.74 4.38 2.50
0.65 4.39 2.50
0.56 4.40 2.50
0.47 4.42 2.50
0.38 4.43 2.50
0.30 4.43 2.50
0.21 4.44 2.50
0.12 4.45 2.50
0.03 4.45 2.50
-0.06 4.45 2.50
-0.15 4.45 2.50
-0.24 4.45 2.50
-0.33 4.44 2.50
-0.42 4.44 2.50
-0.51 4.43 2.50
-0.60 4.42 2.50
-0.69 4.41 2.50
-0.78 4.40 2.50
-0.87 4.38 2.50
-0.73 3.32 1.90
-0.78 3.24 1.86
-0.84 3.22 1.86
-0.92 3.25 1.89
-1.31 4.28 2.50
-1.40 4.26 2.50
-1.48 4.23 2.50
-1.57 4.20 2.50
-1.65 4.17 2.50
-1.74 4.14 2.50
-1.82 4.10 2.50
-1.90 4.07 2.50
-1.99 4.03 2.50
-2.07 3.99 2.50
-2.15 3.95 2.50
-2.23 3.91 2.50
-2.31 3.87 2.50
-2.39 3.82 2.50
-2.47 3.78 2.50
-2.54 3.73 2.50
-2.62 3.68 2.50
-2.69 3.63 2.50
-2.77 3.57 2.50
-2.84 3.52 2.50
-2.91 3.46 2.50
-2.98 3.41 2.50
-3.05 3.35 2.50
-3.12 3.29 2.50
-3.19 3.23 2.50
-3.25 3.16 2.50
-3.32 3.10 2.50
-3.38 3.03 2.50
-3.45 2.97 2.50
-3.51 2.90 2.50
-3.57 2.83 2.50
-3.62 2.76 2.50
-3.68 2.69 2.50
-3.74 2.61 2.50
-3.79 2.54 2.50
-3.84 2.47 2.50
-3.89 2.39 2.50
-3.94 2.31 2.50
-3.99 2.23 2.50
-4.04 2.15 2.50
-4.08 2.07 2.50
-4.13 1.99 2.50
-4.17 1.91 2.50
-4.21 1.83 2.50
-4.25 1.74 2.50
-4.28 1.66 2.50
-4.32 1.57 2.50
-4.35 1.49 2.50
-4.38 1.40 2.50
-4.41 1.32 2.50
-4.44 1.23 2.50
-4.47 1.14 2.50
-4.49 1.05 2.50
-4.51 0.96 2.50
-4.53 0.87 2.50
-4.55 0.78 2.50
-4.57 0.69 2.50
-4.58 0.60 2.50
-4.60 0.51 2.50
-4.61 0.41 2.50
-4.62 0.32 2.50
-4.63 0.23 2.50
-4.63 0.14 2.50
-4.64 0.04 2.50
-4.64 -0.05 2.50
-4.64 -0.14 2.50
-4.64 -0.23 2.50
-4.63 -0.33 2.50
-4.63 -0.42 2.50
-4.62 -0.51 2.50
-4.61 -0.60 2.50
-4.60 -0.70 2.50
-4.59 -0.79 2.50
-4.57 -0.88 2.50
-4.56 -0.97 2.50
-4.54 -1.06 2.50
-4.52 -1.15 2.50
-4.50 -1.24 2.50
-4.47 -1.33 2.50
-4.45 -1.42 2.50
-4.42 -1.51 2.50
-4.39 -1.60 2.50
-4.36 -1.69 2.50
-4.32 -1.78 2.50
-4.29 -1.86 2.50
-4.25 -1.95 2.50
-4.21 -2.03 2.50
-4.17 -2.12 2.50
-4.13 -2.20 2.50
-4.09 -2.28 2.50
-4.04 -2.37 2.50
-4.00 -2.45 2.50
-3.95 -2.53 2.50
-3.90 -2.61 2.50
-3.84 -2.68 2.50
-3.79 -2.76 2.50
-3.74 -2.84 2.50
-3.68 -2.91 2.50
-3.62 -2.98 2.50
-3.56 -3.05 2.50
-3.50 -3.13 2.50
-3.44 -3.19 2.50
-3.37 -3.26 2.50
-3.31 -3.33 2.50
-3.24 -3.40 2.50
-3.17 -3.46 2.50
-3.10 -3.52 2.50
-3.03 -3.58 2.50
-2.96 -3.64 2.50
-2.89 -3.70 2.50
-2.81 -3.76 2.50
-2.74 -3.81 2.50
-2.66 -3.87 2.50
-2.58 -3.92 2.50
-2.50 -3.97 2.50
-2.42 -4.02 2.50
-2.34 -4.07 2.50
-2.26 -4.11 2.50
-2.18 -4.16 2.50
-2.10 -4.20 2.50
-2.01 -4.24 2.50
-1.93 -4.28 2.50
-1.84 -4.31 2.50
-1.75 -4.35 2.50
-1.67 -4.38 2.50
-1.58 -4.41 2.50
-1.49 -4.44 2.50
-1.40 -4.47 2.50
-1.31 -4.50 2.50
-1.22 -4.52 2.50
-1.13 -4.55 2.50
-1.04 -4.57 2.50
-0.95 -4.58 2.50
-0.86 -4.60 2.50
-0.76 -4.62 2.50
-0.67 -4.63 2.50
-0.58 -4.64 2.50
-0.48 -4.65 2.50
-0.39 -4.66 2.50
-0.30 -4.66 2.50
-0.21 -4.67 2.50
-0.11 -4.67 2.50
-0.02 -4.42 2.50
0.07 -4.42 2.50
0.16 -4.42 2.50
0.25 -4.41 2.50
0.33 -4.40 2.50
0.42 -4.40 2.50
0.51 -4.38 2.50
0.60 -4.37 2.50
0.68 -4.36 2.50
0.77 -4.34 2.50
0.86 -4.32 2.50
0.94 -4.30 2.50
1.03 -4.28 2.50
1.11 -4.26 2.50
1.20 -4.23 2.50
1.28 -4.21 2.50
1.36 -4.18 2.50
1.44 -4.15 2.50
1.53 -4.12 2.50
1.61 -4.08 2.50
1.69 -4.05 2.50
1.77 -4.01 2.50
1.85 -3.97 2.50
1.88 -3.85 2.44
1.92 -3.73 2.39
1.99 -3.69 2.39
2.06 -3.65 2.39
2.14 -3.60 2.39
2.21 -3.56 2.39
1.92 -2.96 2.02
1.93 -2.85 1.97
1.95 -2.76 1.94
1.94 -2.63 1.87
1.92 -2.50 1.81
1.94 -2.42 1.78
2.67 -3.20 2.39
2.73 -3.15 2.39
2.79 -3.09 2.39
2.85 -3.03 2.39
2.91 -2.97 2.39
2.97 -2.91 2.39
3.03 -2.85 2.39
3.08 -2.78 2.39
3.13 -2.72 2.39
3.19 -2.66 2.39
3.24 -2.59 2.39
3.29 -2.52 2.39
3.33 -2.45 2.39
3.38 -2.39 2.39
3.43 -2.32 2.39
3.47 -2.25 2.39
3.51 -2.17 2.39
3.55 -2.10 2.39
3.59 -2.03 2.39
3.63 -1.96 2.39
3.67 -1.88 2.39
3.70 -1.81 2.39
3.74 -1.73 2.39
3.77 -1.65 2.39
3.80 -1.58 2.39
3.83 -1.50 2.39
3.85 -1.42 2.39
3.88 -1.34 2.39
3.90 -1.26 2.39
3.93 -1.18 2.39
3.95 -1.10 2.39
3.97 -1.02 2.39
3.98 -0.94 2.39
4.00 -0.86 2.39
4.01 -0.78 2.39
4.03 -0.70 2.39
4.04 -0.62 2.39
4.05 -0.54 2.39
4.06 -0.46 2.39
4.06 -0.37 2.39
4.07 -0.29 2.39
4.07 -0.21 2.39
4.07 -0.13 2.39
4.07 -0.04 2.39
4.07 0.04 2.39
4.07 0.12 2.39
4.06 0.20 2.39
4.05 0.28 2.39
4.05 0.36 2.39
4.04 0.45 2.39
4.02 0.53 2.39
4.01 0.61 2.39
4.00 0.69 2.39
3.98 0.77 2.39
3.96 0.85 2.39
3.94 0.93 2.39
3.92 1.01 2.39
3.90 1.09 2.39
3.88 1.16 2.39
3.85 1.24 2.39
3.82 1.32 2.39
3.79 1.40 2.39
3.76 1.47 2.39
