ply
format ascii 1.0
element vertex 2817
property float32 x
property float32 y
property float32 z
end_header
16.40 1.57 -1.25
46.95 5.44 -3.58
46.98 6.40 -3.59
47.00 7.37 -3.60
47.16 11.33 -3.68
46.29 12.11 -3.63
46.36 13.13 -3.65
46.29 14.11 -3.67
46.76 15.29 -3.73
46.76 16.33 -3.76
22.70 8.44 -1.84
21.37 8.44 -1.75
20.18 8.44 -1.66
19.28 8.52 -1.61
18.10 8.44 -1.52
17.75 8.72 -1.51
17.75 9.16 -1.53
17.80 9.65 -1.55
17.80 10.11 -1.57
17.75 10.56 -1.58
17.69 11.01 -1.60
17.79 11.57 -1.63
17.68 12.01 -1.64
17.75 12.59 -1.67
17.80 13.17 -1.71
17.71 13.66 -1.73
17.75 14.27 -1.76
19.38 16.23 -1.95
17.96 15.66 -1.85
17.73 16.10 -1.86
32.23 30.47 -3.44
15.84 15.59 -1.73
15.53 15.91 -1.73
14.29 15.24 -1.63
14.02 15.57 -1.64
13.94 16.12 -1.67
12.91 15.54 -1.58
12.57 15.77 -1.58
12.24 16.00 -1.58
11.39 15.53 -1.52
11.18 15.90 -1.53
10.67 15.84 -1.51
10.39 16.11 -1.52
9.75 15.81 -1.47
23.12 39.24 -3.62
22.09 39.26 -3.59
21.05 39.24 -3.55
8.46 16.55 -1.49
8.18 16.83 -1.50
18.24 39.53 -3.49
18.17 41.56 -3.65
2.39 5.77 -0.50
8.42 21.57 -1.87
8.05 21.93 -1.89
7.70 22.35 -1.92
14.88 46.17 -3.94
8.30 27.64 -2.35
8.38 32.60 -2.75
8.61 44.41 -3.72
8.23 47.58 -3.98
-6.14 20.56 -1.86
14.42 -40.53 -2.57
14.36 -37.94 -2.41
14.83 -36.92 -2.36
15.66 -36.84 -2.37
16.58 -36.92 -2.39
17.48 -36.92 -2.40
17.43 -34.98 -2.29
17.43 -33.29 -2.20
17.43 -31.73 -2.11
17.43 -30.27 -2.03
17.43 -28.91 -1.96
17.43 -27.64 -1.89
17.43 -26.45 -1.83
17.96 -26.10 -1.82
18.74 -26.10 -1.84
19.55 -26.10 -1.87
14.07 -18.02 -1.30
13.95 -17.14 -1.26
13.95 -16.46 -1.22
14.01 -15.88 -1.20
14.24 -15.50 -1.19
14.82 -15.50 -1.21
15.43 -15.50 -1.23
16.06 -15.50 -1.25
16.27 -15.08 -1.24
16.27 -14.48 -1.22
16.27 -13.91 -1.19
16.27 -13.35 -1.17
16.27 -12.81 -1.15
16.64 -12.57 -1.15
17.35 -12.57 -1.18
18.10 -12.57 -1.21
18.90 -12.57 -1.25
19.75 -12.57 -1.28
20.65 -12.57 -1.32
21.62 -12.57 -1.37
23.81 -13.21 -1.48
23.77 -12.57 -1.46
23.74 -11.95 -1.44
16.40 -7.85 -0.99
16.40 -7.45 -0.98
16.26 -6.99 -0.96
16.14 -6.56 -0.94
16.14 -6.19 -0.93
16.17 -5.83 -0.93
16.28 -5.50 -0.92
16.40 -5.18 -0.92
16.40 -4.82 -0.92
15.39 -4.19 -0.85
14.80 -3.71 -0.82
14.79 -3.40 -0.81
14.78 -3.08 -0.81
14.78 -2.77 -0.80
14.77 -2.47 -0.80
14.81 -2.17 -0.80
15.01 -1.89 -0.81
16.40 -1.73 -0.88
16.40 -1.40 -0.87
16.40 -1.07 -0.87
16.40 -0.74 -0.87
16.27 -0.41 -0.86
16.28 -0.08 -0.86
16.40 0.25 -0.87
16.40 0.58 -0.87
16.40 0.91 -0.87
16.40 1.24 -0.87
16.40 1.57 -0.87
46.63 5.40 -2.49
46.55 6.35 -2.49
46.48 7.29 -2.50
47.16 11.33 -2.58
46.29 12.11 -2.54
46.36 13.13 -2.56
46.29 14.11 -2.58
46.76 15.29 -2.62
46.76 16.34 -2.64
22.69 8.44 -1.29
21.37 8.44 -1.23
20.18 8.44 -1.17
19.09 8.44 -1.12
18.10 8.44 -1.07
17.75 8.72 -1.06
17.75 9.17 -1.07
17.75 9.62 -1.09
17.75 10.09 -1.10
17.75 10.56 -1.12
17.75 11.05 -1.13
17.75 11.55 -1.15
17.75 12.07 -1.16
17.75 12.59 -1.18
17.75 13.14 -1.20
17.75 13.70 -1.22
17.75 14.27 -1.24
19.65 16.46 -1.40
17.76 15.49 -1.29
17.65 16.03 -1.31
30.90 29.22 -2.34
15.77 15.52 -1.22
15.70 16.09 -1.24
14.66 15.64 -1.19
14.06 15.61 -1.17
13.86 16.03 -1.18
12.88 15.51 -1.12
12.40 15.56 -1.11
12.28 16.06 -1.13
11.36 15.50 -1.08
10.78 15.34 -1.06
10.84 16.10 -1.10
10.50 16.29 -1.10
10.11 16.40 -1.09
23.14 39.28 -2.59
22.09 39.28 -2.57
21.04 39.24 -2.55
8.41 16.46 -1.06
8.13 16.73 -1.07
18.24 39.55 -2.51
18.23 41.72 -2.63
2.39 5.78 -0.36
8.45 21.68 -1.35
8.01 21.82 -1.35
14.96 46.44 -2.86
8.25 27.50 -1.69
8.28 32.25 -1.97
8.13 37.90 -2.30
8.54 44.09 -2.68
8.20 47.46 -2.88
-6.15 20.56 -1.37
6.89 -48.61 -1.91
7.90 -48.64 -1.91
9.90 -48.58 -1.90
14.42 -40.56 -1.60
14.47 -38.25 -1.51
14.82 -36.92 -1.46
15.71 -36.96 -1.47
16.57 -36.92 -1.47
17.47 -36.92 -1.48
15.66 -31.45 -1.27
17.43 -33.31 -1.35
17.43 -31.74 -1.29
17.36 -30.16 -1.24
17.33 -28.76 -1.19
15.89 -25.21 -1.05
16.60 -25.20 -1.06
17.31 -25.17 -1.07
18.72 -26.08 -1.12
19.61 -26.19 -1.13
14.07 -18.03 -0.79
9.69 -11.92 -0.53
10.30 -12.16 -0.54
10.79 -12.23 -0.55
14.23 -15.50 -0.71
14.82 -15.50 -0.72
15.43 -15.50 -0.73
16.06 -15.50 -0.75
16.27 -15.08 -0.74
12.50 -11.13 -0.56
12.67 -10.83 -0.55
12.68 -10.41 -0.54
12.61 -9.93 -0.53
12.31 -9.30 -0.50
17.34 -12.57 -0.70
18.10 -12.57 -0.72
18.90 -12.57 -0.73
19.74 -12.57 -0.76
20.65 -12.57 -0.78
21.61 -12.57 -0.80
22.69 -12.59 -0.83
22.66 -11.99 -0.82
22.64 -11.40 -0.81
16.40 -7.85 -0.58
16.40 -7.45 -0.57
16.26 -7.00 -0.56
16.14 -6.56 -0.55
16.14 -6.19 -0.54
16.17 -5.83 -0.54
16.28 -5.50 -0.54
16.40 -5.18 -0.54
14.50 -4.26 -0.47
14.33 -3.90 -0.46
14.24 -3.57 -0.45
14.24 -3.27 -0.45
14.24 -2.97 -0.45
14.24 -2.67 -0.45
14.24 -2.38 -0.44
14.32 -2.10 -0.44
14.44 -1.82 -0.45
14.72 -1.56 -0.45
15.64 -1.34 -0.48
16.40 -1.07 -0.50
16.40 -0.74 -0.50
16.40 -0.41 -0.50
16.40 -0.08 -0.50
16.40 0.25 -0.50
16.40 0.58 -0.50
16.40 0.91 -0.50
16.40 1.24 -0.50
16.40 1.57 -0.50
46.63 5.41 -1.43
46.55 6.35 -1.43
46.48 7.29 -1.44
47.15 11.33 -1.48
46.29 12.11 -1.47
46.36 13.13 -1.48
46.29 14.12 -1.49
46.76 15.29 -1.51
46.76 16.34 -1.52
22.69 8.44 -0.75
21.37 8.44 -0.71
20.17 8.44 -0.68
19.09 8.44 -0.65
18.10 8.44 -0.62
17.25 8.47 -0.60
16.41 8.47 -0.58
16.42 8.90 -0.58
16.47 9.36 -0.59
16.53 9.84 -0.60
16.59 10.33 -0.62
16.65 10.84 -0.63
16.72 11.37 -0.64
16.80 11.92 -0.65
16.87 12.49 -0.67
16.96 13.09 -0.68
17.05 13.71 -0.70
17.14 14.36 -0.72
17.76 15.50 -0.76
17.73 16.11 -0.78
30.97 29.30 -1.38
15.55 15.31 -0.71
15.59 15.98 -0.73
14.60 15.58 -0.70
14.13 15.70 -0.70
13.97 16.16 -0.71
12.88 15.51 -0.67
12.35 15.50 -0.66
12.33 16.13 -0.68
11.37 15.51 -0.65
10.74 15.28 -0.63
10.77 16.00 -0.65
10.36 16.07 -0.65
10.16 16.48 -0.66
23.11 39.24 -1.56
22.06 39.24 -1.55
21.03 39.24 -1.54
8.40 16.46 -0.64
8.08 16.64 -0.65
18.17 39.43 -1.52
18.17 41.60 -1.60
2.39 5.78 -0.22
8.31 21.33 -0.81
7.99 21.79 -0.83
7.71 22.40 -0.85
14.94 46.39 -1.76
8.20 27.33 -1.03
8.24 32.12 -1.21
8.09 37.75 -1.42
8.11 41.94 -1.58
7.70 44.60 -1.69
-6.15 20.56 -0.89
6.66 -47.05 -0.78
12.69 -38.11 -0.59
13.54 -38.10 -0.59
14.41 -38.10 -0.59
14.81 -36.92 -0.56
15.68 -36.92 -0.56
16.56 -36.92 -0.56
17.46 -36.92 -0.56
15.66 -31.45 -0.48
17.43 -33.32 -0.50
17.43 -31.75 -0.48
17.36 -30.17 -0.45
15.74 -26.13 -0.39
17.43 -27.66 -0.42
15.91 -24.17 -0.36
16.62 -24.17 -0.36
17.34 -24.17 -0.36
19.60 -26.19 -0.40
14.07 -18.03 -0.27
9.69 -11.92 -0.18
10.30 -12.16 -0.19
10.78 -12.23 -0.19
11.22 -12.21 -0.19
11.59 -12.12 -0.19
11.85 -11.91 -0.19
12.12 -11.70 -0.18
12.34 -11.44 -0.18
12.50 -11.14 -0.18
12.67 -10.83 -0.18
12.68 -10.41 -0.17
12.61 -9.94 -0.17
12.31 -9.31 -0.16
17.34 -12.57 -0.22
18.09 -12.57 -0.22
18.89 -12.57 -0.22
19.74 -12.57 -0.23
20.64 -12.57 -0.23
21.61 -12.57 -0.24
22.25 -12.35 -0.24
22.38 -11.84 -0.24
23.45 -11.81 -0.24
16.40 -7.85 -0.17
16.40 -7.45 -0.16
16.40 -7.06 -0.16
16.40 -6.67 -0.16
16.40 -6.29 -0.15
16.40 -5.92 -0.15
16.40 -5.55 -0.15
16.40 -5.18 -0.15
14.52 -4.27 -0.13
14.37 -3.92 -0.13
14.29 -3.59 -0.12
14.29 -3.28 -0.12
14.29 -2.98 -0.12
14.34 -2.69 -0.12
14.47 -2.42 -0.12
14.59 -2.14 -0.12
14.69 -1.85 -0.12
14.83 -1.57 -0.12
16.03 -1.37 -0.13
16.40 -1.07 -0.13
16.40 -0.74 -0.13
16.40 -0.41 -0.13
16.40 -0.08 -0.13
16.40 0.25 -0.13
16.40 0.58 -0.13
16.40 0.91 -0.13
16.40 1.24 -0.13
16.40 1.57 -0.13
45.22 5.24 -0.36
45.22 6.16 -0.36
46.48 7.29 -0.38
47.14 11.33 -0.39
46.29 12.11 -0.39
46.29 13.11 -0.39
46.29 14.12 -0.40
46.70 15.28 -0.40
46.70 16.32 -0.41
22.68 8.44 -0.20
21.36 8.44 -0.19
20.17 8.44 -0.18
18.97 8.39 -0.18
18.09 8.44 -0.17
17.75 8.72 -0.17
17.75 9.17 -0.17
17.70 9.59 -0.18
17.70 10.06 -0.18
17.75 10.57 -0.18
17.70 11.02 -0.19
17.70 11.52 -0.19
17.70 12.03 -0.20
17.75 12.60 -0.20
17.75 13.14 -0.21
17.75 13.70 -0.21
17.75 14.28 -0.22
18.34 15.37 -0.23
17.85 15.58 -0.23
17.52 15.92 -0.23
30.77 29.11 -0.42
15.96 15.72 -0.23
15.54 15.93 -0.23
14.61 15.59 -0.22
14.09 15.66 -0.22
13.95 16.14 -0.22
12.92 15.57 -0.22
12.42 15.60 -0.22
12.06 15.78 -0.22
19.48 26.59 -0.36
11.11 15.82 -0.22
10.74 15.96 -0.22
10.25 15.91 -0.22
10.09 16.37 -0.22
23.12 39.28 -0.54
22.07 39.28 -0.54
21.03 39.24 -0.54
8.41 16.47 -0.23
8.07 16.63 -0.23
7.81 16.96 -0.23
18.22 41.73 -0.58
2.39 5.78 -0.08
8.38 21.51 -0.30
7.95 21.69 -0.30
7.56 21.98 -0.31
8.92 27.73 -0.39
8.18 27.29 -0.39
7.76 27.92 -0.40
8.23 32.10 -0.46
8.87 37.73 -0.55
8.03 37.50 -0.55
8.05 41.67 -0.62
7.63 44.27 -0.66
-6.15 20.56 -0.40
-6.10 -43.17 -0.82
7.94 -49.02 0.32
10.37 -46.19 0.33
11.52 -43.14 0.32
12.46 -43.16 0.33
13.41 -43.18 0.34
13.17 -39.60 0.33
13.16 -37.06 0.31
14.39 -38.07 0.33
14.80 -36.92 0.33
15.69 -36.96 0.34
15.66 -34.94 0.33
17.45 -36.92 0.36
15.65 -31.45 0.32
15.68 -29.99 0.31
17.43 -31.77 0.34
15.67 -27.24 0.30
15.64 -25.98 0.29
17.43 -27.67 0.32
17.43 -26.48 0.32
17.94 -26.10 0.32
17.33 -24.17 0.31
19.53 -26.10 0.34
20.36 -26.10 0.35
9.68 -11.91 0.16
10.29 -12.16 0.17
10.78 -12.23 0.18
11.21 -12.21 0.19
11.59 -12.12 0.19
11.85 -11.91 0.19
12.12 -11.70 0.19
12.34 -11.44 0.20
12.50 -11.14 0.20
12.67 -10.83 0.20
12.68 -10.41 0.20
12.61 -9.94 0.20
12.31 -9.31 0.19
17.33 -12.57 0.27
18.16 -12.62 0.28
18.89 -12.57 0.29
19.73 -12.57 0.30
20.72 -12.62 0.31
21.60 -12.57 0.32
22.25 -12.36 0.33
22.37 -11.84 0.33
23.44 -11.81 0.35
16.40 -7.85 0.24
16.40 -7.45 0.24
16.40 -7.06 0.24
16.40 -6.67 0.24
16.40 -6.29 0.24
16.40 -5.92 0.24
16.40 -5.55 0.24
16.40 -5.18 0.24
16.40 -4.82 0.24
14.92 -4.06 0.22
16.40 -4.12 0.24
16.35 -3.76 0.24
16.29 -3.40 0.24
16.29 -3.06 0.24
16.29 -2.72 0.24
16.32 -2.39 0.24
16.40 -2.07 0.24
16.40 -1.73 0.24
16.40 -1.40 0.24
16.40 -1.07 0.24
16.40 -0.74 0.24
16.40 -0.41 0.24
16.40 -0.08 0.24
16.40 0.25 0.24
16.40 0.58 0.24
16.40 0.91 0.24
16.40 1.24 0.24
16.40 1.57 0.24
46.48 5.39 0.68
46.48 6.34 0.68
46.48 7.29 0.68
47.14 11.33 0.70
46.39 12.14 0.69
46.39 13.14 0.69
46.39 14.15 0.70
46.70 15.28 0.70
46.79 16.36 0.71
22.68 8.44 0.34
21.36 8.44 0.33
20.16 8.44 0.31
19.26 8.52 0.30
18.09 8.44 0.28
17.75 8.72 0.28
17.75 9.17 0.28
17.80 9.65 0.28
17.80 10.12 0.28
17.75 10.57 0.28
17.70 11.02 0.28
17.75 11.56 0.29
17.70 12.04 0.29
17.75 12.60 0.29
17.76 13.15 0.29
17.72 13.68 0.29
17.75 14.28 0.30
18.27 15.31 0.31
17.93 15.65 0.30
17.65 16.05 0.30
31.23 29.56 0.54
15.35 15.74 0.27
15.07 16.08 0.27
14.21 15.80 0.26
13.89 16.07 0.25
12.83 15.47 0.24
12.49 15.69 0.24
12.15 15.91 0.23
19.48 26.60 0.38
10.64 15.82 0.21
10.39 16.13 0.21
10.31 16.73 0.21
23.11 39.28 0.49
22.06 39.28 0.48
8.78 16.39 0.19
8.34 16.35 0.19
8.08 16.66 0.19
7.84 17.02 0.19
18.21 41.73 0.45
2.39 5.78 0.06
8.42 21.63 0.22
7.90 21.57 0.21
7.58 22.05 0.21
8.79 27.35 0.26
8.19 27.34 0.25
7.75 27.90 0.25
8.24 32.14 0.28
8.81 37.51 0.32
8.07 37.73 0.31
8.03 41.59 0.34
7.64 44.34 0.35
-6.16 20.55 0.08
-8.12 -36.16 0.11
-7.36 -36.16 0.12
-7.19 -39.34 0.13
-6.11 -43.16 0.16
2.32 -23.07 0.66
7.90 -48.88 1.43
10.37 -46.23 1.40
10.58 -43.13 1.32
11.51 -43.14 1.33
12.45 -43.16 1.35
13.40 -43.18 1.36
13.17 -39.60 1.27
13.15 -37.06 1.20
14.44 -38.23 1.25
14.80 -36.92 1.23
15.63 -36.84 1.24
15.61 -34.83 1.19
15.61 -33.04 1.15
15.61 -31.39 1.11
15.61 -29.87 1.07
15.61 -28.46 1.03
15.87 -27.62 1.02
15.73 -26.13 0.98
16.82 -26.71 1.02
17.27 -26.26 1.02
17.31 -25.20 1.00
17.33 -24.17 0.98
19.52 -26.10 1.07
20.35 -26.10 1.10
9.68 -11.91 0.51
10.29 -12.15 0.53
10.78 -12.23 0.55
11.21 -12.21 0.56
11.58 -12.13 0.57
11.85 -11.92 0.57
12.12 -11.70 0.57
12.34 -11.45 0.58
12.50 -11.14 0.58
12.66 -10.84 0.57
12.68 -10.42 0.57
12.61 -9.94 0.56
12.32 -9.32 0.54
17.33 -12.57 0.75
18.15 -12.62 0.78
18.88 -12.57 0.80
19.73 -12.57 0.83
20.71 -12.62 0.86
21.59 -12.57 0.89
22.25 -12.36 0.91
22.37 -11.85 0.90
23.43 -11.81 0.94
16.40 -7.86 0.65
16.40 -7.45 0.65
16.40 -7.06 0.64
16.40 -6.67 0.64
16.40 -6.29 0.64
16.40 -5.92 0.63
16.40 -5.55 0.63
16.40 -5.18 0.63
16.40 -4.82 0.62
14.92 -4.07 0.57
16.40 -4.12 0.62
16.35 -3.76 0.62
16.29 -3.40 0.61
16.29 -3.06 0.61
16.29 -2.72 0.61
16.32 -2.39 0.61
16.40 -2.07 0.61
16.40 -1.74 0.61
16.40 -1.40 0.61
16.40 -1.07 0.61
16.40 -0.74 0.61
16.40 -0.41 0.61
16.40 -0.08 0.61
16.40 0.25 0.61
16.40 0.58 0.61
16.40 0.91 0.61
16.40 1.24 0.61
16.40 1.57 0.61
46.48 5.39 1.74
46.48 6.34 1.74
46.48 7.29 1.74
47.13 11.33 1.79
46.29 12.11 1.77
46.29 13.11 1.78
46.29 14.12 1.79
46.70 15.28 1.81
46.31 16.19 1.81
22.68 8.44 0.89
21.36 8.44 0.84
20.16 8.44 0.80
19.26 8.52 0.77
18.09 8.44 0.73
17.75 8.73 0.72
17.75 9.17 0.73
17.80 9.66 0.74
17.80 10.12 0.74
17.75 10.57 0.75
17.70 11.03 0.75
17.75 11.56 0.76
17.70 12.04 0.77
17.75 12.61 0.78
17.77 13.16 0.79
17.72 13.69 0.80
17.75 14.29 0.81
33.06 27.72 1.53
18.04 15.75 0.85
16.17 14.70 0.77
33.06 31.29 1.60
33.06 32.58 1.62
14.32 14.69 0.72
15.29 16.33 0.78
31.77 35.33 1.65
14.02 16.24 0.74
12.18 14.68 0.66
12.48 15.67 0.69
12.15 15.91 0.68
19.48 26.60 1.12
10.77 16.02 0.65
10.43 16.20 0.65
23.10 39.28 1.52
22.06 39.28 1.49
21.01 39.24 1.47
8.40 16.48 0.61
8.06 16.62 0.60
7.82 16.99 0.61
18.20 41.73 1.47
2.38 5.78 0.20
8.46 21.73 0.75
7.96 21.73 0.74
7.71 22.43 0.75
8.75 27.22 0.90
6.17 20.63 0.68
6.25 22.50 0.73
6.16 24.06 0.77
6.17 26.29 0.83
6.09 28.50 0.89
6.27 32.50 1.01
6.17 35.87 1.10
6.08 40.17 1.23
6.09 46.52 1.41
-6.16 20.55 0.56
-8.13 -36.16 0.95
-7.38 -36.20 0.95
-7.20 -39.37 1.04
-6.11 -43.14 1.14
-0.02 -49.85 2.49
0.97 -49.66 2.49
1.96 -49.45 2.49
2.82 -47.19 2.39
3.76 -46.96 2.39
2.30 -22.91 1.17
5.60 -46.44 2.39
6.80 -48.21 2.50
7.60 -47.06 2.45
7.82 -42.90 2.25
5.31 -26.14 1.38
5.81 -25.95 1.38
6.03 -24.60 1.32
6.00 -22.51 1.22
6.30 -21.85 1.19
6.66 -21.49 1.19
7.07 -21.29 1.19
7.52 -21.20 1.19
8.00 -21.19 1.21
8.50 -21.23 1.22
9.01 -21.26 1.24
9.52 -21.26 1.25
10.04 -21.26 1.27
10.57 -21.26 1.28
11.10 -21.26 1.30
11.65 -21.26 1.32
12.22 -21.26 1.34
12.79 -21.26 1.36
13.38 -21.26 1.38
13.98 -21.26 1.40
14.60 -21.26 1.42
15.24 -21.26 1.45
15.89 -21.26 1.47
14.07 -18.06 1.27
9.67 -11.91 0.86
10.28 -12.15 0.89
10.77 -12.23 0.91
11.21 -12.21 0.93
11.58 -12.13 0.95
11.85 -11.92 0.95
12.12 -11.71 0.95
12.34 -11.45 0.96
12.50 -11.14 0.95
12.66 -10.84 0.95
12.68 -10.42 0.94
12.61 -9.95 0.92
12.32 -9.32 0.89
17.32 -12.57 1.23
18.08 -12.57 1.27
18.88 -12.57 1.31
19.72 -12.57 1.35
20.62 -12.57 1.40
21.59 -12.57 1.45
22.25 -12.36 1.48
22.37 -11.85 1.48
23.43 -11.81 1.53
16.09 -7.71 1.04
16.40 -7.46 1.06
16.40 -7.06 1.05
16.40 -6.68 1.04
16.40 -6.29 1.03
16.40 -5.92 1.03
16.40 -5.55 1.02
16.40 -5.19 1.02
16.40 -4.83 1.01
14.92 -4.07 0.91
16.40 -4.12 1.00
16.35 -3.76 0.99
16.29 -3.40 0.99
16.29 -3.06 0.98
16.29 -2.73 0.98
16.32 -2.39 0.98
16.40 -2.07 0.98
16.40 -1.74 0.98
16.40 -1.40 0.98
16.40 -1.07 0.98
16.40 -0.74 0.98
16.40 -0.41 0.98
16.40 -0.08 0.98
16.40 0.25 0.98
16.40 0.58 0.98
16.40 0.91 0.98
16.40 1.24 0.98
16.40 1.57 0.98
20.63 2.39 1.24
17.11 2.33 1.03
16.14 2.53 0.97
37.03 6.57 2.24
36.90 7.32 2.24
36.76 8.06 2.24
35.63 8.57 2.18
35.46 9.28 2.18
35.27 10.00 2.18
36.07 11.01 2.24
35.87 11.74 2.24
35.65 12.47 2.24
22.67 8.44 1.44
21.35 8.44 1.36
20.16 8.44 1.29
18.58 8.22 1.20
17.61 8.22 1.15
16.73 8.22 1.10
15.80 8.16 1.05
15.05 8.16 1.01
14.40 8.19 0.97
14.25 8.49 0.97
16.31 10.16 1.13
16.31 10.62 1.14
16.31 11.10 1.15
17.75 12.61 1.27
17.76 13.16 1.29
17.72 13.69 1.30
17.75 14.29 1.32
17.51 14.69 1.33
16.60 14.50 1.28
15.91 14.47 1.24
15.51 14.69 1.23
14.90 14.69 1.20
14.31 14.69 1.18
16.30 17.42 1.37
13.31 14.80 1.14
25.68 29.74 2.24
12.18 14.69 1.09
12.46 15.65 1.14
11.30 14.80 1.06
10.83 14.80 1.04
10.31 14.69 1.01
15.58 23.18 1.57
10.44 16.23 1.08
9.11 14.80 0.97
20.36 34.62 2.24
8.24 14.69 0.94
19.06 35.60 2.24
8.42 16.53 1.03
8.10 16.72 1.03
7.84 17.04 1.03
6.43 14.75 0.88
2.38 5.78 0.34
8.50 21.85 1.28
6.07 16.58 0.96
6.17 17.96 1.03
6.17 19.20 1.09
6.13 20.50 1.15
6.06 21.84 1.22
6.06 23.68 1.31
6.06 25.83 1.42
6.06 28.38 1.55
6.06 31.46 1.70
6.06 35.25 1.89
6.08 40.23 2.15
5.90 45.11 2.39
5.01 45.37 2.39
4.11 45.62 2.39
3.21 45.85 2.39
2.29 46.06 2.39
1.43 48.25 2.49
0.46 48.44 2.49
-0.51 48.61 2.49
-1.49 48.76 2.49
-2.48 48.89 2.49
-3.47 49.01 2.49
-4.47 49.10 2.49
-5.47 49.18 2.49
-6.21 47.20 2.39
-6.82 44.83 2.27
-8.16 47.25 2.39
-9.14 47.24 2.39
-9.83 45.83 2.32
-9.84 41.78 2.12
-10.24 39.87 2.02
-11.09 39.87 2.03
-6.17 20.55 1.05
-9.88 30.67 1.57
-10.76 31.23 1.60
-14.63 39.87 2.05
-15.54 39.87 2.06
-12.90 31.23 1.62
-13.72 31.39 1.64
-14.39 31.22 1.64
-15.16 31.22 1.65
-15.94 31.22 1.66
-16.74 31.22 1.67
-17.56 31.22 1.68
-18.39 31.22 1.69
-19.25 31.22 1.71
-20.12 31.22 1.73
-21.02 31.22 1.74
-21.94 31.22 1.76
-22.89 31.22 1.78
-23.87 31.22 1.80
-24.88 31.22 1.82
-25.92 31.22 1.85
-27.00 31.22 1.87
-28.11 31.22 1.90
-29.27 31.22 1.93
-30.47 31.22 1.96
-31.71 31.22 1.99
-33.01 31.22 2.03
-34.37 31.22 2.07
-35.79 31.22 2.11
-37.27 31.22 2.15
-38.83 31.22 2.20
-9.87 -31.75 1.58
-8.13 -36.16 1.78
-7.38 -36.20 1.78
-7.20 -39.34 1.94
-7.89 -48.55 2.39
-6.12 -43.10 2.12
-5.89 -48.47 2.39
-0.02 -34.34 2.49
0.67 -34.24 2.49
1.35 -34.14 2.49
2.03 -34.02 2.49
2.59 -32.49 2.39
2.29 -22.91 1.69
3.88 -32.20 2.39
4.51 -32.04 2.39
5.14 -31.86 2.39
5.76 -31.67 2.39
5.32 -26.25 1.99
7.09 -31.68 2.42
6.03 -24.62 1.90
6.00 -22.52 1.75
6.29 -21.85 1.71
6.66 -21.49 1.69
7.07 -21.29 1.69
7.51 -21.20 1.70
7.99 -21.19 1.72
8.50 -21.23 1.74
9.01 -21.26 1.76
9.52 -21.26 1.78
10.03 -21.26 1.80
10.56 -21.26 1.82
11.10 -21.26 1.84
11.65 -21.26 1.87
12.21 -21.26 1.89
12.78 -21.26 1.92
13.37 -21.26 1.95
13.98 -21.26 1.98
14.60 -21.26 2.01
15.23 -21.26 2.04
15.89 -21.26 2.07
14.07 -18.07 1.79
9.67 -11.91 1.20
10.28 -12.15 1.25
10.77 -12.23 1.28
11.20 -12.21 1.31
11.58 -12.13 1.33
11.85 -11.92 1.33
12.08 -11.68 1.33
12.29 -11.41 1.33
12.50 -11.14 1.33
12.66 -10.84 1.33
12.68 -10.42 1.31
12.61 -9.95 1.28
10.23 -7.74 1.03
10.37 -7.53 1.03
10.80 -7.51 1.06
11.28 -7.51 1.09
11.78 -7.51 1.12
12.32 -7.51 1.16
12.90 -7.51 1.20
13.51 -7.51 1.25
14.18 -7.51 1.30
14.89 -7.51 1.35
15.67 -7.51 1.41
16.40 -7.46 1.46
16.48 -7.10 1.46
16.48 -6.71 1.45
16.48 -6.33 1.44
16.48 -5.95 1.43
16.48 -5.58 1.42
16.40 -5.19 1.40
16.40 -4.83 1.40
14.92 -4.07 1.26
16.40 -4.12 1.38
16.35 -3.76 1.37
16.29 -3.40 1.36
16.29 -3.06 1.36
16.29 -2.73 1.36
16.32 -2.40 1.35
16.40 -2.07 1.36
16.40 -1.74 1.35
16.40 -1.40 1.35
16.40 -1.07 1.35
16.40 -0.74 1.35
16.48 -0.41 1.36
16.48 -0.08 1.36
16.48 0.25 1.36
16.48 0.58 1.36
16.40 0.91 1.35
16.40 1.24 1.35
16.40 1.57 1.36
20.63 2.39 1.71
17.29 2.36 1.44
15.03 2.36 1.25
13.28 2.36 1.11
11.76 2.33 0.99
11.58 2.54 0.97
26.53 6.38 2.24
25.54 6.69 2.17
25.41 7.20 2.17
25.27 7.71 2.17
25.13 8.22 2.17
24.98 8.74 2.17
22.67 8.44 1.98
21.35 8.44 1.88
20.15 8.44 1.79
18.57 8.22 1.66
17.61 8.22 1.59
16.72 8.22 1.52
15.91 8.22 1.46
15.09 8.19 1.40
14.39 8.19 1.35
13.80 8.22 1.31
13.14 8.19 1.26
12.62 8.22 1.22
12.05 8.20 1.18
11.57 8.22 1.15
11.05 8.19 1.11
10.64 8.22 1.09
10.14 8.16 1.05
9.73 8.16 1.02
9.34 8.16 1.00
8.97 8.16 0.98
8.81 8.34 0.97
8.65 8.53 0.97
14.31 14.69 1.64
13.75 14.69 1.61
13.20 14.69 1.58
12.68 14.69 1.55
12.17 14.69 1.52
11.68 14.69 1.49
11.21 14.69 1.47
10.75 14.69 1.44
10.30 14.69 1.42
9.87 14.69 1.40
9.45 14.69 1.38
9.04 14.69 1.36
8.63 14.69 1.34
8.24 14.69 1.32
7.87 14.70 1.30
7.50 14.72 1.29
7.13 14.73 1.27
6.78 14.74 1.26
6.43 14.75 1.25
2.38 5.78 0.48
6.10 15.69 1.30
6.07 16.58 1.36
6.06 17.65 1.43
6.06 18.88 1.52
6.06 20.27 1.62
6.06 21.86 1.73
6.06 23.70 1.86
6.06 25.85 2.02
6.06 28.40 2.20
5.97 31.02 2.39
5.36 31.20 2.39
4.74 31.38 2.39
4.12 31.54 2.39
3.49 31.69 2.39
2.86 31.83 2.39
2.23 31.96 2.39
1.66 33.46 2.49
0.99 33.56 2.49
0.32 33.66 2.49
-0.36 33.74 2.49
-1.04 33.81 2.49
-1.72 33.86 2.49
-2.41 33.91 2.49
-3.10 33.93 2.49
-3.79 33.95 2.49
-4.48 33.95 2.49
-5.17 33.94 2.49
-5.85 33.81 2.49
-6.29 32.47 2.39
-6.65 31.00 2.29
-7.63 32.35 2.39
-8.29 32.27 2.39
-8.96 32.18 2.39
-6.16 20.52 1.53
-9.90 30.71 2.30
-10.76 31.22 2.35
-11.46 31.22 2.36
-12.18 31.22 2.37
-9.89 23.92 1.83
-13.65 31.22 2.40
-9.88 21.43 1.66
-15.17 31.22 2.43
-15.95 31.22 2.45
-16.75 31.22 2.47
-17.57 31.22 2.49
-18.40 31.22 2.51
-19.25 31.22 2.54
-20.13 31.22 2.56
-21.03 31.22 2.59
-21.95 31.22 2.62
-22.90 31.22 2.66
-23.88 31.22 2.69
-24.89 31.22 2.73
-25.93 31.22 2.76
-27.01 31.22 2.81
-28.12 31.22 2.85
-29.28 31.22 2.90
-30.48 31.22 2.95
-31.72 31.22 3.00
-33.02 31.22 3.06
-34.38 31.22 3.12
-35.80 31.22 3.18
-37.28 31.22 3.25
-38.84 31.22 3.33
-18.51 -46.08 3.44
-17.55 -46.36 3.45
-9.88 -27.77 2.05
-14.71 -44.12 3.25
-13.55 -43.54 3.19
-9.47 -32.73 2.39
-8.79 -32.83 2.39
-8.11 -32.92 2.39
-7.43 -33.00 2.39
-6.75 -33.06 2.39
-6.07 -33.11 2.39
-5.62 -34.57 2.49
-4.91 -34.59 2.49
-4.21 -34.59 2.49
-3.51 -34.59 2.49
-2.80 -34.56 2.49
-2.10 -34.53 2.49
-1.41 -34.48 2.49
-0.71 -34.41 2.49
-0.02 -26.17 2.49
0.50 -26.11 2.49
1.02 -26.05 2.49
1.54 -25.97 2.49
2.06 -25.89 2.49
2.29 -22.97 2.22
2.96 -24.62 2.39
3.45 -24.51 2.39
3.93 -24.39 2.39
4.41 -24.26 2.39
4.89 -24.13 2.39
5.36 -23.98 2.39
5.83 -23.82 2.39
6.00 -22.53 2.28
6.29 -21.86 2.23
6.66 -21.50 2.21
7.06 -21.29 2.20
7.51 -21.20 2.21
7.99 -21.19 2.23
8.49 -21.23 2.26
8.97 -21.17 2.27
9.28 -20.74 2.25
9.47 -20.08 2.20
9.80 -19.74 2.19
10.12 -19.40 2.18
10.44 -19.06 2.17
10.84 -18.88 2.18
11.17 -18.59 2.17
11.53 -18.33 2.17
12.04 -18.33 2.20
12.58 -18.33 2.24
13.02 -18.18 2.25
13.37 -17.90 2.25
13.71 -17.60 2.25
9.59 -11.81 1.54
8.77 -10.37 1.38
6.69 -7.60 1.03
6.94 -7.57 1.04
7.16 -7.50 1.05
7.46 -7.51 1.08
7.77 -7.51 1.10
8.09 -7.51 1.13
8.42 -7.51 1.15
8.77 -7.51 1.18
9.13 -7.51 1.21
9.52 -7.51 1.24
9.92 -7.51 1.28
10.35 -7.51 1.32
10.80 -7.51 1.35
11.27 -7.51 1.40
11.78 -7.51 1.44
12.32 -7.51 1.49
12.89 -7.51 1.54
13.51 -7.51 1.60
14.17 -7.51 1.66
14.89 -7.51 1.73
15.66 -7.51 1.80
16.40 -7.46 1.87
16.48 -7.10 1.87
16.48 -6.72 1.85
16.48 -6.33 1.84
16.48 -5.95 1.83
16.48 -5.58 1.82
16.40 -5.19 1.80
16.40 -4.83 1.79
14.92 -4.07 1.62
16.40 -4.12 1.77
16.35 -3.76 1.75
16.29 -3.40 1.74
16.29 -3.06 1.74
16.29 -2.73 1.73
16.32 -2.40 1.73
16.40 -2.07 1.73
16.40 -1.74 1.73
16.40 -1.40 1.73
16.40 -1.07 1.72
16.40 -0.74 1.72
16.48 -0.42 1.73
16.48 -0.08 1.73
16.48 0.25 1.73
16.48 0.58 1.73
16.40 0.91 1.72
16.40 1.24 1.73
16.40 1.57 1.73
20.63 2.39 2.18
17.29 2.36 1.83
15.03 2.36 1.60
13.28 2.36 1.42
11.92 2.36 1.28
10.90 2.39 1.17
9.70 2.33 1.05
8.99 2.35 0.97
8.94 2.53 0.97
19.80 6.04 2.17
19.68 6.44 2.17
19.55 6.84 2.17
19.42 7.23 2.17
19.28 7.63 2.17
19.78 8.29 2.24
18.57 8.22 2.12
17.60 8.22 2.03
16.72 8.22 1.95
15.90 8.22 1.87
15.09 8.19 1.79
14.39 8.19 1.72
13.80 8.22 1.67
13.13 8.19 1.61
12.62 8.22 1.56
12.05 8.20 1.51
11.57 8.22 1.47
11.05 8.19 1.43
10.64 8.22 1.39
10.17 8.19 1.35
9.80 8.22 1.32
9.41 8.22 1.29
9.00 8.19 1.25
8.68 8.22 1.23
8.30 8.19 1.20
7.98 8.19 1.17
7.69 8.22 1.16
7.39 8.22 1.13
7.07 8.19 1.11
6.78 8.19 1.09
6.54 8.22 1.07
6.32 8.28 1.06
10.53 14.39 1.82
10.11 14.42 1.79
9.87 14.69 1.80
9.44 14.69 1.77
9.03 14.69 1.75
8.63 14.69 1.72
8.24 14.69 1.70
7.86 14.70 1.68
7.49 14.72 1.66
7.13 14.73 1.65
6.77 14.74 1.63
6.42 14.75 1.61
2.38 5.79 0.63
6.10 15.70 1.68
6.07 16.59 1.76
6.06 17.66 1.86
6.06 18.89 1.97
6.06 20.28 2.10
6.06 21.87 2.25
5.98 23.42 2.39
5.52 23.58 2.39
5.06 23.72 2.39
4.59 23.86 2.39
4.11 23.99 2.39
3.64 24.11 2.39
3.16 24.23 2.39
2.68 24.33 2.39
2.21 24.60 2.41
1.78 25.57 2.49
1.27 25.64 2.49
0.75 25.71 2.49
0.24 25.77 2.49
-0.28 25.82 2.49
-0.80 25.85 2.49
-1.32 25.88 2.49
-1.84 25.90 2.49
-2.37 25.91 2.49
-2.89 25.90 2.49
-3.42 25.89 2.49
-3.95 25.86 2.49
-4.47 25.83 2.49
-5.00 25.78 2.49
-5.53 25.72 2.49
-5.85 24.81 2.41
-6.20 24.12 2.35
-6.70 24.03 2.35
-6.17 20.52 2.02
-7.82 24.23 2.39
-8.32 24.12 2.39
-8.81 23.99 2.39
-9.31 23.85 2.39
-9.81 23.70 2.39
-13.66 31.22 3.17
-14.41 31.22 3.19
-15.18 31.22 3.22
-15.96 31.22 3.24
-16.76 31.22 3.27
-17.57 31.22 3.30
-18.41 31.22 3.34
-19.26 31.22 3.37
-20.14 31.22 3.41
-21.04 31.22 3.45
-9.88 14.04 1.57
-22.91 31.22 3.53
-23.89 31.22 3.58
-24.90 31.22 3.63
-25.94 31.22 3.69
-27.01 31.22 3.74
-28.13 31.22 3.80
-29.30 31.23 3.87
-30.53 31.27 3.94
-31.82 31.31 4.02
-33.30 31.48 4.12
-34.71 31.51 4.21
-36.18 31.55 4.31
-37.73 31.59 4.41
-9.87 -14.35 1.57
-9.89 -15.00 1.63
-16.87 -26.75 2.87
-16.33 -27.07 2.87
-15.78 -27.40 2.87
-15.32 -27.88 2.90
-9.90 -18.90 1.95
-14.18 -28.45 2.90
-9.88 -20.86 2.11
-13.09 -29.14 2.93
-4.40 -10.35 1.03
-4.19 -10.42 1.03
-3.97 -10.48 1.03
-3.75 -10.54 1.03
-3.53 -10.59 1.03
-3.31 -10.64 1.03
-3.09 -10.69 1.03
-2.87 -10.73 1.03
-2.67 -10.82 1.04
-5.84 -25.94 2.48
-5.34 -26.12 2.49
-4.80 -26.18 2.49
-4.27 -26.22 2.49
-3.74 -26.25 2.49
-3.20 -26.27 2.49
-2.67 -26.28 2.49
-2.14 -26.28 2.49
-1.61 -26.27 2.49
-1.08 -26.24 2.49
-0.55 -26.21 2.49
-0.02 -21.12 2.49
0.40 -21.08 2.49
0.82 -21.04 2.49
1.24 -20.98 2.49
1.66 -20.92 2.49
2.08 -20.85 2.49
2.41 -20.09 2.41
2.78 -19.83 2.39
3.18 -19.74 2.39
3.57 -19.65 2.39
3.95 -19.54 2.39
4.34 -19.43 2.39
4.72 -19.31 2.39
5.10 -19.18 2.39
5.48 -19.05 2.39
5.85 -18.91 2.39
6.21 -18.74 2.39
6.51 -18.39 2.36
6.89 -18.29 2.37
7.31 -18.29 2.39
7.72 -18.23 2.41
8.05 -18.01 2.40
8.38 -17.78 2.40
8.71 -17.55 2.39
9.04 -17.32 2.39
9.35 -17.07 2.38
9.62 -16.77 2.37
9.89 -16.46 2.36
10.13 -16.12 2.34
10.36 -15.77 2.32
10.21 -14.88 2.23
10.45 -14.59 2.22
10.68 -14.29 2.21
10.92 -14.02 2.20
6.16 -7.59 1.21
6.35 -7.51 1.22
6.61 -7.51 1.24
6.88 -7.51 1.27
7.17 -7.51 1.29
7.46 -7.51 1.32
7.77 -7.51 1.35
8.09 -7.51 1.38
8.42 -7.51 1.41
8.77 -7.51 1.45
9.13 -7.51 1.48
9.51 -7.51 1.52
9.92 -7.51 1.56
10.34 -7.51 1.61
10.79 -7.51 1.65
11.27 -7.51 1.71
11.78 -7.51 1.76
12.31 -7.51 1.82
12.89 -7.51 1.88
13.51 -7.51 1.95
14.17 -7.51 2.03
14.88 -7.51 2.11
15.45 -7.41 2.17
15.58 -7.09 2.17
15.71 -6.77 2.17
15.83 -6.45 2.17
15.95 -6.13 2.17
16.06 -5.80 2.17
16.16 -5.48 2.17
16.26 -5.15 2.17
16.40 -4.83 2.18
14.85 -4.05 1.96
15.88 -3.99 2.09
15.95 -3.67 2.09
16.01 -3.35 2.09
16.07 -3.02 2.09
16.12 -2.70 2.09
16.17 -2.37 2.09
16.21 -2.05 2.09
16.40 -1.74 2.11
16.40 -1.41 2.10
16.40 -1.07 2.10
16.40 -0.74 2.10
16.40 -0.41 2.10
16.40 -0.08 2.10
16.40 0.25 2.10
16.40 0.58 2.10
16.40 0.91 2.10
16.40 1.24 2.10
16.40 1.57 2.11
17.42 2.02 2.24
17.29 2.36 2.23
15.03 2.36 1.94
13.28 2.36 1.72
11.92 2.36 1.55
10.90 2.39 1.43
9.92 2.39 1.30
9.00 2.36 1.19
8.44 2.39 1.12
7.64 2.33 1.02
7.26 2.38 0.97
7.21 2.52 0.97
7.16 2.67 0.97
15.82 6.26 2.17
15.70 6.58 2.17
15.57 6.89 2.17
15.43 7.21 2.17
15.29 7.52 2.17
15.14 7.83 2.17
15.09 8.19 2.18
14.39 8.19 2.10
13.80 8.22 2.04
13.13 8.19 1.96
12.61 8.22 1.91
12.05 8.20 1.85
11.57 8.22 1.80
11.04 8.19 1.74
10.64 8.22 1.70
10.16 8.19 1.65
9.80 8.22 1.61
9.41 8.22 1.57
9.00 8.19 1.53
8.68 8.22 1.50
8.30 8.19 1.47
7.97 8.19 1.44
7.69 8.22 1.41
7.39 8.22 1.39
7.06 8.19 1.35
6.78 8.19 1.33
6.54 8.22 1.31
6.32 8.28 1.30
10.28 14.05 2.17
9.83 14.03 2.13
9.52 14.18 2.13
9.44 14.69 2.17
9.03 14.69 2.14
8.63 14.69 2.11
8.23 14.69 2.08
7.86 14.70 2.06
7.49 14.72 2.04
7.13 14.73 2.02
6.77 14.74 2.00
6.42 14.75 1.98
2.38 5.79 0.77
6.10 15.71 2.07
6.07 16.60 2.17
6.06 17.67 2.29
5.97 18.63 2.39
5.60 18.77 2.39
5.23 18.91 2.39
4.86 19.03 2.39
4.48 19.16 2.39
4.10 19.27 2.39
3.72 19.38 2.39
3.33 19.48 2.39
2.95 19.57 2.39
2.56 19.65 2.39
2.20 20.05 2.43
1.85 20.65 2.49
1.44 20.72 2.49
1.02 20.77 2.49
0.61 20.82 2.49
0.19 20.86 2.49
-0.23 20.89 2.49
-0.65 20.91 2.49
-1.07 20.93 2.49
-1.50 20.93 2.49
-1.92 20.93 2.49
-2.34 20.92 2.49
-2.77 20.90 2.49
-3.19 20.87 2.49
-3.61 20.84 2.49
-4.04 20.79 2.49
-4.46 20.74 2.49
-4.88 20.68 2.49
-5.30 20.61 2.49
-5.73 20.53 2.49
-5.89 19.59 2.39
-6.29 19.50 2.39
-6.69 19.40 2.39
-7.09 19.29 2.39
-7.49 19.17 2.39
-7.88 19.05 2.39
-8.28 18.92 2.39
-8.67 18.77 2.39
-9.06 18.62 2.39
-9.44 18.46 2.39
-9.82 18.30 2.39
-17.73 31.49 4.15
-18.58 31.51 4.20
-19.46 31.53 4.25
-20.36 31.55 4.30
-21.28 31.57 4.35
-9.88 14.04 1.96
-23.21 31.62 4.47
-24.22 31.64 4.54
-9.90 12.41 1.81
-26.34 31.70 4.68
-27.46 31.73 4.76
-9.88 10.96 1.67
-29.84 31.80 4.93
-31.10 31.84 5.03
-9.88 9.71 1.56
-33.84 31.97 5.25
-35.38 32.11 5.38
-9.90 -9.55 1.54
-9.87 -9.91 1.57
-9.88 -10.32 1.60
-18.79 -20.43 3.11
-18.67 -21.14 3.17
-18.56 -21.89 3.23
-17.71 -21.75 3.16
-16.80 -21.50 3.07
-15.96 -21.29 3.00
-15.66 -21.80 3.03
-15.52 -22.54 3.09
-9.89 -15.00 2.03
-14.34 -22.73 3.05
-9.88 -16.38 2.17
-9.90 -17.18 2.25
-10.92 -19.86 2.58
-9.74 -18.58 2.39
-9.35 -18.75 2.39
-4.36 -9.19 1.16
-4.13 -9.19 1.15
-3.91 -9.19 1.15
-3.70 -9.19 1.14
-3.48 -9.19 1.13
-3.28 -9.19 1.12
-3.07 -9.19 1.12
-2.87 -9.19 1.11
-2.67 -9.20 1.11
-2.67 -9.95 1.19
-2.67 -10.81 1.29
-2.66 -11.82 1.41
-4.30 -21.01 2.49
-3.87 -21.06 2.49
-3.44 -21.10 2.49
-3.01 -21.13 2.49
-2.58 -21.16 2.49
-2.15 -21.17 2.49
-1.73 -21.18 2.49
-1.30 -21.18 2.49
-0.87 -21.17 2.49
-0.45 -21.15 2.49
-0.02 -17.69 2.49
0.33 -17.66 2.49
0.69 -17.63 2.49
1.04 -17.59 2.49
1.39 -17.54 2.49
1.74 -17.49 2.49
2.09 -17.43 2.49
2.33 -16.64 2.39
2.66 -16.57 2.39
2.99 -16.49 2.39
3.32 -16.41 2.39
3.64 -16.32 2.39
3.96 -16.22 2.39
4.28 -16.12 2.39
4.60 -16.01 2.39
4.91 -15.89 2.39
5.23 -15.77 2.39
5.53 -15.64 2.39
5.84 -15.51 2.39
6.14 -15.37 2.39
6.52 -15.40 2.42
6.66 -14.90 2.36
6.92 -14.68 2.35
7.18 -14.46 2.34
7.43 -14.24 2.33
7.67 -14.02 2.32
7.91 -13.79 2.32
8.15 -13.56 2.31
8.38 -13.33 2.30
8.60 -13.10 2.29
8.95 -13.05 2.32
9.35 -13.06 2.35
9.71 -13.00 2.38
6.44 -8.28 1.54
6.16 -7.59 1.44
6.35 -7.51 1.45
6.61 -7.51 1.47
6.88 -7.51 1.50
7.16 -7.51 1.53
7.46 -7.51 1.56
7.76 -7.51 1.60
8.08 -7.51 1.63
8.42 -7.51 1.67
8.76 -7.51 1.71
9.13 -7.51 1.75
9.51 -7.51 1.80
9.92 -7.51 1.85
10.34 -7.51 1.90
10.79 -7.51 1.96
11.27 -7.51 2.02
11.77 -7.51 2.08
12.31 -7.51 2.15
12.67 -7.39 2.19
12.81 -7.13 2.19
12.95 -6.87 2.19
13.08 -6.60 2.19
13.21 -6.34 2.19
13.33 -6.07 2.19
13.44 -5.80 2.19
13.55 -5.52 2.19
13.66 -5.25 2.19
13.76 -4.97 2.19
13.95 -4.73 2.21
14.24 -4.51 2.24
13.85 -4.08 2.17
13.93 -3.80 2.17
13.99 -3.52 2.17
14.06 -3.24 2.17
14.11 -2.95 2.17
14.17 -2.67 2.17
14.21 -2.38 2.17
14.38 -2.11 2.19
14.71 -1.86 2.23
14.80 -1.57 2.24
14.83 -1.27 2.24
14.85 -0.97 2.24
14.86 -0.67 2.24
14.87 -0.38 2.24
14.87 -0.08 2.24
14.87 0.22 2.24
14.86 0.52 2.24
14.85 0.82 2.24
14.83 1.12 2.24
14.80 1.42 2.24
14.77 1.71 2.24
14.73 2.01 2.24
14.69 2.31 2.24
13.28 2.36 2.03
11.92 2.36 1.83
10.90 2.39 1.68
9.92 2.39 1.54
9.00 2.36 1.40
8.43 2.39 1.32
7.83 2.39 1.23
7.20 2.36 1.14
6.67 2.33 1.06
6.26 2.33 1.01
6.04 2.39 0.98
6.04 2.53 0.98
6.04 2.67 0.99
13.02 6.08 2.16
12.89 6.34 2.16
12.77 6.60 2.16
12.63 6.86 2.16
12.50 7.11 2.16
12.36 7.37 2.16
12.21 7.62 2.16
12.06 7.86 2.16
12.05 8.20 2.18
11.57 8.22 2.12
11.04 8.19 2.05
10.63 8.22 2.01
10.16 8.19 1.95
9.79 8.22 1.91
9.40 8.22 1.86
9.00 8.19 1.81
8.67 8.22 1.78
8.30 8.19 1.73
7.97 8.19 1.70
7.69 8.22 1.67
7.38 8.22 1.64
7.06 8.19 1.60
6.78 8.19 1.57
6.53 8.22 1.55
6.32 8.29 1.54
9.01 12.33 2.25
8.81 12.58 2.26
8.61 12.82 2.28
8.39 13.07 2.29
8.18 13.31 2.30
7.96 13.55 2.31
8.02 14.31 2.41
7.74 14.48 2.41
7.45 14.65 2.41
7.16 14.81 2.41
6.77 14.74 2.37
6.42 14.75 2.35
2.38 5.79 0.91
5.94 15.30 2.39
5.64 15.44 2.39
5.33 15.57 2.39
5.02 15.69 2.39
4.71 15.80 2.39
4.40 15.91 2.39
4.09 16.02 2.39
3.77 16.12 2.39
3.45 16.21 2.39
3.12 16.29 2.39
2.80 16.37 2.39
2.47 16.45 2.39
2.20 16.92 2.45
1.89 17.29 2.49
1.55 17.35 2.49
1.20 17.40 2.49
0.85 17.44 2.49
0.50 17.48 2.49
0.15 17.50 2.49
-0.20 17.53 2.49
-0.55 17.54 2.49
-0.90 17.55 2.49
-1.26 17.55 2.49
-1.61 17.54 2.49
-1.97 17.53 2.49
-2.32 17.51 2.49
-2.67 17.48 2.49
-3.03 17.45 2.49
-3.38 17.41 2.49
-3.74 17.36 2.49
-4.09 17.30 2.49
-4.44 17.24 2.49
-4.79 17.17 2.49
-5.14 17.09 2.49
-5.49 17.01 2.49
-5.84 16.91 2.49
-5.93 16.12 2.39
-6.20 15.87 2.37
-6.25 15.10 2.27
-6.79 15.50 2.35
-6.87 14.87 2.27
-7.56 15.54 2.39
-7.88 15.40 2.39
-8.20 15.26 2.39
-8.51 15.11 2.39
-8.83 14.96 2.39
-9.13 14.79 2.39
-9.44 14.63 2.39
-9.74 14.45 2.39
-9.88 14.03 2.35
-9.91 12.41 2.17
-29.00 34.89 6.19
-9.88 10.95 2.01
-33.09 35.26 6.58
-34.09 34.89 6.63
-9.90 9.35 1.85
-9.88 8.27 1.74
-9.88 7.62 1.68
-9.88 6.42 1.58
-9.88 6.14 1.56
-9.88 5.87 1.54
-9.88 -6.01 1.54
-9.88 -6.28 1.56
-9.89 -7.16 1.64
-18.78 -14.18 3.15
-18.50 -14.56 3.16
-18.11 -14.85 3.14
-9.89 -8.45 1.75
-17.00 -15.12 3.06
-16.55 -15.32 3.03
-9.88 -9.53 1.85
-15.95 -16.00 3.05
-15.78 -16.48 3.08
-15.72 -17.09 3.14
-15.42 -17.45 3.15
-15.08 -17.78 3.15
-14.53 -17.85 3.12
-13.90 -17.79 3.06
-13.27 -17.70 3.00
-12.32 -17.13 2.87
-11.19 -16.24 2.68
-9.67 -14.66 2.39
-9.37 -14.84 2.39
-9.06 -15.01 2.39
-8.74 -15.17 2.39
-8.43 -15.32 2.39
-8.11 -15.47 2.39
-7.79 -15.61 2.39
-4.36 -9.19 1.40
-4.13 -9.19 1.38
-3.92 -9.19 1.37
-3.70 -9.19 1.36
-3.49 -9.19 1.36
-3.28 -9.19 1.35
-3.07 -9.19 1.34
-2.87 -9.19 1.33
-2.67 -9.20 1.33
-2.67 -9.94 1.43
-2.67 -10.80 1.54
-2.66 -11.80 1.68
-3.59 -17.55 2.49
-3.24 -17.60 2.49
-2.88 -17.64 2.49
-2.52 -17.67 2.49
-2.16 -17.69 2.49
-1.81 -17.71 2.49
-1.45 -17.72 2.49
-1.09 -17.72 2.49
-0.73 -17.72 2.49
-0.38 -17.71 2.49
-0.02 -15.20 2.49
0.28 -15.18 2.49
0.59 -15.16 2.49
0.89 -15.13 2.49
1.19 -15.09 2.49
1.49 -15.05 2.49
1.79 -15.00 2.49
2.09 -14.94 2.49
2.29 -14.26 2.39
2.57 -14.20 2.39
2.85 -14.13 2.39
3.13 -14.05 2.39
3.41 -13.97 2.39
3.69 -13.88 2.39
3.96 -13.79 2.39
4.23 -13.70 2.39
4.50 -13.59 2.39
4.77 -13.49 2.39
5.03 -13.37 2.39
5.29 -13.26 2.39
5.55 -13.13 2.39
5.81 -13.00 2.39
6.06 -12.87 2.39
6.37 -12.84 2.41
6.61 -12.69 2.41
6.86 -12.54 2.41
7.10 -12.38 2.41
7.34 -12.23 2.41
7.58 -12.07 2.41
7.82 -11.91 2.41
8.05 -11.75 2.41
8.29 -11.58 2.41
6.25 -8.37 1.77
6.32 -8.12 1.75
6.16 -7.60 1.66
6.34 -7.51 1.67
6.61 -7.51 1.70
6.88 -7.51 1.74
7.16 -7.51 1.77
7.46 -7.51 1.81
7.76 -7.51 1.85
8.08 -7.51 1.89
8.41 -7.51 1.93
8.76 -7.51 1.98
9.13 -7.51 2.03
9.51 -7.51 2.08
9.80 -7.43 2.11
9.93 -7.21 2.11
10.05 -6.99 2.10
10.16 -6.78 2.10
10.27 -6.56 2.10
10.38 -6.34 2.09
10.49 -6.11 2.09
10.59 -5.89 2.09
10.68 -5.67 2.09
10.77 -5.44 2.08
10.86 -5.21 2.08
10.95 -4.98 2.08
11.03 -4.76 2.08
11.69 -4.76 2.18
12.10 -4.65 2.24
12.18 -4.40 2.24
11.82 -4.01 2.16
11.89 -3.76 2.16
11.95 -3.52 2.16
12.01 -3.28 2.16
12.06 -3.03 2.16
12.12 -2.79 2.16
12.16 -2.54 2.16
12.20 -2.30 2.16
12.66 -2.12 2.23
12.77 -1.88 2.24
12.81 -1.62 2.24
12.83 -1.36 2.24
12.86 -1.10 2.24
12.87 -0.84 2.24
12.89 -0.58 2.24
12.89 -0.33 2.24
12.90 -0.07 2.24
12.89 0.19 2.24
12.89 0.45 2.24
12.87 0.71 2.24
12.86 0.97 2.24
12.84 1.23 2.24
12.81 1.49 2.24
12.78 1.74 2.24
12.74 2.00 2.24
12.70 2.26 2.24
11.92 2.37 2.11
10.90 2.39 1.94
9.92 2.39 1.77
9.00 2.36 1.62
8.43 2.39 1.52
7.83 2.39 1.42
7.20 2.36 1.32
6.83 2.39 1.26
6.33 2.36 1.17
6.04 2.39 1.13
6.04 2.53 1.14
11.82 5.24 2.24
11.72 5.48 2.24
11.61 5.71 2.24
11.47 5.93 2.24
10.94 5.94 2.16
10.82 6.16 2.15
10.70 6.38 2.16
10.58 6.60 2.16
10.46 6.82 2.16
10.33 7.04 2.16
10.20 7.25 2.16
10.07 7.47 2.16
9.93 7.68 2.16
9.78 7.88 2.17
9.79 8.22 2.20
9.40 8.22 2.15
9.00 8.19 2.09
8.67 8.22 2.05
8.30 8.19 2.00
7.97 8.19 1.96
7.69 8.22 1.93
7.38 8.22 1.89
7.06 8.19 1.85
6.78 8.19 1.82
6.53 8.22 1.80
6.32 8.29 1.78
8.32 11.38 2.41
8.10 11.56 2.41
7.80 11.62 2.38
7.47 11.62 2.35
7.21 11.74 2.35
7.01 11.95 2.36
6.81 12.15 2.37
6.60 12.36 2.38
6.39 12.56 2.39
6.14 12.71 2.39
5.89 12.84 2.39
5.64 12.97 2.39
2.38 5.79 1.06
5.12 13.21 2.39
4.86 13.32 2.39
4.60 13.43 2.39
4.33 13.54 2.39
4.06 13.63 2.39
3.79 13.73 2.39
3.52 13.82 2.39
3.25 13.90 2.39
2.97 13.98 2.39
2.69 14.05 2.39
2.41 14.12 2.39
2.20 14.64 2.47
1.93 14.84 2.49
1.63 14.90 2.49
1.33 14.94 2.49
1.03 14.98 2.49
0.73 15.02 2.49
0.43 15.04 2.49
0.13 15.07 2.49
-0.17 15.08 2.49
-0.48 15.09 2.49
-0.78 15.10 2.49
-1.08 15.10 2.49
-1.39 15.09 2.49
-1.69 15.07 2.49
-2.00 15.05 2.49
-2.30 15.03 2.49
-2.61 14.99 2.49
-2.91 14.96 2.49
-3.21 14.91 2.49
-3.52 14.86 2.49
-3.82 14.80 2.49
-4.12 14.74 2.49
-4.42 14.67 2.49
-4.72 14.60 2.49
-5.01 14.51 2.49
-5.31 14.43 2.49
-5.60 14.33 2.49
-5.85 14.11 2.47
-5.93 13.54 2.39
-6.21 13.44 2.39
-6.20 12.74 2.29
-6.65 12.99 2.35
-6.79 12.64 2.31
-6.93 12.29 2.27
-7.56 12.81 2.39
-7.83 12.67 2.39
-8.09 12.52 2.39
-8.35 12.37 2.39
-8.60 12.21 2.39
-8.85 12.05 2.39
-9.10 11.88 2.39
-9.35 11.71 2.39
-9.59 11.53 2.39
-9.83 11.35 2.39
-9.88 10.95 2.35
-33.09 35.24 7.69
-34.10 34.88 7.75
-9.90 9.35 2.16
-9.88 7.93 2.00
-9.88 4.84 1.73
-9.88 2.16 1.58
-9.88 1.95 1.57
-9.88 1.75 1.56
-9.88 1.55 1.56
-9.88 1.34 1.55
-9.88 1.14 1.55
-9.88 0.94 1.54
-9.88 0.74 1.54
-9.88 0.54 1.54
-9.88 0.35 1.54
-9.88 0.15 1.54
-9.88 -0.05 1.54
-9.88 -0.25 1.54
-9.88 -0.45 1.54
-9.88 -0.65 1.54
-9.88 -0.84 1.54
-9.88 -1.04 1.54
-9.88 -1.24 1.55
-9.88 -1.45 1.55
-9.88 -1.65 1.56
-9.88 -1.85 1.56
-9.88 -2.06 1.57
-9.88 -2.27 1.58
-19.04 -4.77 3.06
-9.88 -2.69 1.59
-9.88 -2.90 1.60
-18.71 -5.91 3.06
-18.58 -6.28 3.06
-18.44 -6.65 3.06
-18.30 -7.01 3.06
-18.14 -7.37 3.06
-17.97 -7.73 3.05
-17.79 -8.07 3.05
-17.60 -8.42 3.05
-17.43 -8.77 3.05
-17.26 -9.12 3.05
-17.09 -9.48 3.06
-16.92 -9.83 3.06
-16.74 -10.18 3.07
-16.51 -10.50 3.06
-9.89 -6.57 1.86
-15.96 -11.07 3.05
-15.74 -11.39 3.05
-15.55 -11.74 3.06
-15.34 -12.07 3.07
-15.14 -12.41 3.08
-9.88 -8.44 2.04
-14.61 -12.99 3.08
-14.34 -13.27 3.08
-14.05 -13.54 3.08
-13.73 -13.77 3.07
-9.88 -10.32 2.26
-13.08 -14.22 3.05
-11.28 -12.77 2.69
-9.77 -11.52 2.39
-9.53 -11.70 2.39
-9.29 -11.88 2.39
-9.04 -12.05 2.39
-8.79 -12.22 2.39
-8.53 -12.38 2.39
-8.28 -12.54 2.39
-8.02 -12.69 2.39
-7.75 -12.84 2.39
-7.49 -12.98 2.39
-7.22 -13.11 2.39
-4.47 -8.53 1.54
-4.30 -8.60 1.54
-4.12 -8.68 1.54
-3.94 -8.75 1.54
-3.76 -8.82 1.54
-3.58 -8.88 1.54
-3.39 -8.94 1.54
-3.21 -9.00 1.54
-3.03 -9.05 1.54
-2.84 -9.10 1.54
-2.67 -9.19 1.55
-2.67 -9.93 1.66
-2.67 -10.79 1.80
-2.64 -11.68 1.94
-3.09 -15.06 2.49
-2.78 -15.10 2.49
-2.47 -15.14 2.49
-2.17 -15.17 2.49
-1.86 -15.19 2.49
-1.55 -15.21 2.49
-1.25 -15.22 2.49
-0.94 -15.23 2.49
-0.63 -15.22 2.49
-0.33 -15.22 2.49
-0.02 -13.32 2.49
0.24 -13.30 2.49
0.51 -13.28 2.49
0.78 -13.26 2.49
1.04 -13.23 2.49
1.31 -13.19 2.49
1.57 -13.15 2.49
1.83 -13.10 2.49
2.09 -13.05 2.49
2.25 -12.45 2.39
2.50 -12.39 2.39
2.75 -12.33 2.39
2.99 -12.26 2.39
3.23 -12.18 2.39
3.47 -12.11 2.39
3.71 -12.02 2.39
3.95 -11.93 2.39
4.18 -11.84 2.39
4.42 -11.74 2.39
4.65 -11.64 2.39
4.87 -11.53 2.39
5.10 -11.42 2.39
5.32 -11.31 2.39
5.55 -11.19 2.39
5.76 -11.07 2.39
5.98 -10.94 2.39
6.19 -10.81 2.39
6.46 -10.77 2.41
6.67 -10.63 2.41
6.88 -10.49 2.41
7.08 -10.34 2.41
7.29 -10.19 2.41
6.26 -8.39 2.02
6.33 -8.13 1.99
6.16 -7.60 1.89
6.34 -7.51 1.90
6.60 -7.51 1.94
6.88 -7.51 1.97
7.16 -7.51 2.01
7.45 -7.51 2.05
7.76 -7.51 2.10
8.08 -7.51 2.14
8.33 -7.44 2.17
8.44 -7.24 2.16
8.54 -7.03 2.15
8.65 -6.83 2.15
8.75 -6.63 2.14
8.86 -6.44 2.14
8.97 -6.25 2.13
9.07 -6.05 2.13
9.18 -5.86 2.13
9.28 -5.66 2.12
9.37 -5.46 2.12
9.46 -5.27 2.12
9.55 -5.07 2.12
9.63 -4.86 2.11
9.76 -4.69 2.12
10.66 -4.85 2.30
10.72 -4.63 2.29
10.13 -4.13 2.15
10.20 -3.92 2.14
10.26 -3.71 2.14
10.31 -3.50 2.14
10.36 -3.28 2.14
10.41 -3.07 2.13
10.46 -2.86 2.13
10.50 -2.64 2.13
10.54 -2.43 2.13
10.82 -2.26 2.18
11.23 -2.11 2.25
11.25 -1.89 2.25
11.28 -1.66 2.25
11.30 -1.43 2.24
11.32 -1.20 2.24
11.34 -0.97 2.24
11.35 -0.74 2.24
11.36 -0.52 2.24
11.37 -0.29 2.24
11.37 -0.06 2.24
11.37 0.17 2.24
11.36 0.40 2.24
11.35 0.63 2.24
11.34 0.86 2.24
11.32 1.08 2.24
11.30 1.31 2.24
11.28 1.54 2.25
11.26 1.77 2.25
11.23 2.00 2.25
11.20 2.22 2.25
10.90 2.39 2.20
9.92 2.39 2.01
9.00 2.36 1.83
8.43 2.39 1.73
7.83 2.39 1.61
7.20 2.36 1.49
6.83 2.39 1.43
6.33 2.36 1.33
6.04 2.39 1.28
6.04 2.53 1.29
10.67 4.73 2.29
10.60 4.95 2.30
10.53 5.18 2.31
10.45 5.41 2.31
10.37 5.63 2.32
10.29 5.86 2.33
10.21 6.09 2.33
9.51 5.93 2.20
9.28 6.05 2.17
9.18 6.25 2.18
9.07 6.45 2.18
8.96 6.65 2.19
8.85 6.84 2.19
8.73 7.04 2.19
8.61 7.23 2.20
8.49 7.42 2.20
8.36 7.61 2.21
8.23 7.81 2.21
8.11 8.01 2.22
7.97 8.19 2.23
7.68 8.22 2.19
7.38 8.22 2.15
7.06 8.19 2.10
6.78 8.19 2.07
6.53 8.22 2.04
6.32 8.29 2.02
7.32 10.02 2.41
7.12 10.17 2.41
6.92 10.32 2.41
6.72 10.46 2.41
6.51 10.60 2.41
6.30 10.74 2.41
6.05 10.80 2.39
5.84 10.93 2.39
5.62 11.05 2.39
5.40 11.17 2.39
5.18 11.29 2.39
4.96 11.40 2.39
2.38 5.79 1.20
4.50 11.61 2.39
4.27 11.71 2.39
4.04 11.80 2.39
3.80 11.89 2.39
3.57 11.98 2.39
3.33 12.06 2.39
3.09 12.13 2.39
2.85 12.21 2.39
2.60 12.27 2.39
2.36 12.33 2.39
2.20 12.89 2.49
1.95 12.98 2.49
1.69 13.03 2.49
1.43 13.07 2.49
1.17 13.11 2.49
0.90 13.14 2.49
0.64 13.17 2.49
0.38 13.19 2.49
0.11 13.21 2.49
-0.15 13.23 2.49
-0.42 13.23 2.49
-0.69 13.23 2.49
-0.95 13.23 2.49
-1.22 13.22 2.49
-1.49 13.21 2.49
-1.75 13.19 2.49
-2.02 13.16 2.49
-2.29 13.13 2.49
-2.55 13.10 2.49
-2.82 13.06 2.49
-3.08 13.01 2.49
-3.34 12.96 2.49
-3.61 12.90 2.49
-3.87 12.84 2.49
-4.13 12.77 2.49
-4.39 12.70 2.49
-4.65 12.62 2.49
-4.91 12.54 2.49
-5.16 12.45 2.49
-5.41 12.35 2.49
-5.67 12.25 2.49
-5.85 12.00 2.46
-5.91 11.54 2.39
-6.15 11.43 2.39
-6.29 11.16 2.36
-6.59 11.16 2.38
-6.84 11.07 2.39
-7.07 10.94 2.39
-7.29 10.81 2.39
-7.51 10.67 2.39
-7.73 10.52 2.39
-7.95 10.38 2.39
-8.16 10.22 2.39
-8.37 10.07 2.39
-8.58 9.90 2.39
-8.78 9.74 2.39
-8.99 9.57 2.39
-9.18 9.39 2.39
-9.38 9.21 2.39
-9.57 9.03 2.39
-9.75 8.84 2.39
-9.88 7.93 2.29
-9.88 7.61 2.26
-9.88 5.35 2.02
-9.88 4.84 1.98
-9.88 4.13 1.93
-18.38 6.41 3.49
-17.28 5.64 3.26
-17.14 5.22 3.21
-16.99 4.80 3.17
-16.84 4.40 3.12
-9.88 2.37 1.82
-16.70 3.65 3.06
-16.75 3.31 3.06
-9.88 1.75 1.80
-16.83 2.63 3.05
-16.85 2.29 3.04
-16.87 1.95 3.04
-16.89 1.61 3.03
-9.88 0.74 1.77
-16.94 0.93 3.03
-16.96 0.59 3.03
-16.97 0.25 3.03
-16.97 -0.09 3.03
-16.96 -0.43 3.03
-16.95 -0.77 3.03
-16.93 -1.11 3.03
-16.91 -1.45 3.03
-16.88 -1.78 3.03
-9.88 -1.24 1.78
-16.77 -2.46 3.03
-16.72 -2.79 3.03
-16.67 -3.13 3.03
-16.60 -3.46 3.03
-16.53 -3.79 3.03
-16.45 -4.12 3.03
-16.36 -4.45 3.03
-16.26 -4.78 3.03
-16.16 -5.10 3.03
-16.05 -5.42 3.03
-15.93 -5.74 3.03
-15.82 -6.06 3.03
-15.69 -6.37 3.03
-15.55 -6.68 3.03
-15.42 -7.00 3.04
-15.28 -7.31 3.04
-15.14 -7.62 3.04
-14.95 -7.90 3.04
-14.76 -8.18 3.03
-14.58 -8.47 3.03
-14.37 -8.74 3.02
-14.16 -9.00 3.02
-13.94 -9.26 3.01
-13.80 -9.57 3.02
-13.65 -9.88 3.03
-9.88 -7.46 2.23
-9.88 -7.77 2.27
-13.12 -10.75 3.06
-10.91 -9.31 2.59
-10.70 -9.51 2.58
-9.71 -8.99 2.39
-9.52 -9.17 2.39
-9.33 -9.36 2.39
-9.13 -9.53 2.39
-8.93 -9.71 2.39
-8.73 -9.88 2.39
-8.53 -10.05 2.39
-8.32 -10.21 2.39
-8.10 -10.36 2.39
-7.89 -10.52 2.39
-7.67 -10.66 2.39
-7.45 -10.81 2.39
-7.23 -10.95 2.39
-7.00 -11.08 2.39
-4.46 -7.38 1.57
-4.26 -7.38 1.56
-4.06 -7.38 1.54
-3.91 -7.46 1.54
-3.76 -7.52 1.54
-3.60 -7.59 1.54
-3.45 -7.65 1.54
-3.29 -7.72 1.54
-3.13 -7.77 1.54
-2.97 -7.83 1.54
-2.81 -7.88 1.54
-2.68 -8.02 1.56
-2.68 -8.60 1.66
-2.67 -9.19 1.77
-2.67 -9.92 1.90
-2.67 -10.78 2.06
-2.63 -11.63 2.21
-2.70 -13.18 2.49
-2.44 -13.21 2.49
-2.17 -13.25 2.49
-1.90 -13.28 2.49
-1.63 -13.30 2.49
-1.36 -13.32 2.49
-1.09 -13.33 2.49
-0.83 -13.33 2.49
-0.56 -13.33 2.49
-0.29 -13.33 2.49
-0.02 -11.84 2.49
0.22 -11.83 2.49
0.45 -11.81 2.49
0.69 -11.79 2.49
0.92 -11.76 2.49
1.16 -11.73 2.49
1.39 -11.69 2.49
1.63 -11.65 2.49
1.86 -11.61 2.49
2.09 -11.56 2.49
2.22 -11.03 2.39
2.44 -10.97 2.39
2.66 -10.91 2.39
2.87 -10.84 2.39
3.09 -10.78 2.39
3.30 -10.70 2.39
3.51 -10.62 2.39
3.72 -10.54 2.39
3.93 -10.46 2.39
4.14 -10.37 2.39
4.34 -10.27 2.39
4.54 -10.18 2.39
4.74 -10.07 2.39
4.94 -9.97 2.39
5.13 -9.86 2.39
5.33 -9.75 2.39
5.52 -9.63 2.39
5.70 -9.51 2.39
5.89 -9.39 2.39
6.07 -9.26 2.39
6.31 -9.21 2.41
6.49 -9.07 2.41
6.27 -8.41 2.27
6.33 -8.14 2.23
6.16 -7.60 2.12
6.34 -7.51 2.13
6.60 -7.51 2.17
6.87 -7.51 2.21
7.16 -7.51 2.25
7.28 -7.33 2.25
7.39 -7.15 2.24
7.50 -6.97 2.23
7.60 -6.79 2.22
7.71 -6.61 2.21
7.81 -6.43 2.21
7.90 -6.24 2.20
8.00 -6.06 2.19
8.09 -5.88 2.18
8.17 -5.69 2.18
8.26 -5.51 2.17
8.34 -5.32 2.16
8.41 -5.14 2.16
8.49 -4.95 2.15
8.56 -4.76 2.15
8.86 -4.70 2.20
9.67 -4.88 2.38
9.73 -4.67 2.37
9.11 -4.15 2.20
9.18 -3.96 2.20
9.24 -3.77 2.19
9.30 -3.58 2.19
9.35 -3.38 2.19
9.41 -3.19 2.19
9.46 -3.00 2.18
9.50 -2.80 2.18
9.54 -2.61 2.18
9.58 -2.41 2.18
9.62 -2.22 2.17
10.32 -2.16 2.32
10.35 -1.95 2.32
10.37 -1.74 2.32
10.40 -1.53 2.32
10.41 -1.32 2.32
10.43 -1.11 2.31
10.44 -0.90 2.31
10.46 -0.69 2.31
10.46 -0.48 2.31
10.47 -0.26 2.31
10.47 -0.05 2.31
10.47 0.16 2.31
10.46 0.37 2.31
10.46 0.58 2.31
10.45 0.79 2.31
10.43 1.00 2.31
10.42 1.21 2.31
10.40 1.42 2.32
10.38 1.63 2.32
10.35 1.84 2.32
10.32 2.05 2.32
10.29 2.26 2.33
9.92 2.39 2.25
9.00 2.36 2.05
8.43 2.39 1.93
7.83 2.39 1.80
7.20 2.36 1.67
6.83 2.39 1.60
6.32 2.36 1.49
6.04 2.39 1.43
6.04 2.53 1.44
9.81 4.35 2.36
9.75 4.56 2.37
9.68 4.76 2.37
9.61 4.97 2.38
9.53 5.18 2.39
9.46 5.39 2.39
9.38 5.59 2.40
9.29 5.80 2.41
9.18 5.99 2.41
9.06 6.17 2.41
8.34 5.93 2.25
8.13 6.04 2.22
8.04 6.22 2.23
7.94 6.40 2.24
7.84 6.59 2.24
7.74 6.77 2.25
7.63 6.95 2.26
7.52 7.13 2.27
7.41 7.32 2.28
7.30 7.50 2.29
7.18 7.69 2.30
7.06 7.87 2.31
7.06 8.19 2.36
6.77 8.19 2.32
6.53 8.22 2.29
6.32 8.29 2.27
6.53 8.94 2.41
6.35 9.07 2.41
6.13 9.14 2.39
5.95 9.27 2.39
5.77 9.40 2.39
5.58 9.52 2.39
5.39 9.63 2.39
5.20 9.75 2.39
5.01 9.86 2.39
4.81 9.96 2.39
4.61 10.06 2.39
2.50 5.75 1.35
2.37 5.76 1.34
4.01 10.35 2.39
3.80 10.44 2.39
3.60 10.52 2.39
3.39 10.60 2.39
3.18 10.67 2.39
2.96 10.74 2.39
2.75 10.81 2.39
2.53 10.87 2.39
2.32 10.93 2.39
2.19 11.46 2.49
1.96 11.51 2.49
1.73 11.55 2.49
1.50 11.60 2.49
1.27 11.63 2.49
1.03 11.67 2.49
0.80 11.70 2.49
0.57 11.72 2.49
0.33 11.74 2.49
0.10 11.75 2.49
-0.14 11.76 2.49
-0.38 11.77 2.49
-0.61 11.77 2.49
-0.85 11.77 2.49
-1.09 11.76 2.49
-1.32 11.74 2.49
-1.56 11.72 2.49
-1.80 11.70 2.49
-2.03 11.67 2.49
-2.27 11.64 2.49
-2.50 11.60 2.49
-2.74 11.56 2.49
-2.97 11.51 2.49
-3.21 11.46 2.49
-3.44 11.40 2.49
-3.67 11.34 2.49
-3.90 11.28 2.49
-4.13 11.21 2.49
-4.36 11.13 2.49
-4.58 11.05 2.49
-4.81 10.96 2.49
-5.03 10.88 2.49
-5.25 10.78 2.49
-5.47 10.68 2.49
-5.69 10.58 2.49
-5.85 10.36 2.47
-5.87 9.93 2.39
-6.07 9.82 2.39
-6.27 9.70 2.39
-6.47 9.58 2.39
-6.67 9.46 2.39
-6.86 9.33 2.39
-7.05 9.20 2.39
-7.24 9.06 2.39
-7.42 8.92 2.39
-7.61 8.78 2.39
-7.79 8.63 2.39
-7.97 8.48 2.39
-8.14 8.32 2.39
-8.31 8.16 2.39
-8.48 8.00 2.39
-8.64 7.83 2.39
-8.80 7.66 2.39
-8.96 7.49 2.39
-9.12 7.31 2.39
-9.27 7.13 2.39
-9.41 6.95 2.39
-9.56 6.77 2.39
-9.69 6.58 2.39
-9.83 6.38 2.39
-10.92 6.78 2.62
-10.97 6.52 2.60
-11.03 6.25 2.58
-9.88 5.09 2.26
-9.88 4.84 2.24
-15.87 7.39 3.56
-15.48 6.83 3.44
-15.26 6.37 3.36
-14.85 5.86 3.24
-14.81 5.50 3.21
-14.76 5.15 3.17
-14.69 4.79 3.13
-14.61 4.44 3.09
-14.61 4.13 3.08
-14.65 3.82 3.07
-14.71 3.53 3.06
-14.77 3.23 3.06
-14.81 2.93 3.06
-9.88 1.75 2.03
-14.88 2.33 3.05
-14.89 2.02 3.04
-14.96 1.73 3.05
-14.99 1.43 3.05
-15.02 1.13 3.04
-15.03 0.83 3.04
-15.04 0.53 3.04
-15.05 0.22 3.04
-15.04 -0.08 3.04
-15.02 -0.38 3.04
-15.00 -0.68 3.03
-14.96 -0.98 3.03
-14.92 -1.28 3.02
-14.87 -1.57 3.02
-9.88 -1.24 2.01
-14.72 -2.16 3.01
-14.65 -2.45 3.00
-14.59 -2.74 3.00
-14.52 -3.03 3.00
-14.45 -3.32 3.00
-14.37 -3.60 3.00
-14.22 -3.87 2.98
-14.06 -4.13 2.96
-9.89 -3.12 2.10
-13.78 -4.66 2.94
-13.65 -4.92 2.94
-13.53 -5.18 2.93
-13.40 -5.44 2.93
-13.27 -5.70 2.93
-9.88 -4.48 2.20
-12.88 -6.16 2.89
-12.24 -6.16 2.78
-9.88 -5.22 2.27
-11.06 -6.13 2.57
-10.88 -6.32 2.55
-10.65 -6.48 2.53
-10.48 -6.66 2.52
-9.80 -6.51 2.39
-9.66 -6.70 2.39
-9.52 -6.89 2.39
-9.38 -7.08 2.39
-9.23 -7.26 2.39
-9.08 -7.44 2.39
-8.92 -7.61 2.39
-8.76 -7.79 2.39
-8.60 -7.96 2.39
-8.43 -8.12 2.39
-8.26 -8.29 2.39
-8.09 -8.44 2.39
-7.92 -8.60 2.39
-7.73 -8.75 2.39
-7.55 -8.90 2.39
-7.37 -9.04 2.39
-7.18 -9.18 2.39
-6.99 -9.32 2.39
-6.80 -9.45 2.39
-6.60 -9.58 2.39
-6.41 -9.70 2.39
-6.21 -9.82 2.39
-4.46 -7.38 1.78
-4.26 -7.38 1.76
-4.06 -7.38 1.74
-3.87 -7.38 1.72
-3.69 -7.38 1.70
-3.50 -7.38 1.69
-3.33 -7.38 1.68
-3.15 -7.38 1.66
-2.98 -7.38 1.65
-2.80 -7.38 1.64
-2.68 -7.51 1.66
-2.68 -8.02 1.76
-2.68 -8.59 1.87
-2.55 -8.79 1.90
-2.67 -9.91 2.14
-2.87 -11.61 2.49
-2.64 -11.66 2.49
-2.40 -11.70 2.49
-2.17 -11.73 2.49
-1.93 -11.77 2.49
-1.69 -11.79 2.49
-1.45 -11.81 2.49
-1.21 -11.83 2.49
-0.98 -11.84 2.49
-0.74 -11.85 2.49
-0.50 -11.85 2.49
-0.26 -11.85 2.49
-0.02 -10.64 2.49
0.19 -10.63 2.49
0.40 -10.62 2.49
0.62 -10.60 2.49
0.83 -10.58 2.49
1.04 -10.55 2.49
1.25 -10.52 2.49
1.46 -10.48 2.49
1.67 -10.44 2.49
1.88 -10.40 2.49
2.08 -10.35 2.49
2.21 -9.94 2.41
2.41 -9.90 2.41
2.59 -9.76 2.39
2.78 -9.70 2.39
2.97 -9.63 2.39
3.16 -9.57 2.39
3.35 -9.49 2.39
3.54 -9.42 2.39
3.72 -9.34 2.39
3.91 -9.25 2.39
4.09 -9.17 2.39
4.27 -9.07 2.39
4.45 -8.98 2.39
4.62 -8.88 2.39
4.80 -8.78 2.39
4.97 -8.68 2.39
5.14 -8.57 2.39
5.31 -8.46 2.39
5.47 -8.34 2.39
5.63 -8.23 2.39
5.79 -8.11 2.39
5.95 -7.98 2.39
6.11 -7.86 2.39
6.16 -7.60 2.35
6.34 -7.51 2.36
6.41 -7.29 2.34
6.46 -7.06 2.30
