ply
format ascii 1.0
element vertex 2923
property float32 x
property float32 y
property float32 z
end_header
12.76 -11.85 2.39
12.99 -11.58 2.39
13.21 -11.31 2.39
13.42 -11.04 2.39
13.63 -10.76 2.39
13.83 -10.47 2.39
14.03 -10.19 2.39
14.22 -9.90 2.39
14.41 -9.60 2.39
11.96 -7.63 1.96
11.96 -7.30 1.94
11.96 -6.97 1.92
12.05 -6.70 1.91
12.06 -6.39 1.89
12.06 -6.09 1.88
12.06 -5.79 1.86
12.06 -5.49 1.84
11.98 -5.17 1.82
11.98 -4.89 1.80
11.98 -4.61 1.79
10.52 -3.81 1.56
11.99 -4.07 1.77
11.99 -3.80 1.76
11.94 -3.52 1.74
11.89 -3.25 1.73
11.89 -3.00 1.72
11.89 -2.74 1.71
11.90 -2.49 1.71
11.92 -2.25 1.71
10.53 -1.77 1.50
12.01 -1.77 1.71
12.01 -1.53 1.71
12.01 -1.28 1.70
12.01 -1.04 1.70
12.02 -0.80 1.70
12.02 -0.55 1.70
12.11 -0.31 1.72
12.11 -0.07 1.72
12.11 0.17 1.72
12.11 0.42 1.72
12.12 0.66 1.72
12.12 0.90 1.73
12.03 1.14 1.72
12.03 1.38 1.73
12.04 1.63 1.73
12.04 1.88 1.74
11.26 1.99 1.63
11.10 2.19 1.62
10.86 2.37 1.59
10.54 2.52 1.55
10.49 2.74 1.55
10.39 2.93 1.55
10.43 3.17 1.56
10.43 3.40 1.58
10.42 3.63 1.59
10.31 3.83 1.58
10.50 4.14 1.63
11.18 4.67 1.75
11.79 5.21 1.86
11.80 5.49 1.88
11.45 5.62 1.84
10.90 5.62 1.77
10.39 5.63 1.71
9.92 5.63 1.65
9.44 5.61 1.59
9.31 5.79 1.59
10.39 6.75 1.80
10.39 7.06 1.83
10.08 7.15 1.80
9.67 7.15 1.75
9.28 7.15 1.71
9.25 7.43 1.73
10.22 8.55 1.94
10.17 8.87 1.97
9.77 8.87 1.93
9.39 8.88 1.89
10.62 10.45 2.18
10.48 10.73 2.19
10.42 11.11 2.23
10.35 11.49 2.26
10.70 12.36 2.39
10.44 12.57 2.39
10.18 12.77 2.39
9.92 12.96 2.39
9.65 13.15 2.39
9.38 13.34 2.39
9.10 13.52 2.39
8.83 13.69 2.39
8.55 13.86 2.39
8.26 14.02 2.39
7.97 14.18 2.39
7.69 14.33 2.39
7.39 14.48 2.39
7.10 14.62 2.39
6.80 14.75 2.39
6.50 14.88 2.39
6.19 14.99 2.39
5.89 15.10 2.39
5.58 15.21 2.39
5.27 15.32 2.39
4.96 15.42 2.39
4.65 15.51 2.39
4.34 15.60 2.39
4.02 15.68 2.39
3.71 15.75 2.39
3.39 15.82 2.39
3.07 15.88 2.39
2.75 15.94 2.39
2.43 15.99 2.39
2.20 16.73 2.49
1.86 16.76 2.49
1.52 16.80 2.49
1.18 16.82 2.49
0.85 16.84 2.49
0.51 16.86 2.49
0.17 16.86 2.49
-0.17 16.86 2.49
-0.51 16.86 2.49
-0.85 16.84 2.49
-1.19 16.82 2.49
-1.52 16.80 2.49
-1.86 16.77 2.49
-2.20 16.73 2.49
-2.53 16.68 2.49
-2.87 16.63 2.49
-3.20 16.57 2.49
-3.54 16.51 2.49
-3.87 16.44 2.49
-4.20 16.36 2.49
-4.53 16.28 2.49
-4.85 16.18 2.49
-5.18 16.09 2.49
-5.50 15.99 2.49
-5.69 15.52 2.44
-5.91 15.15 2.40
-6.19 14.99 2.39
-6.50 14.87 2.39
-6.80 14.74 2.39
-7.04 14.50 2.37
-7.34 14.37 2.37
-7.63 14.22 2.37
-7.97 14.17 2.39
-8.26 14.01 2.39
-8.54 13.85 2.39
-8.82 13.68 2.39
-9.10 13.51 2.39
-9.37 13.33 2.39
-9.64 13.15 2.39
-9.67 12.65 2.33
-9.68 12.14 2.27
-9.68 11.66 2.22
-9.71 11.22 2.17
-9.86 10.94 2.15
-10.01 10.67 2.14
-10.15 10.40 2.12
-10.30 10.13 2.11
-10.44 9.86 2.10
-10.58 9.60 2.08
-10.72 9.34 2.07
-10.96 9.17 2.08
-11.30 9.08 2.11
-11.33 8.73 2.08
-11.35 8.39 2.05
-11.38 8.06 2.03
-11.45 7.77 2.01
-11.51 7.48 1.99
-11.55 7.18 1.97
-11.58 6.88 1.95
-11.60 6.58 1.93
-11.63 6.29 1.91
-11.71 6.04 1.90
-11.78 5.78 1.89
-11.86 5.52 1.89
-11.91 5.26 1.88
-11.95 4.99 1.87
-11.99 4.73 1.85
-12.10 4.49 1.86
-6.27 2.19 0.95
-12.42 4.05 1.88
-12.58 3.83 1.89
-12.74 3.60 1.90
-12.87 3.36 1.90
-12.91 3.09 1.90
-12.94 2.83 1.89
-12.97 2.56 1.89
-12.99 2.29 1.88
-13.02 2.03 1.88
-13.04 1.77 1.88
-13.07 1.50 1.87
-13.07 1.24 1.87
-13.08 0.98 1.86
-13.08 0.71 1.86
-13.09 0.45 1.86
-13.09 0.19 1.86
-13.09 -0.08 1.85
-13.10 -0.34 1.85
-13.12 -0.60 1.86
-13.15 -0.87 1.86
-13.19 -1.14 1.87
-13.22 -1.41 1.87
-13.26 -1.68 1.88
-13.29 -1.96 1.89
-13.32 -2.24 1.90
-13.32 -2.51 1.90
-13.32 -2.79 1.91
-13.32 -3.07 1.92
-13.32 -3.36 1.92
-13.33 -3.64 1.93
-13.33 -3.93 1.94
-13.33 -4.22 1.95
-13.31 -4.51 1.96
-13.25 -4.79 1.96
-13.16 -5.06 1.96
-13.06 -5.33 1.96
-12.97 -5.59 1.97
-12.81 -5.83 1.96
-12.65 -6.07 1.95
-12.50 -6.31 1.94
-12.34 -6.54 1.94
-12.22 -6.80 1.94
-12.17 -7.09 1.95
-12.13 -7.40 1.97
-12.07 -7.70 1.98
-12.00 -8.00 1.99
-11.92 -8.30 2.01
-11.85 -8.60 2.02
-11.78 -8.92 2.04
-11.72 -9.25 2.06
-11.65 -9.58 2.08
-11.59 -9.93 2.10
-11.52 -10.28 2.12
-11.48 -10.66 2.15
-11.46 -11.07 2.19
-11.44 -11.51 2.23
-11.42 -11.96 2.27
-11.40 -12.43 2.31
-11.34 -12.87 2.35
-11.27 -13.33 2.39
-11.20 -13.80 2.43
-11.13 -14.28 2.48
-11.05 -14.79 2.52
-10.87 -15.17 2.55
-9.92 -14.44 2.39
-9.63 -14.65 2.39
-9.34 -14.84 2.39
-9.04 -15.04 2.39
-8.75 -15.22 2.39
-8.44 -15.40 2.39
-8.13 -15.57 2.39
-7.82 -15.74 2.39
-7.51 -15.90 2.39
-7.19 -16.05 2.39
-6.87 -16.20 2.39
-6.55 -16.34 2.39
-6.22 -16.47 2.39
-5.98 -16.85 2.43
-5.80 -17.44 2.49
-5.45 -17.56 2.49
-5.10 -17.67 2.49
-4.74 -17.77 2.49
-4.39 -17.87 2.49
-4.03 -17.95 2.49
-3.67 -18.03 2.49
-3.30 -18.11 2.49
-2.94 -18.17 2.49
-2.58 -18.23 2.49
-2.21 -18.28 2.49
-1.84 -18.32 2.49
-1.48 -18.36 2.49
-1.11 -18.38 2.49
-0.74 -18.40 2.49
-0.37 -18.41 2.49
-0.00 -15.74 2.49
0.32 -15.74 2.49
0.63 -15.73 2.49
0.95 -15.71 2.49
1.26 -15.69 2.49
1.58 -15.66 2.49
1.89 -15.62 2.49
2.11 -14.94 2.39
2.41 -14.89 2.39
2.71 -14.84 2.39
3.00 -14.78 2.39
3.30 -14.71 2.39
3.59 -14.64 2.39
3.88 -14.56 2.39
4.17 -14.48 2.39
4.46 -14.39 2.39
4.75 -14.29 2.39
5.03 -14.19 2.39
5.32 -14.08 2.39
5.60 -13.97 2.39
5.87 -13.85 2.39
6.15 -13.74 2.39
6.43 -13.61 2.39
6.70 -13.47 2.39
6.96 -13.33 2.39
7.23 -13.18 2.39
7.49 -13.03 2.39
7.74 -12.87 2.39
8.00 -12.71 2.39
8.24 -12.54 2.39
8.49 -12.37 2.39
8.73 -12.19 2.39
8.97 -12.01 2.39
9.21 -11.82 2.39
9.44 -11.62 2.39
9.66 -11.43 2.39
9.88 -11.22 2.39
10.10 -11.02 2.39
10.32 -10.81 2.39
10.52 -10.59 2.39
10.73 -10.37 2.39
10.93 -10.15 2.39
11.12 -9.92 2.39
11.31 -9.69 2.39
11.50 -9.46 2.39
11.68 -9.22 2.39
11.85 -8.98 2.39
12.02 -8.73 2.39
12.19 -8.48 2.39
12.35 -8.23 2.39
11.96 -7.63 2.29
11.96 -7.30 2.26
11.96 -6.97 2.24
11.96 -6.66 2.21
11.97 -6.35 2.19
11.97 -6.04 2.17
11.97 -5.75 2.15
11.98 -5.46 2.13
11.98 -5.17 2.12
11.98 -4.89 2.10
11.98 -4.61 2.09
10.52 -3.81 1.82
11.99 -4.07 2.06
11.99 -3.80 2.05
11.94 -3.52 2.03
11.89 -3.25 2.01
11.89 -3.00 2.00
11.89 -2.75 1.99
11.90 -2.50 1.99
11.92 -2.25 1.99
10.53 -1.77 1.75
12.01 -1.77 1.99
12.01 -1.53 1.99
12.01 -1.28 1.98
12.01 -1.04 1.98
12.02 -0.80 1.98
12.02 -0.56 1.98
12.11 -0.32 1.99
12.11 -0.07 2.00
12.11 0.17 2.00
12.11 0.41 2.00
12.12 0.66 2.00
12.12 0.90 2.01
12.03 1.14 2.00
12.03 1.38 2.01
12.04 1.63 2.01
12.04 1.88 2.02
11.26 1.99 1.90
11.16 2.20 1.89
10.92 2.38 1.86
10.54 2.52 1.80
10.49 2.73 1.80
10.39 2.93 1.80
10.43 3.17 1.82
10.43 3.40 1.83
10.43 3.63 1.84
10.31 3.83 1.84
10.50 4.14 1.89
11.17 4.67 2.03
11.79 5.20 2.16
11.80 5.49 2.18
11.45 5.61 2.14
10.91 5.62 2.06
10.40 5.63 1.98
9.92 5.63 1.92
9.48 5.63 1.85
9.24 5.75 1.83
10.09 6.56 2.03
10.02 6.80 2.04
10.03 7.10 2.07
9.67 7.15 2.03
9.28 7.15 1.98
9.26 7.44 2.01
9.85 8.24 2.17
9.85 8.59 2.21
9.78 8.87 2.23
9.39 8.87 2.19
10.09 9.92 2.39
9.88 10.12 2.39
9.67 10.31 2.39
9.46 10.50 2.39
9.24 10.68 2.39
9.02 10.86 2.39
8.80 11.03 2.39
8.57 11.20 2.39
8.34 11.37 2.39
8.10 11.53 2.39
7.87 11.68 2.39
7.63 11.83 2.39
7.39 11.98 2.39
7.14 12.12 2.39
6.89 12.26 2.39
6.64 12.39 2.39
6.39 12.52 2.39
6.13 12.62 2.39
5.87 12.74 2.39
5.61 12.85 2.39
5.35 12.96 2.39
5.09 13.06 2.39
4.83 13.16 2.39
4.56 13.25 2.39
4.29 13.33 2.39
4.02 13.41 2.39
3.75 13.49 2.39
3.48 13.56 2.39
3.21 13.62 2.39
2.93 13.68 2.39
2.65 13.74 2.39
2.38 13.79 2.39
2.19 14.43 2.49
1.90 14.47 2.49
1.61 14.50 2.49
1.32 14.53 2.49
1.02 14.55 2.49
0.73 14.57 2.49
0.44 14.58 2.49
0.15 14.59 2.49
-0.15 14.59 2.49
-0.44 14.58 2.49
-0.73 14.57 2.49
-1.03 14.55 2.49
-1.32 14.53 2.49
-1.61 14.50 2.49
-1.90 14.47 2.49
-2.19 14.43 2.49
-2.48 14.38 2.49
-2.77 14.33 2.49
-3.06 14.28 2.49
-3.34 14.21 2.49
-3.63 14.15 2.49
-3.91 14.07 2.49
-4.20 14.00 2.49
-4.48 13.91 2.49
-4.76 13.82 2.49
-5.04 13.73 2.49
-5.31 13.63 2.49
-5.59 13.52 2.49
-5.72 13.08 2.43
-5.88 12.74 2.39
-6.13 12.63 2.39
-6.39 12.51 2.39
-6.64 12.38 2.39
-6.89 12.25 2.39
-7.14 12.11 2.39
-7.38 11.97 2.39
-7.62 11.82 2.39
-7.86 11.67 2.39
-8.10 11.52 2.39
-8.33 11.36 2.39
-8.56 11.19 2.39
-8.79 11.03 2.39
-9.01 10.85 2.39
-9.24 10.67 2.39
-9.45 10.49 2.39
-9.67 10.30 2.39
-10.15 10.39 2.46
-10.30 10.13 2.44
-10.44 9.86 2.43
-10.58 9.60 2.41
-10.72 9.34 2.40
-10.88 9.10 2.39
-10.91 8.77 2.36
-10.95 8.44 2.33
-10.98 8.11 2.30
-11.01 7.80 2.27
-11.06 7.51 2.25
-11.10 7.21 2.22
-11.13 6.92 2.20
-11.17 6.63 2.18
-11.20 6.35 2.16
-11.23 6.07 2.14
-11.27 5.81 2.12
-11.35 5.56 2.12
-11.40 5.31 2.10
-11.45 5.05 2.09
-11.49 4.80 2.08
-11.53 4.54 2.07
-11.57 4.29 2.06
-6.27 2.18 1.11
-11.82 3.85 2.07
-11.97 3.64 2.08
-12.10 3.42 2.09
-12.14 3.16 2.09
-12.18 2.91 2.08
-12.23 2.67 2.08
-12.29 2.42 2.08
-12.35 2.18 2.08
-12.42 1.93 2.08
-12.48 1.69 2.08
-12.53 1.44 2.09
-12.57 1.19 2.09
-12.59 0.94 2.08
-12.60 0.68 2.08
-12.60 0.43 2.08
-12.61 0.18 2.08
-12.61 -0.08 2.08
-12.61 -0.33 2.08
-12.61 -0.58 2.08
-12.64 -0.84 2.08
-12.72 -1.10 2.10
-12.81 -1.37 2.11
-12.90 -1.64 2.13
-12.96 -1.91 2.14
-12.99 -2.18 2.15
-13.02 -2.46 2.17
-13.03 -2.73 2.17
-13.03 -3.01 2.18
-13.03 -3.28 2.19
-13.03 -3.56 2.20
-13.03 -3.84 2.21
-13.02 -4.13 2.22
-13.02 -4.42 2.24
-13.00 -4.70 2.25
-12.87 -4.95 2.24
-12.72 -5.19 2.23
-12.57 -5.43 2.22
-12.42 -5.66 2.21
-12.27 -5.89 2.20
-12.12 -6.12 2.20
-11.97 -6.35 2.19
-11.82 -6.57 2.19
-11.71 -6.82 2.19
-11.66 -7.11 2.20
-11.61 -7.41 2.22
-11.56 -7.70 2.24
-11.50 -8.01 2.26
-11.44 -8.31 2.28
-11.36 -8.60 2.29
-11.29 -8.91 2.31
-11.22 -9.23 2.34
-11.16 -9.56 2.36
-11.08 -9.89 2.38
-11.01 -10.23 2.41
-10.86 -10.50 2.42
-10.66 -10.73 2.42
-10.52 -11.02 2.44
-10.39 -11.33 2.46
-9.88 -11.22 2.39
-9.66 -11.42 2.39
-9.43 -11.62 2.39
-9.20 -11.81 2.39
-8.97 -12.00 2.39
-8.73 -12.18 2.39
-8.49 -12.36 2.39
-8.24 -12.53 2.39
-7.99 -12.70 2.39
-7.74 -12.86 2.39
-7.48 -13.02 2.39
-7.22 -13.17 2.39
-6.96 -13.32 2.39
-6.69 -13.46 2.39
-6.42 -13.60 2.39
-6.16 -13.75 2.40
-5.95 -14.04 2.42
-5.84 -14.58 2.49
-5.55 -14.69 2.49
-5.25 -14.81 2.49
-4.96 -14.91 2.49
-4.66 -15.01 2.49
-4.36 -15.11 2.49
-4.05 -15.19 2.49
-3.75 -15.27 2.49
-3.44 -15.35 2.49
-3.13 -15.42 2.49
-2.82 -15.48 2.49
-2.51 -15.54 2.49
-2.20 -15.58 2.49
-1.89 -15.63 2.49
-1.58 -15.66 2.49
-1.26 -15.69 2.49
-0.95 -15.72 2.49
-0.63 -15.73 2.49
-0.32 -15.74 2.49
-0.00 -13.74 2.49
0.28 -13.73 2.49
0.55 -13.72 2.49
0.83 -13.71 2.49
1.10 -13.69 2.49
1.37 -13.66 2.49
1.65 -13.63 2.49
1.92 -13.59 2.49
2.11 -13.06 2.40
2.36 -12.95 2.39
2.62 -12.89 2.39
2.88 -12.84 2.39
3.13 -12.77 2.39
3.39 -12.71 2.39
3.64 -12.63 2.39
3.89 -12.56 2.39
4.14 -12.47 2.39
4.39 -12.38 2.39
4.64 -12.29 2.39
4.88 -12.19 2.39
5.13 -12.09 2.39
5.36 -11.98 2.39
5.60 -11.87 2.39
5.84 -11.75 2.39
6.07 -11.62 2.39
6.31 -11.51 2.39
6.53 -11.38 2.39
6.76 -11.24 2.39
6.98 -11.10 2.39
7.20 -10.95 2.39
7.41 -10.80 2.39
7.63 -10.64 2.39
7.83 -10.48 2.39
8.04 -10.32 2.39
8.24 -10.15 2.39
8.44 -9.98 2.39
8.63 -9.81 2.39
8.82 -9.63 2.39
9.01 -9.44 2.39
9.19 -9.26 2.39
9.37 -9.06 2.39
9.55 -8.87 2.39
9.72 -8.67 2.39
9.89 -8.47 2.39
10.05 -8.27 2.39
10.21 -8.06 2.39
10.36 -7.85 2.39
10.51 -7.64 2.39
10.66 -7.42 2.39
10.80 -7.20 2.39
10.93 -6.98 2.39
11.06 -6.75 2.39
11.19 -6.53 2.39
11.31 -6.30 2.39
11.43 -6.06 2.39
11.54 -5.83 2.39
11.65 -5.59 2.39
11.75 -5.36 2.39
11.85 -5.12 2.39
11.94 -4.87 2.39
11.98 -4.61 2.39
10.46 -3.79 2.07
10.97 -3.72 2.16
11.04 -3.50 2.16
11.10 -3.28 2.16
11.15 -3.05 2.16
11.21 -2.83 2.16
11.25 -2.60 2.16
11.29 -2.37 2.16
11.33 -2.14 2.16
10.51 -1.77 1.99
11.39 -1.68 2.16
12.01 -1.53 2.27
12.01 -1.28 2.26
12.01 -1.04 2.26
12.02 -0.80 2.26
12.02 -0.56 2.26
12.02 -0.32 2.26
12.02 -0.07 2.26
12.02 0.17 2.26
12.03 0.41 2.27
12.03 0.65 2.27
12.03 0.89 2.27
12.03 1.14 2.28
12.03 1.38 2.29
12.04 1.63 2.29
12.04 1.87 2.30
11.26 1.99 2.16
11.16 2.20 2.15
10.92 2.38 2.12
10.54 2.52 2.05
10.49 2.73 2.06
10.39 2.93 2.05
10.43 3.17 2.07
10.43 3.40 2.08
10.43 3.63 2.10
10.31 3.82 2.09
10.50 4.14 2.15
10.80 4.51 2.23
11.49 5.07 2.39
11.38 5.30 2.39
11.27 5.52 2.39
10.91 5.62 2.34
10.40 5.63 2.26
9.93 5.63 2.18
9.49 5.63 2.11
9.25 5.75 2.09
9.83 6.39 2.25
9.84 6.67 2.28
9.81 6.95 2.30
9.67 7.15 2.31
9.28 7.15 2.25
9.28 7.45 2.28
9.56 8.00 2.39
9.39 8.18 2.39
9.22 8.37 2.39
9.05 8.55 2.39
8.87 8.72 2.39
8.69 8.90 2.39
8.50 9.06 2.39
8.32 9.23 2.39
8.13 9.39 2.39
7.93 9.55 2.39
7.74 9.70 2.39
7.54 9.85 2.39
7.33 10.00 2.39
7.13 10.14 2.39
6.92 10.27 2.39
6.71 10.41 2.39
6.50 10.54 2.39
6.28 10.65 2.39
6.06 10.77 2.39
5.84 10.89 2.39
5.62 11.00 2.39
5.39 11.11 2.39
5.17 11.21 2.39
4.94 11.31 2.39
4.71 11.40 2.39
4.48 11.49 2.39
4.25 11.58 2.39
4.01 11.66 2.39
3.78 11.73 2.39
3.54 11.80 2.39
3.30 11.87 2.39
3.06 11.93 2.39
2.82 11.99 2.39
2.58 12.04 2.39
2.34 12.09 2.39
2.18 12.66 2.49
1.93 12.70 2.49
1.67 12.73 2.49
1.42 12.76 2.49
1.16 12.79 2.49
0.90 12.81 2.49
0.64 12.82 2.49
0.39 12.83 2.49
0.13 12.84 2.49
-0.13 12.84 2.49
-0.39 12.83 2.49
-0.65 12.82 2.49
-0.90 12.81 2.49
-1.16 12.79 2.49
-1.42 12.76 2.49
-1.67 12.73 2.49
-1.93 12.70 2.49
-2.18 12.66 2.49
-2.44 12.61 2.49
-2.69 12.57 2.49
-2.94 12.51 2.49
-3.20 12.45 2.49
-3.45 12.39 2.49
-3.69 12.32 2.49
-3.94 12.24 2.49
-4.19 12.16 2.49
-4.43 12.08 2.49
-4.68 11.99 2.49
-4.92 11.90 2.49
-5.16 11.80 2.49
-5.39 11.70 2.49
-5.63 11.59 2.49
-5.73 11.22 2.44
-5.84 10.89 2.39
-6.06 10.77 2.39
-6.28 10.65 2.39
-6.49 10.53 2.39
-6.71 10.40 2.39
-6.92 10.27 2.39
-7.12 10.13 2.39
-7.33 9.99 2.39
-7.53 9.84 2.39
-7.73 9.69 2.39
-7.93 9.54 2.39
-8.12 9.38 2.39
-8.31 9.22 2.39
-8.50 9.06 2.39
-8.68 8.89 2.39
-8.87 8.72 2.39
-9.04 8.54 2.39
-9.22 8.36 2.39
-9.39 8.18 2.39
-9.56 7.99 2.39
-9.72 7.80 2.39
-10.26 7.90 2.48
-10.33 7.64 2.46
-10.39 7.36 2.44
-10.43 7.08 2.41
-10.53 6.84 2.40
-10.62 6.60 2.39
-10.70 6.36 2.38
-10.78 6.11 2.37
-10.85 5.87 2.35
-10.88 5.60 2.33
-10.92 5.35 2.32
-10.97 5.11 2.31
-11.02 4.86 2.29
-11.06 4.62 2.28
-11.10 4.37 2.27
-11.14 4.13 2.26
-6.27 2.18 1.26
-11.27 3.67 2.25
-11.41 3.47 2.26
-11.46 3.23 2.26
-11.50 3.00 2.25
-11.54 2.76 2.25
-11.57 2.52 2.24
-11.60 2.29 2.24
-11.64 2.05 2.23
-11.70 1.82 2.24
-11.76 1.59 2.24
-11.80 1.35 2.24
-11.83 1.12 2.24
-11.86 0.88 2.24
-11.89 0.64 2.24
-11.91 0.40 2.24
-11.92 0.17 2.24
-11.92 -0.07 2.24
-11.92 -0.31 2.24
-11.92 -0.55 2.24
-11.94 -0.79 2.24
-11.96 -1.04 2.25
-11.99 -1.28 2.26
-12.01 -1.53 2.26
-12.08 -1.78 2.28
-12.15 -2.05 2.30
-12.22 -2.31 2.32
-12.29 -2.58 2.34
-12.28 -2.84 2.35
-12.25 -3.09 2.35
-12.21 -3.34 2.36
-12.18 -3.60 2.36
-12.17 -3.86 2.37
-12.14 -4.12 2.38
-12.12 -4.39 2.39
-12.09 -4.65 2.40
-12.05 -4.92 2.41
-11.99 -5.18 2.42
-11.94 -5.44 2.43
-11.88 -5.71 2.44
-11.76 -5.94 2.44
-11.62 -6.16 2.43
-11.47 -6.38 2.43
-11.32 -6.60 2.42
-11.22 -6.85 2.43
-11.17 -7.13 2.44
-11.12 -7.41 2.46
-11.06 -7.70 2.48
-11.00 -7.99 2.50
-10.90 -8.26 2.52
-10.71 -8.46 2.51
-10.53 -8.66 2.51
-9.88 -8.47 2.39
-9.72 -8.67 2.39
-9.54 -8.87 2.39
-9.37 -9.06 2.39
-9.19 -9.25 2.39
-9.01 -9.44 2.39
-8.82 -9.62 2.39
-8.63 -9.80 2.39
-8.43 -9.98 2.39
-8.24 -10.15 2.39
-8.03 -10.31 2.39
-7.83 -10.48 2.39
-7.62 -10.64 2.39
-7.41 -10.79 2.39
-7.19 -10.94 2.39
-6.98 -11.09 2.39
-6.75 -11.23 2.39
-6.53 -11.37 2.39
-6.30 -11.50 2.39
-6.07 -11.63 2.39
-5.93 -11.94 2.43
-5.85 -12.38 2.49
-5.60 -12.50 2.49
-5.35 -12.61 2.49
-5.10 -12.72 2.49
-4.84 -12.82 2.49
-4.58 -12.92 2.49
-4.32 -13.01 2.49
-4.06 -13.10 2.49
-3.80 -13.18 2.49
-3.54 -13.26 2.49
-3.27 -13.33 2.49
-3.00 -13.39 2.49
-2.73 -13.45 2.49
-2.46 -13.51 2.49
-2.19 -13.55 2.49
-1.92 -13.60 2.49
-1.65 -13.63 2.49
-1.37 -13.66 2.49
-1.10 -13.69 2.49
-0.83 -13.71 2.49
-0.55 -13.72 2.49
-0.28 -13.73 2.49
-0.00 -12.17 2.49
0.24 -12.17 2.49
0.49 -12.16 2.49
0.73 -12.15 2.49
0.97 -12.13 2.49
1.22 -12.11 2.49
1.46 -12.08 2.49
1.70 -12.05 2.49
1.94 -12.01 2.49
2.12 -11.63 2.42
2.32 -11.43 2.39
2.55 -11.38 2.39
2.78 -11.32 2.39
3.00 -11.26 2.39
3.23 -11.20 2.39
3.45 -11.13 2.39
3.67 -11.05 2.39
3.89 -10.97 2.39
4.11 -10.89 2.39
4.33 -10.81 2.39
4.54 -10.71 2.39
4.75 -10.62 2.39
4.97 -10.52 2.39
5.17 -10.41 2.39
5.38 -10.30 2.39
5.58 -10.19 2.39
5.78 -10.07 2.39
5.98 -9.95 2.39
6.19 -9.84 2.39
6.38 -9.71 2.39
6.57 -9.58 2.39
6.76 -9.44 2.39
6.95 -9.30 2.39
7.13 -9.15 2.39
7.31 -9.00 2.39
7.48 -8.85 2.39
7.66 -8.70 2.39
7.83 -8.54 2.39
7.99 -8.38 2.39
8.15 -8.21 2.39
8.31 -8.04 2.39
8.47 -7.87 2.39
8.62 -7.69 2.39
8.77 -7.52 2.39
8.91 -7.34 2.39
9.06 -7.15 2.39
9.19 -6.97 2.39
9.33 -6.78 2.39
9.46 -6.58 2.39
9.58 -6.39 2.39
9.70 -6.19 2.39
9.82 -5.99 2.39
9.93 -5.79 2.39
10.04 -5.59 2.39
10.15 -5.38 2.39
10.25 -5.18 2.39
10.34 -4.97 2.39
10.43 -4.76 2.39
10.52 -4.54 2.39
10.60 -4.33 2.39
10.30 -3.97 2.31
10.30 -3.73 2.29
10.31 -3.50 2.28
10.31 -3.27 2.27
10.31 -3.05 2.25
10.31 -2.82 2.24
10.31 -2.60 2.23
10.32 -2.38 2.22
10.32 -2.17 2.22
10.32 -1.95 2.21
10.32 -1.74 2.20
10.42 -1.54 2.22
11.27 -1.44 2.39
11.29 -1.21 2.39
11.31 -0.98 2.39
11.32 -0.75 2.39
11.33 -0.53 2.39
11.33 -0.30 2.39
11.32 -0.07 2.39
11.32 0.16 2.39
11.30 0.38 2.39
11.29 0.61 2.39
11.27 0.84 2.39
11.24 1.06 2.39
11.21 1.29 2.39
11.18 1.51 2.39
11.14 1.73 2.39
11.09 1.95 2.39
11.02 2.17 2.39
10.73 2.34 2.34
10.55 2.52 2.31
10.49 2.73 2.31
10.39 2.93 2.30
10.29 3.13 2.30
10.26 3.34 2.30
10.27 3.57 2.32
10.37 3.84 2.36
10.42 4.10 2.39
10.33 4.31 2.39
10.24 4.51 2.39
10.14 4.72 2.39
10.03 4.92 2.39
9.93 5.11 2.39
9.82 5.31 2.39
9.71 5.50 2.39
9.49 5.64 2.37
9.26 5.76 2.34
9.34 6.07 2.39
9.21 6.25 2.39
9.08 6.43 2.39
8.95 6.61 2.39
8.81 6.79 2.39
8.67 6.96 2.39
8.52 7.13 2.39
8.37 7.29 2.39
8.22 7.46 2.39
8.06 7.62 2.39
7.91 7.77 2.39
7.75 7.93 2.39
7.58 8.08 2.39
7.42 8.23 2.39
7.25 8.37 2.39
7.07 8.51 2.39
6.90 8.65 2.39
6.72 8.78 2.39
6.54 8.91 2.39
6.36 9.04 2.39
6.17 9.15 2.39
5.98 9.27 2.39
5.79 9.39 2.39
5.60 9.50 2.39
5.40 9.61 2.39
5.21 9.71 2.39
5.01 9.81 2.39
4.81 9.91 2.39
4.61 10.00 2.39
4.41 10.09 2.39
4.20 10.17 2.39
4.00 10.25 2.39
3.79 10.33 2.39
3.58 10.40 2.39
3.37 10.47 2.39
3.16 10.53 2.39
2.95 10.59 2.39
2.73 10.65 2.39
2.52 10.70 2.39
2.32 10.83 2.41
2.18 11.25 2.49
1.95 11.29 2.49
1.72 11.33 2.49
1.49 11.36 2.49
1.26 11.39 2.49
1.03 11.41 2.49
0.81 11.43 2.49
0.58 11.44 2.49
0.35 11.45 2.49
0.11 11.45 2.49
-0.12 11.46 2.49
-0.35 11.45 2.49
-0.58 11.44 2.49
-0.81 11.43 2.49
-1.04 11.41 2.49
-1.26 11.39 2.49
-1.49 11.36 2.49
-1.72 11.33 2.49
-1.95 11.29 2.49
-2.18 11.25 2.49
-2.40 11.21 2.49
-2.63 11.16 2.49
-2.85 11.11 2.49
-3.07 11.05 2.49
-3.30 10.99 2.49
-3.52 10.92 2.49
-3.74 10.85 2.49
-3.95 10.78 2.49
-4.17 10.70 2.49
-4.39 10.61 2.49
-4.60 10.52 2.49
-4.81 10.43 2.49
-5.02 10.34 2.49
-5.23 10.24 2.49
-5.44 10.13 2.49
-5.64 10.02 2.49
-5.74 9.74 2.45
-5.79 9.39 2.39
-5.98 9.27 2.39
-6.17 9.16 2.39
-6.35 9.03 2.39
-6.54 8.91 2.39
-6.72 8.78 2.39
-6.89 8.64 2.39
-7.07 8.51 2.39
-7.24 8.37 2.39
-7.41 8.22 2.39
-7.58 8.07 2.39
-7.74 7.92 2.39
-7.90 7.77 2.39
-8.06 7.61 2.39
-8.22 7.45 2.39
-8.37 7.29 2.39
-8.52 7.12 2.39
-8.66 6.95 2.39
-8.80 6.78 2.39
-8.94 6.61 2.39
-9.08 6.43 2.39
-9.21 6.25 2.39
-9.34 6.06 2.39
-9.46 5.88 2.39
-9.58 5.69 2.39
-9.70 5.50 2.39
-9.98 5.40 2.43
-10.06 5.18 2.42
-10.14 4.97 2.42
-10.22 4.75 2.41
-10.31 4.55 2.41
-10.41 4.34 2.41
-10.50 4.13 2.41
-10.59 3.93 2.41
-6.23 2.17 1.41
-6.28 2.05 1.41
-10.83 3.29 2.41
-10.88 3.07 2.41
-10.92 2.84 2.40
-10.95 2.62 2.40
-10.98 2.39 2.39
-11.01 2.17 2.39
-11.04 1.95 2.38
-11.07 1.72 2.38
-11.11 1.50 2.38
-11.15 1.28 2.38
-11.17 1.05 2.38
-11.20 0.83 2.38
-11.22 0.61 2.38
-11.25 0.38 2.38
-11.27 0.16 2.38
-11.28 -0.07 2.38
-11.29 -0.30 2.39
-11.29 -0.52 2.39
-11.30 -0.75 2.39
-11.33 -0.98 2.40
-11.35 -1.21 2.40
-11.36 -1.45 2.41
-11.38 -1.68 2.42
-11.39 -1.92 2.43
-11.40 -2.16 2.44
-11.46 -2.41 2.46
-11.51 -2.66 2.48
-11.48 -2.90 2.48
-11.44 -3.13 2.49
-11.40 -3.37 2.49
-11.35 -3.60 2.49
-11.30 -3.84 2.50
-11.25 -4.08 2.50
-11.20 -4.31 2.51
-11.16 -4.55 2.52
-11.11 -4.80 2.53
-11.06 -5.04 2.54
-11.00 -5.28 2.54
-10.94 -5.53 2.55
-10.85 -5.76 2.56
-10.75 -5.98 2.56
-10.65 -6.21 2.56
-9.81 -5.99 2.39
-9.70 -6.19 2.39
-9.58 -6.39 2.39
-9.45 -6.58 2.39
-9.32 -6.77 2.39
-9.19 -6.96 2.39
-9.05 -7.15 2.39
-8.91 -7.33 2.39
-8.77 -7.51 2.39
-8.62 -7.69 2.39
-8.47 -7.87 2.39
-8.31 -8.04 2.39
-8.15 -8.21 2.39
-7.99 -8.37 2.39
-7.82 -8.53 2.39
-7.65 -8.69 2.39
-7.48 -8.85 2.39
-7.30 -9.00 2.39
-7.12 -9.15 2.39
-6.94 -9.29 2.39
-6.76 -9.43 2.39
-6.57 -9.57 2.39
-6.38 -9.70 2.39
-6.18 -9.83 2.39
-5.99 -9.96 2.39
-5.92 -10.30 2.45
-5.83 -10.63 2.49
-5.61 -10.75 2.49
-5.40 -10.87 2.49
-5.18 -10.97 2.49
-4.96 -11.08 2.49
-4.74 -11.18 2.49
-4.52 -11.27 2.49
-4.29 -11.37 2.49
-4.06 -11.45 2.49
-3.83 -11.53 2.49
-3.60 -11.61 2.49
-3.37 -11.68 2.49
-3.13 -11.75 2.49
-2.90 -11.81 2.49
-2.66 -11.87 2.49
-2.42 -11.92 2.49
-2.18 -11.97 2.49
-1.94 -12.01 2.49
-1.70 -12.05 2.49
-1.46 -12.08 2.49
-1.22 -12.11 2.49
-0.98 -12.13 2.49
-0.73 -12.15 2.49
-0.49 -12.16 2.49
-0.24 -12.17 2.49
-0.00 -10.91 2.49
0.22 -10.91 2.49
0.44 -10.91 2.49
0.66 -10.89 2.49
0.87 -10.88 2.49
1.09 -10.86 2.49
1.31 -10.83 2.49
1.53 -10.80 2.49
1.74 -10.77 2.49
1.96 -10.73 2.49
2.13 -10.47 2.44
2.29 -10.20 2.39
2.49 -10.15 2.39
2.69 -10.10 2.39
2.89 -10.04 2.39
3.09 -9.98 2.39
3.29 -9.91 2.39
3.49 -9.84 2.39
3.69 -9.77 2.39
3.88 -9.69 2.39
4.07 -9.61 2.39
4.26 -9.53 2.39
4.45 -9.44 2.39
4.64 -9.34 2.39
4.83 -9.24 2.39
5.01 -9.14 2.39
5.19 -9.04 2.39
5.37 -8.93 2.39
5.54 -8.82 2.39
5.72 -8.70 2.39
5.89 -8.58 2.39
6.06 -8.46 2.39
6.23 -8.34 2.39
6.40 -8.21 2.39
6.56 -8.08 2.39
6.72 -7.95 2.39
6.87 -7.81 2.39
7.02 -7.66 2.39
7.17 -7.52 2.39
7.32 -7.37 2.39
7.46 -7.22 2.39
7.60 -7.07 2.39
7.74 -6.91 2.39
7.87 -6.75 2.39
8.00 -6.59 2.39
8.13 -6.42 2.39
8.25 -6.26 2.39
8.37 -6.09 2.39
8.49 -5.91 2.39
8.60 -5.74 2.39
8.71 -5.56 2.39
8.82 -5.39 2.39
8.92 -5.20 2.39
9.02 -5.02 2.39
9.11 -4.84 2.39
9.20 -4.65 2.39
9.29 -4.46 2.39
9.37 -4.27 2.39
9.45 -4.08 2.39
9.53 -3.89 2.39
9.60 -3.70 2.39
9.67 -3.50 2.39
9.73 -3.31 2.39
9.79 -3.11 2.39
9.84 -2.91 2.39
9.89 -2.71 2.39
9.94 -2.51 2.39
9.98 -2.31 2.39
10.02 -2.11 2.39
10.06 -1.90 2.39
10.09 -1.70 2.39
10.11 -1.50 2.39
10.14 -1.29 2.39
10.16 -1.09 2.39
10.17 -0.88 2.39
10.18 -0.68 2.39
10.19 -0.48 2.39
10.19 -0.27 2.39
10.19 -0.07 2.39
10.18 0.14 2.39
10.17 0.34 2.39
10.15 0.55 2.39
10.14 0.75 2.39
10.11 0.95 2.39
10.09 1.15 2.39
10.06 1.36 2.39
10.02 1.56 2.39
9.98 1.76 2.39
9.94 1.96 2.39
9.89 2.15 2.39
9.84 2.35 2.39
9.79 2.55 2.39
9.73 2.74 2.39
9.67 2.93 2.39
9.60 3.13 2.39
9.53 3.32 2.39
9.46 3.51 2.39
9.38 3.69 2.39
9.30 3.88 2.39
9.22 4.06 2.39
9.13 4.25 2.39
9.04 4.43 2.39
8.94 4.60 2.39
8.84 4.78 2.39
8.74 4.95 2.39
8.64 5.13 2.39
8.53 5.30 2.39
8.42 5.46 2.39
8.30 5.63 2.39
8.18 5.79 2.39
8.06 5.95 2.39
7.94 6.11 2.39
7.81 6.27 2.39
7.68 6.42 2.39
7.54 6.57 2.39
7.41 6.72 2.39
7.27 6.86 2.39
7.13 7.00 2.39
6.98 7.14 2.39
6.83 7.28 2.39
6.68 7.41 2.39
6.53 7.54 2.39
6.38 7.67 2.39
6.21 7.79 2.39
6.05 7.91 2.39
5.89 8.02 2.39
5.73 8.14 2.39
5.56 8.25 2.39
5.39 8.36 2.39
5.22 8.46 2.39
5.05 8.56 2.39
4.87 8.66 2.39
4.70 8.75 2.39
4.52 8.84 2.39
4.34 8.93 2.39
4.16 9.01 2.39
3.98 9.09 2.39
3.79 9.17 2.39
3.60 9.24 2.39
3.42 9.31 2.39
3.23 9.38 2.39
3.04 9.44 2.39
2.85 9.50 2.39
2.66 9.55 2.39
2.46 9.60 2.39
2.31 9.80 2.43
2.17 10.11 2.49
1.96 10.15 2.49
1.76 10.18 2.49
1.55 10.22 2.49
1.35 10.24 2.49
1.14 10.27 2.49
0.93 10.29 2.49
0.73 10.31 2.49
0.52 10.32 2.49
0.31 10.33 2.49
0.10 10.33 2.49
-0.10 10.33 2.49
-0.31 10.33 2.49
-0.52 10.32 2.49
-0.73 10.31 2.49
-0.93 10.29 2.49
-1.14 10.27 2.49
-1.35 10.25 2.49
-1.55 10.22 2.49
-1.76 10.19 2.49
-1.96 10.15 2.49
-2.17 10.11 2.49
-2.37 10.06 2.49
-2.57 10.02 2.49
-2.77 9.96 2.49
-2.97 9.91 2.49
-3.17 9.85 2.49
-3.37 9.78 2.49
-3.57 9.72 2.49
-3.76 9.64 2.49
-3.96 9.57 2.49
-4.15 9.49 2.49
-4.34 9.41 2.49
-4.53 9.32 2.49
-4.72 9.23 2.49
-4.90 9.13 2.49
-5.09 9.04 2.49
-5.27 8.93 2.49
-5.45 8.83 2.49
-5.63 8.72 2.49
-5.75 8.54 2.47
-5.76 8.19 2.41
-5.89 8.03 2.39
-6.05 7.91 2.39
-6.21 7.79 2.39
-6.37 7.67 2.39
-6.53 7.54 2.39
-6.68 7.41 2.39
-6.83 7.28 2.39
-6.98 7.14 2.39
-7.12 7.00 2.39
-7.26 6.86 2.39
-7.40 6.71 2.39
-7.54 6.57 2.39
-7.67 6.42 2.39
-7.80 6.26 2.39
-7.93 6.11 2.39
-8.06 5.95 2.39
-8.18 5.79 2.39
-8.30 5.63 2.39
-8.41 5.46 2.39
-8.52 5.29 2.39
-8.63 5.12 2.39
-8.74 4.95 2.39
-8.84 4.78 2.39
-8.94 4.60 2.39
-9.03 4.42 2.39
-9.12 4.24 2.39
-9.21 4.06 2.39
-9.30 3.88 2.39
-9.38 3.69 2.39
-9.45 3.50 2.39
-6.23 2.17 1.56
-6.28 2.05 1.57
-9.66 2.93 2.39
-9.73 2.74 2.39
-9.78 2.55 2.39
-10.13 2.42 2.46
-10.18 2.22 2.46
-10.23 2.01 2.46
-10.27 1.81 2.46
-10.31 1.60 2.46
-10.35 1.40 2.46
-10.40 1.19 2.47
-10.45 0.98 2.47
-10.48 0.78 2.47
-10.51 0.57 2.48
-10.54 0.36 2.48
-10.57 0.14 2.48
-10.59 -0.07 2.49
-10.61 -0.28 2.49
-10.62 -0.50 2.49
-10.63 -0.71 2.50
-10.65 -0.93 2.50
-10.67 -1.14 2.51
-10.70 -1.36 2.52
-10.72 -1.59 2.53
-10.73 -1.81 2.55
-10.74 -2.03 2.56
-10.75 -2.26 2.57
-10.76 -2.49 2.58
-10.75 -2.71 2.59
-10.69 -2.93 2.58
-9.84 -2.91 2.39
-9.78 -3.11 2.39
-9.72 -3.30 2.39
-9.66 -3.50 2.39
-9.59 -3.70 2.39
-9.52 -3.89 2.39
-9.45 -4.08 2.39
-9.37 -4.27 2.39
-9.29 -4.46 2.39
-9.20 -4.65 2.39
-9.11 -4.84 2.39
-9.01 -5.02 2.39
-8.92 -5.20 2.39
-8.81 -5.38 2.39
-8.71 -5.56 2.39
-8.60 -5.74 2.39
-8.49 -5.91 2.39
-8.37 -6.08 2.39
-8.25 -6.25 2.39
-8.13 -6.42 2.39
-8.00 -6.58 2.39
-7.87 -6.75 2.39
-7.73 -6.90 2.39
-7.60 -7.06 2.39
-7.46 -7.21 2.39
-7.31 -7.37 2.39
-7.17 -7.51 2.39
-7.02 -7.66 2.39
-6.87 -7.80 2.39
-6.71 -7.94 2.39
-6.55 -8.08 2.39
-6.39 -8.21 2.39
-6.23 -8.34 2.39
-6.06 -8.46 2.39
-5.91 -8.62 2.40
-5.91 -8.99 2.47
-5.79 -9.20 2.49
-5.60 -9.32 2.49
-5.42 -9.43 2.49
-5.23 -9.54 2.49
-5.04 -9.65 2.49
-4.84 -9.75 2.49
-4.65 -9.85 2.49
-4.45 -9.94 2.49
-4.25 -10.03 2.49
-4.05 -10.11 2.49
-3.85 -10.19 2.49
-3.64 -10.27 2.49
-3.44 -10.34 2.49
-3.23 -10.41 2.49
-3.02 -10.48 2.49
-2.81 -10.54 2.49
-2.60 -10.59 2.49
-2.39 -10.64 2.49
-2.17 -10.69 2.49
-1.96 -10.73 2.49
-1.74 -10.77 2.49
-1.53 -10.80 2.49
-1.31 -10.83 2.49
-1.09 -10.86 2.49
-0.87 -10.88 2.49
-0.66 -10.89 2.49
-0.44 -10.91 2.49
-0.22 -10.91 2.49
-0.00 -9.88 2.49
0.20 -9.88 2.49
0.40 -9.88 2.49
0.59 -9.87 2.49
0.79 -9.85 2.49
0.99 -9.83 2.49
1.19 -9.81 2.49
1.38 -9.78 2.49
1.58 -9.75 2.49
1.77 -9.72 2.49
1.97 -9.68 2.49
2.14 -9.53 2.47
2.26 -9.20 2.39
2.44 -9.15 2.39
2.62 -9.10 2.39
2.80 -9.04 2.39
2.98 -8.98 2.39
3.16 -8.92 2.39
3.34 -8.85 2.39
3.51 -8.78 2.39
3.69 -8.71 2.39
3.86 -8.63 2.39
4.03 -8.55 2.39
4.20 -8.46 2.39
4.37 -8.37 2.39
4.54 -8.28 2.39
4.70 -8.19 2.39
4.86 -8.09 2.39
5.02 -7.99 2.39
5.18 -7.88 2.39
5.34 -7.78 2.39
5.49 -7.67 2.39
5.64 -7.55 2.39
5.79 -7.44 2.39
5.93 -7.32 2.39
6.08 -7.19 2.39
6.23 -7.07 2.39
6.36 -6.95 2.39
6.50 -6.81 2.39
6.63 -6.68 2.39
6.76 -6.54 2.39
6.89 -6.40 2.39
7.01 -6.26 2.39
7.14 -6.12 2.39
7.25 -5.97 2.39
7.37 -5.82 2.39
7.48 -5.67 2.39
7.59 -5.52 2.39
7.70 -5.36 2.39
7.80 -5.20 2.39
7.90 -5.04 2.39
7.99 -4.88 2.39
8.09 -4.72 2.39
8.18 -4.55 2.39
8.26 -4.39 2.39
8.34 -4.22 2.39
8.42 -4.05 2.39
8.50 -3.88 2.39
8.57 -3.70 2.39
8.64 -3.53 2.39
8.70 -3.35 2.39
8.77 -3.18 2.39
8.82 -3.00 2.39
8.88 -2.82 2.39
8.93 -2.64 2.39
8.98 -2.46 2.39
9.02 -2.28 2.39
9.06 -2.10 2.39
9.09 -1.91 2.39
9.13 -1.73 2.39
9.15 -1.54 2.39
9.18 -1.36 2.39
9.20 -1.17 2.39
9.22 -0.99 2.39
9.23 -0.80 2.39
9.24 -0.62 2.39
9.25 -0.43 2.39
9.25 -0.25 2.39
9.25 -0.06 2.39
9.24 0.12 2.39
9.23 0.31 2.39
9.22 0.49 2.39
9.20 0.68 2.39
9.18 0.86 2.39
9.16 1.05 2.39
9.13 1.23 2.39
9.10 1.41 2.39
9.06 1.59 2.39
9.03 1.78 2.39
8.98 1.95 2.39
8.94 2.13 2.39
8.89 2.31 2.39
8.84 2.49 2.39
8.78 2.66 2.39
8.72 2.84 2.39
8.66 3.01 2.39
8.59 3.18 2.39
8.52 3.35 2.39
8.45 3.52 2.39
8.37 3.69 2.39
8.29 3.86 2.39
8.21 4.02 2.39
8.13 4.18 2.39
8.04 4.34 2.39
7.94 4.50 2.39
7.85 4.66 2.39
7.75 4.81 2.39
7.65 4.97 2.39
7.54 5.12 2.39
7.44 5.26 2.39
7.33 5.41 2.39
7.21 5.55 2.39
7.10 5.70 2.39
6.98 5.84 2.39
6.86 5.97 2.39
6.73 6.11 2.39
6.61 6.24 2.39
6.48 6.37 2.39
6.35 6.49 2.39
6.21 6.61 2.39
6.07 6.73 2.39
5.93 6.85 2.39
5.79 6.97 2.39
5.65 7.08 2.39
5.50 7.19 2.39
5.36 7.30 2.39
5.21 7.40 2.39
5.06 7.50 2.39
4.90 7.60 2.39
4.75 7.69 2.39
4.59 7.79 2.39
4.43 7.88 2.39
4.27 7.96 2.39
4.11 8.04 2.39
3.95 8.12 2.39
3.78 8.20 2.39
3.62 8.27 2.39
3.45 8.34 2.39
3.28 8.41 2.39
3.11 8.47 2.39
2.94 8.53 2.39
2.77 8.59 2.39
2.59 8.64 2.39
2.42 8.69 2.39
2.30 8.95 2.45
2.15 9.15 2.49
1.97 9.19 2.49
1.78 9.23 2.49
1.60 9.26 2.49
1.41 9.29 2.49
1.22 9.32 2.49
1.04 9.34 2.49
0.85 9.36 2.49
0.66 9.38 2.49
0.47 9.39 2.49
0.28 9.39 2.49
0.09 9.40 2.49
-0.09 9.40 2.49
-0.28 9.39 2.49
-0.47 9.39 2.49
-0.66 9.38 2.49
-0.85 9.36 2.49
-1.04 9.34 2.49
-1.23 9.32 2.49
-1.41 9.29 2.49
-1.60 9.27 2.49
-1.79 9.23 2.49
-1.97 9.20 2.49
-2.16 9.15 2.49
-2.34 9.11 2.49
-2.52 9.06 2.49
-2.70 9.01 2.49
-2.89 8.96 2.49
-3.07 8.90 2.49
-3.24 8.84 2.49
-3.42 8.77 2.49
-3.60 8.70 2.49
-3.77 8.63 2.49
-3.95 8.55 2.49
-4.12 8.48 2.49
-4.29 8.39 2.49
-4.46 8.31 2.49
-4.63 8.22 2.49
-4.79 8.12 2.49
-4.95 8.03 2.49
-5.12 7.93 2.49
-5.28 7.83 2.49
-5.43 7.72 2.49
-5.59 7.61 2.49
-5.74 7.50 2.49
-5.76 7.22 2.44
-5.79 6.97 2.39
-5.93 6.85 2.39
-6.07 6.73 2.39
-6.21 6.61 2.39
-6.34 6.49 2.39
-6.47 6.36 2.39
-6.60 6.23 2.39
-6.73 6.10 2.39
-6.85 5.97 2.39
-6.98 5.83 2.39
-7.09 5.69 2.39
-7.21 5.55 2.39
-7.32 5.41 2.39
-7.43 5.26 2.39
-7.54 5.11 2.39
-7.64 4.96 2.39
-7.75 4.81 2.39
-7.84 4.66 2.39
-7.94 4.50 2.39
-8.03 4.34 2.39
-8.12 4.18 2.39
-8.21 4.02 2.39
-8.29 3.85 2.39
-8.37 3.69 2.39
-8.45 3.52 2.39
-8.52 3.35 2.39
-8.59 3.18 2.39
-6.23 2.17 1.72
-6.28 2.05 1.72
-8.78 2.66 2.39
-8.83 2.49 2.39
-8.89 2.31 2.39
-8.93 2.13 2.39
-8.98 1.95 2.39
-9.02 1.77 2.39
-9.06 1.59 2.39
-9.10 1.41 2.39
-9.13 1.23 2.39
-9.15 1.05 2.39
-9.18 0.86 2.39
-9.20 0.68 2.39
-9.21 0.49 2.39
-9.23 0.31 2.39
-9.24 0.12 2.39
-9.24 -0.06 2.39
-9.24 -0.25 2.39
-9.24 -0.43 2.39
-9.23 -0.62 2.39
-9.23 -0.80 2.39
-9.21 -0.99 2.39
-9.19 -1.17 2.39
-9.17 -1.36 2.39
-9.15 -1.54 2.39
-9.12 -1.73 2.39
-9.09 -1.91 2.39
-9.05 -2.09 2.39
-9.01 -2.28 2.39
-8.97 -2.46 2.39
-8.92 -2.64 2.39
-8.87 -2.82 2.39
-8.82 -3.00 2.39
-8.76 -3.18 2.39
-8.70 -3.35 2.39
-8.64 -3.53 2.39
-8.57 -3.70 2.39
-8.50 -3.88 2.39
-8.42 -4.05 2.39
-8.34 -4.22 2.39
-8.26 -4.39 2.39
-8.17 -4.55 2.39
-8.08 -4.72 2.39
-7.99 -4.88 2.39
-7.89 -5.04 2.39
-7.79 -5.20 2.39
-7.69 -5.36 2.39
-7.59 -5.51 2.39
-7.48 -5.67 2.39
-7.36 -5.82 2.39
-7.25 -5.97 2.39
-7.13 -6.11 2.39
-7.01 -6.26 2.39
-6.89 -6.40 2.39
-6.76 -6.54 2.39
-6.63 -6.68 2.39
-6.50 -6.81 2.39
-6.36 -6.94 2.39
-6.22 -7.07 2.39
-6.10 -7.22 2.40
-5.94 -7.32 2.39
-5.90 -7.57 2.43
-5.89 -7.88 2.49
-5.73 -8.00 2.49
-5.57 -8.12 2.49
-5.41 -8.23 2.49
-5.24 -8.34 2.49
-5.07 -8.44 2.49
-4.91 -8.54 2.49
-4.73 -8.64 2.49
-4.56 -8.74 2.49
-4.39 -8.83 2.49
-4.21 -8.92 2.49
-4.03 -9.00 2.49
-3.85 -9.08 2.49
-3.67 -9.16 2.49
-3.48 -9.23 2.49
-3.30 -9.30 2.49
-3.11 -9.37 2.49
-2.92 -9.43 2.49
-2.74 -9.49 2.49
-2.54 -9.54 2.49
-2.35 -9.59 2.49
-2.16 -9.64 2.49
-1.97 -9.68 2.49
-1.77 -9.72 2.49
-1.58 -9.75 2.49
-1.38 -9.79 2.49
-1.19 -9.81 2.49
-0.99 -9.83 2.49
-0.79 -9.85 2.49
-0.59 -9.87 2.49
-0.40 -9.88 2.49
-0.20 -9.88 2.49
-0.00 -9.02 2.49
0.18 -9.02 2.49
0.36 -9.02 2.49
0.54 -9.01 2.49
0.72 -8.99 2.49
0.90 -8.98 2.49
1.08 -8.96 2.49
1.26 -8.93 2.49
1.44 -8.90 2.49
1.62 -8.87 2.49
1.79 -8.84 2.49
1.97 -8.80 2.49
2.14 -8.74 2.49
2.23 -8.35 2.39
2.39 -8.30 2.39
2.56 -8.25 2.39
2.72 -8.20 2.39
2.89 -8.14 2.39
3.05 -8.08 2.39
3.21 -8.02 2.39
3.37 -7.95 2.39
3.53 -7.88 2.39
3.68 -7.80 2.39
3.84 -7.73 2.39
3.99 -7.65 2.39
4.14 -7.56 2.39
4.29 -7.48 2.39
4.44 -7.39 2.39
4.59 -7.30 2.39
4.73 -7.20 2.39
4.87 -7.10 2.39
5.01 -7.00 2.39
5.15 -6.90 2.39
5.29 -6.79 2.39
5.42 -6.68 2.39
5.55 -6.57 2.39
5.68 -6.45 2.39
5.80 -6.34 2.39
5.93 -6.22 2.39
6.05 -6.10 2.39
6.17 -5.97 2.39
6.29 -5.85 2.39
6.41 -5.72 2.39
6.52 -5.59 2.39
6.63 -5.46 2.39
6.73 -5.32 2.39
6.83 -5.18 2.39
6.93 -5.04 2.39
7.03 -4.90 2.39
7.12 -4.76 2.39
7.22 -4.61 2.39
7.30 -4.46 2.39
7.39 -4.31 2.39
7.47 -4.16 2.39
7.55 -4.01 2.39
7.63 -3.86 2.39
7.70 -3.70 2.39
7.77 -3.54 2.39
7.83 -3.39 2.39
7.90 -3.23 2.39
7.96 -3.07 2.39
8.01 -2.91 2.39
8.07 -2.74 2.39
8.12 -2.58 2.39
8.16 -2.42 2.39
8.20 -2.25 2.39
8.24 -2.08 2.39
8.28 -1.92 2.39
8.31 -1.75 2.39
8.34 -1.58 2.39
8.37 -1.41 2.39
8.39 -1.24 2.39
8.41 -1.08 2.39
8.43 -0.91 2.39
8.44 -0.74 2.39
8.45 -0.57 2.39
8.45 -0.40 2.39
8.46 -0.23 2.39
8.46 -0.06 2.39
8.45 0.11 2.39
8.44 0.28 2.39
8.43 0.45 2.39
8.42 0.62 2.39
8.40 0.79 2.39
8.38 0.96 2.39
8.35 1.12 2.39
8.33 1.29 2.39
8.29 1.46 2.39
8.26 1.62 2.39
8.22 1.79 2.39
8.18 1.95 2.39
8.14 2.11 2.39
8.09 2.28 2.39
8.04 2.44 2.39
7.98 2.60 2.39
7.93 2.76 2.39
7.87 2.91 2.39
7.80 3.07 2.39
7.74 3.22 2.39
7.67 3.38 2.39
7.59 3.53 2.39
7.52 3.68 2.39
7.44 3.83 2.39
7.36 3.97 2.39
7.27 4.12 2.39
7.19 4.26 2.39
7.10 4.41 2.39
7.00 4.55 2.39
6.91 4.68 2.39
6.81 4.82 2.39
6.71 4.95 2.39
6.61 5.09 2.39
6.50 5.22 2.39
6.39 5.34 2.39
6.27 5.46 2.39
6.16 5.59 2.39
6.05 5.71 2.39
5.93 5.82 2.39
5.81 5.94 2.39
5.69 6.05 2.39
5.56 6.17 2.39
5.43 6.27 2.39
5.31 6.38 2.39
5.17 6.48 2.39
5.04 6.58 2.39
4.91 6.68 2.39
4.77 6.78 2.39
4.63 6.87 2.39
4.49 6.96 2.39
4.35 7.05 2.39
4.21 7.13 2.39
4.06 7.21 2.39
3.91 7.29 2.39
3.77 7.37 2.39
3.62 7.44 2.39
3.47 7.51 2.39
3.31 7.58 2.39
3.16 7.64 2.39
3.00 7.70 2.39
2.85 7.76 2.39
2.69 7.81 2.39
2.53 7.87 2.39
2.38 7.91 2.39
2.29 8.23 2.47
2.14 8.35 2.49
1.97 8.39 2.49
1.81 8.42 2.49
1.64 8.46 2.49
1.46 8.49 2.49
1.29 8.52 2.49
1.12 8.54 2.49
0.95 8.56 2.49
0.78 8.58 2.49
0.61 8.59 2.49
0.43 8.60 2.49
0.26 8.61 2.49
0.09 8.61 2.49
-0.09 8.61 2.49
-0.26 8.61 2.49
-0.43 8.60 2.49
-0.61 8.59 2.49
-0.78 8.58 2.49
-0.95 8.56 2.49
-1.12 8.54 2.49
-1.29 8.52 2.49
-1.47 8.49 2.49
-1.64 8.46 2.49
-1.81 8.42 2.49
-1.98 8.39 2.49
-2.14 8.35 2.49
-2.31 8.30 2.49
-2.48 8.26 2.49
-2.64 8.21 2.49
-2.81 8.15 2.49
-2.97 8.10 2.49
-3.14 8.04 2.49
-3.30 7.97 2.49
-3.46 7.91 2.49
-3.62 7.84 2.49
-3.77 7.76 2.49
-3.93 7.69 2.49
-4.08 7.61 2.49
-4.24 7.53 2.49
-4.39 7.44 2.49
-4.54 7.35 2.49
-4.69 7.26 2.49
-4.83 7.17 2.49
-4.98 7.07 2.49
-5.12 6.97 2.49
-5.26 6.87 2.49
-5.40 6.77 2.49
-5.54 6.66 2.49
-5.67 6.55 2.49
-5.77 6.40 2.48
-5.78 6.15 2.43
-5.81 5.94 2.39
-5.93 5.83 2.39
-6.05 5.71 2.39
-6.16 5.59 2.39
-6.28 5.46 2.39
-6.39 5.34 2.39
-6.50 5.21 2.39
-6.60 5.08 2.39
-6.71 4.95 2.39
-6.81 4.82 2.39
-6.90 4.68 2.39
-7.00 4.54 2.39
-7.09 4.40 2.39
-7.18 4.26 2.39
-7.27 4.12 2.39
-7.35 3.97 2.39
-7.43 3.83 2.39
-7.51 3.68 2.39
-7.59 3.53 2.39
-7.66 3.37 2.39
-7.73 3.22 2.39
-7.80 3.07 2.39
-7.86 2.91 2.39
-6.23 2.16 1.88
-6.29 2.04 1.88
-8.03 2.44 2.39
-8.08 2.27 2.39
-8.13 2.11 2.39
-8.18 1.95 2.39
-8.22 1.79 2.39
-8.25 1.62 2.39
-8.29 1.46 2.39
-8.32 1.29 2.39
-8.35 1.12 2.39
-8.37 0.96 2.39
-8.40 0.79 2.39
-8.41 0.62 2.39
-8.43 0.45 2.39
-8.44 0.28 2.39
-8.45 0.11 2.39
-8.45 -0.06 2.39
-8.45 -0.23 2.39
-8.45 -0.40 2.39
-8.44 -0.57 2.39
-8.44 -0.74 2.39
-8.42 -0.91 2.39
-8.41 -1.07 2.39
-8.39 -1.24 2.39
-8.37 -1.41 2.39
-8.34 -1.58 2.39
-8.31 -1.75 2.39
-8.28 -1.92 2.39
-8.24 -2.08 2.39
-8.20 -2.25 2.39
-8.16 -2.41 2.39
-8.11 -2.58 2.39
-8.06 -2.74 2.39
-8.01 -2.90 2.39
-7.95 -3.07 2.39
-7.89 -3.23 2.39
-7.83 -3.38 2.39
-7.76 -3.54 2.39
-7.69 -3.70 2.39
-7.62 -3.85 2.39
-7.55 -4.01 2.39
-7.47 -4.16 2.39
-7.38 -4.31 2.39
-7.30 -4.46 2.39
-7.21 -4.61 2.39
-7.12 -4.75 2.39
-7.03 -4.90 2.39
-6.93 -5.04 2.39
-6.83 -5.18 2.39
-6.73 -5.32 2.39
-6.62 -5.45 2.39
-6.51 -5.59 2.39
-6.40 -5.72 2.39
-6.29 -5.85 2.39
-6.17 -5.97 2.39
-6.05 -6.10 2.39
-5.93 -6.22 2.39
-5.89 -6.43 2.42
-5.89 -6.69 2.48
-5.79 -6.86 2.49
-5.65 -6.97 2.49
-5.52 -7.09 2.49
-5.37 -7.20 2.49
-5.23 -7.31 2.49
-5.08 -7.41 2.49
-4.94 -7.51 2.49
-4.79 -7.61 2.49
-4.63 -7.71 2.49
-4.48 -7.80 2.49
-4.32 -7.89 2.49
-4.16 -7.98 2.49
-4.00 -8.06 2.49
-3.84 -8.14 2.49
-3.68 -8.22 2.49
-3.51 -8.29 2.49
-3.35 -8.36 2.49
-3.18 -8.43 2.49
-3.01 -8.49 2.49
-2.84 -8.55 2.49
-2.67 -8.61 2.49
-2.50 -8.66 2.49
-2.32 -8.71 2.49
-2.15 -8.76 2.49
-1.97 -8.80 2.49
-1.80 -8.84 2.49
-1.62 -8.87 2.49
-1.44 -8.91 2.49
-1.26 -8.93 2.49
-1.08 -8.96 2.49
-0.90 -8.98 2.49
-0.72 -8.99 2.49
-0.54 -9.01 2.49
-0.36 -9.02 2.49
-0.18 -9.02 2.49
-0.00 -8.29 2.49
0.17 -8.29 2.49
0.33 -8.28 2.49
0.50 -8.28 2.49
0.66 -8.26 2.49
0.83 -8.25 2.49
0.99 -8.23 2.49
1.16 -8.21 2.49
1.32 -8.18 2.49
1.49 -8.15 2.49
1.65 -8.12 2.49
1.81 -8.09 2.49
1.97 -8.05 2.49
2.13 -8.01 2.49
2.20 -7.63 2.39
2.35 -7.58 2.39
2.50 -7.53 2.39
2.65 -7.48 2.39
2.80 -7.43 2.39
2.95 -7.37 2.39
3.09 -7.31 2.39
3.24 -7.24 2.39
3.38 -7.17 2.39
3.53 -7.10 2.39
3.67 -7.03 2.39
3.81 -6.95 2.39
3.94 -6.87 2.39
4.08 -6.79 2.39
4.21 -6.71 2.39
4.35 -6.62 2.39
4.48 -6.53 2.39
4.61 -6.44 2.39
4.73 -6.34 2.39
4.86 -6.24 2.39
4.98 -6.14 2.39
5.10 -6.04 2.39
5.22 -5.93 2.39
5.34 -5.83 2.39
5.45 -5.72 2.39
5.56 -5.60 2.39
5.67 -5.49 2.39
5.78 -5.37 2.39
5.88 -5.26 2.39
5.99 -5.13 2.39
6.08 -5.01 2.39
6.18 -4.89 2.39
6.28 -4.77 2.39
6.38 -4.64 2.39
6.46 -4.51 2.39
6.55 -4.37 2.39
6.64 -4.24 2.39
6.72 -4.11 2.39
6.79 -3.97 2.39
6.87 -3.83 2.39
6.94 -3.69 2.39
7.01 -3.55 2.39
7.08 -3.41 2.39
7.14 -3.26 2.39
7.21 -3.12 2.39
7.26 -2.97 2.39
7.32 -2.82 2.39
7.37 -2.67 2.39
7.42 -2.52 2.39
7.47 -2.37 2.39
7.51 -2.22 2.39
7.55 -2.07 2.39
7.59 -1.92 2.39
7.62 -1.77 2.39
7.65 -1.61 2.39
7.68 -1.46 2.39
7.70 -1.30 2.39
7.72 -1.15 2.39
7.74 -0.99 2.39
7.76 -0.84 2.39
7.77 -0.68 2.39
7.78 -0.52 2.39
7.78 -0.37 2.39
7.78 -0.21 2.39
7.78 -0.05 2.39
7.78 0.10 2.39
7.77 0.26 2.39
7.76 0.41 2.39
7.75 0.57 2.39
7.73 0.72 2.39
7.71 0.88 2.39
7.69 1.03 2.39
7.66 1.19 2.39
7.64 1.34 2.39
7.60 1.49 2.39
7.57 1.64 2.39
7.53 1.80 2.39
7.49 1.95 2.39
7.45 2.09 2.39
7.40 2.24 2.39
7.35 2.39 2.39
7.30 2.54 2.39
7.24 2.68 2.39
7.19 2.83 2.39
7.12 2.97 2.39
7.06 3.11 2.39
6.99 3.25 2.39
6.92 3.39 2.39
6.85 3.52 2.39
6.78 3.66 2.39
6.70 3.79 2.39
6.62 3.93 2.39
6.54 4.06 2.39
6.45 4.19 2.39
6.36 4.31 2.39
6.27 4.43 2.39
6.17 4.56 2.39
6.08 4.68 2.39
5.98 4.80 2.39
5.88 4.92 2.39
5.78 5.03 2.39
5.68 5.15 2.39
5.57 5.26 2.39
5.46 5.37 2.39
5.35 5.47 2.39
5.24 5.58 2.39
5.12 5.68 2.39
5.01 5.78 2.39
4.89 5.88 2.39
4.77 5.97 2.39
4.65 6.07 2.39
4.52 6.16 2.39
4.40 6.25 2.39
4.27 6.33 2.39
4.14 6.41 2.39
4.01 6.50 2.39
3.88 6.57 2.39
3.74 6.65 2.39
3.61 6.72 2.39
3.47 6.79 2.39
3.33 6.86 2.39
3.19 6.92 2.39
3.05 6.98 2.39
2.91 7.04 2.39
2.77 7.10 2.39
2.63 7.15 2.39
2.48 7.20 2.39
2.34 7.25 2.39
2.28 7.61 2.49
2.13 7.65 2.49
1.98 7.69 2.49
1.82 7.73 2.49
1.66 7.76 2.49
1.51 7.80 2.49
1.35 7.82 2.49
1.19 7.85 2.49
1.03 7.87 2.49
0.88 7.89 2.49
0.72 7.91 2.49
0.56 7.92 2.49
0.40 7.93 2.49
0.24 7.93 2.49
0.08 7.94 2.49
-0.08 7.94 2.49
-0.24 7.93 2.49
-0.40 7.93 2.49
-0.56 7.92 2.49
-0.72 7.91 2.49
-0.88 7.89 2.49
-1.04 7.87 2.49
-1.19 7.85 2.49
-1.35 7.83 2.49
-1.51 7.80 2.49
-1.66 7.77 2.49
-1.82 7.73 2.49
-1.98 7.69 2.49
-2.13 7.65 2.49
-2.28 7.61 2.49
-2.44 7.56 2.49
-2.59 7.51 2.49
-2.74 7.46 2.49
-2.89 7.41 2.49
-3.04 7.35 2.49
-3.19 7.29 2.49
-3.33 7.22 2.49
-3.48 7.16 2.49
-3.62 7.09 2.49
-3.77 7.01 2.49
-3.91 6.94 2.49
-4.05 6.86 2.49
-4.18 6.78 2.49
-4.32 6.69 2.49
-4.45 6.61 2.49
-4.59 6.52 2.49
-4.72 6.43 2.49
-4.85 6.33 2.49
-4.98 6.23 2.49
-5.10 6.13 2.49
-5.23 6.03 2.49
-5.35 5.93 2.49
-5.47 5.82 2.49
-5.58 5.71 2.49
-5.70 5.60 2.49
-5.78 5.45 2.48
-5.78 5.24 2.44
-5.80 5.04 2.40
-5.89 4.92 2.39
-6.00 4.81 2.40
-6.08 4.68 2.39
-6.18 4.56 2.39
-6.27 4.44 2.39
-6.36 4.31 2.39
-6.45 4.18 2.39
-6.53 4.05 2.39
-6.62 3.92 2.39
-6.70 3.79 2.39
-6.77 3.66 2.39
-6.85 3.52 2.39
-6.92 3.39 2.39
-6.99 3.25 2.39
-7.06 3.11 2.39
-7.12 2.97 2.39
-7.18 2.82 2.39
-7.24 2.68 2.39
-6.22 2.16 2.04
-6.29 2.04 2.05
-7.40 2.24 2.39
-7.44 2.09 2.39
-7.49 1.94 2.39
-7.53 1.79 2.39
-7.57 1.64 2.39
-7.60 1.49 2.39
-7.63 1.34 2.39
-7.66 1.19 2.39
-7.69 1.03 2.39
-7.71 0.88 2.39
-7.73 0.72 2.39
-7.74 0.57 2.39
-7.76 0.41 2.39
-7.77 0.26 2.39
-7.77 0.10 2.39
-7.78 -0.05 2.39
-7.78 -0.21 2.39
-7.78 -0.37 2.39
-7.77 -0.52 2.39
-7.76 -0.68 2.39
-7.75 -0.83 2.39
-7.74 -0.99 2.39
-7.72 -1.15 2.39
-7.70 -1.30 2.39
-7.67 -1.46 2.39
-7.64 -1.61 2.39
-7.61 -1.76 2.39
-7.58 -1.92 2.39
-7.54 -2.07 2.39
-7.50 -2.22 2.39
-7.46 -2.37 2.39
-7.42 -2.52 2.39
-7.37 -2.67 2.39
-7.31 -2.82 2.39
-7.26 -2.97 2.39
-7.20 -3.11 2.39
-7.14 -3.26 2.39
-7.08 -3.40 2.39
-7.01 -3.55 2.39
-6.94 -3.69 2.39
-6.87 -3.83 2.39
-6.79 -3.97 2.39
-6.71 -4.10 2.39
-6.63 -4.24 2.39
-6.55 -4.37 2.39
-6.46 -4.50 2.39
-6.37 -4.63 2.39
-6.28 -4.76 2.39
-6.18 -4.89 2.39
-6.09 -5.01 2.39
-5.99 -5.14 2.39
-5.89 -5.26 2.39
-5.88 -5.47 2.43
-5.88 -5.69 2.48
-5.80 -5.85 2.49
-5.69 -5.97 2.49
-5.57 -6.08 2.49
-5.45 -6.19 2.49
-5.32 -6.30 2.49
-5.20 -6.41 2.49
-5.07 -6.51 2.49
-4.94 -6.62 2.49
-4.81 -6.72 2.49
-4.67 -6.81 2.49
-4.54 -6.91 2.49
-4.40 -7.00 2.49
-4.26 -7.09 2.49
-4.12 -7.17 2.49
-3.97 -7.25 2.49
-3.83 -7.33 2.49
-3.68 -7.41 2.49
-3.53 -7.48 2.49
-3.38 -7.55 2.49
-3.23 -7.62 2.49
-3.08 -7.69 2.49
-2.92 -7.75 2.49
-2.77 -7.81 2.49
-2.61 -7.86 2.49
-2.45 -7.91 2.49
-2.29 -7.96 2.49
-2.13 -8.01 2.49
-1.97 -8.05 2.49
-1.81 -8.09 2.49
-1.65 -8.12 2.49
-1.49 -8.15 2.49
-1.32 -8.18 2.49
-1.16 -8.21 2.49
-0.99 -8.23 2.49
-0.83 -8.25 2.49
-0.66 -8.26 2.49
-0.50 -8.28 2.49
-0.33 -8.28 2.49
-0.17 -8.29 2.49
-0.00 -7.66 2.49
0.15 -7.66 2.49
0.31 -7.66 2.49
0.46 -7.65 2.49
0.61 -7.64 2.49
0.77 -7.62 2.49
0.92 -7.60 2.49
1.07 -7.58 2.49
1.22 -7.56 2.49
1.37 -7.53 2.49
1.52 -7.50 2.49
1.67 -7.47 2.49
1.82 -7.44 2.49
1.97 -7.40 2.49
2.12 -7.36 2.49
2.17 -7.01 2.39
2.31 -6.96 2.39
2.45 -6.91 2.39
2.59 -6.86 2.39
2.72 -6.81 2.39
2.86 -6.75 2.39
2.99 -6.69 2.39
3.13 -6.63 2.39
3.26 -6.56 2.39
3.39 -6.50 2.39
3.52 -6.43 2.39
3.64 -6.35 2.39
3.77 -6.28 2.39
3.89 -6.20 2.39
4.02 -6.12 2.39
4.14 -6.03 2.39
4.26 -5.95 2.39
4.37 -5.86 2.39
4.49 -5.77 2.39
4.60 -5.68 2.39
4.71 -5.58 2.39
4.82 -5.49 2.39
4.93 -5.39 2.39
5.04 -5.29 2.39
5.14 -5.18 2.39
5.24 -5.08 2.39
5.34 -4.97 2.39
5.44 -4.86 2.39
5.53 -4.75 2.39
5.63 -4.63 2.39
5.71 -4.52 2.39
5.80 -4.40 2.39
5.89 -4.28 2.39
5.97 -4.16 2.39
6.05 -4.04 2.39
6.13 -3.92 2.39
6.20 -3.79 2.39
6.28 -3.67 2.39
6.35 -3.54 2.39
6.42 -3.41 2.39
6.48 -3.28 2.39
6.55 -3.15 2.39
6.61 -3.02 2.39
6.66 -2.88 2.39
6.72 -2.75 2.39
6.77 -2.61 2.39
6.82 -2.47 2.39
6.86 -2.34 2.39
6.90 -2.20 2.39
6.94 -2.06 2.39
6.98 -1.92 2.39
7.02 -1.78 2.39
7.05 -1.63 2.39
7.08 -1.49 2.39
7.10 -1.35 2.39
7.12 -1.21 2.39
7.14 -1.06 2.39
7.16 -0.92 2.39
7.18 -0.77 2.39
7.19 -0.63 2.39
7.19 -0.48 2.39
7.20 -0.34 2.39
7.20 -0.20 2.39
7.20 -0.05 2.39
7.20 0.09 2.39
7.19 0.24 2.39
7.18 0.38 2.39
7.17 0.53 2.39
7.16 0.67 2.39
7.14 0.81 2.39
7.12 0.96 2.39
7.09 1.10 2.39
7.07 1.24 2.39
7.04 1.38 2.39
7.01 1.52 2.39
6.97 1.66 2.39
6.93 1.80 2.39
6.89 1.94 2.39
6.85 2.08 2.39
6.81 2.21 2.39
6.76 2.35 2.39
6.71 2.48 2.39
6.65 2.61 2.39
6.60 2.75 2.39
6.54 2.88 2.39
6.48 3.01 2.39
6.41 3.14 2.39
6.34 3.26 2.39
6.28 3.39 2.39
6.20 3.51 2.39
6.12 3.63 2.39
6.05 3.75 2.39
5.97 3.87 2.39
5.89 3.99 2.39
5.80 4.11 2.39
5.72 4.22 2.39
5.63 4.33 2.39
5.54 4.44 2.39
5.45 4.55 2.39
5.35 4.66 2.39
5.26 4.76 2.39
5.16 4.87 2.39
5.06 4.97 2.39
4.96 5.07 2.39
4.85 5.17 2.39
4.75 5.26 2.39
4.64 5.35 2.39
4.53 5.44 2.39
4.42 5.53 2.39
4.30 5.62 2.39
4.19 5.70 2.39
4.07 5.79 2.39
3.96 5.86 2.39
3.84 5.94 2.39
3.71 6.02 2.39
3.59 6.09 2.39
3.47 6.16 2.39
3.34 6.23 2.39
3.22 6.29 2.39
3.09 6.35 2.39
2.96 6.41 2.39
2.83 6.47 2.39
2.70 6.52 2.39
2.57 6.58 2.39
2.43 6.63 2.39
2.30 6.67 2.39
2.26 7.01 2.49
2.12 7.05 2.49
1.97 7.09 2.49
1.83 7.13 2.49
1.69 7.16 2.49
1.54 7.19 2.49
1.40 7.22 2.49
1.25 7.25 2.49
1.11 7.27 2.49
0.96 7.29 2.49
0.81 7.31 2.49
0.66 7.32 2.49
0.52 7.34 2.49
0.37 7.35 2.49
0.22 7.35 2.49
0.07 7.35 2.49
-0.07 7.35 2.49
-0.22 7.35 2.49
-0.37 7.35 2.49
-0.52 7.34 2.49
-0.67 7.33 2.49
-0.81 7.31 2.49
-0.96 7.29 2.49
-1.11 7.27 2.49
-1.25 7.25 2.49
-1.40 7.22 2.49
-1.54 7.19 2.49
-1.69 7.16 2.49
-1.83 7.13 2.49
-1.97 7.09 2.49
-2.12 7.05 2.49
-2.26 7.01 2.49
-2.40 6.96 2.49
-2.54 6.91 2.49
-2.68 6.86 2.49
-2.82 6.81 2.49
-2.95 6.75 2.49
-3.09 6.69 2.49
-3.22 6.63 2.49
-3.36 6.56 2.49
-3.49 6.50 2.49
-3.62 6.43 2.49
-3.75 6.35 2.49
-3.88 6.28 2.49
-4.00 6.20 2.49
-4.13 6.12 2.49
-4.25 6.04 2.49
-4.37 5.95 2.49
-4.49 5.86 2.49
-4.61 5.77 2.49
-4.73 5.68 2.49
-4.84 5.59 2.49
-4.95 5.49 2.49
-5.06 5.39 2.49
-5.17 5.29 2.49
-5.28 5.19 2.49
-5.38 5.08 2.49
-5.49 4.97 2.49
-5.59 4.86 2.49
-5.69 4.75 2.49
-5.78 4.64 2.49
-5.79 4.45 2.46
-5.80 4.28 2.42
-5.81 4.11 2.39
-5.89 3.99 2.39
-5.97 3.87 2.39
-6.05 3.75 2.39
-6.13 3.63 2.39
-6.20 3.51 2.39
-6.27 3.39 2.39
-6.34 3.26 2.39
-6.41 3.13 2.39
-6.47 3.01 2.39
-6.53 2.88 2.39
-6.59 2.74 2.39
-6.65 2.61 2.39
-6.70 2.48 2.39
-6.22 2.16 2.20
-6.29 2.04 2.21
-6.85 2.07 2.39
-6.89 1.94 2.39
-6.93 1.80 2.39
-6.97 1.66 2.39
-7.00 1.52 2.39
-7.03 1.38 2.39
-7.06 1.24 2.39
-7.09 1.10 2.39
-7.11 0.96 2.39
-7.13 0.81 2.39
-7.15 0.67 2.39
-7.17 0.53 2.39
-7.18 0.38 2.39
-7.19 0.24 2.39
-7.19 0.09 2.39
-7.20 -0.05 2.39
-7.20 -0.20 2.39
-7.20 -0.34 2.39
-7.19 -0.48 2.39
-7.18 -0.63 2.39
-7.17 -0.77 2.39
-7.16 -0.92 2.39
-7.14 -1.06 2.39
-7.12 -1.20 2.39
-7.10 -1.35 2.39
-7.07 -1.49 2.39
-7.04 -1.63 2.39
-7.01 -1.77 2.39
-6.98 -1.92 2.39
-6.94 -2.06 2.39
-6.90 -2.20 2.39
-6.86 -2.33 2.39
-6.81 -2.47 2.39
-6.76 -2.61 2.39
-6.71 -2.75 2.39
-6.66 -2.88 2.39
-6.60 -3.02 2.39
-6.54 -3.15 2.39
-6.48 -3.28 2.39
-6.42 -3.41 2.39
-6.35 -3.54 2.39
-6.28 -3.67 2.39
-6.21 -3.79 2.39
-6.13 -3.92 2.39
-6.07 -4.06 2.40
-5.97 -4.16 2.39
-5.89 -4.28 2.39
-5.87 -4.45 2.42
-5.87 -4.64 2.45
-5.87 -4.84 2.49
-5.77 -4.95 2.49
-5.68 -5.07 2.49
-5.57 -5.18 2.49
-5.47 -5.30 2.49
-5.37 -5.41 2.49
-5.26 -5.52 2.49
-5.15 -5.62 2.49
-5.03 -5.72 2.49
-4.92 -5.83 2.49
-4.80 -5.92 2.49
-4.69 -6.02 2.49
-4.56 -6.12 2.49
-4.44 -6.21 2.49
-4.32 -6.30 2.49
-4.19 -6.38 2.49
-4.06 -6.47 2.49
-3.93 -6.55 2.49
-3.80 -6.63 2.49
-3.67 -6.70 2.49
-3.54 -6.78 2.49
-3.40 -6.85 2.49
-3.26 -6.92 2.49
-3.12 -6.98 2.49
-2.98 -7.04 2.49
-2.84 -7.10 2.49
-2.70 -7.16 2.49
-2.56 -7.21 2.49
-2.41 -7.26 2.49
-2.27 -7.31 2.49
-2.12 -7.36 2.49
-1.97 -7.40 2.49
-1.82 -7.44 2.49
-1.67 -7.47 2.49
-1.52 -7.51 2.49
-1.37 -7.54 2.49
-1.22 -7.56 2.49
-1.07 -7.59 2.49
-0.92 -7.61 2.49
-0.77 -7.62 2.49
-0.61 -7.64 2.49
-0.46 -7.65 2.49
-0.31 -7.66 2.49
-0.15 -7.66 2.49
-0.00 -7.11 2.49
0.14 -7.11 2.49
0.28 -7.11 2.49
0.43 -7.10 2.49
0.57 -7.09 2.49
0.71 -7.08 2.49
0.85 -7.06 2.49
0.99 -7.04 2.49
1.13 -7.02 2.49
1.27 -7.00 2.49
1.41 -6.97 2.49
1.55 -6.94 2.49
1.69 -6.90 2.49
1.83 -6.87 2.49
1.97 -6.83 2.49
2.10 -6.79 2.49
2.17 -6.53 2.42
2.27 -6.42 2.39
2.40 -6.37 2.39
2.53 -6.32 2.39
2.66 -6.27 2.39
2.78 -6.21 2.39
2.90 -6.16 2.39
3.03 -6.10 2.39
3.15 -6.03 2.39
3.27 -5.97 2.39
3.38 -5.90 2.39
3.50 -5.83 2.39
3.62 -5.76 2.39
3.73 -5.68 2.39
3.84 -5.60 2.39
3.95 -5.53 2.39
4.06 -5.44 2.39
4.17 -5.36 2.39
4.27 -5.27 2.39
4.38 -5.19 2.39
4.48 -5.10 2.39
4.58 -5.00 2.39
4.68 -4.91 2.39
4.77 -4.81 2.39
4.87 -4.72 2.39
4.96 -4.62 2.39
5.05 -4.51 2.39
5.14 -4.41 2.39
5.22 -4.31 2.39
5.31 -4.20 2.39
5.39 -4.09 2.39
5.47 -3.98 2.39
5.55 -3.87 2.39
5.62 -3.75 2.39
5.69 -3.64 2.39
5.76 -3.52 2.39
5.83 -3.41 2.39
5.89 -3.29 2.39
5.96 -3.17 2.39
6.02 -3.05 2.39
6.08 -2.92 2.39
6.13 -2.80 2.39
6.18 -2.68 2.39
6.24 -2.55 2.39
6.29 -2.43 2.39
6.33 -2.30 2.39
6.38 -2.17 2.39
6.42 -2.04 2.39
6.45 -1.91 2.39
6.49 -1.78 2.39
6.52 -1.65 2.39
6.55 -1.52 2.39
6.58 -1.39 2.39
6.60 -1.25 2.39
6.62 -1.12 2.39
6.64 -0.99 2.39
6.66 -0.85 2.39
6.67 -0.72 2.39
6.68 -0.59 2.39
6.69 -0.45 2.39
6.69 -0.32 2.39
6.69 -0.18 2.39
6.69 -0.05 2.39
6.69 0.09 2.39
6.69 0.22 2.39
6.68 0.35 2.39
6.67 0.49 2.39
6.65 0.62 2.39
6.64 0.75 2.39
6.62 0.89 2.39
6.60 1.02 2.39
6.57 1.15 2.39
6.54 1.28 2.39
6.51 1.41 2.39
6.48 1.54 2.39
6.45 1.67 2.39
6.41 1.80 2.39
6.37 1.93 2.39
6.33 2.06 2.39
6.28 2.18 2.39
6.23 2.30 2.39
6.18 2.43 2.39
6.13 2.55 2.39
6.07 2.67 2.39
6.02 2.79 2.39
5.96 2.91 2.39
5.89 3.03 2.39
5.83 3.15 2.39
5.76 3.26 2.39
5.70 3.38 2.39
5.62 3.49 2.39
5.55 3.60 2.39
5.48 3.71 2.39
5.40 3.82 2.39
5.32 3.92 2.39
5.24 4.03 2.39
5.15 4.13 2.39
5.07 4.23 2.39
4.98 4.33 2.39
4.89 4.43 2.39
4.80 4.53 2.39
4.71 4.62 2.39
4.61 4.71 2.39
4.52 4.81 2.39
4.42 4.89 2.39
4.32 4.98 2.39
4.21 5.07 2.39
4.11 5.15 2.39
4.01 5.23 2.39
3.90 5.31 2.39
3.79 5.38 2.39
3.68 5.46 2.39
3.57 5.53 2.39
3.46 5.60 2.39
3.34 5.67 2.39
3.23 5.73 2.39
3.11 5.79 2.39
2.99 5.85 2.39
2.87 5.91 2.39
2.75 5.97 2.39
2.63 6.02 2.39
2.51 6.07 2.39
2.39 6.12 2.39
2.28 6.21 2.41
2.23 6.48 2.49
2.10 6.52 2.49
1.97 6.56 2.49
1.84 6.60 2.49
1.70 6.63 2.49
1.57 6.66 2.49
1.44 6.69 2.49
