ply
format ascii 1.0
element vertex 2929
property float32 x
property float32 y
property float32 z
end_header
10.69 12.39 2.39
10.45 12.61 2.39
10.20 12.82 2.39
9.95 13.03 2.39
9.69 13.24 2.39
9.43 13.44 2.39
9.16 13.64 2.39
8.89 13.83 2.39
8.62 14.01 2.39
8.34 14.19 2.39
8.06 14.36 2.39
7.77 14.53 2.39
7.48 14.70 2.39
7.19 14.86 2.39
6.90 15.01 2.39
6.60 15.15 2.39
6.30 15.30 2.39
6.00 15.43 2.39
5.68 15.54 2.39
5.37 15.66 2.39
5.06 15.78 2.39
4.75 15.89 2.39
4.43 16.00 2.39
4.11 16.10 2.39
3.79 16.19 2.39
3.47 16.27 2.39
3.14 16.35 2.39
2.82 16.43 2.39
2.49 16.50 2.39
2.16 16.56 2.39
1.85 16.81 2.42
1.56 17.38 2.49
1.21 17.42 2.49
0.86 17.45 2.49
0.51 17.48 2.49
0.16 17.50 2.49
-0.19 17.52 2.49
-0.54 17.53 2.49
-0.90 17.53 2.49
-1.25 17.52 2.49
-1.60 17.51 2.49
-1.95 17.49 2.49
-2.31 17.46 2.49
-2.66 17.43 2.49
-3.01 17.38 2.49
-3.36 17.34 2.49
-3.71 17.28 2.49
-4.06 17.22 2.49
-4.41 17.15 2.49
-4.76 17.07 2.49
-5.10 16.99 2.49
-5.45 16.89 2.49
-5.79 16.80 2.49
-6.13 16.69 2.49
-6.21 15.90 2.39
-6.53 15.78 2.39
-6.85 15.66 2.39
-7.17 15.53 2.39
-7.48 15.40 2.39
-7.80 15.26 2.39
-8.11 15.11 2.39
-8.42 14.95 2.39
-8.72 14.80 2.39
-9.03 14.63 2.39
-9.32 14.46 2.39
-9.62 14.28 2.39
-9.91 14.09 2.39
-10.11 13.78 2.37
-10.16 13.28 2.32
-10.15 12.73 2.25
-10.19 12.26 2.21
-10.25 11.85 2.17
-10.31 11.44 2.13
-10.36 11.04 2.09
-10.40 10.65 2.05
-10.43 10.26 2.02
-10.45 9.88 1.98
-10.50 9.53 1.95
-10.55 9.20 1.92
-10.60 8.87 1.90
-10.65 8.55 1.88
-10.68 8.24 1.85
-10.71 7.92 1.83
-10.76 7.63 1.81
-10.80 7.34 1.79
-10.84 7.05 1.77
-10.88 6.77 1.75
-10.92 6.49 1.74
-10.95 6.22 1.72
-10.99 5.95 1.71
-11.02 5.68 1.69
-11.05 5.42 1.68
-11.08 5.16 1.67
-11.11 4.91 1.66
-11.13 4.66 1.65
-11.16 4.41 1.63
-11.21 4.17 1.63
-11.26 3.93 1.62
-11.32 3.70 1.62
-11.37 3.46 1.62
-11.42 3.23 1.61
-11.47 3.00 1.61
-11.52 2.76 1.61
-11.56 2.53 1.61
-11.60 2.30 1.61
-11.62 2.06 1.60
-11.64 1.82 1.60
-11.67 1.59 1.60
-11.69 1.35 1.60
-11.71 1.12 1.60
-11.73 0.88 1.60
-11.75 0.65 1.60
-11.77 0.41 1.60
-11.78 0.18 1.60
-11.78 -0.06 1.60
-11.78 -0.30 1.60
-11.79 -0.53 1.60
-11.79 -0.77 1.60
-11.79 -1.01 1.60
-11.78 -1.25 1.61
-11.78 -1.49 1.61
-11.78 -1.73 1.61
-11.77 -1.97 1.62
-11.76 -2.21 1.62
-11.75 -2.45 1.63
-11.73 -2.69 1.63
-11.72 -2.94 1.64
-11.71 -3.19 1.65
-11.70 -3.44 1.65
-11.69 -3.69 1.66
-11.69 -3.95 1.67
-11.69 -4.22 1.69
-11.69 -4.48 1.70
-11.69 -4.76 1.71
-11.69 -5.03 1.73
-11.69 -5.31 1.74
-11.69 -5.59 1.76
-11.69 -5.89 1.78
-11.71 -6.20 1.80
-11.73 -6.51 1.82
-11.76 -6.83 1.85
-11.78 -7.17 1.88
-11.84 -7.54 1.91
-11.88 -7.90 1.94
-11.85 -8.22 1.96
-11.81 -8.55 1.99
-11.77 -8.89 2.01
-11.74 -9.25 2.04
-11.78 -9.67 2.08
-11.76 -10.05 2.11
-11.70 -10.41 2.14
-11.63 -10.77 2.17
-11.55 -11.14 2.20
-11.49 -11.53 2.23
-11.43 -11.95 2.26
-11.32 -12.31 2.29
-11.20 -12.69 2.32
-11.08 -13.07 2.35
-10.89 -13.39 2.37
-10.66 -13.65 2.38
-10.43 -13.92 2.39
-10.23 -14.25 2.41
-9.85 -14.31 2.39
-9.56 -14.50 2.39
-9.26 -14.67 2.39
-8.95 -14.85 2.39
-8.65 -15.01 2.39
-8.34 -15.17 2.39
-8.03 -15.33 2.39
-7.71 -15.47 2.39
-7.39 -15.61 2.39
-7.07 -15.74 2.39
-6.75 -15.87 2.39
-6.43 -15.99 2.39
-6.12 -16.14 2.40
-5.92 -16.63 2.45
-5.68 -17.01 2.49
-5.33 -17.11 2.49
-4.98 -17.20 2.49
-4.63 -17.28 2.49
-4.28 -17.36 2.49
-3.93 -17.42 2.49
-3.57 -17.48 2.49
-3.22 -17.54 2.49
-2.86 -17.58 2.49
-2.51 -17.62 2.49
-2.15 -17.65 2.49
-1.80 -17.68 2.49
-1.44 -17.70 2.49
-1.08 -17.71 2.49
-0.73 -17.71 2.49
-0.37 -17.70 2.49
-0.02 -15.21 2.49
0.29 -15.19 2.49
0.59 -15.17 2.49
0.90 -15.15 2.49
1.20 -15.11 2.49
1.50 -15.07 2.49
1.80 -15.03 2.49
2.10 -14.98 2.49
2.32 -14.40 2.41
2.59 -14.25 2.39
2.87 -14.18 2.39
3.15 -14.11 2.39
3.43 -14.03 2.39
3.71 -13.95 2.39
3.99 -13.86 2.39
4.26 -13.77 2.39
4.53 -13.67 2.39
4.80 -13.57 2.39
5.07 -13.46 2.39
5.34 -13.34 2.39
5.60 -13.22 2.39
5.86 -13.10 2.39
6.13 -12.99 2.39
6.38 -12.85 2.39
6.63 -12.71 2.39
6.88 -12.57 2.39
7.13 -12.42 2.39
7.37 -12.27 2.39
7.61 -12.11 2.39
7.85 -11.94 2.39
8.08 -11.78 2.39
8.31 -11.60 2.39
8.53 -11.43 2.39
8.76 -11.25 2.39
8.98 -11.06 2.39
9.19 -10.87 2.39
9.40 -10.68 2.39
9.61 -10.48 2.39
9.81 -10.28 2.39
10.01 -10.08 2.39
10.20 -9.87 2.39
10.39 -9.65 2.39
10.58 -9.44 2.39
10.76 -9.22 2.39
10.94 -9.00 2.39
11.11 -8.77 2.39
11.28 -8.54 2.39
11.44 -8.31 2.39
11.60 -8.07 2.39
11.75 -7.83 2.39
11.90 -7.59 2.39
12.05 -7.35 2.39
12.19 -7.10 2.39
12.32 -6.85 2.39
12.45 -6.60 2.39
12.58 -6.35 2.39
12.70 -6.09 2.39
12.81 -5.83 2.39
12.92 -5.57 2.39
2.27 -0.92 0.42
2.28 -0.88 0.42
2.33 -0.84 0.42
13.31 -4.51 2.39
13.39 -4.24 2.39
13.47 -3.97 2.39
13.55 -3.70 2.39
13.61 -3.42 2.39
13.68 -3.15 2.39
13.73 -2.87 2.39
13.78 -2.59 2.39
13.83 -2.32 2.39
13.87 -2.04 2.39
13.91 -1.76 2.39
13.94 -1.48 2.39
13.96 -1.20 2.39
13.98 -0.92 2.39
14.00 -0.63 2.39
14.00 -0.35 2.39
14.01 -0.07 2.39
14.00 0.21 2.39
14.00 0.49 2.39
13.98 0.77 2.39
13.96 1.05 2.39
13.94 1.33 2.39
13.91 1.61 2.39
13.87 1.89 2.39
13.83 2.17 2.39
13.79 2.45 2.39
13.74 2.72 2.39
13.68 3.00 2.39
13.62 3.27 2.39
13.55 3.55 2.39
13.48 3.82 2.39
13.40 4.09 2.39
13.32 4.36 2.39
13.23 4.63 2.39
13.14 4.89 2.39
13.04 5.16 2.39
12.93 5.42 2.39
12.82 5.68 2.39
12.71 5.94 2.39
12.59 6.19 2.39
12.47 6.45 2.39
12.34 6.70 2.39
12.21 6.94 2.39
12.07 7.19 2.39
11.92 7.43 2.39
11.78 7.67 2.39
11.62 7.91 2.39
11.47 8.15 2.39
11.30 8.38 2.39
11.14 8.61 2.39
10.97 8.83 2.39
10.79 9.06 2.39
10.61 9.27 2.39
10.43 9.49 2.39
10.24 9.70 2.39
10.05 9.91 2.39
9.85 10.11 2.39
9.65 10.31 2.39
9.45 10.51 2.39
9.24 10.70 2.39
9.02 10.89 2.39
8.81 11.08 2.39
8.59 11.26 2.39
8.36 11.43 2.39
8.14 11.60 2.39
7.91 11.77 2.39
7.67 11.93 2.39
7.44 12.09 2.39
7.20 12.25 2.39
6.95 12.40 2.39
6.71 12.54 2.39
6.46 12.68 2.39
6.20 12.82 2.39
5.95 12.95 2.39
5.69 13.06 2.39
5.43 13.18 2.39
5.16 13.29 2.39
4.90 13.40 2.39
4.63 13.51 2.39
4.36 13.61 2.39
4.09 13.70 2.39
3.82 13.79 2.39
3.54 13.87 2.39
3.27 13.95 2.39
2.99 14.02 2.39
2.71 14.09 2.39
2.42 14.15 2.39
2.14 14.21 2.39
1.87 14.37 2.41
1.64 14.92 2.49
1.34 14.96 2.49
1.04 15.00 2.49
0.74 15.03 2.49
0.44 15.05 2.49
0.14 15.07 2.49
-0.17 15.08 2.49
-0.47 15.08 2.49
-0.77 15.08 2.49
-1.08 15.07 2.49
-1.38 15.06 2.49
-1.68 15.04 2.49
-1.99 15.02 2.49
-2.29 14.98 2.49
-2.59 14.95 2.49
-2.89 14.90 2.49
-3.19 14.85 2.49
-3.49 14.80 2.49
-3.79 14.74 2.49
-4.09 14.67 2.49
-4.39 14.59 2.49
-4.68 14.51 2.49
-4.98 14.43 2.49
-5.27 14.34 2.49
-5.56 14.24 2.49
-5.85 14.13 2.49
-6.14 14.02 2.49
-6.18 13.39 2.40
-6.43 13.22 2.39
-6.69 13.09 2.39
-6.96 12.97 2.39
-7.23 12.83 2.39
-7.49 12.69 2.39
-7.74 12.55 2.39
-8.00 12.40 2.39
-8.25 12.25 2.39
-8.50 12.09 2.39
-8.75 11.92 2.39
-8.99 11.75 2.39
-9.23 11.58 2.39
-9.47 11.40 2.39
-9.70 11.21 2.39
-9.86 10.94 2.37
-9.91 10.56 2.33
-9.95 10.19 2.29
-9.98 9.82 2.25
-10.01 9.46 2.21
-10.06 9.13 2.18
-10.12 8.82 2.15
-10.17 8.51 2.13
-10.21 8.20 2.10
-10.24 7.90 2.07
-10.28 7.60 2.05
-10.32 7.32 2.03
-10.37 7.04 2.01
-10.41 6.77 1.99
-10.45 6.50 1.97
-10.49 6.24 1.95
-10.52 5.97 1.93
-10.56 5.72 1.92
-10.59 5.46 1.90
-10.62 5.21 1.89
-10.66 4.97 1.87
-10.69 4.72 1.86
-10.71 4.48 1.85
-10.73 4.24 1.84
-10.75 3.99 1.83
-10.84 3.78 1.83
-10.94 3.58 1.83
-11.05 3.37 1.84
-11.15 3.15 1.84
-11.20 2.93 1.84
-11.25 2.70 1.84
-11.29 2.47 1.84
-11.33 2.24 1.83
-11.35 2.01 1.83
-11.38 1.78 1.83
-11.40 1.55 1.83
-11.42 1.32 1.82
-11.44 1.09 1.82
-11.46 0.86 1.82
-11.48 0.63 1.82
-11.50 0.40 1.82
-11.51 0.17 1.83
-11.51 -0.06 1.83
-11.51 -0.29 1.83
-11.51 -0.52 1.83
-11.51 -0.75 1.83
-11.51 -0.98 1.83
-11.51 -1.22 1.83
-11.51 -1.45 1.84
-11.51 -1.69 1.84
-11.50 -1.92 1.85
-11.48 -2.16 1.85
-11.47 -2.39 1.86
-11.46 -2.63 1.86
-11.44 -2.87 1.87
-11.43 -3.11 1.88
-11.41 -3.35 1.89
-11.40 -3.60 1.90
-11.39 -3.85 1.91
-11.39 -4.11 1.92
-11.39 -4.37 1.94
-11.39 -4.63 1.95
-11.39 -4.90 1.97
-11.39 -5.17 1.99
-11.38 -5.45 2.00
-11.37 -5.73 2.02
-11.39 -6.02 2.05
-11.40 -6.33 2.07
-11.42 -6.64 2.10
-11.43 -6.96 2.13
-11.45 -7.28 2.16
-11.48 -7.63 2.20
-11.49 -7.98 2.23
-11.45 -8.29 2.25
-11.41 -8.62 2.28
-11.36 -8.95 2.31
-11.32 -9.28 2.33
-11.27 -9.63 2.37
-11.25 -10.01 2.40
-11.18 -10.35 2.43
-11.10 -10.71 2.46
-11.01 -11.05 2.49
-10.84 -11.33 2.51
-10.67 -11.61 2.52
-9.88 -11.19 2.39
-9.65 -11.38 2.39
-9.42 -11.57 2.39
-9.18 -11.75 2.39
-8.94 -11.92 2.39
-8.69 -12.09 2.39
-8.44 -12.26 2.39
-8.19 -12.42 2.39
-7.93 -12.57 2.39
-7.67 -12.72 2.39
-7.41 -12.87 2.39
-7.15 -13.00 2.39
-6.88 -13.14 2.39
-6.61 -13.26 2.39
-6.34 -13.38 2.39
-6.07 -13.50 2.39
-5.94 -13.96 2.45
-5.75 -14.31 2.49
-5.46 -14.41 2.49
-5.17 -14.50 2.49
-4.87 -14.60 2.49
-4.57 -14.68 2.49
-4.28 -14.76 2.49
-3.98 -14.83 2.49
-3.67 -14.90 2.49
-3.37 -14.96 2.49
-3.07 -15.01 2.49
-2.77 -15.06 2.49
-2.46 -15.10 2.49
-2.16 -15.13 2.49
-1.85 -15.16 2.49
-1.54 -15.19 2.49
-1.24 -15.20 2.49
-0.93 -15.21 2.49
-0.63 -15.22 2.49
-0.32 -15.22 2.49
-0.02 -13.32 2.49
0.25 -13.31 2.49
0.52 -13.29 2.49
0.79 -13.27 2.49
1.05 -13.24 2.49
1.32 -13.21 2.49
1.58 -13.17 2.49
1.84 -13.13 2.49
2.10 -13.03 2.48
2.27 -12.49 2.39
2.52 -12.43 2.39
2.76 -12.37 2.39
3.01 -12.31 2.39
3.25 -12.24 2.39
3.50 -12.16 2.39
3.74 -12.08 2.39
3.98 -11.99 2.39
4.21 -11.90 2.39
4.45 -11.81 2.39
4.68 -11.71 2.39
4.91 -11.61 2.39
5.14 -11.50 2.39
5.37 -11.39 2.39
5.59 -11.27 2.39
5.81 -11.15 2.39
6.03 -11.02 2.39
6.26 -10.91 2.39
6.47 -10.77 2.39
6.68 -10.63 2.39
6.89 -10.49 2.39
7.09 -10.34 2.39
7.30 -10.19 2.39
7.50 -10.04 2.39
7.69 -9.88 2.39
7.88 -9.72 2.39
8.07 -9.55 2.39
8.26 -9.38 2.39
8.44 -9.21 2.39
8.62 -9.03 2.39
8.79 -8.85 2.39
8.97 -8.67 2.39
9.13 -8.49 2.39
9.30 -8.30 2.39
9.46 -8.10 2.39
9.61 -7.91 2.39
9.77 -7.71 2.39
9.92 -7.51 2.39
10.06 -7.31 2.39
10.20 -7.10 2.39
10.34 -6.89 2.39
10.47 -6.68 2.39
10.60 -6.46 2.39
10.72 -6.25 2.39
10.84 -6.03 2.39
10.95 -5.81 2.39
11.06 -5.58 2.39
11.17 -5.36 2.39
11.27 -5.13 2.39
11.37 -4.90 2.39
2.27 -0.92 0.47
2.28 -0.88 0.47
2.33 -0.84 0.48
11.71 -3.97 2.39
11.78 -3.73 2.39
11.85 -3.49 2.39
11.92 -3.25 2.39
11.98 -3.01 2.39
12.03 -2.77 2.39
12.08 -2.53 2.39
12.13 -2.28 2.39
12.17 -2.04 2.39
12.21 -1.79 2.39
12.24 -1.55 2.39
12.27 -1.30 2.39
12.29 -1.05 2.39
12.31 -0.81 2.39
12.32 -0.56 2.39
12.33 -0.31 2.39
12.33 -0.06 2.39
12.33 0.18 2.39
12.32 0.43 2.39
12.31 0.68 2.39
12.29 0.93 2.39
12.27 1.17 2.39
12.24 1.42 2.39
12.21 1.67 2.39
12.18 1.91 2.39
12.14 2.15 2.39
12.09 2.40 2.39
12.04 2.64 2.39
11.99 2.88 2.39
11.93 3.12 2.39
11.86 3.36 2.39
11.79 3.60 2.39
11.72 3.84 2.39
11.64 4.07 2.39
11.56 4.31 2.39
11.47 4.54 2.39
11.38 4.77 2.39
11.29 5.00 2.39
11.19 5.22 2.39
11.08 5.45 2.39
10.97 5.67 2.39
10.86 5.89 2.39
10.74 6.11 2.39
10.62 6.33 2.39
10.49 6.54 2.39
10.36 6.75 2.39
10.23 6.96 2.39
10.09 7.17 2.39
9.94 7.37 2.39
9.80 7.57 2.39
9.65 7.77 2.39
9.49 7.97 2.39
9.33 8.16 2.39
9.17 8.35 2.39
9.00 8.53 2.39
8.83 8.72 2.39
8.66 8.89 2.39
8.48 9.07 2.39
8.30 9.24 2.39
8.12 9.41 2.39
7.93 9.58 2.39
7.74 9.74 2.39
7.55 9.90 2.39
7.35 10.05 2.39
7.15 10.20 2.39
6.95 10.35 2.39
6.74 10.49 2.39
6.53 10.63 2.39
6.32 10.77 2.39
6.11 10.90 2.39
5.88 11.01 2.39
5.66 11.13 2.39
5.44 11.25 2.39
5.22 11.36 2.39
4.99 11.47 2.39
4.76 11.57 2.39
4.53 11.67 2.39
4.30 11.77 2.39
4.07 11.86 2.39
3.83 11.95 2.39
3.59 12.03 2.39
3.35 12.11 2.39
3.11 12.18 2.39
2.86 12.25 2.39
2.62 12.31 2.39
2.37 12.37 2.39
2.13 12.42 2.39
1.89 12.54 2.40
1.70 13.05 2.49
1.44 13.09 2.49
1.17 13.13 2.49
0.91 13.16 2.49
0.65 13.18 2.49
0.38 13.20 2.49
0.12 13.21 2.49
-0.15 13.22 2.49
-0.41 13.22 2.49
-0.68 13.22 2.49
-0.95 13.21 2.49
-1.21 13.20 2.49
-1.48 13.18 2.49
-1.74 13.16 2.49
-2.01 13.13 2.49
-2.27 13.10 2.49
-2.54 13.06 2.49
-2.80 13.01 2.49
-3.06 12.96 2.49
-3.32 12.91 2.49
-3.58 12.85 2.49
-3.84 12.78 2.49
-4.10 12.71 2.49
-4.36 12.63 2.49
-4.62 12.55 2.49
-4.87 12.46 2.49
-5.12 12.37 2.49
-5.37 12.27 2.49
-5.62 12.17 2.49
-5.87 12.06 2.49
-6.11 11.95 2.49
-6.16 11.48 2.42
-6.32 11.23 2.39
-6.55 11.10 2.39
-6.78 10.98 2.39
-7.00 10.85 2.39
-7.22 10.71 2.39
-7.44 10.57 2.39
-7.65 10.42 2.39
-7.87 10.27 2.39
-8.07 10.12 2.39
-8.28 9.96 2.39
-8.48 9.80 2.39
-8.68 9.63 2.39
-8.88 9.46 2.39
-9.07 9.29 2.39
-9.26 9.11 2.39
-9.45 8.93 2.39
-9.63 8.74 2.39
-9.71 8.46 2.37
-9.76 8.16 2.34
-9.80 7.87 2.31
-9.84 7.58 2.28
-9.87 7.30 2.25
-9.91 7.03 2.23
-9.96 6.76 2.21
-10.01 6.51 2.19
-10.05 6.25 2.17
-10.09 6.00 2.15
-10.12 5.75 2.13
-10.16 5.50 2.11
-10.19 5.26 2.10
-10.23 5.02 2.08
-10.26 4.78 2.07
-10.29 4.55 2.05
-10.32 4.31 2.04
-10.33 4.08 2.03
-10.35 3.85 2.01
-10.36 3.62 2.00
-10.45 3.41 2.00
-10.55 3.21 2.01
-10.64 3.01 2.01
-10.74 2.81 2.02
-10.83 2.60 2.03
-10.92 2.39 2.04
-10.94 2.17 2.03
-11.01 1.95 2.03
-11.07 1.73 2.04
-11.14 1.52 2.04
-11.16 1.29 2.04
-11.18 1.07 2.04
-11.20 0.84 2.04
-11.22 0.62 2.04
-11.24 0.39 2.04
-11.25 0.17 2.04
-11.25 -0.06 2.04
-11.25 -0.28 2.05
-11.25 -0.51 2.05
-11.25 -0.74 2.05
-11.25 -0.96 2.05
-11.25 -1.19 2.06
-11.24 -1.42 2.06
-11.24 -1.65 2.06
-11.23 -1.88 2.07
-11.22 -2.11 2.07
-11.21 -2.34 2.08
-11.19 -2.57 2.09
-11.18 -2.80 2.09
-11.16 -3.04 2.10
-11.14 -3.28 2.11
-11.13 -3.51 2.12
-11.11 -3.75 2.13
-11.11 -4.00 2.15
-11.10 -4.26 2.16
-11.10 -4.51 2.18
-11.10 -4.77 2.20
-11.09 -5.04 2.22
-11.08 -5.30 2.24
-11.07 -5.57 2.26
-11.06 -5.85 2.28
-11.08 -6.15 2.31
-11.10 -6.45 2.34
-11.11 -6.76 2.37
-11.12 -7.07 2.40
-11.12 -7.39 2.44
-11.13 -7.73 2.47
-11.11 -8.04 2.50
-11.06 -8.36 2.53
-10.96 -8.63 2.55
-10.84 -8.89 2.56
-9.95 -8.50 2.39
-9.77 -8.69 2.39
-9.59 -8.88 2.39
-9.41 -9.07 2.39
-9.22 -9.25 2.39
-9.03 -9.43 2.39
-8.83 -9.61 2.39
-8.63 -9.78 2.39
-8.43 -9.94 2.39
-8.23 -10.11 2.39
-8.02 -10.26 2.39
-7.81 -10.42 2.39
-7.59 -10.57 2.39
-7.38 -10.71 2.39
-7.16 -10.85 2.39
-6.93 -10.99 2.39
-6.71 -11.12 2.39
-6.48 -11.24 2.39
-6.25 -11.37 2.39
-6.02 -11.48 2.39
-5.97 -11.96 2.47
-5.79 -12.21 2.49
-5.54 -12.31 2.49
-5.28 -12.41 2.49
-5.03 -12.51 2.49
-4.78 -12.60 2.49
-4.52 -12.69 2.49
-4.26 -12.77 2.49
-4.00 -12.84 2.49
-3.74 -12.91 2.49
-3.48 -12.98 2.49
-3.22 -13.04 2.49
-2.95 -13.09 2.49
-2.69 -13.14 2.49
-2.42 -13.18 2.49
-2.16 -13.22 2.49
-1.89 -13.25 2.49
-1.62 -13.28 2.49
-1.35 -13.30 2.49
-1.09 -13.31 2.49
-0.82 -13.32 2.49
-0.55 -13.33 2.49
-0.28 -13.33 2.49
-0.02 -11.84 2.49
0.22 -11.83 2.49
0.46 -11.82 2.49
0.70 -11.80 2.49
0.93 -11.78 2.49
1.17 -11.75 2.49
1.40 -11.71 2.49
1.64 -11.68 2.49
1.87 -11.63 2.49
2.08 -11.45 2.46
2.24 -11.06 2.39
2.46 -11.01 2.39
2.67 -10.95 2.39
2.89 -10.89 2.39
3.11 -10.82 2.39
3.32 -10.75 2.39
3.54 -10.67 2.39
3.75 -10.59 2.39
3.96 -10.51 2.39
4.16 -10.42 2.39
4.37 -10.33 2.39
4.57 -10.23 2.39
4.78 -10.14 2.39
4.98 -10.03 2.39
5.17 -9.92 2.39
5.37 -9.81 2.39
5.56 -9.70 2.39
5.75 -9.58 2.39
5.94 -9.46 2.39
6.13 -9.34 2.39
6.32 -9.21 2.39
6.50 -9.08 2.39
6.68 -8.94 2.39
6.85 -8.80 2.39
7.02 -8.66 2.39
7.19 -8.51 2.39
7.36 -8.36 2.39
7.52 -8.21 2.39
7.68 -8.05 2.39
7.84 -7.89 2.39
7.99 -7.73 2.39
8.14 -7.56 2.39
8.29 -7.39 2.39
8.43 -7.22 2.39
8.57 -7.05 2.39
8.70 -6.87 2.39
8.84 -6.69 2.39
8.97 -6.51 2.39
9.09 -6.33 2.39
9.21 -6.14 2.39
9.33 -5.95 2.39
9.45 -5.76 2.39
9.56 -5.57 2.39
9.66 -5.38 2.39
9.77 -5.18 2.39
9.86 -4.98 2.39
9.96 -4.78 2.39
10.05 -4.58 2.39
10.14 -4.37 2.39
2.27 -0.92 0.53
2.28 -0.88 0.53
2.33 -0.84 0.54
10.44 -3.54 2.39
10.51 -3.33 2.39
10.57 -3.12 2.39
10.63 -2.90 2.39
10.68 -2.69 2.39
10.73 -2.47 2.39
10.78 -2.25 2.39
10.82 -2.04 2.39
10.86 -1.82 2.39
10.89 -1.60 2.39
10.92 -1.38 2.39
10.94 -1.16 2.39
10.96 -0.94 2.39
10.98 -0.72 2.39
10.99 -0.50 2.39
11.00 -0.28 2.39
11.00 -0.06 2.39
11.00 0.16 2.39
10.99 0.39 2.39
10.98 0.61 2.39
10.97 0.83 2.39
10.95 1.05 2.39
10.92 1.27 2.39
10.90 1.49 2.39
10.86 1.70 2.39
10.83 1.92 2.39
10.79 2.14 2.39
10.74 2.36 2.39
10.69 2.57 2.39
10.64 2.79 2.39
10.58 3.00 2.39
10.52 3.21 2.39
10.46 3.42 2.39
10.39 3.63 2.39
10.31 3.84 2.39
10.24 4.05 2.39
10.15 4.25 2.39
10.07 4.46 2.39
9.98 4.66 2.39
9.88 4.86 2.39
9.79 5.06 2.39
9.68 5.26 2.39
9.58 5.45 2.39
9.47 5.64 2.39
9.36 5.83 2.39
9.24 6.02 2.39
9.12 6.21 2.39
9.00 6.39 2.39
8.87 6.57 2.39
8.74 6.75 2.39
8.60 6.93 2.39
8.46 7.10 2.39
8.32 7.27 2.39
8.18 7.44 2.39
8.03 7.61 2.39
7.88 7.77 2.39
7.72 7.93 2.39
7.56 8.09 2.39
7.40 8.24 2.39
7.24 8.39 2.39
7.07 8.54 2.39
6.90 8.68 2.39
6.73 8.82 2.39
6.55 8.96 2.39
6.37 9.09 2.39
6.19 9.22 2.39
6.01 9.35 2.39
5.81 9.46 2.39
5.63 9.58 2.39
5.43 9.70 2.39
5.24 9.81 2.39
5.05 9.92 2.39
4.85 10.02 2.39
4.65 10.12 2.39
4.45 10.22 2.39
4.24 10.31 2.39
4.04 10.40 2.39
3.83 10.48 2.39
3.62 10.56 2.39
3.41 10.64 2.39
3.20 10.71 2.39
2.98 10.78 2.39
2.77 10.84 2.39
2.55 10.90 2.39
2.33 10.96 2.39
2.11 11.01 2.39
1.90 11.11 2.40
1.74 11.58 2.49
1.51 11.62 2.49
1.28 11.65 2.49
1.04 11.68 2.49
0.81 11.71 2.49
0.57 11.73 2.49
0.34 11.74 2.49
0.10 11.75 2.49
-0.13 11.76 2.49
-0.37 11.76 2.49
-0.61 11.76 2.49
-0.84 11.75 2.49
-1.08 11.74 2.49
-1.31 11.72 2.49
-1.55 11.70 2.49
-1.79 11.67 2.49
-2.02 11.64 2.49
-2.26 11.61 2.49
-2.49 11.57 2.49
-2.72 11.52 2.49
-2.96 11.47 2.49
-3.19 11.42 2.49
-3.42 11.36 2.49
-3.65 11.29 2.49
-3.88 11.22 2.49
-4.10 11.15 2.49
-4.33 11.07 2.49
-4.55 10.99 2.49
-4.77 10.90 2.49
-4.99 10.81 2.49
-5.21 10.71 2.49
-5.43 10.61 2.49
-5.65 10.51 2.49
-5.86 10.40 2.49
-6.07 10.29 2.49
-6.15 9.95 2.44
-6.22 9.63 2.39
-6.41 9.51 2.39
-6.60 9.38 2.39
-6.80 9.25 2.39
-6.98 9.12 2.39
-7.17 8.98 2.39
-7.35 8.84 2.39
-7.53 8.70 2.39
-7.71 8.55 2.39
-7.88 8.40 2.39
-8.05 8.24 2.39
-8.22 8.08 2.39
-8.38 7.92 2.39
-8.54 7.75 2.39
-8.70 7.58 2.39
-8.86 7.41 2.39
-9.01 7.23 2.39
-9.15 7.05 2.39
-9.30 6.87 2.39
-9.44 6.69 2.39
-9.57 6.50 2.39
-9.63 6.26 2.37
-9.67 6.01 2.35
-9.71 5.77 2.33
-9.75 5.53 2.31
-9.79 5.30 2.29
-9.82 5.06 2.28
-9.86 4.83 2.26
-9.89 4.61 2.25
-9.92 4.38 2.23
-9.94 4.15 2.22
-9.96 3.93 2.20
-9.98 3.71 2.19
-9.99 3.49 2.18
-10.00 3.27 2.16
-10.09 3.07 2.17
-10.18 2.88 2.17
-10.27 2.68 2.18
-10.35 2.48 2.19
-10.41 2.28 2.19
-10.42 2.06 2.18
-10.42 1.85 2.17
-10.42 1.63 2.17
-10.48 1.43 2.17
-10.54 1.22 2.18
-10.59 1.01 2.18
-10.65 0.80 2.19
-10.70 0.59 2.20
-10.75 0.38 2.21
-10.76 0.16 2.21
-10.75 -0.06 2.21
-10.76 -0.27 2.21
-10.77 -0.49 2.21
-10.77 -0.70 2.21
-10.77 -0.92 2.22
-10.76 -1.14 2.22
-10.76 -1.36 2.22
-10.75 -1.58 2.23
-10.74 -1.80 2.23
-10.74 -2.02 2.24
-10.72 -2.24 2.25
-10.69 -2.45 2.25
-10.65 -2.67 2.25
-10.62 -2.89 2.26
-10.58 -3.11 2.26
-10.54 -3.33 2.27
-10.49 -3.55 2.27
-10.45 -3.77 2.28
-10.43 -4.00 2.29
-10.41 -4.23 2.31
-10.39 -4.47 2.32
-10.38 -4.71 2.34
-10.36 -4.96 2.36
-10.34 -5.20 2.38
-10.31 -5.45 2.40
-10.29 -5.71 2.42
-10.26 -5.96 2.44
-9.93 -6.04 2.39
-9.81 -6.24 2.39
-9.68 -6.43 2.39
-9.54 -6.62 2.39
-9.41 -6.81 2.39
-9.27 -7.00 2.39
-9.12 -7.18 2.39
-8.97 -7.36 2.39
-8.82 -7.53 2.39
-8.66 -7.71 2.39
-8.50 -7.88 2.39
-8.34 -8.04 2.39
-8.18 -8.20 2.39
-8.01 -8.36 2.39
-7.83 -8.52 2.39
-7.66 -8.67 2.39
-7.48 -8.82 2.39
-7.30 -8.96 2.39
-7.11 -9.10 2.39
-6.93 -9.24 2.39
-6.74 -9.37 2.39
-6.55 -9.50 2.39
-6.35 -9.63 2.39
-6.15 -9.75 2.39
-5.99 -9.93 2.41
-5.98 -10.37 2.49
-5.79 -10.52 2.49
-5.57 -10.63 2.49
-5.36 -10.73 2.49
-5.14 -10.83 2.49
-4.92 -10.93 2.49
-4.69 -11.02 2.49
-4.47 -11.11 2.49
-4.24 -11.19 2.49
-4.01 -11.26 2.49
-3.79 -11.34 2.49
-3.56 -11.40 2.49
-3.32 -11.47 2.49
-3.09 -11.52 2.49
-2.86 -11.58 2.49
-2.62 -11.63 2.49
-2.39 -11.67 2.49
-2.15 -11.71 2.49
-1.92 -11.74 2.49
-1.68 -11.77 2.49
-1.44 -11.80 2.49
-1.20 -11.81 2.49
-0.97 -11.83 2.49
-0.73 -11.84 2.49
-0.49 -11.84 2.49
-0.25 -11.85 2.49
-0.02 -10.65 2.49
0.20 -10.64 2.49
0.41 -10.63 2.49
0.62 -10.61 2.49
0.84 -10.59 2.49
1.05 -10.57 2.49
1.26 -10.54 2.49
1.47 -10.50 2.49
1.68 -10.47 2.49
1.89 -10.42 2.49
2.07 -10.23 2.46
2.21 -9.90 2.39
2.40 -9.85 2.39
2.60 -9.79 2.39
2.80 -9.74 2.39
2.99 -9.67 2.39
3.18 -9.60 2.39
3.37 -9.53 2.39
3.56 -9.46 2.39
3.75 -9.38 2.39
3.93 -9.30 2.39
4.12 -9.21 2.39
4.30 -9.12 2.39
4.48 -9.03 2.39
4.66 -8.94 2.39
4.83 -8.84 2.39
5.01 -8.73 2.39
5.18 -8.63 2.39
5.35 -8.52 2.39
5.52 -8.40 2.39
5.68 -8.29 2.39
5.84 -8.17 2.39
6.00 -8.04 2.39
6.17 -7.93 2.39
6.32 -7.80 2.39
6.48 -7.67 2.39
6.63 -7.53 2.39
6.77 -7.39 2.39
6.92 -7.25 2.39
7.06 -7.11 2.39
7.20 -6.96 2.39
7.33 -6.81 2.39
7.46 -6.66 2.39
7.59 -6.51 2.39
7.72 -6.35 2.39
7.84 -6.19 2.39
7.96 -6.03 2.39
8.08 -5.87 2.39
8.19 -5.70 2.39
8.30 -5.54 2.39
8.41 -5.37 2.39
8.51 -5.19 2.39
8.61 -5.02 2.39
8.71 -4.85 2.39
8.80 -4.67 2.39
8.89 -4.49 2.39
8.98 -4.31 2.39
9.06 -4.13 2.39
9.14 -3.94 2.39
2.27 -0.93 0.59
2.28 -0.88 0.59
2.33 -0.84 0.60
9.42 -3.19 2.39
9.48 -3.00 2.39
9.53 -2.81 2.39
9.58 -2.62 2.39
9.63 -2.42 2.39
9.68 -2.23 2.39
9.72 -2.03 2.39
9.76 -1.84 2.39
9.79 -1.64 2.39
9.82 -1.44 2.39
9.85 -1.25 2.39
9.87 -1.05 2.39
9.89 -0.85 2.39
9.90 -0.65 2.39
9.91 -0.45 2.39
9.92 -0.25 2.39
9.92 -0.05 2.39
9.92 0.15 2.39
9.91 0.35 2.39
9.90 0.55 2.39
9.89 0.75 2.39
9.87 0.94 2.39
9.85 1.14 2.39
9.83 1.34 2.39
9.80 1.54 2.39
9.76 1.73 2.39
9.73 1.93 2.39
9.69 2.13 2.39
9.64 2.32 2.39
9.60 2.51 2.39
9.54 2.71 2.39
9.49 2.90 2.39
9.43 3.09 2.39
9.37 3.28 2.39
9.30 3.46 2.39
9.23 3.65 2.39
9.16 3.84 2.39
9.08 4.02 2.39
9.00 4.20 2.39
8.91 4.38 2.39
8.82 4.56 2.39
8.73 4.74 2.39
8.64 4.92 2.39
8.54 5.09 2.39
8.44 5.26 2.39
8.33 5.43 2.39
8.22 5.60 2.39
8.11 5.76 2.39
7.99 5.93 2.39
7.87 6.09 2.39
7.75 6.25 2.39
7.63 6.40 2.39
7.50 6.56 2.39
7.37 6.71 2.39
7.24 6.86 2.39
7.10 7.00 2.39
6.96 7.15 2.39
6.82 7.29 2.39
6.67 7.43 2.39
6.52 7.56 2.39
6.37 7.69 2.39
6.22 7.82 2.39
6.06 7.95 2.39
5.89 8.06 2.39
5.73 8.18 2.39
5.57 8.30 2.39
5.40 8.41 2.39
5.24 8.52 2.39
5.07 8.63 2.39
4.89 8.73 2.39
4.72 8.84 2.39
4.54 8.93 2.39
4.37 9.03 2.39
4.18 9.12 2.39
4.00 9.20 2.39
3.82 9.29 2.39
3.63 9.36 2.39
3.45 9.44 2.39
3.26 9.51 2.39
3.07 9.58 2.39
2.88 9.64 2.39
2.68 9.71 2.39
2.49 9.76 2.39
2.29 9.82 2.39
2.10 9.86 2.39
1.91 9.96 2.40
1.77 10.38 2.49
1.57 10.42 2.49
1.36 10.45 2.49
1.15 10.48 2.49
0.94 10.51 2.49
0.73 10.53 2.49
0.52 10.55 2.49
0.30 10.57 2.49
0.09 10.57 2.49
-0.12 10.58 2.49
-0.33 10.58 2.49
-0.55 10.58 2.49
-0.76 10.57 2.49
-0.97 10.56 2.49
-1.18 10.54 2.49
-1.40 10.52 2.49
-1.61 10.50 2.49
-1.82 10.47 2.49
-2.03 10.44 2.49
-2.24 10.40 2.49
-2.45 10.36 2.49
-2.66 10.31 2.49
-2.87 10.26 2.49
-3.07 10.21 2.49
-3.28 10.15 2.49
-3.49 10.09 2.49
-3.69 10.02 2.49
-3.89 9.95 2.49
-4.09 9.88 2.49
-4.29 9.80 2.49
-4.49 9.71 2.49
-4.69 9.63 2.49
-4.88 9.54 2.49
-5.07 9.44 2.49
-5.27 9.34 2.49
-5.45 9.24 2.49
-5.64 9.13 2.49
-5.83 9.02 2.49
-6.01 8.91 2.49
-6.14 8.71 2.47
-6.14 8.36 2.41
-6.27 8.19 2.39
-6.44 8.07 2.39
-6.60 7.94 2.39
-6.76 7.81 2.39
-6.92 7.67 2.39
-7.08 7.54 2.39
-7.23 7.40 2.39
-7.38 7.25 2.39
-7.53 7.11 2.39
-7.67 6.96 2.39
-7.81 6.81 2.39
-7.95 6.65 2.39
-8.09 6.49 2.39
-8.22 6.33 2.39
-8.35 6.17 2.39
-8.47 6.00 2.39
-8.59 5.83 2.39
-8.71 5.66 2.39
-8.83 5.49 2.39
-8.94 5.31 2.39
-9.05 5.13 2.39
-9.15 4.95 2.39
-9.25 4.77 2.39
-9.35 4.58 2.39
-9.44 4.40 2.39
-9.53 4.21 2.39
-9.59 4.01 2.38
-9.61 3.79 2.37
-9.63 3.58 2.36
-9.64 3.36 2.34
-9.66 3.15 2.33
-9.67 2.94 2.32
-9.75 2.75 2.32
-9.83 2.57 2.33
-9.91 2.38 2.33
-9.93 2.17 2.33
-9.93 1.97 2.32
-9.94 1.76 2.31
-9.94 1.56 2.30
-9.94 1.35 2.30
-9.94 1.15 2.29
-9.99 0.95 2.30
-10.04 0.75 2.30
-10.09 0.56 2.31
-10.13 0.35 2.32
-10.14 0.15 2.32
-10.13 -0.05 2.32
-10.13 -0.26 2.32
-10.12 -0.46 2.32
-10.11 -0.66 2.32
-10.11 -0.86 2.32
-10.10 -1.07 2.32
-10.10 -1.27 2.33
-10.09 -1.48 2.33
-10.08 -1.68 2.34
-10.07 -1.89 2.34
-10.07 -2.10 2.35
-10.06 -2.31 2.36
-10.05 -2.52 2.37
-10.04 -2.73 2.38
-10.01 -2.94 2.39
-9.97 -3.15 2.39
-9.90 -3.35 2.39
-9.83 -3.54 2.39
-9.76 -3.74 2.39
-9.68 -3.93 2.39
-9.60 -4.13 2.39
-9.51 -4.32 2.39
-9.42 -4.51 2.39
-9.32 -4.69 2.39
-9.23 -4.88 2.39
-9.13 -5.06 2.39
-9.02 -5.24 2.39
-8.91 -5.42 2.39
-8.80 -5.60 2.39
-8.68 -5.77 2.39
-8.56 -5.94 2.39
-8.44 -6.11 2.39
-8.31 -6.28 2.39
-8.18 -6.44 2.39
-8.05 -6.60 2.39
-7.91 -6.76 2.39
-7.77 -6.91 2.39
-7.63 -7.07 2.39
-7.49 -7.22 2.39
-7.34 -7.36 2.39
-7.19 -7.50 2.39
-7.03 -7.64 2.39
-6.87 -7.78 2.39
-6.71 -7.91 2.39
-6.55 -8.04 2.39
-6.39 -8.17 2.39
-6.22 -8.29 2.39
-6.05 -8.41 2.39
-5.99 -8.70 2.44
-5.95 -9.02 2.49
-5.76 -9.13 2.49
-5.58 -9.24 2.49
-5.39 -9.34 2.49
-5.20 -9.45 2.49
-5.00 -9.54 2.49
-4.81 -9.64 2.49
-4.61 -9.73 2.49
-4.42 -9.81 2.49
-4.22 -9.90 2.49
-4.01 -9.97 2.49
-3.81 -10.05 2.49
-3.61 -10.12 2.49
-3.40 -10.18 2.49
-3.20 -10.24 2.49
-2.99 -10.30 2.49
-2.78 -10.35 2.49
-2.57 -10.40 2.49
-2.36 -10.45 2.49
-2.15 -10.49 2.49
-1.94 -10.52 2.49
-1.72 -10.55 2.49
-1.51 -10.58 2.49
-1.30 -10.60 2.49
-1.08 -10.62 2.49
-0.87 -10.63 2.49
-0.66 -10.64 2.49
-0.44 -10.65 2.49
-0.23 -10.65 2.49
-0.02 -9.66 2.49
0.18 -9.65 2.49
0.37 -9.64 2.49
0.57 -9.63 2.49
0.76 -9.61 2.49
0.95 -9.59 2.49
1.14 -9.56 2.49
1.33 -9.53 2.49
1.52 -9.50 2.49
1.71 -9.46 2.49
1.90 -9.42 2.49
2.06 -9.23 2.46
2.18 -8.94 2.39
2.36 -8.89 2.39
2.54 -8.84 2.39
2.71 -8.78 2.39
2.89 -8.72 2.39
3.06 -8.66 2.39
3.23 -8.59 2.39
3.40 -8.52 2.39
3.57 -8.45 2.39
3.74 -8.37 2.39
3.90 -8.29 2.39
4.07 -8.20 2.39
4.23 -8.12 2.39
4.39 -8.03 2.39
4.55 -7.93 2.39
4.70 -7.84 2.39
4.86 -7.74 2.39
5.01 -7.64 2.39
5.16 -7.53 2.39
5.31 -7.42 2.39
5.45 -7.31 2.39
5.60 -7.20 2.39
5.74 -7.08 2.39
5.88 -6.96 2.39
6.01 -6.84 2.39
6.15 -6.72 2.39
6.29 -6.59 2.39
6.41 -6.46 2.39
6.54 -6.33 2.39
6.66 -6.20 2.39
6.78 -6.06 2.39
6.90 -5.92 2.39
7.02 -5.78 2.39
7.13 -5.63 2.39
7.24 -5.49 2.39
7.35 -5.34 2.39
7.45 -5.19 2.39
7.55 -5.03 2.39
7.65 -4.88 2.39
7.74 -4.72 2.39
7.83 -4.57 2.39
7.92 -4.41 2.39
8.00 -4.25 2.39
8.09 -4.08 2.39
8.16 -3.92 2.39
8.24 -3.75 2.39
8.31 -3.59 2.39
2.27 -0.93 0.65
2.28 -0.88 0.65
2.33 -0.84 0.66
8.56 -2.90 2.39
8.62 -2.73 2.39
8.67 -2.56 2.39
8.72 -2.38 2.39
8.76 -2.20 2.39
8.80 -2.03 2.39
8.84 -1.85 2.39
8.88 -1.67 2.39
8.91 -1.49 2.39
8.93 -1.31 2.39
8.96 -1.13 2.39
8.98 -0.95 2.39
8.99 -0.77 2.39
9.01 -0.59 2.39
9.01 -0.41 2.39
9.02 -0.23 2.39
9.02 -0.05 2.39
9.02 0.13 2.39
9.02 0.32 2.39
9.01 0.50 2.39
9.00 0.68 2.39
8.98 0.86 2.39
8.96 1.04 2.39
8.94 1.22 2.39
8.91 1.40 2.39
8.88 1.58 2.39
8.85 1.76 2.39
8.81 1.93 2.39
8.77 2.11 2.39
8.73 2.29 2.39
8.68 2.46 2.39
8.63 2.64 2.39
8.58 2.81 2.39
8.52 2.98 2.39
8.46 3.15 2.39
8.40 3.32 2.39
8.33 3.49 2.39
8.26 3.66 2.39
8.18 3.82 2.39
8.11 3.99 2.39
8.03 4.15 2.39
7.94 4.31 2.39
7.85 4.47 2.39
7.76 4.63 2.39
7.67 4.79 2.39
7.58 4.94 2.39
7.48 5.09 2.39
7.37 5.24 2.39
7.27 5.39 2.39
7.16 5.54 2.39
7.05 5.68 2.39
6.94 5.82 2.39
6.82 5.96 2.39
6.70 6.10 2.39
6.58 6.24 2.39
6.45 6.37 2.39
6.33 6.50 2.39
6.20 6.63 2.39
6.06 6.75 2.39
5.92 6.87 2.39
5.78 6.99 2.39
5.64 7.10 2.39
5.50 7.22 2.39
5.36 7.33 2.39
5.21 7.44 2.39
5.06 7.55 2.39
4.91 7.65 2.39
4.76 7.75 2.39
4.60 7.85 2.39
4.45 7.94 2.39
4.29 8.03 2.39
4.13 8.12 2.39
3.97 8.20 2.39
3.80 8.28 2.39
3.64 8.36 2.39
3.47 8.44 2.39
3.30 8.51 2.39
3.13 8.58 2.39
2.96 8.64 2.39
2.79 8.70 2.39
2.61 8.76 2.39
2.44 8.82 2.39
2.26 8.87 2.39
2.10 8.98 2.41
1.92 9.02 2.41
1.80 9.39 2.49
1.61 9.43 2.49
1.42 9.46 2.49
1.23 9.49 2.49
1.04 9.52 2.49
0.85 9.55 2.49
0.66 9.57 2.49
0.47 9.58 2.49
0.27 9.59 2.49
0.08 9.60 2.49
-0.11 9.61 2.49
-0.30 9.61 2.49
-0.50 9.60 2.49
-0.69 9.60 2.49
-0.88 9.59 2.49
-1.08 9.57 2.49
-1.27 9.55 2.49
-1.46 9.53 2.49
-1.65 9.50 2.49
-1.84 9.47 2.49
-2.03 9.44 2.49
-2.22 9.40 2.49
-2.41 9.36 2.49
-2.60 9.31 2.49
-2.79 9.26 2.49
-2.98 9.21 2.49
-3.16 9.15 2.49
-3.35 9.09 2.49
-3.53 9.03 2.49
-3.71 8.96 2.49
-3.89 8.89 2.49
-4.07 8.81 2.49
-4.25 8.73 2.49
-4.43 8.65 2.49
-4.60 8.56 2.49
-4.78 8.47 2.49
-4.95 8.38 2.49
-5.12 8.28 2.49
-5.28 8.18 2.49
-5.45 8.08 2.49
-5.61 7.97 2.49
-5.77 7.86 2.49
-5.93 7.74 2.49
-6.09 7.63 2.49
-6.12 7.36 2.45
-6.13 7.08 2.39
-6.28 6.96 2.39
-6.42 6.83 2.39
-6.55 6.70 2.39
-6.69 6.57 2.39
-6.82 6.44 2.39
-6.95 6.31 2.39
-7.08 6.17 2.39
-7.21 6.03 2.39
-7.33 5.88 2.39
-7.45 5.74 2.39
-7.56 5.59 2.39
-7.68 5.44 2.39
-7.79 5.28 2.39
-7.89 5.13 2.39
-8.00 4.97 2.39
-8.10 4.81 2.39
-8.20 4.65 2.39
-8.29 4.49 2.39
-8.38 4.32 2.39
-8.47 4.15 2.39
-8.55 3.98 2.39
-8.63 3.81 2.39
-8.71 3.64 2.39
-8.78 3.46 2.39
-8.85 3.29 2.39
-8.92 3.11 2.39
-8.98 2.93 2.39
-9.04 2.75 2.39
-9.10 2.57 2.39
-9.15 2.39 2.39
-9.19 2.20 2.39
-9.24 2.02 2.39
-9.28 1.83 2.39
-9.31 1.65 2.39
-9.35 1.46 2.39
-9.38 1.27 2.39
-9.40 1.09 2.39
-9.42 0.90 2.39
-9.44 0.71 2.39
-9.45 0.52 2.39
-9.46 0.33 2.39
-9.47 0.14 2.39
-9.47 -0.05 2.39
-9.47 -0.24 2.39
-9.46 -0.43 2.39
-9.45 -0.62 2.39
-9.44 -0.81 2.39
-9.42 -1.00 2.39
-9.40 -1.18 2.39
-9.37 -1.37 2.39
-9.34 -1.56 2.39
-9.31 -1.75 2.39
-9.27 -1.93 2.39
-9.23 -2.12 2.39
-9.18 -2.30 2.39
-9.13 -2.49 2.39
-9.08 -2.67 2.39
-9.03 -2.85 2.39
-8.97 -3.03 2.39
-8.90 -3.21 2.39
-8.84 -3.39 2.39
-8.77 -3.56 2.39
-8.69 -3.74 2.39
-8.61 -3.91 2.39
-8.53 -4.08 2.39
-8.45 -4.25 2.39
-8.36 -4.42 2.39
-8.27 -4.58 2.39
-8.17 -4.75 2.39
-8.07 -4.91 2.39
-7.97 -5.07 2.39
-7.87 -5.23 2.39
-7.76 -5.38 2.39
-7.65 -5.53 2.39
-7.53 -5.69 2.39
-7.41 -5.83 2.39
-7.29 -5.98 2.39
-7.17 -6.12 2.39
-7.04 -6.26 2.39
-6.92 -6.40 2.39
-6.78 -6.54 2.39
-6.65 -6.67 2.39
-6.51 -6.80 2.39
-6.37 -6.93 2.39
-6.23 -7.05 2.39
-6.09 -7.17 2.39
-6.01 -7.38 2.42
-6.00 -7.68 2.48
-5.88 -7.84 2.49
-5.72 -7.95 2.49
-5.56 -8.06 2.49
-5.39 -8.17 2.49
-5.23 -8.27 2.49
-5.06 -8.37 2.49
-4.89 -8.47 2.49
-4.71 -8.56 2.49
-4.54 -8.65 2.49
-4.36 -8.74 2.49
-4.18 -8.82 2.49
-4.00 -8.90 2.49
-3.82 -8.97 2.49
-3.64 -9.04 2.49
-3.46 -9.11 2.49
-3.27 -9.17 2.49
-3.09 -9.23 2.49
-2.90 -9.29 2.49
-2.71 -9.34 2.49
-2.52 -9.39 2.49
-2.33 -9.43 2.49
-2.14 -9.47 2.49
-1.95 -9.51 2.49
-1.76 -9.54 2.49
-1.57 -9.57 2.49
-1.37 -9.60 2.49
-1.18 -9.62 2.49
-0.99 -9.63 2.49
-0.79 -9.65 2.49
-0.60 -9.66 2.49
-0.40 -9.66 2.49
-0.21 -9.66 2.49
-0.02 -8.83 2.49
0.16 -8.83 2.49
0.34 -8.82 2.49
0.52 -8.81 2.49
0.69 -8.79 2.49
0.87 -8.77 2.49
1.04 -8.75 2.49
1.22 -8.72 2.49
1.39 -8.69 2.49
1.57 -8.66 2.49
1.74 -8.62 2.49
1.91 -8.58 2.49
2.05 -8.41 2.46
2.16 -8.14 2.39
2.32 -8.09 2.39
2.48 -8.04 2.39
2.64 -7.98 2.39
2.80 -7.92 2.39
2.96 -7.86 2.39
3.11 -7.80 2.39
3.27 -7.73 2.39
3.42 -7.66 2.39
3.57 -7.59 2.39
3.72 -7.51 2.39
3.87 -7.43 2.39
4.02 -7.35 2.39
4.16 -7.26 2.39
4.30 -7.17 2.39
4.45 -7.08 2.39
4.59 -6.99 2.39
4.72 -6.89 2.39
4.86 -6.79 2.39
4.99 -6.69 2.39
5.12 -6.59 2.39
5.25 -6.48 2.39
5.38 -6.37 2.39
5.50 -6.26 2.39
5.63 -6.15 2.39
5.75 -6.03 2.39
5.87 -5.91 2.39
5.98 -5.79 2.39
6.10 -5.67 2.39
6.21 -5.55 2.39
6.32 -5.42 2.39
6.43 -5.29 2.39
6.53 -5.16 2.39
6.63 -5.02 2.39
6.73 -4.89 2.39
6.82 -4.75 2.39
6.91 -4.61 2.39
7.00 -4.47 2.39
7.09 -4.33 2.39
7.17 -4.18 2.39
7.25 -4.04 2.39
7.33 -3.89 2.39
7.41 -3.74 2.39
7.48 -3.59 2.39
7.55 -3.44 2.39
7.61 -3.28 2.39
2.27 -0.93 0.71
2.28 -0.88 0.71
2.33 -0.84 0.72
7.85 -2.66 2.39
7.90 -2.50 2.39
7.94 -2.34 2.39
7.99 -2.18 2.39
8.03 -2.02 2.39
8.07 -1.86 2.39
8.10 -1.70 2.39
8.13 -1.53 2.39
8.16 -1.37 2.39
8.18 -1.20 2.39
8.21 -1.04 2.39
8.22 -0.87 2.39
8.24 -0.71 2.39
8.25 -0.54 2.39
8.26 -0.38 2.39
8.26 -0.21 2.39
8.27 -0.04 2.39
8.27 0.12 2.39
8.26 0.29 2.39
8.25 0.46 2.39
8.24 0.62 2.39
8.23 0.79 2.39
8.21 0.95 2.39
8.19 1.12 2.39
8.17 1.28 2.39
8.14 1.45 2.39
8.11 1.61 2.39
8.07 1.77 2.39
8.04 1.93 2.39
8.00 2.09 2.39
7.95 2.26 2.39
7.91 2.42 2.39
7.86 2.57 2.39
7.81 2.73 2.39
7.75 2.89 2.39
7.69 3.04 2.39
7.63 3.20 2.39
7.56 3.35 2.39
7.50 3.50 2.39
7.43 3.65 2.39
7.35 3.80 2.39
7.28 3.95 2.39
7.20 4.10 2.39
7.11 4.24 2.39
7.03 4.38 2.39
6.94 4.53 2.39
6.85 4.67 2.39
6.76 4.80 2.39
6.66 4.94 2.39
6.56 5.07 2.39
6.46 5.21 2.39
6.35 5.34 2.39
6.25 5.46 2.39
6.14 5.59 2.39
6.02 5.71 2.39
5.90 5.83 2.39
5.79 5.95 2.39
5.67 6.06 2.39
5.55 6.18 2.39
5.42 6.29 2.39
5.30 6.40 2.39
5.17 6.51 2.39
5.04 6.61 2.39
4.91 6.71 2.39
4.77 6.81 2.39
4.64 6.91 2.39
4.50 7.00 2.39
4.36 7.10 2.39
4.21 7.18 2.39
4.07 7.27 2.39
3.93 7.35 2.39
3.78 7.43 2.39
3.63 7.51 2.39
3.48 7.58 2.39
3.33 7.66 2.39
3.17 7.72 2.39
3.02 7.79 2.39
2.86 7.85 2.39
2.71 7.91 2.39
2.55 7.97 2.39
2.39 8.02 2.39
2.23 8.07 2.39
2.07 8.12 2.39
1.92 8.23 2.41
1.82 8.55 2.49
1.64 8.59 2.49
1.47 8.63 2.49
1.30 8.66 2.49
1.13 8.69 2.49
0.95 8.71 2.49
0.78 8.73 2.49
0.60 8.75 2.49
0.43 8.77 2.49
0.25 8.78 2.49
0.07 8.78 2.49
-0.10 8.79 2.49
-0.28 8.79 2.49
-0.46 8.78 2.49
-0.63 8.78 2.49
-0.81 8.77 2.49
-0.99 8.75 2.49
-1.16 8.74 2.49
-1.34 8.71 2.49
-1.51 8.69 2.49
-1.69 8.66 2.49
-1.86 8.63 2.49
-2.04 8.60 2.49
-2.21 8.56 2.49
-2.38 8.51 2.49
-2.55 8.47 2.49
-2.72 8.42 2.49
-2.89 8.37 2.49
-3.06 8.31 2.49
-3.23 8.25 2.49
-3.40 8.19 2.49
-3.56 8.12 2.49
-3.72 8.05 2.49
-3.89 7.98 2.49
-4.05 7.90 2.49
-4.21 7.83 2.49
-4.37 7.74 2.49
-4.52 7.66 2.49
-4.68 7.57 2.49
-4.83 7.48 2.49
-4.98 7.38 2.49
-5.13 7.28 2.49
-5.28 7.18 2.49
-5.42 7.08 2.49
-5.57 6.97 2.49
-5.71 6.86 2.49
-5.85 6.75 2.49
-5.98 6.63 2.49
-6.12 6.51 2.49
-6.12 6.25 2.44
-6.13 6.02 2.40
-6.23 5.88 2.39
-6.35 5.76 2.39
-6.47 5.63 2.39
-6.58 5.50 2.39
-6.69 5.37 2.39
-6.80 5.24 2.39
-6.91 5.10 2.39
-7.01 4.97 2.39
-7.11 4.83 2.39
-7.21 4.68 2.39
-7.30 4.54 2.39
-7.40 4.39 2.39
-7.49 4.25 2.39
-7.57 4.10 2.39
-7.65 3.94 2.39
-7.73 3.79 2.39
-7.81 3.64 2.39
-7.88 3.48 2.39
-7.95 3.32 2.39
-8.02 3.16 2.39
-8.08 3.00 2.39
-8.14 2.84 2.39
-8.20 2.68 2.39
-8.25 2.51 2.39
-8.30 2.35 2.39
-8.35 2.18 2.39
-8.39 2.01 2.39
-8.43 1.84 2.39
-8.47 1.67 2.39
-8.50 1.50 2.39
-8.53 1.33 2.39
-8.56 1.16 2.39
-8.58 0.99 2.39
-8.60 0.82 2.39
-8.62 0.65 2.39
-8.63 0.47 2.39
-8.64 0.30 2.39
-8.64 0.13 2.39
-8.64 -0.05 2.39
-8.64 -0.22 2.39
-8.64 -0.39 2.39
-8.63 -0.56 2.39
-8.61 -0.74 2.39
-8.60 -0.91 2.39
-8.58 -1.08 2.39
-8.55 -1.25 2.39
-8.53 -1.42 2.39
-8.50 -1.59 2.39
-8.46 -1.76 2.39
-8.42 -1.93 2.39
-8.38 -2.10 2.39
-8.34 -2.27 2.39
-8.29 -2.44 2.39
-8.24 -2.60 2.39
-8.19 -2.77 2.39
-8.13 -2.93 2.39
-8.07 -3.09 2.39
-8.00 -3.25 2.39
-7.93 -3.41 2.39
-7.86 -3.57 2.39
-7.79 -3.73 2.39
-7.71 -3.88 2.39
-7.63 -4.03 2.39
-7.55 -4.18 2.39
-7.46 -4.33 2.39
-7.37 -4.48 2.39
-7.28 -4.63 2.39
-7.18 -4.77 2.39
-7.08 -4.91 2.39
-6.98 -5.05 2.39
-6.88 -5.19 2.39
-6.77 -5.33 2.39
-6.66 -5.46 2.39
-6.55 -5.59 2.39
-6.43 -5.72 2.39
-6.32 -5.85 2.39
-6.20 -5.97 2.39
-6.07 -6.09 2.39
-6.02 -6.28 2.42
-6.01 -6.53 2.47
-5.94 -6.72 2.49
-5.80 -6.83 2.49
-5.66 -6.94 2.49
-5.52 -7.05 2.49
-5.37 -7.16 2.49
-5.23 -7.27 2.49
-5.08 -7.37 2.49
-4.93 -7.46 2.49
-4.77 -7.56 2.49
-4.62 -7.65 2.49
-4.46 -7.74 2.49
-4.31 -7.82 2.49
-4.15 -7.90 2.49
-3.99 -7.98 2.49
-3.82 -8.06 2.49
-3.66 -8.13 2.49
-3.49 -8.20 2.49
-3.33 -8.26 2.49
-3.16 -8.33 2.49
-2.99 -8.38 2.49
-2.82 -8.44 2.49
-2.65 -8.49 2.49
-2.48 -8.54 2.49
-2.31 -8.58 2.49
-2.13 -8.62 2.49
-1.96 -8.66 2.49
-1.78 -8.69 2.49
-1.61 -8.72 2.49
-1.43 -8.75 2.49
-1.26 -8.77 2.49
-1.08 -8.79 2.49
-0.90 -8.81 2.49
-0.72 -8.82 2.49
-0.55 -8.83 2.49
-0.37 -8.83 2.49
-0.19 -8.84 2.49
-0.02 -8.13 2.49
0.15 -8.12 2.49
0.31 -8.12 2.49
0.47 -8.11 2.49
0.64 -8.09 2.49
0.80 -8.07 2.49
0.96 -8.05 2.49
1.12 -8.03 2.49
1.28 -8.00 2.49
1.44 -7.97 2.49
1.60 -7.93 2.49
1.76 -7.90 2.49
1.91 -7.86 2.49
2.05 -7.72 2.46
2.13 -7.45 2.39
2.28 -7.40 2.39
2.43 -7.35 2.39
2.58 -7.30 2.39
2.72 -7.24 2.39
2.86 -7.18 2.39
3.01 -7.12 2.39
3.15 -7.05 2.39
3.29 -6.99 2.39
3.43 -6.92 2.39
3.56 -6.84 2.39
3.70 -6.77 2.39
3.83 -6.69 2.39
3.96 -6.61 2.39
4.09 -6.52 2.39
4.22 -6.44 2.39
4.35 -6.35 2.39
4.47 -6.26 2.39
4.60 -6.17 2.39
4.72 -6.07 2.39
4.84 -5.97 2.39
4.95 -5.87 2.39
5.07 -5.77 2.39
5.18 -5.66 2.39
5.29 -5.56 2.39
5.40 -5.45 2.39
5.51 -5.33 2.39
5.61 -5.22 2.39
5.72 -5.11 2.39
5.82 -4.99 2.39
5.91 -4.87 2.39
6.01 -4.75 2.39
6.11 -4.63 2.39
6.20 -4.51 2.39
6.29 -4.38 2.39
6.37 -4.25 2.39
6.45 -4.12 2.39
6.53 -3.99 2.39
6.61 -3.86 2.39
6.68 -3.72 2.39
6.76 -3.58 2.39
6.82 -3.45 2.39
6.89 -3.31 2.39
6.95 -3.17 2.39
7.02 -3.03 2.39
2.27 -0.93 0.77
2.28 -0.88 0.77
2.33 -0.84 0.78
7.23 -2.45 2.39
7.28 -2.31 2.39
7.32 -2.16 2.39
7.36 -2.01 2.39
7.40 -1.86 2.39
7.43 -1.71 2.39
7.47 -1.56 2.39
7.49 -1.41 2.39
7.52 -1.26 2.39
7.54 -1.11 2.39
7.56 -0.96 2.39
7.58 -0.81 2.39
7.59 -0.65 2.39
7.61 -0.50 2.39
7.61 -0.35 2.39
7.62 -0.19 2.39
7.62 -0.04 2.39
7.62 0.11 2.39
7.62 0.27 2.39
7.61 0.42 2.39
7.60 0.57 2.39
7.58 0.73 2.39
7.57 0.88 2.39
7.55 1.03 2.39
7.53 1.18 2.39
7.50 1.33 2.39
7.47 1.48 2.39
7.44 1.63 2.39
7.41 1.78 2.39
7.37 1.93 2.39
7.33 2.08 2.39
7.29 2.23 2.39
7.24 2.37 2.39
7.20 2.52 2.39
7.14 2.66 2.39
7.09 2.81 2.39
7.03 2.95 2.39
6.97 3.09 2.39
6.91 3.23 2.39
6.84 3.37 2.39
6.78 3.51 2.39
6.71 3.64 2.39
6.63 3.78 2.39
6.56 3.91 2.39
6.48 4.04 2.39
6.40 4.17 2.39
6.31 4.30 2.39
6.23 4.43 2.39
6.14 4.55 2.39
6.04 4.68 2.39
5.94 4.79 2.39
5.85 4.91 2.39
5.75 5.03 2.39
5.65 5.14 2.39
5.54 5.26 2.39
5.44 5.37 2.39
5.33 5.48 2.39
5.22 5.59 2.39
5.11 5.69 2.39
5.00 5.80 2.39
4.88 5.90 2.39
4.76 6.00 2.39
4.64 6.09 2.39
4.52 6.19 2.39
4.40 6.28 2.39
4.27 6.37 2.39
4.14 6.45 2.39
4.01 6.54 2.39
3.88 6.62 2.39
3.75 6.70 2.39
3.62 6.77 2.39
3.48 6.85 2.39
3.34 6.92 2.39
3.20 6.99 2.39
3.06 7.05 2.39
2.92 7.12 2.39
2.78 7.18 2.39
2.64 7.23 2.39
2.49 7.29 2.39
2.35 7.34 2.39
2.20 7.39 2.39
2.05 7.43 2.39
1.92 7.56 2.42
1.83 7.84 2.49
1.67 7.88 2.49
1.51 7.91 2.49
1.35 7.94 2.49
1.19 7.97 2.49
1.04 8.00 2.49
0.87 8.02 2.49
0.71 8.04 2.49
0.55 8.06 2.49
0.39 8.07 2.49
0.23 8.08 2.49
0.07 8.09 2.49
-0.10 8.09 2.49
-0.26 8.09 2.49
-0.42 8.09 2.49
-0.58 8.08 2.49
-0.75 8.07 2.49
-0.91 8.06 2.49
-1.07 8.04 2.49
-1.23 8.02 2.49
-1.39 8.00 2.49
-1.55 7.97 2.49
-1.71 7.94 2.49
-1.87 7.91 2.49
-2.03 7.87 2.49
-2.19 7.83 2.49
-2.35 7.79 2.49
-2.51 7.75 2.49
-2.66 7.70 2.49
-2.82 7.65 2.49
-2.97 7.59 2.49
-3.13 7.53 2.49
-3.28 7.47 2.49
-3.43 7.41 2.49
-3.58 7.34 2.49
-3.73 7.27 2.49
-3.87 7.20 2.49
-4.02 7.12 2.49
-4.16 7.04 2.49
-4.30 6.96 2.49
-4.44 6.88 2.49
-4.58 6.79 2.49
-4.72 6.70 2.49
-4.85 6.60 2.49
-4.99 6.51 2.49
-5.12 6.41 2.49
-5.25 6.31 2.49
-5.38 6.20 2.49
-5.50 6.10 2.49
-5.62 5.99 2.49
-5.75 5.87 2.49
-5.86 5.76 2.49
-5.98 5.64 2.49
-6.09 5.52 2.49
-6.11 5.32 2.45
-6.11 5.11 2.41
-6.16 4.94 2.39
-6.26 4.82 2.39
-6.35 4.69 2.39
-6.45 4.56 2.39
-6.54 4.44 2.39
-6.63 4.30 2.39
-6.72 4.17 2.39
-6.80 4.04 2.39
-6.88 3.90 2.39
-6.96 3.76 2.39
-7.04 3.62 2.39
-7.11 3.48 2.39
-7.18 3.34 2.39
-7.25 3.20 2.39
-7.31 3.05 2.39
-7.37 2.91 2.39
-7.43 2.76 2.39
-7.48 2.61 2.39
-7.54 2.46 2.39
-7.59 2.31 2.39
-7.63 2.16 2.39
-7.67 2.00 2.39
-7.71 1.85 2.39
-7.75 1.69 2.39
-7.78 1.54 2.39
-7.82 1.38 2.39
-7.84 1.23 2.39
-7.87 1.07 2.39
-7.89 0.91 2.39
-7.90 0.75 2.39
-7.92 0.59 2.39
-7.93 0.44 2.39
-7.94 0.28 2.39
-7.94 0.12 2.39
-7.94 -0.04 2.39
-7.94 -0.20 2.39
-7.94 -0.36 2.39
-7.93 -0.52 2.39
-7.91 -0.68 2.39
-7.90 -0.84 2.39
-7.88 -0.99 2.39
-7.86 -1.15 2.39
-7.84 -1.31 2.39
-7.81 -1.47 2.39
-7.78 -1.62 2.39
-7.74 -1.78 2.39
-7.70 -1.93 2.39
-7.66 -2.09 2.39
-7.62 -2.24 2.39
-7.57 -2.39 2.39
-7.52 -2.54 2.39
-7.47 -2.69 2.39
-7.41 -2.84 2.39
-7.35 -2.99 2.39
-7.29 -3.13 2.39
-7.23 -3.28 2.39
-7.16 -3.42 2.39
-7.09 -3.57 2.39
-7.01 -3.71 2.39
-6.94 -3.85 2.39
-6.86 -3.98 2.39
-6.77 -4.12 2.39
-6.69 -4.25 2.39
-6.60 -4.39 2.39
-6.51 -4.52 2.39
-6.42 -4.64 2.39
-6.32 -4.77 2.39
-6.24 -4.91 2.40
-6.12 -5.02 2.39
-6.03 -5.15 2.40
-6.02 -5.35 2.43
-6.02 -5.57 2.48
-5.94 -5.72 2.49
-5.82 -5.84 2.49
-5.70 -5.95 2.49
-5.58 -6.07 2.49
-5.46 -6.17 2.49
-5.33 -6.28 2.49
-5.20 -6.38 2.49
-5.07 -6.49 2.49
-4.94 -6.58 2.49
-4.81 -6.68 2.49
-4.67 -6.77 2.49
-4.53 -6.86 2.49
-4.39 -6.95 2.49
-4.25 -7.03 2.49
-4.11 -7.11 2.49
-3.96 -7.19 2.49
-3.81 -7.27 2.49
-3.67 -7.34 2.49
-3.52 -7.41 2.49
-3.37 -7.48 2.49
-3.22 -7.54 2.49
-3.06 -7.60 2.49
-2.91 -7.66 2.49
-2.75 -7.71 2.49
-2.60 -7.76 2.49
-2.44 -7.81 2.49
-2.28 -7.85 2.49
-2.12 -7.89 2.49
-1.96 -7.93 2.49
-1.80 -7.97 2.49
-1.64 -8.00 2.49
-1.48 -8.03 2.49
-1.32 -8.05 2.49
-1.16 -8.07 2.49
-0.99 -8.09 2.49
-0.83 -8.10 2.49
-0.67 -8.12 2.49
-0.50 -8.12 2.49
-0.34 -8.13 2.49
-0.18 -8.13 2.49
-0.02 -7.52 2.49
0.14 -7.52 2.49
0.29 -7.51 2.49
0.44 -7.50 2.49
0.59 -7.49 2.49
0.74 -7.47 2.49
0.89 -7.45 2.49
1.04 -7.43 2.49
1.18 -7.40 2.49
1.33 -7.37 2.49
1.48 -7.34 2.49
1.63 -7.31 2.49
1.77 -7.27 2.49
1.92 -7.23 2.49
2.04 -7.12 2.47
2.11 -6.85 2.39
2.25 -6.80 2.39
2.38 -6.75 2.39
2.52 -6.70 2.39
2.65 -6.65 2.39
2.78 -6.59 2.39
2.91 -6.53 2.39
3.04 -6.47 2.39
3.17 -6.40 2.39
3.30 -6.33 2.39
3.42 -6.26 2.39
3.55 -6.19 2.39
3.67 -6.12 2.39
3.79 -6.04 2.39
3.91 -5.96 2.39
4.03 -5.88 2.39
4.14 -5.80 2.39
4.26 -5.71 2.39
4.37 -5.62 2.39
4.48 -5.53 2.39
4.59 -5.44 2.39
4.69 -5.34 2.39
4.80 -5.24 2.39
4.90 -5.15 2.39
5.00 -5.04 2.39
5.10 -4.94 2.39
5.20 -4.84 2.39
5.29 -4.73 2.39
5.38 -4.62 2.39
5.48 -4.51 2.39
5.56 -4.40 2.39
5.65 -4.28 2.39
5.73 -4.17 2.39
5.81 -4.05 2.39
5.89 -3.93 2.39
5.97 -3.81 2.39
6.05 -3.70 2.39
6.12 -3.57 2.39
6.19 -3.45 2.39
6.26 -3.32 2.39
6.32 -3.19 2.39
6.38 -3.07 2.39
6.44 -2.94 2.39
6.50 -2.81 2.39
2.27 -0.93 0.83
2.28 -0.88 0.83
2.33 -0.84 0.84
6.70 -2.27 2.39
6.74 -2.14 2.39
6.78 -2.00 2.39
6.82 -1.86 2.39
6.85 -1.73 2.39
6.89 -1.59 2.39
6.92 -1.45 2.39
6.94 -1.31 2.39
6.97 -1.17 2.39
6.99 -1.03 2.39
7.01 -0.89 2.39
7.02 -0.75 2.39
7.04 -0.60 2.39
7.05 -0.46 2.39
7.05 -0.32 2.39
7.06 -0.18 2.39
7.06 -0.04 2.39
7.06 0.10 2.39
7.06 0.25 2.39
7.05 0.39 2.39
7.04 0.53 2.39
7.03 0.67 2.39
7.01 0.81 2.39
6.99 0.95 2.39
6.97 1.09 2.39
6.95 1.23 2.39
6.92 1.37 2.39
6.90 1.51 2.39
6.86 1.65 2.39
6.83 1.79 2.39
6.79 1.93 2.39
6.75 2.06 2.39
6.71 2.20 2.39
6.67 2.33 2.39
6.62 2.47 2.39
6.57 2.60 2.39
6.52 2.73 2.39
6.46 2.86 2.39
6.40 2.99 2.39
6.34 3.12 2.39
6.28 3.25 2.39
6.21 3.37 2.39
6.14 3.50 2.39
6.07 3.62 2.39
6.00 3.74 2.39
5.92 3.86 2.39
5.84 3.98 2.39
5.76 4.10 2.39
5.68 4.21 2.39
5.59 4.33 2.39
5.50 4.44 2.39
5.42 4.55 2.39
5.32 4.66 2.39
5.23 4.77 2.39
5.14 4.87 2.39
5.04 4.97 2.39
4.94 5.08 2.39
4.84 5.18 2.39
4.73 5.27 2.39
4.63 5.37 2.39
4.52 5.46 2.39
4.41 5.55 2.39
4.30 5.64 2.39
4.18 5.73 2.39
4.07 5.81 2.39
3.95 5.90 2.39
3.84 5.98 2.39
3.72 6.05 2.39
3.59 6.13 2.39
3.47 6.20 2.39
3.35 6.27 2.39
3.22 6.34 2.39
3.09 6.41 2.39
2.97 6.47 2.39
2.84 6.53 2.39
2.71 6.59 2.39
2.57 6.64 2.39
2.44 6.70 2.39
2.31 6.75 2.39
2.17 6.79 2.39
2.04 6.84 2.39
1.93 6.99 2.43
1.84 7.22 2.49
1.69 7.26 2.49
1.55 7.29 2.49
1.40 7.32 2.49
1.25 7.35 2.49
1.11 7.38 2.49
0.96 7.40 2.49
0.81 7.43 2.49
0.66 7.44 2.49
0.51 7.46 2.49
0.36 7.47 2.49
0.21 7.48 2.49
0.06 7.48 2.49
-0.09 7.49 2.49
-0.24 7.49 2.49
-0.39 7.48 2.49
-0.54 7.48 2.49
-0.69 7.47 2.49
-0.84 7.45 2.49
-0.99 7.44 2.49
-1.14 7.42 2.49
-1.29 7.40 2.49
-1.44 7.38 2.49
-1.59 7.35 2.49
-1.74 7.32 2.49
-1.88 7.28 2.49
-2.03 7.25 2.49
-2.18 7.21 2.49
-2.32 7.17 2.49
-2.46 7.12 2.49
-2.61 7.07 2.49
-2.75 7.02 2.49
-2.89 6.97 2.49
-3.03 6.91 2.49
-3.17 6.85 2.49
-3.31 6.79 2.49
-3.45 6.72 2.49
-3.58 6.66 2.49
-3.72 6.59 2.49
-3.85 6.51 2.49
-3.98 6.44 2.49
-4.11 6.36 2.49
-4.24 6.28 2.49
-4.36 6.19 2.49
-4.49 6.11 2.49
-4.61 6.02 2.49
-4.73 5.92 2.49
-4.85 5.83 2.49
-4.97 5.73 2.49
-5.09 5.64 2.49
-5.20 5.53 2.49
-5.31 5.43 2.49
-5.42 5.32 2.49
-5.53 5.22 2.49
-5.63 5.11 2.49
-5.74 4.99 2.49
-5.84 4.88 2.49
-5.94 4.76 2.49
-6.03 4.64 2.49
-6.10 4.50 2.48
-6.10 4.32 2.45
-6.11 4.14 2.41
-6.13 3.98 2.39
-6.21 3.86 2.39
-6.31 3.74 2.40
-6.36 3.61 2.39
-6.43 3.48 2.39
-6.50 3.35 2.39
-6.57 3.22 2.39
-6.63 3.09 2.39
-6.70 2.95 2.39
-6.76 2.82 2.39
-6.81 2.69 2.39
-6.87 2.55 2.39
-6.92 2.41 2.39
-6.97 2.27 2.39
-7.01 2.13 2.39
-7.05 1.99 2.39
-7.09 1.85 2.39
-7.13 1.71 2.39
-7.16 1.57 2.39
-7.19 1.42 2.39
-7.22 1.28 2.39
-7.25 1.13 2.39
-7.27 0.99 2.39
-7.29 0.84 2.39
-7.30 0.70 2.39
-7.32 0.55 2.39
-7.33 0.40 2.39
-7.33 0.26 2.39
-7.34 0.11 2.39
-7.34 -0.04 2.39
-7.34 -0.19 2.39
-7.33 -0.33 2.39
-7.32 -0.48 2.39
-7.31 -0.63 2.39
-7.30 -0.77 2.39
-7.28 -0.92 2.39
-7.26 -1.06 2.39
-7.24 -1.21 2.39
-7.21 -1.35 2.39
-7.19 -1.50 2.39
-7.15 -1.64 2.39
-7.12 -1.78 2.39
-7.08 -1.93 2.39
-7.04 -2.07 2.39
-7.00 -2.21 2.39
-6.95 -2.35 2.39
-6.90 -2.49 2.39
-6.85 -2.62 2.39
-6.80 -2.76 2.39
-6.74 -2.90 2.39
-6.68 -3.03 2.39
-6.62 -3.16 2.39
-6.55 -3.29 2.39
-6.48 -3.42 2.39
-6.41 -3.55 2.39
-6.34 -3.68 2.39
-6.26 -3.81 2.39
-6.18 -3.93 2.39
-6.10 -4.05 2.39
-6.04 -4.19 2.40
-6.03 -4.36 2.43
-6.03 -4.55 2.47
-6.00 -4.72 2.49
-5.90 -4.84 2.49
-5.80 -4.95 2.49
-5.70 -5.07 2.49
-5.60 -5.18 2.49
-5.49 -5.29 2.49
-5.38 -5.40 2.49
-5.27 -5.50 2.49
-5.16 -5.61 2.49
-5.05 -5.71 2.49
-4.93 -5.81 2.49
-4.81 -5.90 2.49
-4.69 -5.99 2.49
-4.57 -6.09 2.49
-4.44 -6.17 2.49
-4.32 -6.26 2.49
-4.19 -6.34 2.49
-4.06 -6.42 2.49
-3.93 -6.50 2.49
-3.80 -6.58 2.49
-3.66 -6.65 2.49
-3.53 -6.72 2.49
-3.39 -6.79 2.49
-3.25 -6.85 2.49
-3.11 -6.91 2.49
-2.97 -6.97 2.49
-2.83 -7.03 2.49
-2.69 -7.08 2.49
-2.55 -7.13 2.49
-2.40 -7.18 2.49
-2.26 -7.22 2.49
-2.11 -7.26 2.49
-1.96 -7.30 2.49
-1.82 -7.34 2.49
-1.67 -7.37 2.49
-1.52 -7.40 2.49
-1.37 -7.42 2.49
-1.22 -7.45 2.49
-1.07 -7.47 2.49
-0.92 -7.48 2.49
-0.77 -7.50 2.49
-0.62 -7.51 2.49
-0.47 -7.52 2.49
-0.32 -7.52 2.49
-0.17 -7.52 2.49
-0.02 -6.99 2.49
0.13 -6.99 2.49
0.27 -6.98 2.49
0.41 -6.97 2.49
0.54 -6.96 2.49
0.68 -6.94 2.49
0.82 -6.93 2.49
0.96 -6.90 2.49
1.10 -6.88 2.49
1.24 -6.86 2.49
1.37 -6.83 2.49
1.51 -6.79 2.49
1.65 -6.76 2.49
1.78 -6.72 2.49
1.91 -6.68 2.49
2.04 -6.61 2.48
2.09 -6.32 2.39
2.22 -6.30 2.40
2.34 -6.23 2.39
2.46 -6.18 2.39
2.59 -6.13 2.39
2.71 -6.07 2.39
2.83 -6.01 2.39
2.95 -5.95 2.39
3.07 -5.89 2.39
3.18 -5.83 2.39
3.30 -5.76 2.39
3.41 -5.69 2.39
3.52 -5.62 2.39
3.63 -5.54 2.39
3.74 -5.47 2.39
3.85 -5.39 2.39
3.96 -5.31 2.39
4.06 -5.23 2.39
4.16 -5.14 2.39
4.27 -5.06 2.39
4.37 -4.97 2.39
4.46 -4.88 2.39
4.56 -4.79 2.39
4.65 -4.69 2.39
4.74 -4.60 2.39
4.83 -4.50 2.39
4.92 -4.40 2.39
5.01 -4.30 2.39
5.09 -4.20 2.39
5.17 -4.09 2.39
5.25 -3.99 2.39
5.33 -3.88 2.39
5.41 -3.77 2.39
5.48 -3.66 2.39
5.55 -3.55 2.39
5.62 -3.43 2.39
5.69 -3.32 2.39
5.75 -3.20 2.39
5.81 -3.09 2.39
5.87 -2.97 2.39
5.93 -2.85 2.39
5.99 -2.73 2.39
6.05 -2.61 2.39
2.27 -0.93 0.89
2.28 -0.88 0.89
2.33 -0.84 0.90
6.23 -2.11 2.39
6.27 -1.99 2.39
6.31 -1.86 2.39
6.35 -1.73 2.39
6.38 -1.61 2.39
6.41 -1.48 2.39
6.44 -1.35 2.39
6.46 -1.22 2.39
6.48 -1.09 2.39
6.50 -0.96 2.39
6.52 -0.83 2.39
6.54 -0.69 2.39
6.55 -0.56 2.39
6.56 -0.43 2.39
6.56 -0.30 2.39
6.57 -0.17 2.39
6.57 -0.03 2.39
6.57 0.10 2.39
6.57 0.23 2.39
6.56 0.36 2.39
6.55 0.49 2.39
6.54 0.63 2.39
6.53 0.76 2.39
6.51 0.89 2.39
6.49 1.02 2.39
6.47 1.15 2.39
6.44 1.28 2.39
6.42 1.41 2.39
6.39 1.54 2.39
6.36 1.67 2.39
6.32 1.79 2.39
6.28 1.92 2.39
6.24 2.05 2.39
6.20 2.17 2.39
6.16 2.30 2.39
6.11 2.42 2.39
6.06 2.54 2.39
6.01 2.66 2.39
5.95 2.78 2.39
5.89 2.90 2.39
5.83 3.02 2.39
5.77 3.14 2.39
5.71 3.25 2.39
5.64 3.37 2.39
5.58 3.48 2.39
5.50 3.59 2.39
5.43 3.70 2.39
5.36 3.81 2.39
5.28 3.92 2.39
5.20 4.03 2.39
5.12 4.13 2.39
5.04 4.23 2.39
4.95 4.33 2.39
4.87 4.43 2.39
4.78 4.53 2.39
4.69 4.63 2.39
4.59 4.72 2.39
4.50 4.82 2.39
4.40 4.91 2.39
4.30 4.99 2.39
4.20 5.08 2.39
4.10 5.17 2.39
4.00 5.25 2.39
3.89 5.33 2.39
3.79 5.41 2.39
3.68 5.49 2.39
3.57 5.56 2.39
3.46 5.63 2.39
3.34 5.70 2.39
3.23 5.77 2.39
3.11 5.84 2.39
3.00 5.90 2.39
2.88 5.96 2.39
2.76 6.02 2.39
2.64 6.07 2.39
2.52 6.13 2.39
2.39 6.18 2.39
2.27 6.23 2.39
2.14 6.27 2.39
2.02 6.32 2.39
1.93 6.49 2.44
1.84 6.68 2.49
1.71 6.71 2.49
1.57 6.75 2.49
1.44 6.78 2.49
1.30 6.81 2.49
1.16 6.84 2.49
1.03 6.86 2.49
0.89 6.88 2.49
0.75 6.90 2.49
0.61 6.92 2.49
0.47 6.93 2.49
0.33 6.94 2.49
0.19 6.95 2.49
0.05 6.96 2.49
-0.08 6.96 2.49
-0.22 6.96 2.49
-0.36 6.96 2.49
-0.50 6.95 2.49
-0.64 6.94 2.49
-0.78 6.93 2.49
-0.92 6.91 2.49
-1.06 6.90 2.49
-1.20 6.88 2.49
-1.34 6.85 2.49
-1.48 6.83 2.49
-1.61 6.80 2.49
-1.75 6.77 2.49
-1.89 6.74 2.49
-2.02 6.70 2.49
-2.16 6.66 2.49
-2.29 6.62 2.49
-2.42 6.57 2.49
-2.56 6.52 2.49
-2.69 6.47 2.49
-2.82 6.42 2.49
-2.95 6.37 2.49
-3.08 6.31 2.49
-3.20 6.25 2.49
-3.33 6.18 2.49
-3.45 6.12 2.49
-3.58 6.05 2.49
-3.70 5.98 2.49
-3.82 5.91 2.49
-3.94 5.83 2.49
-4.06 5.75 2.49
-4.17 5.67 2.49
-4.29 5.59 2.49
-4.40 5.50 2.49
-4.51 5.42 2.49
-4.62 5.33 2.49
-4.73 5.23 2.49
-4.83 5.14 2.49
-4.94 5.04 2.49
-5.04 4.94 2.49
-5.14 4.84 2.49
-5.23 4.74 2.49
-5.33 4.64 2.49
-5.42 4.53 2.49
-5.51 4.42 2.49
-5.60 4.31 2.49
-5.69 4.20 2.49
-5.77 4.09 2.49
-5.86 3.97 2.49
-5.94 3.85 2.49
-6.01 3.73 2.49
-6.09 3.61 2.49
-6.09 3.45 2.47
-6.09 3.29 2.44
-6.10 3.14 2.41
-6.10 2.99 2.39
-6.16 2.87 2.39
-6.22 2.74 2.39
-6.30 2.63 2.40
-6.33 2.49 2.39
-6.38 2.37 2.39
-6.42 2.24 2.39
-6.47 2.11 2.39
-6.51 1.98 2.39
-6.55 1.85 2.39
-6.59 1.72 2.39
-6.62 1.59 2.39
-6.65 1.45 2.39
-6.68 1.32 2.39
-6.71 1.19 2.39
-6.73 1.05 2.39
-6.75 0.92 2.39
-6.77 0.78 2.39
-6.78 0.65 2.39
-6.79 0.51 2.39
-6.80 0.37 2.39
