ply
format ascii 1.0
element vertex 2917
property float32 x
property float32 y
property float32 z
end_header
-10.67 6.92 1.48
-10.63 6.60 1.45
-10.62 6.30 1.43
-10.62 6.02 1.41
-10.62 5.74 1.39
-10.63 5.47 1.37
-10.65 5.21 1.36
-10.69 4.97 1.35
-10.74 4.73 1.34
-10.78 4.50 1.33
-10.80 4.25 1.32
-10.80 4.00 1.31
-10.80 3.76 1.30
-10.80 3.52 1.29
-10.75 3.27 1.27
-10.70 3.02 1.25
-10.65 2.77 1.24
-10.59 2.53 1.22
-10.56 2.30 1.21
-10.56 2.08 1.21
-10.56 1.86 1.20
-10.56 1.64 1.19
-10.56 1.43 1.19
-10.57 1.21 1.18
-10.63 1.01 1.19
-10.69 0.80 1.19
-10.75 0.58 1.19
-10.81 0.37 1.20
-10.81 0.15 1.19
-10.81 -0.06 1.19
-10.81 -0.28 1.19
-10.80 -0.50 1.19
-10.74 -0.71 1.18
-10.67 -0.92 1.17
-10.61 -1.13 1.17
-10.55 -1.34 1.16
-10.48 -1.54 1.16
-10.45 -1.75 1.15
-10.44 -1.97 1.16
-10.43 -2.18 1.16
-10.43 -2.40 1.16
-10.42 -2.62 1.16
-10.41 -2.84 1.17
-10.40 -3.07 1.17
-10.39 -3.29 1.18
-10.38 -3.52 1.18
-10.37 -3.75 1.19
-10.36 -3.98 1.20
-10.35 -4.22 1.20
-10.34 -4.46 1.21
-10.33 -4.70 1.22
-10.33 -4.95 1.23
-10.38 -5.23 1.25
-10.43 -5.52 1.27
-10.45 -5.81 1.28
-10.41 -6.06 1.29
-10.36 -6.31 1.30
-10.32 -6.57 1.31
-10.27 -6.84 1.32
-10.23 -7.11 1.33
-10.20 -7.40 1.35
-10.17 -7.69 1.36
-10.15 -8.00 1.38
-10.14 -8.33 1.40
-10.13 -8.67 1.42
-10.12 -9.01 1.45
-10.14 -9.40 1.48
-10.17 -9.81 1.51
-10.14 -10.19 1.54
-10.11 -10.58 1.56
-10.08 -10.98 1.59
-10.03 -11.37 1.62
-9.96 -11.76 1.65
-9.92 -12.20 1.68
-9.89 -12.68 1.72
-9.86 -13.17 1.76
-9.82 -13.68 1.80
-9.78 -14.22 1.85
-9.74 -14.78 1.90
-9.69 -15.37 1.95
-9.69 -16.08 2.01
-9.63 -16.74 2.07
-9.58 -17.44 2.14
-9.76 -18.65 2.26
-10.54 -21.16 2.54
-10.28 -21.72 2.58
-9.10 -20.27 2.39
-8.69 -20.43 2.39
-8.27 -20.58 2.39
-7.85 -20.73 2.39
-7.42 -20.86 2.39
-7.00 -20.98 2.39
-6.57 -21.10 2.39
-6.14 -21.20 2.39
-5.70 -21.30 2.39
-5.37 -21.77 2.44
-5.04 -22.38 2.49
-4.59 -22.45 2.49
-4.13 -22.51 2.49
-3.67 -22.56 2.49
-3.22 -22.60 2.49
-2.76 -22.63 2.49
-2.30 -22.65 2.49
-1.84 -22.66 2.49
-1.39 -22.65 2.49
-0.93 -22.64 2.49
-0.48 -22.62 2.49
-0.02 -18.72 2.49
0.35 -18.69 2.49
0.73 -18.66 2.49
1.10 -18.61 2.49
1.47 -18.56 2.49
1.84 -18.50 2.49
2.21 -18.44 2.49
2.57 -18.36 2.49
2.81 -17.52 2.39
3.16 -17.44 2.39
3.50 -17.34 2.39
3.84 -17.24 2.39
4.18 -17.14 2.39
4.52 -17.02 2.39
4.85 -16.90 2.39
5.18 -16.78 2.39
5.51 -16.64 2.39
5.83 -16.50 2.39
6.15 -16.35 2.39
6.47 -16.20 2.39
7.79 -18.43 2.75
8.69 -19.47 2.93
9.21 -19.57 2.98
9.39 -18.95 2.92
9.54 -18.32 2.86
9.72 -17.79 2.81
9.93 -17.32 2.77
10.07 -16.79 2.72
7.20 -11.48 1.89
7.48 -11.40 1.90
7.76 -11.32 1.92
8.04 -11.24 1.93
10.31 -13.83 2.42
10.39 -13.36 2.38
10.46 -12.92 2.34
10.54 -12.50 2.30
10.62 -12.09 2.27
10.70 -11.69 2.24
10.77 -11.31 2.21
10.88 -10.97 2.19
11.01 -10.66 2.18
11.13 -10.35 2.16
11.24 -10.05 2.15
11.35 -9.74 2.14
11.16 -9.19 2.07
11.07 -8.75 2.02
10.98 -8.33 1.98
10.90 -7.93 1.94
10.73 -7.48 1.88
10.61 -7.09 1.84
10.70 -6.84 1.83
10.83 -6.62 1.84
10.91 -6.37 1.83
10.98 -6.12 1.83
11.05 -5.87 1.82
11.12 -5.63 1.81
11.16 -5.37 1.81
11.19 -5.11 1.80
11.20 -4.84 1.79
11.21 -4.58 1.78
11.22 -4.33 1.77
11.23 -4.07 1.76
11.24 -3.82 1.75
11.29 -3.59 1.75
11.43 -3.38 1.76
11.57 -3.17 1.77
11.58 -2.92 1.77
11.58 -2.68 1.76
11.59 -2.44 1.76
11.59 -2.19 1.75
11.59 -1.95 1.75
11.60 -1.72 1.75
11.60 -1.48 1.75
11.61 -1.24 1.74
11.56 -1.00 1.74
11.49 -0.77 1.73
11.42 -0.53 1.71
11.35 -0.30 1.70
11.27 -0.07 1.69
11.20 0.15 1.69
11.12 0.38 1.68
11.05 0.60 1.67
10.97 0.81 1.66
10.89 1.03 1.65
10.82 1.24 1.65
10.74 1.45 1.64
10.66 1.66 1.64
10.57 1.86 1.63
6.85 1.35 1.06
6.63 1.45 1.03
6.41 1.53 1.00
6.22 1.62 0.98
6.49 1.83 1.03
6.79 2.06 1.08
9.91 3.23 1.59
9.81 3.42 1.59
9.71 3.61 1.58
9.61 3.79 1.58
9.50 3.97 1.58
9.40 4.15 1.57
9.30 4.33 1.57
9.19 4.51 1.57
9.08 4.68 1.57
8.97 4.86 1.56
8.87 5.04 1.56
8.77 5.22 1.57
8.66 5.39 1.57
8.56 5.57 1.57
8.48 5.76 1.57
8.41 5.97 1.58
8.34 6.17 1.59
8.26 6.37 1.60
8.19 6.58 1.61
8.11 6.79 1.63
8.05 7.02 1.64
8.00 7.27 1.66
7.97 7.54 1.69
7.96 7.84 1.72
7.94 8.14 1.75
7.92 8.46 1.78
6.66 7.40 1.53
6.28 7.27 1.48
6.22 7.50 1.50
6.16 7.74 1.52
8.13 10.64 2.06
8.13 11.11 2.11
8.08 11.51 2.16
8.05 11.97 2.21
8.02 12.46 2.27
7.98 12.97 2.34
7.82 13.30 2.37
7.64 13.62 2.39
7.46 13.94 2.42
7.27 14.27 2.45
7.07 14.60 2.48
6.87 14.94 2.52
6.37 14.62 2.44
6.02 14.61 2.41
5.67 14.60 2.39
5.38 14.72 2.39
5.09 14.84 2.39
4.79 14.95 2.39
4.50 15.05 2.39
4.20 15.15 2.39
3.89 15.25 2.39
3.59 15.33 2.39
3.28 15.42 2.39
2.98 15.49 2.39
2.67 15.56 2.39
2.35 15.63 2.39
2.04 15.69 2.39
1.79 16.31 2.48
1.47 16.47 2.49
1.14 16.52 2.49
0.81 16.55 2.49
0.48 16.59 2.49
0.15 16.61 2.49
-0.19 16.63 2.49
-0.52 16.64 2.49
-0.86 16.65 2.49
-1.19 16.65 2.49
-1.53 16.64 2.49
-1.87 16.63 2.49
-2.20 16.61 2.49
-2.54 16.58 2.49
-2.88 16.55 2.49
-3.21 16.51 2.49
-3.55 16.47 2.49
-3.88 16.42 2.49
-4.22 16.36 2.49
-4.55 16.29 2.49
-4.89 16.22 2.49
-5.22 16.15 2.49
-5.55 16.06 2.49
-5.88 15.97 2.49
-6.21 15.87 2.49
-6.27 15.12 2.39
-6.58 15.01 2.39
-6.89 14.90 2.39
-7.20 14.78 2.39
-7.51 14.66 2.39
-7.81 14.53 2.39
-8.12 14.39 2.39
-8.42 14.25 2.39
-8.72 14.10 2.39
-9.01 13.94 2.39
-9.31 13.78 2.39
-9.60 13.62 2.39
-9.88 13.44 2.39
-10.17 13.26 2.39
-11.13 13.93 2.55
-10.64 12.78 2.37
-10.62 12.25 2.31
-10.72 11.88 2.27
-10.82 11.51 2.24
-10.68 10.91 2.16
-10.59 10.39 2.10
-10.64 10.04 2.06
-10.69 9.69 2.03
-10.72 9.33 2.00
-10.60 8.86 1.94
-10.51 8.43 1.89
-10.52 8.10 1.86
-10.53 7.77 1.83
-10.54 7.46 1.80
-10.54 7.15 1.77
-10.51 6.82 1.74
-10.48 6.50 1.71
-10.48 6.22 1.69
-10.48 5.94 1.67
-10.49 5.67 1.65
-10.49 5.40 1.63
-10.50 5.14 1.61
-10.55 4.90 1.60
-10.59 4.67 1.59
-10.64 4.44 1.58
-10.64 4.19 1.56
-10.65 3.95 1.55
-10.65 3.70 1.54
-10.65 3.47 1.52
-10.63 3.23 1.51
-10.58 2.98 1.49
-10.52 2.74 1.47
-10.47 2.50 1.46
-10.45 2.28 1.44
-10.45 2.06 1.44
-10.45 1.84 1.43
-10.45 1.63 1.42
-10.45 1.41 1.42
-10.44 1.20 1.41
-10.49 0.99 1.41
-10.55 0.78 1.41
-10.61 0.57 1.42
-10.67 0.36 1.42
-10.67 0.15 1.42
-10.66 -0.07 1.42
-10.66 -0.28 1.42
-10.66 -0.49 1.42
-10.63 -0.71 1.41
-10.57 -0.91 1.40
-10.51 -1.12 1.40
-10.44 -1.33 1.39
-10.38 -1.53 1.38
-10.34 -1.74 1.38
-10.33 -1.95 1.38
-10.33 -2.16 1.39
-10.32 -2.38 1.39
-10.31 -2.60 1.40
-10.31 -2.82 1.40
-10.30 -3.04 1.41
-10.29 -3.26 1.41
-10.27 -3.48 1.42
-10.26 -3.71 1.43
-10.25 -3.94 1.43
-10.24 -4.18 1.44
-10.23 -4.41 1.45
-10.22 -4.65 1.46
-10.21 -4.90 1.48
-10.23 -5.16 1.49
-10.27 -5.44 1.51
-10.32 -5.73 1.54
-10.27 -5.98 1.55
-10.23 -6.24 1.56
-10.19 -6.49 1.57
-10.14 -6.75 1.58
-10.09 -7.02 1.60
-10.05 -7.29 1.61
-10.02 -7.58 1.63
-9.99 -7.88 1.65
-9.98 -8.20 1.67
-9.96 -8.52 1.70
-9.95 -8.86 1.73
-9.94 -9.21 1.76
-9.96 -9.61 1.79
-9.95 -10.00 1.83
-9.92 -10.38 1.86
-9.89 -10.77 1.90
-9.85 -11.17 1.93
-9.80 -11.57 1.97
-9.74 -11.98 2.00
-9.70 -12.43 2.05
-9.67 -12.91 2.09
-9.63 -13.41 2.14
-9.58 -13.93 2.20
-9.54 -14.47 2.25
-9.49 -15.05 2.31
-9.43 -15.65 2.38
-9.17 -15.93 2.39
-8.85 -16.11 2.39
-8.52 -16.27 2.39
-8.19 -16.43 2.39
-7.85 -16.58 2.39
-7.51 -16.72 2.39
-7.17 -16.86 2.39
-6.83 -16.98 2.39
-6.48 -17.10 2.39
-6.13 -17.22 2.39
-5.78 -17.32 2.39
-5.47 -17.56 2.41
-5.29 -18.26 2.49
-4.92 -18.35 2.49
-4.54 -18.43 2.49
-4.17 -18.50 2.49
-3.79 -18.56 2.49
-3.42 -18.61 2.49
-3.04 -18.65 2.49
-2.66 -18.69 2.49
-2.29 -18.72 2.49
-1.91 -18.74 2.49
-1.53 -18.75 2.49
-1.15 -18.76 2.49
-0.77 -18.75 2.49
-0.40 -18.74 2.49
-0.02 -15.97 2.49
0.30 -15.94 2.49
0.62 -15.92 2.49
0.93 -15.88 2.49
1.25 -15.84 2.49
1.57 -15.80 2.49
1.88 -15.74 2.49
2.19 -15.68 2.49
2.50 -15.61 2.49
2.70 -14.90 2.39
2.99 -14.82 2.39
3.28 -14.74 2.39
3.57 -14.65 2.39
3.86 -14.56 2.39
4.15 -14.46 2.39
4.43 -14.35 2.39
4.71 -14.24 2.39
4.99 -14.12 2.39
5.26 -14.00 2.39
5.53 -13.87 2.39
5.80 -13.74 2.39
6.07 -13.60 2.39
6.33 -13.46 2.39
7.39 -14.92 2.68
8.09 -15.55 2.83
8.86 -16.23 2.99
9.17 -16.02 2.99
9.27 -15.46 2.92
7.20 -11.49 2.20
7.48 -11.41 2.22
7.75 -11.33 2.23
8.04 -11.25 2.25
9.76 -13.09 2.66
9.84 -12.67 2.62
9.92 -12.25 2.58
10.01 -11.87 2.54
10.09 -11.49 2.51
10.17 -11.12 2.48
10.23 -10.75 2.44
10.35 -10.44 2.42
10.48 -10.16 2.41
10.61 -9.88 2.40
10.73 -9.60 2.38
10.85 -9.32 2.37
10.71 -8.83 2.31
10.54 -8.34 2.23
10.37 -7.87 2.17
10.21 -7.43 2.11
10.12 -7.06 2.06
10.08 -6.74 2.03
10.06 -6.44 2.00
10.19 -6.23 2.00
10.31 -6.02 2.01
10.43 -5.82 2.01
10.55 -5.61 2.01
10.67 -5.40 2.02
10.74 -5.17 2.01
10.80 -4.93 2.01
10.83 -4.69 2.00
10.84 -4.43 1.99
10.86 -4.19 1.98
10.87 -3.94 1.97
10.88 -3.70 1.96
10.89 -3.46 1.95
10.94 -3.24 1.95
10.98 -3.01 1.95
10.99 -2.78 1.94
11.00 -2.55 1.93
11.00 -2.32 1.93
11.01 -2.09 1.92
11.01 -1.86 1.92
11.01 -1.63 1.92
11.01 -1.41 1.91
11.02 -1.18 1.91
10.96 -0.95 1.90
10.90 -0.73 1.89
10.83 -0.51 1.88
10.76 -0.29 1.87
10.70 -0.07 1.86
10.60 0.14 1.84
10.50 0.35 1.83
10.40 0.56 1.81
10.30 0.76 1.80
10.24 0.97 1.79
10.19 1.17 1.79
10.15 1.37 1.79
10.07 1.57 1.78
9.99 1.76 1.77
6.87 1.35 1.22
6.64 1.45 1.19
6.42 1.54 1.16
6.22 1.62 1.13
6.47 1.83 1.18
6.77 2.06 1.24
9.38 3.06 1.73
9.29 3.24 1.73
9.19 3.41 1.73
9.10 3.59 1.72
9.00 3.76 1.72
8.91 3.93 1.71
8.81 4.10 1.71
8.71 4.27 1.71
8.61 4.44 1.71
8.52 4.61 1.71
8.44 4.79 1.71
8.38 4.99 1.72
8.33 5.18 1.73
8.26 5.37 1.74
8.19 5.56 1.75
8.12 5.76 1.76
8.05 5.95 1.77
7.97 6.15 1.78
7.90 6.35 1.79
7.82 6.55 1.80
7.74 6.75 1.82
7.67 6.97 1.83
7.62 7.21 1.86
7.57 7.46 1.88
7.52 7.71 1.91
7.48 7.98 1.94
6.66 7.41 1.76
6.28 7.27 1.70
6.22 7.50 1.72
6.16 7.74 1.75
7.49 9.81 2.18
7.54 10.29 2.25
7.58 10.80 2.33
7.52 11.19 2.38
7.42 11.54 2.42
7.32 11.90 2.47
7.24 12.32 2.52
7.18 12.80 2.59
7.05 13.17 2.63
6.87 13.48 2.67
6.68 13.79 2.70
5.67 12.34 2.39
5.43 12.46 2.39
5.18 12.57 2.39
4.93 12.68 2.39
4.67 12.78 2.39
4.42 12.88 2.39
4.16 12.98 2.39
3.90 13.07 2.39
3.64 13.15 2.39
3.38 13.23 2.39
3.11 13.31 2.39
2.85 13.38 2.39
2.58 13.44 2.39
2.31 13.50 2.39
2.04 13.56 2.39
1.84 14.16 2.49
1.56 14.24 2.49
1.28 14.28 2.49
0.99 14.32 2.49
0.70 14.35 2.49
0.41 14.38 2.49
0.12 14.40 2.49
-0.17 14.41 2.49
-0.46 14.42 2.49
-0.75 14.42 2.49
-1.04 14.42 2.49
-1.33 14.41 2.49
-1.62 14.40 2.49
-1.91 14.38 2.49
-2.20 14.35 2.49
-2.49 14.32 2.49
-2.78 14.29 2.49
-3.07 14.25 2.49
-3.36 14.20 2.49
-3.65 14.15 2.49
-3.94 14.09 2.49
-4.23 14.02 2.49
-4.51 13.95 2.49
-4.80 13.88 2.49
-5.08 13.80 2.49
-5.37 13.71 2.49
-5.65 13.62 2.49
-5.93 13.52 2.49
-6.19 13.37 2.49
-6.22 12.76 2.39
-6.48 12.65 2.39
-6.74 12.53 2.39
-7.00 12.41 2.39
-7.26 12.29 2.39
-7.52 12.15 2.39
-7.77 12.02 2.39
-8.02 11.88 2.39
-8.27 11.73 2.39
-8.52 11.58 2.39
-8.76 11.42 2.39
-9.00 11.26 2.39
-9.24 11.09 2.39
-9.47 10.92 2.39
-9.71 10.75 2.39
-9.93 10.56 2.39
-10.28 10.50 2.42
-10.34 10.14 2.38
-10.39 9.80 2.35
-10.45 9.46 2.31
-10.49 9.12 2.28
-10.38 8.66 2.21
-10.35 8.29 2.16
-10.36 7.97 2.13
-10.37 7.65 2.10
-10.38 7.34 2.07
-10.39 7.04 2.04
-10.36 6.72 2.00
-10.34 6.41 1.97
-10.34 6.13 1.94
-10.35 5.86 1.92
-10.36 5.59 1.90
-10.36 5.33 1.87
-10.37 5.07 1.85
-10.41 4.84 1.84
-10.46 4.60 1.83
-10.49 4.37 1.82
-10.49 4.13 1.80
-10.50 3.89 1.79
-10.50 3.65 1.77
-10.50 3.42 1.76
-10.50 3.19 1.74
-10.45 2.94 1.72
-10.40 2.70 1.70
-10.35 2.47 1.68
-10.34 2.25 1.67
-10.34 2.03 1.66
-10.34 1.82 1.65
-10.34 1.61 1.65
-10.34 1.39 1.64
-10.33 1.18 1.63
-10.35 0.98 1.63
-10.41 0.77 1.64
-10.47 0.56 1.64
-10.53 0.36 1.65
-10.52 0.14 1.64
-10.52 -0.07 1.64
-10.52 -0.28 1.64
-10.51 -0.49 1.64
-10.51 -0.70 1.64
-10.47 -0.91 1.63
-10.40 -1.11 1.62
-10.34 -1.32 1.62
-10.28 -1.52 1.61
-10.24 -1.72 1.61
-10.23 -1.93 1.61
-10.23 -2.14 1.61
-10.22 -2.36 1.62
-10.21 -2.57 1.62
-10.20 -2.79 1.63
-10.19 -3.01 1.64
-10.18 -3.23 1.64
-10.17 -3.45 1.65
-10.16 -3.67 1.66
-10.15 -3.90 1.67
-10.14 -4.13 1.68
-10.13 -4.37 1.69
-10.12 -4.61 1.70
-10.11 -4.85 1.72
-10.09 -5.09 1.73
-10.13 -5.37 1.75
-10.17 -5.65 1.78
-10.15 -5.91 1.80
-10.10 -6.16 1.81
-10.06 -6.41 1.82
-10.01 -6.67 1.84
-9.96 -6.93 1.85
-9.91 -7.19 1.87
-9.87 -7.47 1.89
-9.83 -7.75 1.91
-9.82 -8.07 1.94
-9.80 -8.39 1.97
-9.79 -8.72 2.00
-9.77 -9.06 2.03
-9.75 -9.41 2.07
-9.77 -9.81 2.11
-9.73 -10.18 2.15
-9.70 -10.56 2.19
-9.66 -10.95 2.23
-9.62 -11.36 2.27
-9.56 -11.76 2.31
-9.52 -12.20 2.36
-9.38 -12.53 2.39
-9.13 -12.72 2.39
-8.87 -12.89 2.39
-8.61 -13.06 2.39
-8.34 -13.23 2.39
-8.07 -13.39 2.39
-7.80 -13.54 2.39
-7.52 -13.69 2.39
-7.24 -13.83 2.39
-6.96 -13.97 2.39
-6.68 -14.09 2.39
-6.39 -14.22 2.39
-6.10 -14.33 2.39
-5.81 -14.44 2.39
-5.54 -14.62 2.40
-5.44 -15.28 2.49
-5.13 -15.37 2.49
-4.82 -15.46 2.49
-4.50 -15.54 2.49
-4.19 -15.62 2.49
-3.87 -15.68 2.49
-3.55 -15.74 2.49
-3.23 -15.80 2.49
-2.91 -15.85 2.49
-2.59 -15.89 2.49
-2.27 -15.92 2.49
-1.95 -15.95 2.49
-1.63 -15.97 2.49
-1.31 -15.98 2.49
-0.98 -15.99 2.49
-0.66 -15.99 2.49
-0.34 -15.98 2.49
-0.02 -13.91 2.49
0.26 -13.89 2.49
0.53 -13.87 2.49
0.81 -13.84 2.49
1.09 -13.81 2.49
1.36 -13.77 2.49
1.64 -13.72 2.49
1.91 -13.67 2.49
2.18 -13.62 2.49
2.45 -13.55 2.49
2.61 -12.93 2.39
2.86 -12.86 2.39
3.11 -12.78 2.39
3.37 -12.70 2.39
3.62 -12.62 2.39
3.86 -12.53 2.39
4.11 -12.43 2.39
4.35 -12.33 2.39
4.59 -12.23 2.39
4.83 -12.12 2.39
5.07 -12.01 2.39
5.30 -11.89 2.39
5.53 -11.76 2.39
5.76 -11.64 2.39
5.98 -11.50 2.39
6.20 -11.37 2.39
6.42 -11.23 2.39
7.59 -12.67 2.73
7.20 -11.49 2.51
7.48 -11.41 2.53
7.75 -11.33 2.55
8.03 -11.25 2.57
9.26 -12.43 2.89
9.34 -12.03 2.84
9.43 -11.66 2.80
9.52 -11.30 2.76
9.60 -10.94 2.73
9.67 -10.58 2.69
9.74 -10.24 2.66
9.86 -9.96 2.64
9.99 -9.69 2.62
10.11 -9.42 2.61
10.14 -9.07 2.57
10.10 -8.68 2.52
10.00 -8.25 2.45
9.85 -7.80 2.38
9.72 -7.38 2.32
9.66 -7.04 2.27
9.63 -6.72 2.23
9.59 -6.41 2.20
9.56 -6.12 2.16
9.61 -5.88 2.15
9.73 -5.69 2.15
9.84 -5.49 2.16
9.95 -5.29 2.16
9.91 -5.02 2.13
9.82 -4.73 2.09
9.73 -4.45 2.06
9.64 -4.17 2.02
9.64 -3.95 2.01
9.71 -3.75 2.01
9.77 -3.55 2.01
9.83 -3.35 2.01
9.88 -3.15 2.01
9.93 -2.94 2.01
9.98 -2.74 2.01
10.02 -2.54 2.01
10.05 -2.33 2.01
10.08 -2.12 2.01
10.10 -1.92 2.00
10.11 -1.71 2.00
10.13 -1.50 2.00
10.14 -1.30 2.00
10.15 -1.09 2.00
10.16 -0.89 2.00
10.16 -0.68 2.00
10.10 -0.47 1.99
10.02 -0.27 1.97
9.94 -0.07 1.95
9.85 0.13 1.94
9.77 0.33 1.93
9.68 0.52 1.91
9.59 0.71 1.90
9.52 0.90 1.89
9.48 1.09 1.89
9.45 1.27 1.89
9.40 1.46 1.88
9.36 1.65 1.88
6.88 1.35 1.39
6.65 1.45 1.35
6.43 1.54 1.31
6.23 1.62 1.28
6.46 1.82 1.33
6.76 2.05 1.40
8.90 2.90 1.86
8.82 3.07 1.86
8.73 3.24 1.85
8.64 3.41 1.85
8.56 3.57 1.85
8.49 3.75 1.85
8.42 3.92 1.85
8.35 4.09 1.86
8.27 4.27 1.86
8.20 4.44 1.86
8.12 4.61 1.87
8.05 4.78 1.87
7.99 4.97 1.88
7.94 5.16 1.89
7.90 5.36 1.91
7.85 5.56 1.92
7.77 5.75 1.94
7.70 5.94 1.95
7.63 6.13 1.96
7.55 6.33 1.97
7.47 6.52 1.99
7.39 6.72 2.00
7.31 6.92 2.02
7.26 7.15 2.04
7.21 7.39 2.07
7.15 7.64 2.10
6.67 7.41 2.00
6.27 7.26 1.92
6.22 7.50 1.95
6.16 7.74 1.98
6.92 9.06 2.28
6.95 9.49 2.35
6.98 9.95 2.43
7.01 10.44 2.51
7.04 10.94 2.60
6.93 11.27 2.64
6.82 11.60 2.69
5.86 10.44 2.39
5.65 10.56 2.39
5.44 10.68 2.39
5.22 10.79 2.39
5.01 10.90 2.39
4.79 11.00 2.39
4.57 11.10 2.39
4.35 11.20 2.39
4.12 11.29 2.39
3.90 11.37 2.39
3.67 11.46 2.39
3.44 11.54 2.39
3.21 11.61 2.39
2.57 10.08 2.07
2.75 11.74 2.39
2.51 11.81 2.39
2.27 11.86 2.39
2.04 11.91 2.39
1.88 12.48 2.49
1.63 12.52 2.49
1.37 12.56 2.49
1.12 12.60 2.49
0.87 12.63 2.49
0.62 12.65 2.49
0.36 12.67 2.49
0.11 12.69 2.49
-0.15 12.70 2.49
-0.40 12.71 2.49
-0.66 12.71 2.49
-0.92 12.71 2.49
-1.17 12.70 2.49
-1.43 12.68 2.49
-1.68 12.66 2.49
-1.94 12.64 2.49
-2.20 12.61 2.49
-2.45 12.58 2.49
-2.71 12.54 2.49
-2.96 12.50 2.49
-3.22 12.45 2.49
-3.47 12.40 2.49
-3.72 12.34 2.49
-3.97 12.27 2.49
-4.22 12.21 2.49
-4.47 12.13 2.49
-4.72 12.05 2.49
-4.97 11.97 2.49
-5.22 11.88 2.49
-5.46 11.79 2.49
-5.70 11.69 2.49
-5.94 11.59 2.49
-6.14 11.41 2.48
-6.15 10.90 2.39
-6.38 10.79 2.39
-6.60 10.67 2.39
-6.83 10.55 2.39
-7.04 10.42 2.39
-7.26 10.29 2.39
-7.48 10.16 2.39
-7.69 10.02 2.39
-7.90 9.88 2.39
-8.11 9.73 2.39
-8.31 9.57 2.39
-8.51 9.42 2.39
-8.71 9.26 2.39
-8.91 9.09 2.39
-9.10 8.92 2.39
-9.29 8.75 2.39
-9.47 8.57 2.39
-9.66 8.39 2.39
-9.84 8.21 2.39
-10.01 8.02 2.39
-10.20 7.84 2.39
-10.21 7.53 2.36
-10.22 7.22 2.32
-10.24 6.93 2.29
-10.21 6.62 2.25
-10.20 6.33 2.22
-10.21 6.05 2.19
-10.22 5.78 2.17
-10.23 5.52 2.14
-10.23 5.26 2.12
-10.24 5.00 2.09
-10.27 4.77 2.08
-10.32 4.54 2.07
-10.34 4.31 2.05
-10.35 4.07 2.03
-10.35 3.83 2.02
-10.36 3.60 2.00
-10.36 3.37 1.99
-10.36 3.14 1.97
-10.33 2.91 1.95
-10.29 2.67 1.93
-10.24 2.44 1.91
-10.23 2.22 1.90
-10.23 2.01 1.89
-10.23 1.80 1.88
-10.23 1.59 1.87
-10.23 1.38 1.86
-10.23 1.17 1.85
-10.22 0.96 1.85
-10.28 0.76 1.85
-10.34 0.55 1.86
-10.39 0.35 1.87
-10.38 0.14 1.86
-10.38 -0.07 1.86
-10.38 -0.28 1.86
-10.37 -0.48 1.86
-10.37 -0.69 1.86
-10.36 -0.90 1.86
-10.30 -1.10 1.85
-10.24 -1.31 1.84
-10.18 -1.51 1.83
-10.14 -1.71 1.83
-10.13 -1.92 1.83
-10.12 -2.12 1.84
-10.12 -2.34 1.84
-10.11 -2.55 1.85
-10.10 -2.76 1.86
-10.09 -2.98 1.86
-10.08 -3.20 1.87
-10.07 -3.42 1.88
-10.06 -3.64 1.89
-10.05 -3.86 1.90
-10.03 -4.09 1.91
-10.02 -4.32 1.93
-10.01 -4.56 1.94
-10.00 -4.80 1.96
-9.99 -5.04 1.97
-9.98 -5.29 1.99
-10.02 -5.57 2.02
-10.02 -5.84 2.04
-9.98 -6.08 2.06
-9.93 -6.33 2.07
-9.88 -6.58 2.09
-9.84 -6.84 2.11
-9.79 -7.10 2.13
-9.74 -7.36 2.15
-9.69 -7.64 2.17
-9.67 -7.94 2.20
-9.65 -8.25 2.23
-9.63 -8.58 2.27
-9.61 -8.91 2.30
-9.59 -9.26 2.34
-9.57 -9.61 2.38
-9.41 -9.84 2.39
-9.21 -10.02 2.39
-9.00 -10.20 2.39
-8.79 -10.38 2.39
-8.58 -10.55 2.39
-8.37 -10.72 2.39
-8.15 -10.89 2.39
-7.93 -11.04 2.39
-7.70 -11.20 2.39
-7.48 -11.35 2.39
-7.25 -11.49 2.39
-7.01 -11.63 2.39
-6.78 -11.76 2.39
-6.54 -11.89 2.39
-6.29 -12.02 2.39
-6.05 -12.13 2.39
-5.80 -12.25 2.39
-5.59 -12.44 2.41
-5.53 -12.99 2.49
-5.27 -13.09 2.49
-5.00 -13.19 2.49
-4.73 -13.28 2.49
-4.46 -13.36 2.49
-4.19 -13.44 2.49
-3.92 -13.51 2.49
-3.64 -13.58 2.49
-3.37 -13.64 2.49
-3.09 -13.69 2.49
-2.81 -13.74 2.49
-2.54 -13.79 2.49
-2.26 -13.82 2.49
-1.98 -13.85 2.49
-1.70 -13.88 2.49
-1.42 -13.90 2.49
-1.14 -13.91 2.49
-0.86 -13.92 2.49
-0.58 -13.92 2.49
-0.30 -13.92 2.49
-0.02 -12.30 2.49
0.22 -12.29 2.49
0.47 -12.27 2.49
0.72 -12.25 2.49
0.96 -12.22 2.49
1.20 -12.19 2.49
1.45 -12.15 2.49
1.69 -12.11 2.49
1.93 -12.06 2.49
2.17 -12.01 2.49
2.41 -11.95 2.49
2.53 -11.39 2.39
2.76 -11.33 2.39
2.98 -11.26 2.39
3.20 -11.19 2.39
3.42 -11.11 2.39
3.64 -11.02 2.39
3.86 -10.94 2.39
4.07 -10.85 2.39
4.28 -10.75 2.39
4.49 -10.65 2.39
4.70 -10.55 2.39
4.90 -10.44 2.39
5.11 -10.33 2.39
5.31 -10.21 2.39
5.50 -10.09 2.39
5.70 -9.97 2.39
5.89 -9.84 2.39
6.08 -9.71 2.39
6.27 -9.57 2.39
7.16 -10.47 2.65
7.63 -10.70 2.75
8.14 -10.93 2.86
8.67 -11.17 2.97
8.98 -11.10 3.00
9.06 -10.76 2.96
9.14 -10.42 2.92
9.22 -10.09 2.88
9.29 -9.77 2.85
9.42 -9.51 2.83
9.50 -9.22 2.80
9.48 -8.83 2.75
9.45 -8.46 2.69
9.42 -8.10 2.64
9.37 -7.73 2.58
9.25 -7.33 2.51
9.22 -7.01 2.47
9.20 -6.70 2.43
9.17 -6.41 2.39
9.15 -6.12 2.35
9.12 -5.84 2.32
9.09 -5.57 2.29
9.20 -5.38 2.29
9.24 -5.16 2.28
9.17 -4.88 2.24
9.10 -4.61 2.20
9.03 -4.35 2.16
8.96 -4.10 2.13
8.89 -3.85 2.09
8.82 -3.61 2.06
8.75 -3.38 2.03
8.73 -3.17 2.01
8.76 -2.99 2.01
8.81 -2.81 2.01
8.86 -2.63 2.01
8.90 -2.45 2.01
8.94 -2.26 2.01
8.97 -2.08 2.01
9.01 -1.90 2.01
9.03 -1.72 2.01
9.06 -1.53 2.01
9.07 -1.35 2.01
9.08 -1.16 2.01
9.10 -0.98 2.01
9.11 -0.80 2.01
9.11 -0.61 2.01
9.11 -0.43 2.01
9.11 -0.25 2.01
9.11 -0.06 2.01
9.10 0.12 2.01
9.09 0.30 2.01
9.05 0.48 2.00
8.97 0.66 1.99
8.90 0.84 1.98
8.86 1.01 1.97
8.83 1.19 1.97
8.79 1.36 1.97
8.75 1.54 1.97
6.89 1.36 1.56
6.66 1.45 1.51
6.44 1.54 1.47
6.23 1.62 1.43
6.45 1.82 1.49
6.74 2.05 1.57
8.45 2.75 1.98
8.41 2.93 1.98
8.37 3.11 1.99
8.31 3.27 1.99
8.24 3.44 1.99
8.18 3.61 1.99
8.11 3.78 2.00
8.04 3.94 2.00
7.97 4.11 2.00
7.90 4.27 2.00
7.82 4.44 2.01
7.75 4.61 2.01
7.67 4.77 2.02
7.61 4.95 2.03
7.56 5.14 2.04
7.52 5.33 2.06
7.47 5.52 2.08
7.41 5.72 2.09
7.36 5.92 2.11
7.30 6.11 2.13
7.22 6.30 2.14
7.14 6.49 2.16
7.06 6.68 2.17
6.97 6.87 2.19
6.92 7.10 2.22
6.86 7.33 2.25
6.67 7.42 2.23
6.27 7.26 2.15
6.21 7.49 2.18
6.15 7.73 2.21
6.53 8.56 2.41
6.46 8.82 2.45
6.45 9.20 2.51
5.97 8.88 2.39
5.79 9.00 2.39
5.61 9.12 2.39
5.43 9.23 2.39
5.24 9.34 2.39
5.05 9.45 2.39
4.86 9.55 2.39
4.67 9.65 2.39
4.48 9.75 2.39
4.28 9.84 2.39
4.09 9.93 2.39
3.89 10.01 2.39
3.69 10.09 2.39
3.49 10.17 2.39
3.28 10.25 2.39
3.08 10.32 2.39
2.87 10.38 2.39
2.57 10.07 2.31
2.45 10.50 2.39
2.24 10.55 2.39
2.03 10.60 2.39
1.90 11.11 2.49
1.67 11.15 2.49
1.45 11.19 2.49
1.23 11.23 2.49
1.00 11.26 2.49
0.78 11.28 2.49
0.55 11.31 2.49
0.32 11.32 2.49
0.09 11.34 2.49
-0.13 11.34 2.49
-0.36 11.35 2.49
-0.59 11.35 2.49
-0.82 11.34 2.49
-1.05 11.34 2.49
-1.28 11.32 2.49
-1.51 11.30 2.49
-1.74 11.28 2.49
-1.96 11.26 2.49
-2.19 11.22 2.49
-2.42 11.19 2.49
-2.65 11.15 2.49
-2.87 11.10 2.49
-3.10 11.06 2.49
-3.32 11.00 2.49
-3.55 10.94 2.49
-3.77 10.88 2.49
-3.99 10.82 2.49
-4.21 10.74 2.49
-4.43 10.67 2.49
-4.65 10.59 2.49
-4.87 10.51 2.49
-5.08 10.42 2.49
-5.30 10.32 2.49
-5.51 10.23 2.49
-5.72 10.13 2.49
-5.93 10.02 2.49
-6.11 9.86 2.48
-6.11 9.43 2.40
-6.29 9.29 2.40
-6.47 9.16 2.39
-6.66 9.04 2.39
-6.84 8.91 2.39
-7.03 8.78 2.39
-7.21 8.65 2.39
-7.39 8.52 2.39
-7.57 8.37 2.39
-7.75 8.23 2.39
-7.92 8.08 2.39
-8.09 7.93 2.39
-8.26 7.78 2.39
-8.42 7.62 2.39
-8.58 7.46 2.39
-8.74 7.29 2.39
-8.90 7.12 2.39
-9.05 6.95 2.39
-9.20 6.78 2.39
-9.34 6.60 2.39
-9.48 6.42 2.39
-9.62 6.23 2.39
-9.76 6.05 2.39
-9.89 5.85 2.39
-10.01 5.66 2.39
-10.10 5.44 2.38
-10.11 5.19 2.36
-10.11 4.94 2.33
-10.14 4.70 2.31
-10.18 4.48 2.30
-10.20 4.24 2.28
-10.20 4.01 2.26
-10.21 3.77 2.24
-10.22 3.55 2.23
-10.22 3.32 2.21
-10.22 3.10 2.19
-10.21 2.87 2.18
-10.17 2.64 2.15
-10.12 2.41 2.13
-10.12 2.20 2.12
-10.12 1.99 2.11
-10.12 1.78 2.10
-10.12 1.57 2.09
-10.12 1.36 2.08
-10.12 1.15 2.07
-10.12 0.95 2.07
-10.15 0.75 2.07
-10.20 0.55 2.07
-10.25 0.34 2.08
-10.25 0.14 2.08
-10.24 -0.07 2.07
-10.24 -0.27 2.07
-10.24 -0.48 2.07
-10.23 -0.68 2.07
-10.23 -0.89 2.07
-10.21 -1.09 2.07
-10.15 -1.29 2.06
-10.09 -1.49 2.05
-10.04 -1.69 2.05
-10.03 -1.90 2.05
-10.02 -2.11 2.06
-10.02 -2.31 2.06
-10.01 -2.52 2.07
-10.00 -2.74 2.08
-9.99 -2.95 2.09
-9.98 -3.17 2.10
-9.97 -3.38 2.11
-9.95 -3.60 2.12
-9.94 -3.83 2.13
-9.93 -4.05 2.14
-9.92 -4.28 2.16
-9.91 -4.51 2.17
-9.89 -4.75 2.19
-9.88 -4.99 2.21
-9.87 -5.23 2.23
-9.88 -5.49 2.25
-9.90 -5.77 2.28
-9.85 -6.01 2.30
-9.81 -6.25 2.32
-9.76 -6.50 2.34
-9.71 -6.75 2.36
-9.66 -7.01 2.38
-9.58 -7.25 2.39
-9.43 -7.44 2.39
-9.28 -7.63 2.39
-9.13 -7.81 2.39
-8.97 -7.99 2.39
-8.81 -8.17 2.39
-8.65 -8.35 2.39
-8.48 -8.52 2.39
-8.30 -8.69 2.39
-8.13 -8.85 2.39
-7.95 -9.01 2.39
-7.77 -9.17 2.39
-7.58 -9.32 2.39
-7.39 -9.47 2.39
-7.20 -9.61 2.39
-7.00 -9.75 2.39
-6.80 -9.89 2.39
-6.60 -10.02 2.39
-6.40 -10.15 2.39
-6.19 -10.27 2.39
-5.98 -10.39 2.39
-5.77 -10.50 2.39
-5.63 -10.74 2.42
-5.57 -11.18 2.49
-5.35 -11.28 2.49
-5.12 -11.38 2.49
-4.89 -11.48 2.49
-4.65 -11.57 2.49
-4.42 -11.65 2.49
-4.18 -11.73 2.49
-3.94 -11.81 2.49
-3.70 -11.88 2.49
-3.46 -11.94 2.49
-3.22 -12.00 2.49
-2.98 -12.06 2.49
-2.73 -12.10 2.49
-2.49 -12.15 2.49
-2.24 -12.19 2.49
-2.00 -12.22 2.49
-1.75 -12.25 2.49
-1.50 -12.27 2.49
-1.26 -12.29 2.49
-1.01 -12.30 2.49
-0.76 -12.31 2.49
-0.52 -12.31 2.49
-0.27 -12.31 2.49
-0.02 -11.02 2.49
0.20 -11.01 2.49
0.42 -11.00 2.49
0.64 -10.98 2.49
0.86 -10.95 2.49
1.08 -10.93 2.49
1.29 -10.89 2.49
1.51 -10.85 2.49
1.73 -10.81 2.49
1.94 -10.77 2.49
2.15 -10.72 2.49
2.37 -10.66 2.49
2.47 -10.16 2.39
2.67 -10.10 2.39
2.87 -10.04 2.39
3.07 -9.97 2.39
3.26 -9.89 2.39
3.46 -9.82 2.39
3.65 -9.73 2.39
3.84 -9.65 2.39
4.03 -9.56 2.39
4.22 -9.47 2.39
4.40 -9.37 2.39
4.58 -9.27 2.39
4.76 -9.17 2.39
4.94 -9.06 2.39
5.12 -8.95 2.39
5.29 -8.84 2.39
5.46 -8.72 2.39
5.63 -8.60 2.39
5.79 -8.48 2.39
5.96 -8.35 2.39
6.12 -8.22 2.39
6.27 -8.09 2.39
7.16 -8.86 2.66
7.56 -8.98 2.75
7.97 -9.09 2.83
8.40 -9.20 2.92
8.85 -9.31 3.02
8.86 -8.95 2.96
8.85 -8.59 2.90
8.83 -8.23 2.84
8.80 -7.88 2.79
8.76 -7.54 2.73
8.78 -7.25 2.69
8.75 -6.94 2.64
8.72 -6.63 2.60
8.69 -6.34 2.55
8.66 -6.05 2.51
8.62 -5.77 2.47
8.58 -5.50 2.42
8.56 -5.25 2.39
8.59 -5.03 2.37
8.55 -4.78 2.34
8.50 -4.53 2.30
8.45 -4.29 2.27
8.40 -4.05 2.23
8.36 -3.82 2.20
8.31 -3.60 2.17
8.26 -3.38 2.14
8.24 -3.19 2.12
8.27 -3.01 2.12
8.29 -2.83 2.11
8.32 -2.65 2.10
8.34 -2.47 2.10
8.36 -2.30 2.09
8.37 -2.12 2.09
8.39 -1.95 2.08
8.40 -1.77 2.08
8.42 -1.60 2.07
8.43 -1.43 2.07
8.43 -1.26 2.07
8.43 -1.08 2.06
8.43 -0.91 2.06
8.43 -0.74 2.06
8.43 -0.57 2.06
8.43 -0.40 2.06
8.43 -0.23 2.06
8.43 -0.06 2.06
8.42 0.11 2.06
8.41 0.28 2.06
8.41 0.45 2.06
8.39 0.62 2.06
8.38 0.79 2.06
8.37 0.96 2.06
8.35 1.12 2.07
8.32 1.29 2.07
8.29 1.46 2.07
6.90 1.36 1.73
6.67 1.45 1.68
6.45 1.54 1.63
6.24 1.62 1.59
6.43 1.81 1.64
6.73 2.04 1.73
8.03 2.62 2.08
7.98 2.78 2.08
7.95 2.95 2.09
7.93 3.12 2.10
7.90 3.30 2.11
7.87 3.47 2.12
7.82 3.64 2.13
7.75 3.80 2.13
7.68 3.96 2.13
7.61 4.12 2.14
7.54 4.28 2.14
7.47 4.44 2.15
7.40 4.60 2.15
7.32 4.76 2.16
7.26 4.93 2.17
7.21 5.11 2.19
7.16 5.29 2.20
7.10 5.48 2.22
7.05 5.67 2.24
6.99 5.86 2.26
6.93 6.05 2.28
6.87 6.25 2.30
6.81 6.44 2.32
6.74 6.64 2.34
6.66 6.82 2.36
6.59 7.04 2.39
6.53 7.26 2.42
6.27 7.26 2.37
6.21 7.49 2.41
6.27 7.88 2.49
5.87 7.68 2.39
5.71 7.80 2.39
5.55 7.92 2.39
5.39 8.03 2.39
5.23 8.14 2.39
5.07 8.24 2.39
4.90 8.35 2.39
4.74 8.44 2.39
4.57 8.54 2.39
4.39 8.63 2.39
4.22 8.72 2.39
4.05 8.81 2.39
3.87 8.89 2.39
3.69 8.97 2.39
3.51 9.05 2.39
3.33 9.12 2.39
3.15 9.19 2.39
2.96 9.26 2.39
2.78 9.32 2.39
2.59 9.38 2.39
2.40 9.43 2.39
2.21 9.48 2.39
2.02 9.53 2.39
1.91 9.99 2.49
1.71 10.03 2.49
1.51 10.07 2.49
1.31 10.11 2.49
1.11 10.14 2.49
0.90 10.16 2.49
0.70 10.19 2.49
0.49 10.21 2.49
0.29 10.22 2.49
0.08 10.23 2.49
-0.12 10.24 2.49
-0.33 10.24 2.49
-0.54 10.24 2.49
-0.74 10.24 2.49
-0.95 10.23 2.49
-1.16 10.22 2.49
-1.36 10.20 2.49
-1.57 10.18 2.49
-1.77 10.15 2.49
-1.98 10.12 2.49
-2.18 10.09 2.49
-2.39 10.05 2.49
-2.59 10.01 2.49
-2.80 9.97 2.49
-3.00 9.92 2.49
-3.20 9.87 2.49
-3.40 9.81 2.49
-3.60 9.75 2.49
-3.80 9.68 2.49
-4.00 9.61 2.49
-4.19 9.54 2.49
-4.39 9.46 2.49
-4.58 9.38 2.49
-4.77 9.30 2.49
-4.97 9.21 2.49
-5.15 9.12 2.49
-5.34 9.02 2.49
-5.53 8.92 2.49
-5.71 8.82 2.49
-5.89 8.71 2.49
-6.07 8.60 2.49
-6.07 8.24 2.42
-6.16 8.02 2.39
-6.33 7.90 2.39
-6.49 7.78 2.39
-6.66 7.66 2.39
-6.81 7.53 2.39
-6.97 7.40 2.39
-7.13 7.27 2.39
-7.28 7.13 2.39
-7.43 6.99 2.39
-7.58 6.85 2.39
-7.72 6.70 2.39
-7.86 6.55 2.39
-8.00 6.40 2.39
-8.13 6.24 2.39
-8.27 6.09 2.39
-8.40 5.93 2.39
-8.52 5.76 2.39
-8.65 5.60 2.39
-8.77 5.43 2.39
-8.88 5.26 2.39
-8.99 5.08 2.39
-9.10 4.91 2.39
-9.21 4.73 2.39
-9.31 4.55 2.39
-9.41 4.36 2.39
-9.51 4.18 2.39
-9.60 3.99 2.39
-9.69 3.80 2.39
-9.77 3.61 2.39
-9.85 3.42 2.39
-9.93 3.22 2.39
-10.09 3.05 2.41
-10.09 2.83 2.40
-10.05 2.61 2.37
-10.02 2.38 2.35
-10.02 2.17 2.34
-10.02 1.96 2.33
-10.02 1.76 2.32
-10.02 1.55 2.31
-10.02 1.34 2.30
-10.02 1.14 2.29
-10.01 0.94 2.28
-10.02 0.74 2.28
-10.07 0.54 2.28
-10.11 0.34 2.29
-10.11 0.13 2.29
-10.11 -0.07 2.28
-10.10 -0.27 2.28
-10.10 -0.47 2.28
-10.10 -0.68 2.28
-10.09 -0.88 2.28
-10.08 -1.08 2.28
-10.05 -1.28 2.28
-9.99 -1.48 2.27
-9.94 -1.68 2.27
-9.93 -1.88 2.27
-9.92 -2.09 2.28
-9.92 -2.29 2.28
-9.91 -2.50 2.29
-9.90 -2.71 2.30
-9.89 -2.92 2.31
-9.88 -3.13 2.32
-9.87 -3.35 2.33
-9.85 -3.57 2.34
-9.84 -3.79 2.36
-9.83 -4.01 2.37
-9.82 -4.24 2.39
-9.75 -4.44 2.39
-9.66 -4.64 2.39
-9.57 -4.83 2.39
-9.47 -5.02 2.39
-9.37 -5.21 2.39
-9.27 -5.40 2.39
-9.16 -5.59 2.39
-9.05 -5.77 2.39
-8.94 -5.95 2.39
-8.82 -6.13 2.39
-8.69 -6.31 2.39
-8.57 -6.48 2.39
-8.44 -6.65 2.39
-8.30 -6.82 2.39
-8.16 -6.99 2.39
-8.02 -7.15 2.39
-7.88 -7.31 2.39
-7.73 -7.46 2.39
-7.58 -7.62 2.39
-7.43 -7.77 2.39
-7.27 -7.91 2.39
-7.11 -8.06 2.39
-6.95 -8.20 2.39
-6.78 -8.33 2.39
-6.61 -8.47 2.39
-6.44 -8.60 2.39
-6.26 -8.72 2.39
-6.09 -8.84 2.39
-5.91 -8.96 2.39
-5.72 -9.08 2.39
-5.66 -9.38 2.44
-5.58 -9.69 2.49
-5.39 -9.80 2.49
-5.19 -9.90 2.49
-4.99 -10.00 2.49
-4.78 -10.09 2.49
-4.58 -10.18 2.49
-4.37 -10.27 2.49
-4.16 -10.35 2.49
-3.95 -10.43 2.49
-3.74 -10.50 2.49
-3.53 -10.57 2.49
-3.32 -10.63 2.49
-3.10 -10.69 2.49
-2.89 -10.74 2.49
-2.67 -10.79 2.49
-2.45 -10.84 2.49
-2.23 -10.88 2.49
-2.01 -10.91 2.49
-1.79 -10.94 2.49
-1.57 -10.97 2.49
-1.35 -10.99 2.49
-1.13 -11.01 2.49
-0.91 -11.02 2.49
-0.69 -11.03 2.49
-0.46 -11.03 2.49
-0.24 -11.03 2.49
-0.02 -9.97 2.49
0.18 -9.97 2.49
0.38 -9.95 2.49
0.58 -9.94 2.49
0.77 -9.91 2.49
0.97 -9.89 2.49
1.17 -9.86 2.49
1.37 -9.83 2.49
1.56 -9.79 2.49
1.76 -9.75 2.49
1.95 -9.70 2.49
2.14 -9.65 2.49
2.33 -9.60 2.49
2.42 -9.15 2.39
2.60 -9.10 2.39
2.78 -9.03 2.39
2.95 -8.96 2.39
3.13 -8.89 2.39
3.31 -8.82 2.39
3.48 -8.75 2.39
3.65 -8.67 2.39
3.82 -8.58 2.39
3.99 -8.50 2.39
4.15 -8.41 2.39
4.32 -8.31 2.39
4.48 -8.22 2.39
4.64 -8.12 2.39
4.79 -8.02 2.39
4.95 -7.91 2.39
5.10 -7.80 2.39
5.25 -7.69 2.39
5.40 -7.58 2.39
5.55 -7.46 2.39
5.69 -7.34 2.39
5.83 -7.22 2.39
5.97 -7.09 2.39
6.10 -6.96 2.39
6.24 -6.83 2.39
6.94 -7.30 2.61
7.08 -7.16 2.61
7.21 -7.00 2.61
7.34 -6.85 2.61
7.46 -6.69 2.60
7.58 -6.53 2.60
7.70 -6.36 2.60
7.76 -6.15 2.58
7.75 -5.90 2.54
7.74 -5.64 2.50
7.72 -5.40 2.46
7.76 -5.19 2.44
7.82 -5.02 2.43
7.89 -4.84 2.42
7.95 -4.66 2.42
7.98 -4.46 2.40
7.95 -4.24 2.37
7.91 -4.02 2.33
7.88 -3.80 2.30
7.84 -3.59 2.27
7.80 -3.38 2.24
7.79 -3.19 2.22
7.82 -3.03 2.22
7.85 -2.86 2.21
7.87 -2.69 2.20
7.90 -2.52 2.20
7.92 -2.35 2.19
7.94 -2.19 2.19
7.96 -2.02 2.18
7.97 -1.85 2.18
7.99 -1.69 2.17
8.00 -1.52 2.17
8.01 -1.36 2.16
8.02 -1.20 2.16
8.01 -1.03 2.16
8.01 -0.87 2.15
8.00 -0.70 2.15
7.99 -0.54 2.14
7.99 -0.38 2.14
7.99 -0.22 2.14
7.99 -0.06 2.14
7.98 0.10 2.14
7.98 0.26 2.14
7.97 0.42 2.14
7.96 0.58 2.14
7.94 0.74 2.14
7.93 0.90 2.15
7.92 1.06 2.15
7.90 1.22 2.15
7.88 1.38 2.16
6.91 1.36 1.90
6.68 1.45 1.84
6.46 1.54 1.79
6.25 1.63 1.74
6.42 1.81 1.80
6.71 2.04 1.90
7.64 2.49 2.17
7.60 2.65 2.18
7.56 2.80 2.18
7.53 2.96 2.19
7.50 3.13 2.20
7.47 3.29 2.21
7.44 3.46 2.22
7.40 3.63 2.23
7.36 3.79 2.25
7.32 3.96 2.26
7.28 4.13 2.27
7.21 4.28 2.27
7.14 4.44 2.28
7.06 4.59 2.29
6.99 4.75 2.29
6.92 4.91 2.30
6.87 5.08 2.32
6.82 5.26 2.34
6.76 5.44 2.36
6.71 5.62 2.38
6.65 5.80 2.40
6.59 5.98 2.42
6.52 6.17 2.44
6.45 6.35 2.46
6.36 6.53 2.48
6.02 6.43 2.39
5.89 6.55 2.39
5.76 6.67 2.39
5.62 6.78 2.39
5.49 6.89 2.39
5.35 7.00 2.39
5.20 7.11 2.39
5.06 7.22 2.39
4.92 7.32 2.39
4.77 7.42 2.39
4.62 7.51 2.39
4.47 7.61 2.39
4.32 7.70 2.39
4.16 7.78 2.39
4.00 7.87 2.39
3.85 7.95 2.39
3.69 8.03 2.39
3.53 8.10 2.39
3.36 8.18 2.39
3.20 8.25 2.39
3.03 8.31 2.39
2.87 8.37 2.39
2.70 8.43 2.39
2.53 8.49 2.39
2.36 8.54 2.39
2.19 8.59 2.39
2.02 8.64 2.39
1.92 9.06 2.49
1.74 9.10 2.49
1.56 9.14 2.49
1.37 9.17 2.49
1.19 9.20 2.49
1.01 9.23 2.49
0.82 9.26 2.49
0.63 9.28 2.49
0.45 9.29 2.49
0.26 9.31 2.49
0.07 9.32 2.49
-0.11 9.32 2.49
-0.30 9.32 2.49
-0.49 9.32 2.49
-0.68 9.32 2.49
-0.87 9.31 2.49
-1.05 9.30 2.49
-1.24 9.28 2.49
-1.43 9.26 2.49
-1.62 9.24 2.49
-1.80 9.21 2.49
-1.99 9.18 2.49
-2.17 9.15 2.49
-2.36 9.11 2.49
-2.55 9.07 2.49
-2.73 9.02 2.49
-2.91 8.97 2.49
-3.09 8.92 2.49
-3.28 8.86 2.49
-3.46 8.80 2.49
-3.64 8.74 2.49
-3.81 8.67 2.49
-3.99 8.60 2.49
-4.17 8.53 2.49
-4.34 8.45 2.49
-4.51 8.37 2.49
-4.69 8.28 2.49
-4.86 8.20 2.49
-5.02 8.10 2.49
-5.19 8.01 2.49
-5.36 7.91 2.49
-5.52 7.81 2.49
-5.68 7.70 2.49
-5.84 7.60 2.49
-6.00 7.48 2.49
-6.05 7.24 2.45
-6.05 6.96 2.39
-6.19 6.84 2.39
-6.33 6.72 2.39
-6.47 6.60 2.39
-6.61 6.47 2.39
-6.74 6.34 2.39
-6.88 6.21 2.39
-7.01 6.08 2.39
-7.13 5.94 2.39
-7.26 5.80 2.39
-7.38 5.66 2.39
-7.50 5.52 2.39
-7.62 5.37 2.39
-7.73 5.22 2.39
-7.84 5.07 2.39
-7.95 4.92 2.39
-8.05 4.76 2.39
-8.16 4.61 2.39
-8.25 4.44 2.39
-8.35 4.28 2.39
-8.44 4.12 2.39
-8.53 3.95 2.39
-8.62 3.78 2.39
-8.70 3.61 2.39
-8.78 3.44 2.39
-8.85 3.27 2.39
-8.92 3.09 2.39
-8.99 2.92 2.39
-9.06 2.74 2.39
-9.12 2.56 2.39
-9.17 2.38 2.39
-9.23 2.19 2.39
-9.28 2.01 2.39
-9.32 1.82 2.39
-9.37 1.64 2.39
-9.41 1.45 2.39
-9.44 1.26 2.39
-9.47 1.08 2.39
-9.50 0.89 2.39
-9.52 0.70 2.39
-9.54 0.51 2.39
-9.56 0.32 2.39
-9.57 0.12 2.39
-9.57 -0.07 2.39
-9.58 -0.26 2.39
-9.58 -0.45 2.39
-9.57 -0.64 2.39
-9.56 -0.84 2.39
-9.55 -1.03 2.39
-9.53 -1.22 2.39
-9.51 -1.41 2.39
-9.49 -1.60 2.39
-9.46 -1.79 2.39
-9.43 -1.98 2.39
-9.39 -2.17 2.39
-9.35 -2.36 2.39
-9.31 -2.55 2.39
-9.26 -2.74 2.39
-9.21 -2.92 2.39
-9.15 -3.11 2.39
-9.09 -3.29 2.39
-9.02 -3.47 2.39
-8.96 -3.66 2.39
-8.89 -3.84 2.39
-8.81 -4.01 2.39
-8.73 -4.19 2.39
-8.65 -4.37 2.39
-8.56 -4.54 2.39
-8.47 -4.71 2.39
-8.38 -4.88 2.39
-8.28 -5.05 2.39
-8.18 -5.22 2.39
-8.07 -5.38 2.39
-7.97 -5.54 2.39
-7.86 -5.70 2.39
-7.74 -5.86 2.39
-7.62 -6.01 2.39
-7.50 -6.16 2.39
-7.38 -6.31 2.39
-7.25 -6.46 2.39
-7.12 -6.60 2.39
-6.99 -6.74 2.39
-6.85 -6.88 2.39
-6.71 -7.02 2.39
-6.57 -7.15 2.39
-6.42 -7.28 2.39
-6.28 -7.41 2.39
-6.13 -7.53 2.39
-5.97 -7.65 2.39
-5.82 -7.77 2.39
-5.70 -7.93 2.41
-5.68 -8.25 2.47
-5.57 -8.45 2.49
-5.40 -8.55 2.49
-5.22 -8.66 2.49
-5.05 -8.76 2.49
-4.87 -8.86 2.49
-4.69 -8.95 2.49
-4.51 -9.04 2.49
-4.33 -9.12 2.49
-4.14 -9.20 2.49
-3.95 -9.28 2.49
-3.77 -9.36 2.49
-3.58 -9.42 2.49
-3.39 -9.49 2.49
-3.19 -9.55 2.49
-3.00 -9.61 2.49
-2.81 -9.66 2.49
-2.61 -9.71 2.49
-2.41 -9.76 2.49
-2.22 -9.80 2.49
-2.02 -9.83 2.49
-1.82 -9.87 2.49
-1.62 -9.90 2.49
-1.42 -9.92 2.49
-1.22 -9.94 2.49
-1.02 -9.96 2.49
-0.82 -9.97 2.49
-0.62 -9.98 2.49
-0.42 -9.98 2.49
-0.22 -9.98 2.49
-0.02 -9.10 2.49
0.16 -9.09 2.49
0.34 -9.08 2.49
0.52 -9.07 2.49
0.70 -9.05 2.49
0.88 -9.02 2.49
1.06 -9.00 2.49
1.24 -8.97 2.49
1.42 -8.93 2.49
1.60 -8.90 2.49
1.78 -8.86 2.49
1.95 -8.81 2.49
2.13 -8.77 2.49
2.30 -8.71 2.49
2.38 -8.33 2.40
2.53 -8.24 2.39
2.70 -8.19 2.39
2.86 -8.12 2.39
3.02 -8.06 2.39
3.17 -7.99 2.39
3.33 -7.92 2.39
3.49 -7.84 2.39
3.64 -7.76 2.39
3.79 -7.68 2.39
3.94 -7.60 2.39
4.09 -7.51 2.39
4.24 -7.42 2.39
4.38 -7.33 2.39
4.52 -7.23 2.39
4.66 -7.13 2.39
4.80 -7.03 2.39
4.94 -6.93 2.39
5.07 -6.82 2.39
5.20 -6.71 2.39
5.33 -6.60 2.39
5.45 -6.49 2.39
5.58 -6.37 2.39
5.70 -6.25 2.39
5.82 -6.13 2.39
5.94 -6.01 2.39
6.05 -5.88 2.39
6.16 -5.75 2.39
6.27 -5.62 2.39
6.76 -5.82 2.53
6.85 -5.66 2.53
6.95 -5.52 2.53
6.97 -5.30 2.50
7.04 -5.14 2.49
7.11 -4.98 2.48
7.18 -4.81 2.47
7.24 -4.65 2.46
7.30 -4.48 2.45
7.36 -4.32 2.45
7.42 -4.15 2.44
7.46 -3.98 2.43
7.43 -3.77 2.39
7.40 -3.57 2.36
7.37 -3.38 2.33
7.37 -3.20 2.31
7.41 -3.04 2.31
7.44 -2.88 2.30
7.47 -2.72 2.29
7.49 -2.56 2.29
7.52 -2.40 2.28
7.54 -2.24 2.28
7.56 -2.08 2.27
7.58 -1.93 2.27
7.60 -1.77 2.26
7.61 -1.61 2.26
7.62 -1.45 2.25
7.63 -1.30 2.25
7.64 -1.14 2.25
7.63 -0.98 2.24
7.63 -0.83 2.23
7.62 -0.67 2.23
7.61 -0.52 2.23
7.60 -0.36 2.22
7.59 -0.21 2.22
7.59 -0.06 2.22
7.58 0.10 2.22
7.58 0.25 2.22
7.57 0.40 2.22
7.56 0.55 2.22
7.55 0.71 2.22
7.53 0.86 2.22
7.52 1.01 2.23
7.50 1.16 2.23
7.49 1.31 2.23
6.93 1.36 2.07
6.69 1.45 2.01
6.47 1.54 1.96
6.26 1.63 1.90
6.41 1.80 1.96
6.70 2.03 2.06
7.29 2.37 2.26
7.25 2.52 2.26
7.21 2.67 2.27
7.16 2.82 2.27
7.13 2.98 2.28
7.10 3.13 2.29
7.07 3.29 2.30
7.04 3.45 2.31
7.00 3.61 2.33
6.96 3.77 2.34
6.92 3.93 2.35
6.88 4.09 2.36
6.83 4.25 2.38
6.78 4.41 2.39
6.73 4.57 2.41
6.67 4.73 2.42
6.60 4.88 2.43
6.55 5.05 2.45
6.49 5.22 2.46
6.42 5.38 2.48
6.35 5.54 2.49
5.98 5.44 2.39
5.87 5.55 2.39
5.76 5.67 2.39
5.64 5.79 2.39
5.53 5.90 2.39
5.41 6.01 2.39
5.28 6.12 2.39
5.16 6.22 2.39
5.03 6.33 2.39
4.91 6.43 2.39
4.78 6.53 2.39
4.64 6.62 2.39
4.51 6.72 2.39
4.38 6.81 2.39
4.24 6.89 2.39
4.10 6.98 2.39
3.96 7.06 2.39
3.82 7.14 2.39
3.67 7.22 2.39
3.53 7.29 2.39
3.38 7.37 2.39
3.23 7.44 2.39
3.08 7.50 2.39
2.93 7.57 2.39
2.78 7.63 2.39
2.63 7.68 2.39
2.47 7.74 2.39
2.32 7.79 2.39
2.16 7.84 2.39
2.01 7.88 2.39
1.93 8.27 2.49
1.76 8.31 2.49
1.59 8.35 2.49
1.43 8.38 2.49
1.26 8.41 2.49
1.09 8.44 2.49
0.92 8.47 2.49
0.75 8.49 2.49
0.58 8.51 2.49
0.41 8.52 2.49
0.24 8.53 2.49
0.07 8.54 2.49
-0.11 8.55 2.49
-0.28 8.55 2.49
-0.45 8.55 2.49
-0.62 8.54 2.49
-0.80 8.53 2.49
-0.97 8.52 2.49
-1.14 8.51 2.49
-1.31 8.49 2.49
-1.48 8.47 2.49
-1.65 8.44 2.49
-1.82 8.41 2.49
-1.99 8.38 2.49
-2.16 8.34 2.49
-2.33 8.31 2.49
-2.50 8.26 2.49
-2.67 8.22 2.49
-2.84 8.17 2.49
-3.00 8.12 2.49
-3.17 8.06 2.49
-3.33 8.00 2.49
-3.50 7.94 2.49
-3.66 7.88 2.49
-3.82 7.81 2.49
-3.98 7.74 2.49
-4.14 7.66 2.49
-4.29 7.58 2.49
-4.45 7.50 2.49
-4.60 7.42 2.49
-4.75 7.33 2.49
-4.90 7.24 2.49
-5.05 7.15 2.49
-5.20 7.05 2.49
-5.35 6.95 2.49
-5.49 6.85 2.49
-5.63 6.74 2.49
-5.77 6.63 2.49
-5.91 6.52 2.49
-6.03 6.39 2.49
-6.02 6.13 2.43
-6.05 5.92 2.39
-6.17 5.80 2.39
-6.29 5.68 2.39
-6.41 5.56 2.39
-6.52 5.43 2.39
-6.64 5.30 2.39
-6.75 5.17 2.39
-6.86 5.04 2.39
-6.96 4.91 2.39
-7.07 4.77 2.39
-7.17 4.63 2.39
-7.27 4.49 2.39
-7.36 4.35 2.39
-7.45 4.21 2.39
-7.54 4.06 2.39
-7.63 3.91 2.39
-7.71 3.76 2.39
-7.79 3.61 2.39
-7.87 3.45 2.39
-7.94 3.30 2.39
-8.02 3.14 2.39
-8.08 2.98 2.39
-8.15 2.82 2.39
-8.21 2.66 2.39
-8.27 2.50 2.39
-8.32 2.33 2.39
-8.38 2.17 2.39
-8.42 2.00 2.39
-8.47 1.83 2.39
-8.51 1.66 2.39
-8.55 1.49 2.39
-8.58 1.32 2.39
-8.61 1.15 2.39
-8.64 0.98 2.39
-8.67 0.81 2.39
-8.69 0.63 2.39
-8.70 0.46 2.39
-8.72 0.29 2.39
-8.73 0.11 2.39
-8.73 -0.06 2.39
-8.74 -0.24 2.39
-8.73 -0.41 2.39
-8.73 -0.59 2.39
-8.72 -0.76 2.39
-8.71 -0.94 2.39
-8.69 -1.11 2.39
-8.67 -1.29 2.39
-8.65 -1.46 2.39
-8.63 -1.64 2.39
-8.59 -1.81 2.39
-8.56 -1.98 2.39
-8.52 -2.15 2.39
-8.48 -2.33 2.39
-8.44 -2.50 2.39
-8.39 -2.67 2.39
-8.34 -2.83 2.39
-8.28 -3.00 2.39
-8.23 -3.17 2.39
-8.16 -3.33 2.39
-8.10 -3.50 2.39
-8.03 -3.66 2.39
-7.96 -3.82 2.39
-7.88 -3.98 2.39
-7.80 -4.14 2.39
-7.72 -4.29 2.39
-7.63 -4.45 2.39
-7.54 -4.60 2.39
-7.45 -4.75 2.39
-7.36 -4.90 2.39
-7.26 -5.05 2.39
-7.16 -5.19 2.39
-7.05 -5.34 2.39
-6.95 -5.48 2.39
-6.83 -5.62 2.39
-6.72 -5.75 2.39
-6.61 -5.89 2.39
-6.49 -6.02 2.39
-6.37 -6.15 2.39
-6.24 -6.27 2.39
-6.11 -6.39 2.39
-5.98 -6.52 2.39
-5.85 -6.63 2.39
-5.73 -6.76 2.40
-5.71 -7.02 2.45
-5.68 -7.27 2.49
-5.53 -7.38 2.49
-5.38 -7.49 2.49
-5.23 -7.59 2.49
-5.07 -7.70 2.49
-4.92 -7.79 2.49
-4.76 -7.89 2.49
-4.60 -7.98 2.49
-4.44 -8.07 2.49
-4.27 -8.15 2.49
-4.11 -8.24 2.49
-3.94 -8.31 2.49
-3.77 -8.39 2.49
-3.60 -8.46 2.49
-3.43 -8.53 2.49
-3.26 -8.59 2.49
-3.09 -8.65 2.49
-2.91 -8.71 2.49
-2.74 -8.76 2.49
-2.56 -8.81 2.49
-2.38 -8.85 2.49
-2.20 -8.89 2.49
-2.02 -8.93 2.49
-1.84 -8.97 2.49
-1.66 -9.00 2.49
-1.48 -9.02 2.49
-1.30 -9.05 2.49
-1.12 -9.07 2.49
-0.93 -9.08 2.49
-0.75 -9.09 2.49
-0.57 -9.10 2.49
-0.39 -9.10 2.49
-0.20 -9.10 2.49
-0.02 -8.36 2.49
0.15 -8.35 2.49
0.31 -8.34 2.49
0.48 -8.33 2.49
0.65 -8.31 2.49
0.81 -8.29 2.49
0.98 -8.27 2.49
1.14 -8.24 2.49
1.30 -8.21 2.49
1.47 -8.18 2.49
1.63 -8.14 2.49
1.79 -8.10 2.49
1.95 -8.06 2.49
2.11 -8.01 2.49
2.27 -7.96 2.49
2.36 -7.68 2.42
2.48 -7.52 2.39
2.62 -7.47 2.39
2.77 -7.41 2.39
2.92 -7.34 2.39
3.06 -7.28 2.39
3.20 -7.21 2.39
3.34 -7.14 2.39
3.48 -7.06 2.39
3.62 -6.99 2.39
3.76 -6.91 2.39
3.89 -6.83 2.39
4.03 -6.74 2.39
4.16 -6.65 2.39
4.29 -6.56 2.39
4.41 -6.47 2.39
4.54 -6.37 2.39
4.66 -6.28 2.39
4.78 -6.18 2.39
4.90 -6.07 2.39
5.02 -5.97 2.39
5.13 -5.86 2.39
5.24 -5.75 2.39
5.35 -5.64 2.39
5.46 -5.53 2.39
5.57 -5.41 2.39
5.67 -5.30 2.39
5.77 -5.18 2.39
5.87 -5.06 2.39
5.96 -4.93 2.39
6.06 -4.81 2.39
6.15 -4.68 2.39
6.23 -4.55 2.39
6.64 -4.65 2.51
6.69 -4.49 2.50
6.74 -4.32 2.49
6.80 -4.17 2.48
6.85 -4.02 2.47
6.91 -3.87 2.46
6.96 -3.71 2.46
7.00 -3.56 2.45
6.98 -3.37 2.42
6.99 -3.20 2.40
7.02 -3.05 2.39
7.05 -2.90 2.39
7.08 -2.75 2.38
7.11 -2.59 2.37
7.14 -2.44 2.37
7.17 -2.29 2.36
7.19 -2.14 2.35
7.21 -1.99 2.35
7.23 -1.84 2.35
7.25 -1.69 2.34
7.26 -1.54 2.34
7.27 -1.39 2.33
7.28 -1.24 2.33
7.28 -1.09 2.32
7.28 -0.94 2.32
7.28 -0.79 2.31
7.27 -0.64 2.31
7.27 -0.50 2.30
7.26 -0.35 2.30
7.25 -0.20 2.30
7.24 -0.06 2.29
7.22 0.09 2.29
7.21 0.24 2.29
7.20 0.38 2.29
7.19 0.53 2.29
7.18 0.67 2.29
7.17 0.81 2.29
7.16 0.96 2.30
7.14 1.10 2.30
7.12 1.25 2.30
6.94 1.36 2.25
6.70 1.46 2.19
6.48 1.55 2.12
6.27 1.63 2.07
6.39 1.80 2.12
6.68 2.03 2.23
6.95 2.26 2.33
6.92 2.41 2.34
6.88 2.55 2.35
6.84 2.69 2.35
6.80 2.84 2.36
6.77 2.98 2.37
6.74 3.13 2.38
6.70 3.28 2.39
6.66 3.43 2.40
6.63 3.58 2.41
6.59 3.74 2.42
6.54 3.89 2.44
6.50 4.04 2.45
6.45 4.19 2.46
6.40 4.35 2.48
6.09 4.32 2.39
6.00 4.44 2.39
5.91 4.56 2.39
5.82 4.68 2.39
5.72 4.79 2.39
5.62 4.91 2.39
5.52 5.02 2.39
5.42 5.13 2.39
5.32 5.24 2.39
5.21 5.34 2.39
5.10 5.45 2.39
4.99 5.55 2.39
4.88 5.65 2.39
4.76 5.74 2.39
4.65 5.84 2.39
4.53 5.93 2.39
4.41 6.02 2.39
4.29 6.11 2.39
4.16 6.20 2.39
4.04 6.28 2.39
3.91 6.36 2.39
3.78 6.44 2.39
3.65 6.52 2.39
3.52 6.59 2.39
3.39 6.66 2.39
3.26 6.73 2.39
3.12 6.80 2.39
2.98 6.86 2.39
2.85 6.92 2.39
2.71 6.98 2.39
2.57 7.04 2.39
2.43 7.09 2.39
2.28 7.14 2.39
2.14 7.19 2.39
2.01 7.29 2.41
1.93 7.59 2.49
1.78 7.63 2.49
1.62 7.67 2.49
1.47 7.70 2.49
1.32 7.73 2.49
1.16 7.76 2.49
1.00 7.79 2.49
0.85 7.81 2.49
0.69 7.83 2.49
0.53 7.85 2.49
0.38 7.86 2.49
0.22 7.87 2.49
0.06 7.88 2.49
-0.10 7.88 2.49
-0.26 7.88 2.49
-0.42 7.88 2.49
-0.58 7.88 2.49
-0.74 7.87 2.49
-0.89 7.86 2.49
-1.05 7.84 2.49
-1.21 7.82 2.49
-1.37 7.80 2.49
-1.53 7.78 2.49
-1.68 7.75 2.49
-1.84 7.72 2.49
-2.00 7.69 2.49
-2.15 7.65 2.49
-2.31 7.62 2.49
-2.46 7.57 2.49
-2.62 7.53 2.49
-2.77 7.48 2.49
-2.92 7.43 2.49
-3.07 7.37 2.49
-3.22 7.32 2.49
-3.37 7.25 2.49
-3.52 7.19 2.49
-3.67 7.12 2.49
-3.81 7.06 2.49
-3.96 6.98 2.49
-4.10 6.91 2.49
-4.24 6.83 2.49
-4.38 6.75 2.49
-4.52 6.66 2.49
-4.66 6.58 2.49
-4.79 6.49 2.49
-4.92 6.40 2.49
-5.06 6.30 2.49
-5.19 6.20 2.49
-5.31 6.10 2.49
-5.44 6.00 2.49
-5.56 5.90 2.49
-5.69 5.79 2.49
-5.81 5.68 2.49
-5.92 5.56 2.49
-6.00 5.42 2.48
-6.00 5.20 2.43
-6.00 5.00 2.39
-6.11 4.88 2.39
-6.21 4.76 2.39
-6.31 4.64 2.39
-6.41 4.51 2.39
-6.50 4.39 2.39
-6.59 4.26 2.39
-6.68 4.13 2.39
-6.77 4.00 2.39
-6.85 3.87 2.39
-6.94 3.73 2.39
-7.02 3.59 2.39
-7.09 3.45 2.39
-7.17 3.31 2.39
-7.24 3.17 2.39
-7.30 3.03 2.39
-7.37 2.88 2.39
-7.43 2.74 2.39
-7.49 2.59 2.39
-7.55 2.44 2.39
-7.60 2.29 2.39
-7.65 2.14 2.39
-7.70 1.99 2.39
-7.74 1.84 2.39
-7.78 1.68 2.39
-7.82 1.53 2.39
-7.85 1.37 2.39
-7.89 1.21 2.39
-7.91 1.06 2.39
-7.94 0.90 2.39
-7.96 0.74 2.39
-7.98 0.58 2.39
-7.99 0.42 2.39
-8.01 0.26 2.39
-8.01 0.10 2.39
-8.02 -0.06 2.39
-8.02 -0.22 2.39
-8.02 -0.38 2.39
-8.02 -0.54 2.39
-8.01 -0.70 2.39
-8.00 -0.86 2.39
-7.98 -1.02 2.39
-7.96 -1.18 2.39
-7.94 -1.34 2.39
-7.92 -1.50 2.39
-7.89 -1.66 2.39
-7.86 -1.82 2.39
-7.82 -1.98 2.39
-7.79 -2.14 2.39
-7.74 -2.29 2.39
-7.70 -2.45 2.39
-7.65 -2.60 2.39
-7.60 -2.76 2.39
-7.55 -2.91 2.39
-7.49 -3.06 2.39
-7.43 -3.21 2.39
-7.37 -3.36 2.39
-7.30 -3.51 2.39
-7.23 -3.65 2.39
-7.16 -3.80 2.39
-7.08 -3.94 2.39
-7.00 -4.08 2.39
-6.92 -4.22 2.39
-6.84 -4.36 2.39
-6.75 -4.50 2.39
-6.66 -4.63 2.39
-6.57 -4.77 2.39
-6.47 -4.90 2.39
-6.37 -5.03 2.39
-6.27 -5.15 2.39
-6.17 -5.28 2.39
-6.06 -5.40 2.39
-5.95 -5.52 2.39
-5.84 -5.64 2.39
-5.75 -5.78 2.40
-5.73 -6.00 2.45
-5.73 -6.24 2.49
-5.60 -6.35 2.49
-5.47 -6.46 2.49
-5.34 -6.57 2.49
-5.21 -6.67 2.49
-5.07 -6.77 2.49
-4.94 -6.87 2.49
-4.80 -6.97 2.49
-4.66 -7.06 2.49
-4.51 -7.15 2.49
-4.37 -7.24 2.49
-4.22 -7.32 2.49
-4.07 -7.40 2.49
-3.92 -7.48 2.49
-3.77 -7.56 2.49
-3.62 -7.63 2.49
-3.46 -7.70 2.49
-3.31 -7.76 2.49
-3.15 -7.82 2.49
-2.99 -7.88 2.49
-2.83 -7.94 2.49
-2.67 -7.99 2.49
-2.51 -8.04 2.49
-2.35 -8.08 2.49
-2.19 -8.13 2.49
-2.02 -8.16 2.49
-1.86 -8.20 2.49
-1.69 -8.23 2.49
-1.53 -8.26 2.49
-1.36 -8.28 2.49
-1.19 -8.31 2.49
-1.03 -8.32 2.49
-0.86 -8.34 2.49
-0.69 -8.35 2.49
-0.52 -8.36 2.49
-0.36 -8.36 2.49
-0.19 -8.36 2.49
-0.02 -7.72 2.49
0.13 -7.71 2.49
0.29 -7.70 2.49
0.44 -7.69 2.49
0.59 -7.68 2.49
0.75 -7.66 2.49
0.90 -7.64 2.49
1.05 -7.61 2.49
1.20 -7.58 2.49
1.35 -7.55 2.49
1.50 -7.52 2.49
1.65 -7.48 2.49
1.80 -7.44 2.49
1.95 -7.40 2.49
2.10 -7.36 2.49
2.24 -7.31 2.49
2.34 -7.12 2.45
2.42 -6.90 2.39
2.56 -6.85 2.39
2.69 -6.79 2.39
2.83 -6.73 2.39
2.96 -6.67 2.39
3.09 -6.60 2.39
3.22 -6.53 2.39
3.35 -6.46 2.39
3.47 -6.39 2.39
3.60 -6.31 2.39
3.72 -6.23 2.39
3.84 -6.15 2.39
3.96 -6.07 2.39
4.08 -5.99 2.39
4.20 -5.90 2.39
4.31 -5.81 2.39
4.42 -5.72 2.39
4.53 -5.62 2.39
4.64 -5.52 2.39
4.75 -5.43 2.39
4.85 -5.33 2.39
4.95 -5.22 2.39
5.05 -5.12 2.39
5.15 -5.01 2.39
5.25 -4.90 2.39
5.34 -4.79 2.39
5.43 -4.68 2.39
5.52 -4.57 2.39
5.60 -4.45 2.39
5.69 -4.34 2.39
5.77 -4.22 2.39
5.85 -4.10 2.39
5.93 -3.98 2.39
6.00 -3.85 2.39
6.07 -3.73 2.39
6.14 -3.60 2.39
6.21 -3.48 2.39
6.27 -3.35 2.39
6.59 -3.35 2.49
6.63 -3.20 2.48
6.66 -3.06 2.47
6.70 -2.91 2.46
6.73 -2.77 2.46
6.76 -2.62 2.45
6.79 -2.48 2.44
6.82 -2.33 2.44
6.84 -2.19 2.43
6.86 -2.04 2.43
6.88 -1.90 2.42
6.90 -1.76 2.42
6.92 -1.61 2.41
6.94 -1.47 2.41
6.95 -1.33 2.41
6.96 -1.19 2.40
6.96 -1.04 2.39
6.96 -0.90 2.39
6.95 -0.76 2.38
6.95 -0.62 2.38
6.94 -0.47 2.38
6.94 -0.33 2.37
6.93 -0.19 2.37
6.92 -0.05 2.36
6.91 0.08 2.36
6.89 0.22 2.36
6.88 0.36 2.36
6.86 0.50 2.36
6.85 0.64 2.36
6.83 0.78 2.36
6.82 0.91 2.36
6.81 1.05 2.36
6.79 1.19 2.37
6.77 1.33 2.37
6.72 1.46 2.36
6.49 1.55 2.29
6.29 1.63 2.23
6.38 1.79 2.28
6.65 2.02 2.39
6.62 2.15 2.40
6.59 2.29 2.40
6.56 2.43 2.41
6.53 2.57 2.42
6.50 2.71 2.43
6.46 2.85 2.43
6.42 2.99 2.44
6.39 3.13 2.45
6.35 3.27 2.47
6.10 3.30 2.39
6.03 3.42 2.39
5.96 3.54 2.39
5.88 3.66 2.39
5.81 3.77 2.39
5.73 3.89 2.39
5.65 4.00 2.39
5.57 4.12 2.39
5.48 4.23 2.39
5.39 4.34 2.39
5.31 4.44 2.39
5.22 4.55 2.39
5.12 4.65 2.39
5.03 4.76 2.39
4.93 4.86 2.39
4.83 4.95 2.39
4.73 5.05 2.39
4.63 5.15 2.39
4.52 5.24 2.39
4.42 5.33 2.39
4.31 5.42 2.39
4.20 5.50 2.39
4.09 5.59 2.39
3.98 5.67 2.39
3.86 5.75 2.39
3.75 5.83 2.39
3.63 5.90 2.39
3.51 5.98 2.39
3.39 6.05 2.39
3.27 6.12 2.39
3.14 6.18 2.39
3.02 6.24 2.39
2.89 6.31 2.39
2.77 6.37 2.39
2.64 6.42 2.39
2.51 6.48 2.39
2.38 6.53 2.39
2.25 6.58 2.39
2.12 6.62 2.39
2.02 6.78 2.43
1.93 7.00 2.49
1.79 7.04 2.49
1.65 7.07 2.49
1.50 7.11 2.49
1.36 7.14 2.49
1.22 7.17 2.49
1.07 7.20 2.49
0.93 7.22 2.49
0.78 7.24 2.49
0.64 7.26 2.49
0.49 7.27 2.49
0.35 7.29 2.49
0.20 7.30 2.49
0.05 7.30 2.49
-0.09 7.31 2.49
-0.24 7.31 2.49
-0.39 7.30 2.49
-0.54 7.30 2.49
-0.68 7.29 2.49
-0.83 7.28 2.49
-0.98 7.27 2.49
-1.12 7.25 2.49
-1.27 7.23 2.49
-1.42 7.21 2.49
-1.56 7.18 2.49
-1.71 7.16 2.49
-1.85 7.12 2.49
-2.00 7.09 2.49
-2.14 7.05 2.49
-2.28 7.01 2.49
-2.43 6.97 2.49
-2.57 6.93 2.49
-2.71 6.88 2.49
-2.85 6.83 2.49
-2.99 6.77 2.49
-3.12 6.72 2.49
-3.26 6.66 2.49
-3.40 6.60 2.49
-3.53 6.53 2.49
-3.66 6.46 2.49
-3.80 6.39 2.49
-3.93 6.32 2.49
-4.06 6.25 2.49
-4.18 6.17 2.49
-4.31 6.09 2.49
-4.44 6.01 2.49
-4.56 5.92 2.49
-4.68 5.83 2.49
-4.80 5.74 2.49
-4.92 5.65 2.49
-5.04 5.55 2.49
-5.15 5.45 2.49
-5.26 5.35 2.49
-5.37 5.25 2.49
-5.48 5.15 2.49
-5.59 5.04 2.49
-5.69 4.93 2.49
-5.79 4.82 2.49
-5.90 4.71 2.49
-5.98 4.58 2.49
-5.98 4.39 2.45
-5.98 4.21 2.41
-6.01 4.06 2.39
-6.10 3.94 2.39
-6.18 3.82 2.39
-6.26 3.70 2.39
-6.34 3.57 2.39
-6.41 3.45 2.39
-6.49 3.32 2.39
-6.56 3.19 2.39
-6.63 3.06 2.39
-6.69 2.93 2.39
-6.75 2.80 2.39
-6.81 2.66 2.39
-6.87 2.53 2.39
-6.92 2.39 2.39
-6.98 2.26 2.39
-7.02 2.12 2.39
-7.07 1.98 2.39
-7.11 1.84 2.39
-7.15 1.69 2.39
-7.19 1.55 2.39
-7.22 1.41 2.39
-7.26 1.26 2.39
-7.29 1.12 2.39
-7.31 0.97 2.39
-7.33 0.83 2.39
-7.35 0.68 2.39
-7.37 0.53 2.39
-7.38 0.39 2.39
-7.39 0.24 2.39
-7.40 0.09 2.39
-7.41 -0.06 2.39
-7.41 -0.21 2.39
-7.41 -0.35 2.39
-7.40 -0.50 2.39
-7.39 -0.65 2.39
-7.38 -0.80 2.39
-7.37 -0.95 2.39
-7.35 -1.09 2.39
-7.33 -1.24 2.39
-7.31 -1.39 2.39
-7.28 -1.54 2.39
-7.25 -1.68 2.39
-7.22 -1.83 2.39
-7.19 -1.97 2.39
-7.15 -2.12 2.39
-7.11 -2.26 2.39
-7.06 -2.40 2.39
-7.02 -2.54 2.39
-6.97 -2.68 2.39
-6.91 -2.82 2.39
-6.86 -2.96 2.39
-6.80 -3.10 2.39
-6.74 -3.24 2.39
-6.67 -3.37 2.39
-6.61 -3.51 2.39
-6.54 -3.64 2.39
-6.46 -3.77 2.39
-6.39 -3.90 2.39
-6.31 -4.03 2.39
-6.23 -4.15 2.39
-6.15 -4.28 2.39
-6.06 -4.40 2.39
-5.97 -4.52 2.39
-5.88 -4.64 2.39
-5.79 -4.75 2.39
-5.76 -4.93 2.42
-5.75 -5.13 2.46
-5.73 -5.31 2.49
-5.62 -5.43 2.49
-5.51 -5.54 2.49
-5.40 -5.65 2.49
-5.29 -5.75 2.49
-5.17 -5.86 2.49
-5.05 -5.96 2.49
-4.93 -6.06 2.49
-4.81 -6.16 2.49
-4.68 -6.25 2.49
-4.56 -6.34 2.49
-4.43 -6.43 2.49
-4.30 -6.52 2.49
-4.17 -6.60 2.49
-4.03 -6.68 2.49
-3.90 -6.76 2.49
-3.76 -6.83 2.49
-3.62 -6.91 2.49
-3.48 -6.97 2.49
-3.34 -7.04 2.49
-3.20 -7.10 2.49
-3.05 -7.16 2.49
-2.91 -7.22 2.49
-2.76 -7.28 2.49
-2.62 -7.33 2.49
-2.47 -7.38 2.49
-2.32 -7.42 2.49
-2.17 -7.46 2.49
-2.02 -7.50 2.49
-1.87 -7.54 2.49
-1.72 -7.57 2.49
-1.56 -7.60 2.49
-1.41 -7.63 2.49
-1.26 -7.65 2.49
