ply
format ascii 1.0
element vertex 2943
property float32 x
property float32 y
property float32 z
end_header
-10.04 -5.32 1.60
-10.04 -5.58 1.62
-10.05 -5.85 1.64
-10.05 -6.13 1.66
-10.06 -6.41 1.68
-10.06 -6.70 1.70
-10.07 -7.00 1.72
-10.08 -7.31 1.75
-10.08 -7.63 1.78
-8.02 -6.32 1.43
-7.82 -6.43 1.42
-7.78 -6.66 1.44
-10.11 -9.01 1.90
-10.11 -9.38 1.94
-10.12 -9.78 1.97
-10.13 -10.19 2.02
-10.14 -10.61 2.06
-10.15 -11.06 2.10
-10.10 -11.46 2.14
-10.11 -11.94 2.19
-10.16 -12.51 2.26
-10.22 -13.67 2.39
-9.95 -13.87 2.39
-9.67 -14.07 2.39
-9.39 -14.27 2.39
-9.10 -14.46 2.39
-6.64 -11.03 1.80
-6.38 -11.09 1.79
-6.40 -11.66 1.86
-6.43 -12.29 1.94
-6.41 -12.89 2.01
-6.71 -14.20 2.20
-6.74 -15.03 2.30
-6.68 -15.74 2.39
-6.44 -16.06 2.42
-6.31 -16.69 2.49
-5.97 -16.82 2.49
-5.63 -16.94 2.49
-5.29 -17.05 2.49
-4.95 -17.15 2.49
-4.60 -17.25 2.49
-4.26 -17.34 2.49
-3.91 -17.42 2.49
-3.56 -17.50 2.49
-3.21 -17.57 2.49
-2.85 -17.63 2.49
-2.50 -17.68 2.49
-2.15 -17.73 2.49
-1.79 -17.77 2.49
-1.43 -17.81 2.49
-1.07 -17.83 2.49
-0.72 -17.85 2.49
-0.36 -17.86 2.49
0.00 -15.33 2.49
0.31 -15.33 2.49
0.62 -15.32 2.49
0.92 -15.31 2.49
1.23 -15.29 2.49
1.54 -15.26 2.49
1.84 -15.22 2.49
2.15 -15.18 2.49
2.45 -15.14 2.49
2.75 -15.08 2.49
3.06 -15.02 2.49
3.31 -14.75 2.46
3.55 -14.47 2.42
3.81 -14.28 2.40
4.08 -14.12 2.39
4.36 -14.03 2.39
4.64 -13.94 2.39
4.92 -13.84 2.39
5.19 -13.74 2.39
5.47 -13.63 2.39
5.74 -13.52 2.39
6.01 -13.40 2.39
6.27 -13.28 2.39
6.54 -13.15 2.39
6.80 -13.01 2.39
7.09 -12.93 2.40
7.41 -12.89 2.42
7.73 -12.85 2.44
8.09 -12.85 2.47
8.41 -12.79 2.49
8.67 -12.61 2.49
8.92 -12.44 2.49
9.16 -12.25 2.49
9.41 -12.06 2.49
9.65 -11.87 2.49
9.88 -11.67 2.49
10.11 -11.47 2.49
10.34 -11.26 2.49
10.56 -11.05 2.49
10.78 -10.84 2.49
10.99 -10.62 2.49
11.20 -10.39 2.49
11.40 -10.16 2.49
11.60 -9.93 2.49
11.80 -9.69 2.49
11.99 -9.45 2.49
12.17 -9.21 2.49
12.35 -8.96 2.49
12.53 -8.71 2.49
12.70 -8.45 2.49
12.86 -8.20 2.49
13.02 -7.93 2.49
13.17 -7.67 2.49
13.32 -7.40 2.49
13.47 -7.13 2.49
8.42 -4.25 1.54
13.73 -6.58 2.49
13.86 -6.30 2.49
13.98 -6.02 2.49
14.10 -5.74 2.49
14.21 -5.46 2.49
14.31 -5.17 2.49
13.81 -4.68 2.39
13.90 -4.40 2.39
13.98 -4.12 2.39
14.06 -3.83 2.39
14.13 -3.55 2.39
14.19 -3.27 2.39
14.25 -2.98 2.39
14.30 -2.69 2.39
14.35 -2.40 2.39
14.39 -2.11 2.39
14.43 -1.82 2.39
14.46 -1.53 2.39
14.48 -1.24 2.39
14.50 -0.95 2.39
14.93 -0.68 2.46
14.69 -0.37 2.42
14.62 -0.08 2.41
14.61 0.22 2.41
14.60 0.51 2.41
14.59 0.80 2.41
14.56 1.09 2.41
14.53 1.39 2.41
14.50 1.68 2.41
14.27 1.94 2.37
13.97 2.19 2.33
13.67 2.42 2.29
13.40 2.65 2.25
13.18 2.88 2.23
12.96 3.11 2.20
12.75 3.33 2.18
12.53 3.54 2.15
12.25 3.73 2.12
12.04 3.93 2.09
11.95 4.17 2.09
11.86 4.41 2.09
11.77 4.65 2.09
11.67 4.88 2.09
11.48 5.08 2.08
11.30 5.27 2.06
11.16 5.48 2.06
11.17 5.76 2.08
11.04 5.98 2.08
10.93 6.21 2.08
10.80 6.42 2.08
10.66 6.63 2.08
10.59 6.89 2.09
10.53 7.16 2.11
10.47 7.43 2.13
10.40 7.70 2.15
10.32 7.96 2.16
10.26 8.25 2.19
10.20 8.55 2.21
10.14 8.85 2.23
9.98 9.07 2.24
9.97 9.43 2.28
9.62 9.48 2.24
9.44 9.68 2.25
9.26 9.88 2.25
9.07 10.07 2.25
8.88 10.27 2.26
8.68 10.46 2.26
8.48 10.65 2.26
8.28 10.83 2.27
8.09 11.03 2.28
7.90 11.24 2.29
7.70 11.44 2.29
7.50 11.64 2.30
2.55 4.14 0.81
7.15 12.14 2.35
6.96 12.38 2.37
6.75 12.60 2.38
6.57 12.87 2.41
6.31 13.00 2.41
6.01 13.04 2.39
5.74 13.15 2.39
5.48 13.26 2.39
5.21 13.37 2.39
4.94 13.47 2.39
4.67 13.57 2.39
4.39 13.65 2.39
4.12 13.74 2.39
3.84 13.82 2.39
3.56 13.89 2.39
3.28 13.96 2.39
3.00 14.02 2.39
2.72 14.08 2.39
2.44 14.13 2.39
2.18 14.37 2.42
1.95 14.83 2.49
1.65 14.86 2.49
1.35 14.89 2.49
1.05 14.92 2.49
0.75 14.93 2.49
0.45 14.95 2.49
0.15 14.95 2.49
-0.15 14.95 2.49
-0.45 14.94 2.49
-0.75 14.93 2.49
-1.05 14.91 2.49
-1.35 14.89 2.49
-1.65 14.86 2.49
-1.95 14.83 2.49
-2.24 14.78 2.49
-2.54 14.74 2.49
-2.84 14.68 2.49
-3.13 14.62 2.49
-3.42 14.56 2.49
-3.71 14.49 2.49
-4.00 14.41 2.49
-4.29 14.33 2.49
-4.58 14.24 2.49
-4.87 14.15 2.49
-5.15 14.05 2.49
-5.43 13.94 2.49
-5.71 13.83 2.49
-5.89 13.49 2.45
-6.00 13.03 2.39
-6.26 12.91 2.39
-6.52 12.78 2.39
-6.78 12.65 2.39
-7.03 12.51 2.39
-7.28 12.37 2.39
-6.52 10.58 2.07
-7.78 12.07 2.39
-8.02 11.91 2.39
-8.26 11.75 2.39
-8.49 11.59 2.39
-8.72 11.41 2.39
-8.95 11.24 2.39
-9.18 11.06 2.39
-9.40 10.87 2.39
-9.62 10.68 2.39
-9.83 10.49 2.39
-9.71 8.82 2.18
-9.72 8.48 2.14
-9.77 8.18 2.12
-9.79 7.87 2.09
-9.79 7.56 2.05
-9.80 7.25 2.02
-9.80 6.96 2.00
-9.81 6.67 1.97
-9.81 6.39 1.94
-9.82 6.11 1.92
-9.83 5.85 1.90
-9.83 5.58 1.87
-9.83 5.33 1.85
-9.84 5.08 1.84
-9.84 4.83 1.82
-9.85 4.59 1.80
-9.85 4.36 1.78
-9.86 4.12 1.77
-9.86 3.89 1.76
-9.87 3.67 1.74
-9.80 3.42 1.72
-9.87 3.23 1.72
-9.88 3.01 1.71
-9.88 2.80 1.70
-9.89 2.58 1.69
-9.89 2.37 1.68
-9.90 2.17 1.67
-9.90 1.96 1.67
-9.90 1.75 1.66
-9.91 1.55 1.66
-9.91 1.35 1.65
-9.91 1.15 1.65
-9.92 0.95 1.64
-9.92 0.75 1.64
-9.93 0.55 1.64
-9.93 0.35 1.64
-9.93 0.15 1.64
-9.94 -0.05 1.64
-9.94 -0.25 1.64
-9.94 -0.45 1.64
-9.89 -0.65 1.63
-9.95 -0.85 1.64
-9.96 -1.06 1.65
-9.96 -1.26 1.65
-9.96 -1.46 1.66
-9.97 -1.67 1.66
-9.97 -1.88 1.67
-9.98 -2.09 1.68
-9.98 -2.30 1.68
-9.98 -2.51 1.69
-9.99 -2.72 1.70
-9.99 -2.94 1.71
-10.00 -3.16 1.72
-10.00 -3.39 1.73
-10.00 -3.61 1.75
-10.01 -3.84 1.76
-10.01 -4.08 1.77
-10.02 -4.32 1.79
-9.97 -4.53 1.80
-10.03 -4.81 1.82
-10.03 -5.06 1.84
-10.04 -5.32 1.86
-10.04 -5.58 1.88
-10.05 -5.85 1.90
-10.05 -6.13 1.93
-10.06 -6.41 1.95
-10.06 -6.70 1.98
-10.07 -7.00 2.01
-10.08 -7.31 2.04
-10.08 -7.63 2.07
-8.02 -6.32 1.67
-7.85 -6.45 1.66
-7.78 -6.66 1.67
-10.05 -8.96 2.20
-10.32 -10.38 2.39
-10.12 -10.59 2.39
-9.90 -10.79 2.39
-9.69 -10.99 2.39
-9.47 -11.18 2.39
-9.24 -11.37 2.39
-9.01 -11.56 2.39
-8.78 -11.74 2.39
-6.35 -8.85 1.78
-6.34 -9.23 1.83
-6.38 -9.69 1.89
-6.38 -10.13 1.95
-6.37 -10.58 2.01
-7.31 -12.72 2.39
-6.69 -12.19 2.27
-6.80 -13.01 2.39
-6.54 -13.14 2.39
-6.39 -13.52 2.44
-6.26 -13.97 2.49
-5.98 -14.10 2.49
-5.70 -14.22 2.49
-5.41 -14.33 2.49
-5.13 -14.44 2.49
-4.84 -14.54 2.49
-4.54 -14.63 2.49
-4.25 -14.72 2.49
-3.95 -14.81 2.49
-3.66 -14.89 2.49
-3.36 -14.96 2.49
-3.06 -15.02 2.49
-2.75 -15.08 2.49
-2.45 -15.13 2.49
-2.15 -15.18 2.49
-1.84 -15.22 2.49
-1.54 -15.26 2.49
-1.23 -15.28 2.49
-0.92 -15.31 2.49
-0.62 -15.32 2.49
-0.31 -15.33 2.49
0.00 -13.42 2.49
0.27 -13.42 2.49
0.54 -13.41 2.49
0.81 -13.40 2.49
1.08 -13.38 2.49
1.34 -13.35 2.49
1.61 -13.32 2.49
1.88 -13.29 2.49
2.15 -13.25 2.49
2.41 -13.20 2.49
2.67 -13.15 2.49
2.94 -13.09 2.49
3.20 -13.03 2.49
3.46 -12.96 2.49
3.72 -12.89 2.49
3.98 -12.81 2.49
4.23 -12.73 2.49
4.49 -12.64 2.49
4.74 -12.55 2.49
4.99 -12.45 2.49
5.24 -12.34 2.49
5.49 -12.24 2.49
5.73 -12.12 2.49
5.97 -12.00 2.49
6.21 -11.88 2.49
6.45 -11.75 2.49
6.68 -11.62 2.49
6.91 -11.48 2.49
7.14 -11.34 2.49
7.36 -11.19 2.49
7.59 -11.04 2.49
7.81 -10.89 2.49
8.02 -10.73 2.49
8.23 -10.56 2.49
8.44 -10.39 2.49
8.65 -10.22 2.49
8.85 -10.04 2.49
9.05 -9.86 2.49
9.24 -9.68 2.49
9.43 -9.49 2.49
9.62 -9.29 2.49
9.80 -9.10 2.49
9.98 -8.90 2.49
10.16 -8.69 2.49
10.33 -8.49 2.49
10.50 -8.28 2.49
10.66 -8.06 2.49
10.82 -7.85 2.49
10.97 -7.63 2.49
11.12 -7.40 2.49
11.26 -7.18 2.49
11.40 -6.95 2.49
11.54 -6.72 2.49
11.67 -6.48 2.49
11.79 -6.25 2.49
8.42 -4.25 1.76
12.03 -5.77 2.49
12.14 -5.52 2.49
12.25 -5.28 2.49
11.84 -4.82 2.39
11.93 -4.58 2.39
12.02 -4.34 2.39
12.10 -4.10 2.39
12.17 -3.85 2.39
12.25 -3.61 2.39
12.31 -3.36 2.39
12.38 -3.11 2.39
12.43 -2.86 2.39
12.49 -2.61 2.39
12.53 -2.36 2.39
12.57 -2.11 2.39
12.61 -1.85 2.39
12.64 -1.60 2.39
12.67 -1.35 2.39
12.69 -1.09 2.39
13.23 -0.87 2.49
13.05 -0.59 2.45
12.87 -0.33 2.42
12.81 -0.07 2.41
12.81 0.19 2.41
12.80 0.44 2.41
12.78 0.70 2.41
12.77 0.96 2.41
12.74 1.21 2.41
12.71 1.47 2.41
12.68 1.72 2.41
12.51 1.96 2.38
12.30 2.18 2.35
12.09 2.39 2.32
11.88 2.60 2.29
11.68 2.80 2.26
11.43 2.99 2.23
11.17 3.16 2.19
10.92 3.33 2.15
10.67 3.49 2.12
10.44 3.65 2.09
10.37 3.85 2.09
10.33 4.08 2.10
10.29 4.30 2.10
10.25 4.53 2.11
10.20 4.76 2.12
10.15 4.98 2.14
10.10 5.21 2.15
10.05 5.44 2.16
9.99 5.67 2.17
9.92 5.90 2.18
9.87 6.14 2.20
9.81 6.38 2.21
9.75 6.63 2.23
9.69 6.87 2.25
9.61 7.11 2.26
9.52 7.35 2.28
9.43 7.58 2.29
9.33 7.82 2.30
9.25 8.07 2.32
9.18 8.34 2.35
9.08 8.58 2.37
8.54 8.41 2.27
8.39 8.60 2.27
8.23 8.78 2.28
8.06 8.96 2.28
7.90 9.14 2.29
7.74 9.32 2.30
7.57 9.50 2.30
7.40 9.69 2.31
7.25 9.88 2.32
7.08 10.08 2.34
6.92 10.29 2.35
6.76 10.49 2.37
2.55 4.14 0.92
6.41 10.88 2.40
6.22 11.06 2.41
5.95 11.10 2.39
5.73 11.22 2.39
5.50 11.33 2.39
5.27 11.44 2.39
5.04 11.54 2.39
4.81 11.64 2.39
4.57 11.73 2.39
4.33 11.82 2.39
4.10 11.91 2.39
3.86 11.98 2.39
3.61 12.06 2.39
3.37 12.13 2.39
3.13 12.19 2.39
2.88 12.25 2.39
2.63 12.31 2.39
2.39 12.36 2.39
2.15 12.47 2.40
1.97 12.98 2.49
1.71 13.01 2.49
1.45 13.04 2.49
1.18 13.07 2.49
0.92 13.09 2.49
0.66 13.11 2.49
0.40 13.12 2.49
0.13 13.12 2.49
-0.13 13.12 2.49
-0.40 13.12 2.49
-0.66 13.11 2.49
-0.92 13.09 2.49
-1.18 13.07 2.49
-1.45 13.04 2.49
-1.71 13.01 2.49
-1.97 12.98 2.49
-2.23 12.93 2.49
-2.49 12.89 2.49
-2.75 12.83 2.49
-3.00 12.78 2.49
-3.26 12.72 2.49
-3.52 12.65 2.49
-3.77 12.58 2.49
-4.02 12.50 2.49
-4.27 12.42 2.49
-4.52 12.33 2.49
-4.77 12.24 2.49
-5.01 12.14 2.49
-5.26 12.04 2.49
-5.50 11.93 2.49
-5.74 11.82 2.49
-5.91 11.57 2.47
-5.95 11.10 2.39
-6.17 10.98 2.39
-6.39 10.86 2.39
-6.51 10.57 2.36
-6.82 10.59 2.39
-7.04 10.45 2.39
-7.25 10.31 2.39
-7.45 10.17 2.39
-7.66 10.02 2.39
-7.86 9.86 2.39
-8.05 9.70 2.39
-8.25 9.54 2.39
-8.44 9.37 2.39
-8.63 9.20 2.39
-8.81 9.03 2.39
-8.99 8.85 2.39
-9.17 8.67 2.39
-9.34 8.49 2.39
-9.51 8.30 2.39
-9.68 8.11 2.39
-9.84 7.91 2.39
-10.00 7.72 2.39
-9.77 6.36 2.20
-9.76 6.08 2.18
-9.77 5.81 2.15
-9.80 5.57 2.13
-9.83 5.33 2.11
-9.84 5.08 2.09
-9.84 4.83 2.07
-9.85 4.59 2.05
-9.85 4.36 2.03
-9.86 4.12 2.02
-9.86 3.89 2.00
-9.87 3.67 1.99
-9.80 3.42 1.96
-9.87 3.23 1.96
-9.88 3.01 1.95
-9.88 2.80 1.94
-9.89 2.58 1.93
-9.89 2.37 1.92
-9.90 2.17 1.91
-9.90 1.96 1.90
-9.90 1.75 1.89
-9.91 1.55 1.89
-9.91 1.35 1.88
-9.91 1.15 1.88
-9.92 0.94 1.88
-9.92 0.74 1.87
-9.93 0.54 1.87
-9.93 0.35 1.87
-9.93 0.15 1.87
-9.94 -0.05 1.87
-9.94 -0.25 1.87
-9.94 -0.45 1.87
-9.89 -0.65 1.86
-9.95 -0.85 1.88
-9.96 -1.06 1.88
-9.96 -1.26 1.89
-9.96 -1.46 1.89
-9.97 -1.67 1.90
-9.97 -1.88 1.90
-9.98 -2.09 1.91
-9.98 -2.30 1.92
-9.98 -2.51 1.93
-9.99 -2.73 1.94
-9.99 -2.94 1.95
-10.00 -3.16 1.96
-10.00 -3.39 1.98
-10.00 -3.61 1.99
-10.01 -3.84 2.01
-10.01 -4.08 2.02
-10.02 -4.32 2.04
-9.97 -4.53 2.05
-10.03 -4.81 2.08
-10.03 -5.06 2.10
-10.02 -5.31 2.12
-10.00 -5.56 2.14
-9.99 -5.82 2.16
-10.00 -6.09 2.19
-10.05 -6.40 2.23
-10.21 -7.73 2.39
-8.02 -6.32 1.91
-7.85 -6.45 1.90
-7.78 -6.66 1.91
-9.57 -8.53 2.39
-9.39 -8.72 2.39
-9.22 -8.91 2.39
-9.04 -9.09 2.39
-6.57 -6.88 1.77
-6.35 -6.92 1.75
-6.31 -7.16 1.78
-6.31 -7.45 1.82
-6.33 -7.79 1.87
-6.34 -8.14 1.92
-6.34 -8.47 1.97
-6.33 -8.83 2.02
-7.27 -10.58 2.39
-6.65 -10.10 2.25
-6.84 -10.87 2.39
-6.62 -11.00 2.39
-6.40 -11.13 2.39
-6.35 -11.58 2.46
-6.21 -11.88 2.49
-5.97 -12.00 2.49
-5.73 -12.12 2.49
-5.48 -12.23 2.49
-5.24 -12.34 2.49
-4.99 -12.44 2.49
-4.74 -12.54 2.49
-4.49 -12.64 2.49
-4.23 -12.73 2.49
-3.98 -12.81 2.49
-3.72 -12.89 2.49
-3.46 -12.96 2.49
-3.20 -13.03 2.49
-2.94 -13.09 2.49
-2.67 -13.15 2.49
-2.41 -13.20 2.49
-2.14 -13.24 2.49
-1.88 -13.29 2.49
-1.61 -13.32 2.49
-1.34 -13.35 2.49
-1.08 -13.38 2.49
-0.81 -13.40 2.49
-0.54 -13.41 2.49
-0.27 -13.42 2.49
0.00 -11.92 2.49
0.24 -11.92 2.49
0.48 -11.91 2.49
0.72 -11.90 2.49
0.96 -11.88 2.49
1.19 -11.86 2.49
1.43 -11.83 2.49
1.67 -11.80 2.49
1.91 -11.77 2.49
2.14 -11.72 2.49
2.38 -11.68 2.49
2.61 -11.63 2.49
2.84 -11.57 2.49
3.07 -11.51 2.49
3.30 -11.45 2.49
3.53 -11.38 2.49
3.76 -11.31 2.49
3.99 -11.23 2.49
4.21 -11.14 2.49
4.43 -11.06 2.49
4.65 -10.97 2.49
4.87 -10.87 2.49
5.09 -10.77 2.49
5.30 -10.66 2.49
5.52 -10.55 2.49
5.73 -10.44 2.49
5.93 -10.32 2.49
6.14 -10.20 2.49
6.34 -10.07 2.49
6.54 -9.94 2.49
6.74 -9.81 2.49
6.93 -9.67 2.49
7.13 -9.53 2.49
7.31 -9.38 2.49
7.50 -9.23 2.49
7.68 -9.08 2.49
7.86 -8.92 2.49
8.04 -8.76 2.49
8.21 -8.60 2.49
8.38 -8.43 2.49
8.55 -8.26 2.49
8.71 -8.08 2.49
8.87 -7.91 2.49
9.03 -7.73 2.49
9.18 -7.54 2.49
9.33 -7.35 2.49
9.47 -7.17 2.49
9.61 -6.97 2.49
9.75 -6.78 2.49
9.88 -6.58 2.49
10.01 -6.38 2.49
10.13 -6.18 2.49
10.25 -5.97 2.49
10.37 -5.76 2.49
10.48 -5.55 2.49
8.42 -4.25 1.98
10.69 -5.12 2.49
10.34 -4.71 2.39
10.43 -4.50 2.39
10.52 -4.29 2.39
10.60 -4.07 2.39
10.68 -3.86 2.39
10.75 -3.64 2.39
10.82 -3.43 2.39
10.89 -3.21 2.39
10.95 -2.99 2.39
11.00 -2.77 2.39
11.05 -2.54 2.39
11.10 -2.32 2.39
11.14 -2.10 2.39
11.18 -1.87 2.39
11.21 -1.65 2.39
11.24 -1.42 2.39
11.26 -1.20 2.39
11.28 -0.97 2.39
12.31 -0.81 2.60
12.27 -0.56 2.59
11.63 -0.30 2.46
11.39 -0.06 2.41
11.39 0.17 2.41
11.38 0.40 2.41
11.37 0.62 2.41
11.35 0.85 2.41
11.33 1.08 2.41
11.30 1.31 2.41
11.27 1.53 2.41
11.24 1.76 2.41
11.10 1.96 2.39
10.92 2.16 2.36
10.71 2.34 2.32
10.49 2.52 2.29
10.30 2.69 2.26
10.11 2.86 2.23
9.92 3.02 2.20
9.80 3.20 2.18
9.76 3.41 2.19
9.72 3.61 2.20
9.68 3.82 2.21
9.64 4.03 2.22
9.60 4.24 2.23
9.55 4.45 2.24
9.50 4.67 2.25
9.45 4.88 2.26
9.39 5.09 2.27
9.33 5.30 2.28
9.27 5.51 2.29
9.20 5.73 2.30
9.14 5.94 2.32
9.07 6.17 2.33
9.01 6.39 2.35
8.92 6.60 2.36
8.84 6.82 2.37
8.75 7.03 2.39
8.66 7.25 2.40
8.53 7.44 2.41
8.38 7.61 2.41
8.22 7.77 2.41
8.06 7.94 2.41
7.90 8.09 2.41
7.51 8.01 2.34
7.29 8.10 2.32
7.14 8.26 2.33
7.00 8.43 2.33
6.86 8.61 2.35
6.72 8.79 2.36
6.58 8.97 2.37
6.43 9.15 2.38
6.29 9.34 2.40
6.08 9.43 2.39
2.55 4.14 1.04
5.69 9.67 2.39
5.50 9.78 2.39
5.30 9.88 2.39
5.10 9.99 2.39
4.90 10.09 2.39
4.69 10.18 2.39
4.49 10.27 2.39
4.28 10.36 2.39
4.07 10.44 2.39
3.86 10.52 2.39
3.65 10.60 2.39
3.43 10.67 2.39
3.22 10.73 2.39
3.00 10.80 2.39
2.78 10.85 2.39
2.56 10.91 2.39
2.35 10.96 2.39
2.12 11.00 2.39
1.99 11.52 2.49
1.75 11.55 2.49
1.52 11.58 2.49
1.29 11.61 2.49
1.05 11.64 2.49
0.82 11.65 2.49
0.59 11.67 2.49
0.35 11.68 2.49
0.12 11.68 2.49
-0.12 11.68 2.49
-0.35 11.68 2.49
-0.59 11.67 2.49
-0.82 11.65 2.49
-1.05 11.64 2.49
-1.29 11.61 2.49
-1.52 11.58 2.49
-1.75 11.55 2.49
-1.98 11.51 2.49
-2.22 11.47 2.49
-2.45 11.43 2.49
-2.67 11.37 2.49
-2.90 11.32 2.49
-3.13 11.26 2.49
-3.35 11.19 2.49
-3.58 11.13 2.49
-3.80 11.05 2.49
-4.02 10.97 2.49
-4.24 10.89 2.49
-4.46 10.80 2.49
-4.68 10.71 2.49
-4.89 10.62 2.49
-5.11 10.52 2.49
-5.32 10.42 2.49
-5.52 10.31 2.49
-5.73 10.20 2.49
-5.93 10.08 2.49
-5.94 9.64 2.42
-6.07 9.43 2.39
-6.26 9.31 2.39
-6.45 9.18 2.39
-6.63 9.05 2.39
-6.81 8.91 2.39
-6.99 8.78 2.39
-7.17 8.64 2.39
-7.34 8.49 2.39
-7.51 8.34 2.39
-7.68 8.19 2.39
-7.84 8.04 2.39
-8.00 7.88 2.39
-8.16 7.72 2.39
-8.32 7.55 2.39
-8.47 7.39 2.39
-8.61 7.22 2.39
-8.76 7.04 2.39
-8.90 6.87 2.39
-9.04 6.69 2.39
-9.17 6.50 2.39
-9.30 6.32 2.39
-9.43 6.13 2.39
-9.55 5.94 2.39
-9.67 5.75 2.39
-9.78 5.56 2.39
-9.90 5.36 2.39
-10.00 5.16 2.39
-9.80 3.42 2.20
-9.82 3.21 2.19
-9.82 2.99 2.18
-9.83 2.78 2.17
-9.83 2.57 2.15
-9.84 2.36 2.14
-9.85 2.16 2.14
-9.87 1.95 2.13
-9.88 1.75 2.13
-9.89 1.55 2.12
-9.91 1.35 2.12
-9.91 1.15 2.11
-9.92 0.94 2.11
-9.92 0.74 2.11
-9.93 0.54 2.10
-9.93 0.34 2.10
-9.93 0.15 2.10
-9.94 -0.05 2.10
-9.94 -0.25 2.10
-9.94 -0.45 2.10
-9.89 -0.65 2.09
-9.95 -0.86 2.11
-9.96 -1.06 2.11
-9.95 -1.26 2.12
-9.95 -1.46 2.12
-9.94 -1.67 2.13
-9.93 -1.87 2.13
-9.93 -2.08 2.14
-9.92 -2.28 2.15
-9.93 -2.50 2.16
-9.93 -2.71 2.17
-9.94 -2.93 2.18
-9.94 -3.15 2.20
-9.98 -3.38 2.22
-9.97 -4.53 2.31
-10.24 -4.91 2.39
-10.14 -5.12 2.39
-10.04 -5.32 2.39
-9.93 -5.52 2.39
-9.82 -5.72 2.39
-9.71 -5.92 2.39
-9.59 -6.11 2.39
-9.46 -6.30 2.39
-9.34 -6.49 2.39
-9.21 -6.68 2.39
-9.07 -6.87 2.39
-8.04 -6.34 2.15
-7.86 -6.46 2.14
-7.81 -6.68 2.16
-6.29 -5.61 1.77
-6.28 -5.82 1.80
-6.28 -6.07 1.83
-6.30 -6.34 1.88
-6.32 -6.62 1.92
-6.31 -6.88 1.96
-6.30 -7.15 2.00
-6.31 -7.46 2.05
-6.59 -8.11 2.19
-7.01 -8.99 2.39
-6.83 -9.13 2.39
-6.64 -9.27 2.39
-6.46 -9.40 2.39
-6.31 -9.59 2.41
-6.32 -10.04 2.49
-6.14 -10.20 2.49
-5.93 -10.32 2.49
-5.72 -10.44 2.49
-5.51 -10.55 2.49
-5.30 -10.66 2.49
-5.09 -10.76 2.49
-4.87 -10.87 2.49
-4.65 -10.96 2.49
-4.43 -11.05 2.49
-4.21 -11.14 2.49
-3.98 -11.22 2.49
-3.76 -11.30 2.49
-3.53 -11.38 2.49
-3.30 -11.45 2.49
-3.07 -11.51 2.49
-2.84 -11.57 2.49
-2.61 -11.63 2.49
-2.37 -11.68 2.49
-2.14 -11.72 2.49
-1.90 -11.76 2.49
-1.67 -11.80 2.49
-1.43 -11.83 2.49
-1.19 -11.86 2.49
-0.96 -11.88 2.49
-0.72 -11.90 2.49
-0.48 -11.91 2.49
-0.24 -11.92 2.49
0.00 -10.71 2.49
0.22 -10.71 2.49
0.43 -10.70 2.49
0.64 -10.69 2.49
0.86 -10.68 2.49
1.07 -10.66 2.49
1.29 -10.63 2.49
1.50 -10.60 2.49
1.71 -10.57 2.49
1.92 -10.54 2.49
2.13 -10.49 2.49
2.34 -10.45 2.49
2.55 -10.40 2.49
2.76 -10.35 2.49
2.97 -10.29 2.49
3.17 -10.23 2.49
3.38 -10.16 2.49
3.58 -10.09 2.49
3.78 -10.01 2.49
3.98 -9.94 2.49
4.18 -9.85 2.49
4.38 -9.77 2.49
4.57 -9.68 2.49
4.77 -9.58 2.49
4.96 -9.48 2.49
5.15 -9.38 2.49
5.33 -9.28 2.49
5.52 -9.17 2.49
5.70 -9.05 2.49
5.88 -8.94 2.49
6.06 -8.82 2.49
6.23 -8.69 2.49
6.40 -8.56 2.49
6.57 -8.43 2.49
6.74 -8.30 2.49
6.91 -8.16 2.49
7.07 -8.02 2.49
7.23 -7.87 2.49
7.38 -7.73 2.49
7.53 -7.58 2.49
7.68 -7.42 2.49
7.83 -7.27 2.49
7.97 -7.11 2.49
8.11 -6.94 2.49
8.25 -6.78 2.49
8.38 -6.61 2.49
8.51 -6.44 2.49
8.64 -6.27 2.49
8.76 -6.09 2.49
8.88 -5.91 2.49
9.00 -5.73 2.49
9.11 -5.55 2.49
9.22 -5.37 2.49
9.32 -5.18 2.49
9.03 -4.79 2.39
8.42 -4.25 2.21
9.21 -4.42 2.39
9.30 -4.23 2.39
9.38 -4.04 2.39
9.46 -3.85 2.39
9.53 -3.66 2.39
9.60 -3.47 2.39
9.67 -3.28 2.39
9.73 -3.08 2.39
9.79 -2.88 2.39
9.84 -2.69 2.39
9.89 -2.49 2.39
9.94 -2.29 2.39
9.98 -2.09 2.39
10.02 -1.89 2.39
10.05 -1.68 2.39
10.08 -1.48 2.39
10.11 -1.28 2.39
10.13 -1.08 2.39
10.15 -0.87 2.39
11.83 -0.78 2.78
11.09 -0.51 2.61
10.44 -0.27 2.45
10.25 -0.06 2.41
10.24 0.15 2.41
10.24 0.35 2.41
10.22 0.56 2.41
10.21 0.77 2.41
10.19 0.97 2.41
10.17 1.17 2.41
10.14 1.38 2.41
10.11 1.58 2.41
10.07 1.78 2.41
9.94 1.97 2.38
9.77 2.14 2.36
9.61 2.30 2.33
9.44 2.47 2.30
9.29 2.63 2.27
9.26 2.82 2.28
9.22 3.01 2.29
9.19 3.21 2.29
9.15 3.40 2.30
9.11 3.59 2.31
9.06 3.79 2.32
9.02 3.99 2.33
8.97 4.18 2.34
8.93 4.38 2.35
8.87 4.58 2.36
8.81 4.77 2.37
8.75 4.97 2.38
8.69 5.17 2.39
8.63 5.37 2.40
8.55 5.56 2.41
8.43 5.73 2.41
8.31 5.90 2.41
8.19 6.06 2.41
8.07 6.22 2.41
7.94 6.38 2.41
7.81 6.54 2.41
7.67 6.69 2.41
7.54 6.85 2.41
7.40 6.99 2.41
7.25 7.14 2.41
7.11 7.28 2.41
6.96 7.42 2.41
6.81 7.56 2.41
6.65 7.70 2.41
6.50 7.83 2.41
6.34 7.96 2.41
6.18 8.08 2.41
5.97 8.15 2.39
5.81 8.26 2.39
5.64 8.38 2.39
5.47 8.49 2.39
2.55 4.14 1.15
5.12 8.70 2.39
4.95 8.80 2.39
4.77 8.90 2.39
4.59 8.99 2.39
4.41 9.08 2.39
4.22 9.17 2.39
4.04 9.25 2.39
3.85 9.33 2.39
3.66 9.40 2.39
2.87 7.83 1.98
2.70 7.84 1.96
2.52 7.84 1.95
2.90 9.66 2.39
2.70 9.72 2.39
2.51 9.77 2.39
2.31 9.82 2.39
2.11 9.86 2.39
2.00 10.33 2.49
1.79 10.37 2.49
1.58 10.40 2.49
1.37 10.43 2.49
1.16 10.45 2.49
0.95 10.47 2.49
0.74 10.49 2.49
0.53 10.50 2.49
0.32 10.51 2.49
0.11 10.52 2.49
-0.11 10.52 2.49
-0.32 10.51 2.49
-0.53 10.50 2.49
-0.74 10.49 2.49
-0.95 10.47 2.49
-1.16 10.45 2.49
-1.37 10.43 2.49
-1.58 10.40 2.49
-1.79 10.36 2.49
-1.99 10.33 2.49
-2.20 10.29 2.49
-2.41 10.24 2.49
-2.61 10.19 2.49
-2.82 10.14 2.49
-3.02 10.08 2.49
-3.22 10.01 2.49
-3.42 9.95 2.49
-3.62 9.88 2.49
-3.82 9.80 2.49
-4.02 9.73 2.49
-4.21 9.64 2.49
-4.40 9.56 2.49
-4.60 9.47 2.49
-4.79 9.38 2.49
-4.97 9.28 2.49
-5.16 9.18 2.49
-5.34 9.07 2.49
-5.52 8.96 2.49
-5.70 8.85 2.49
-5.88 8.74 2.49
-5.96 8.49 2.46
-5.98 8.16 2.40
-6.13 8.02 2.39
-6.29 7.90 2.39
-6.45 7.77 2.39
-6.61 7.64 2.39
-6.76 7.51 2.39
-6.91 7.37 2.39
-7.06 7.23 2.39
-7.20 7.09 2.39
-7.34 6.95 2.39
-7.48 6.80 2.39
-7.62 6.65 2.39
-7.75 6.49 2.39
-7.88 6.34 2.39
-8.01 6.18 2.39
-8.13 6.02 2.39
-8.25 5.85 2.39
-8.37 5.69 2.39
-8.48 5.52 2.39
-8.59 5.35 2.39
-8.70 5.18 2.39
-8.80 5.00 2.39
-8.90 4.82 2.39
-9.00 4.64 2.39
-9.09 4.46 2.39
-9.18 4.28 2.39
-9.27 4.10 2.39
-9.35 3.91 2.39
-9.43 3.72 2.39
-9.50 3.53 2.39
-9.57 3.34 2.39
-9.64 3.15 2.39
-9.70 2.96 2.39
-9.76 2.76 2.39
-9.82 2.56 2.39
-9.87 2.37 2.39
-9.92 2.17 2.39
-9.96 1.97 2.39
-10.00 1.77 2.39
-10.03 1.57 2.39
-10.07 1.37 2.39
-10.09 1.17 2.39
-10.12 0.96 2.39
-10.14 0.76 2.39
-10.15 0.56 2.39
-10.17 -0.26 2.39
-10.16 -0.46 2.39
-9.89 -0.65 2.33
-10.14 -0.87 2.39
-10.12 -1.08 2.39
-10.10 -1.28 2.39
-10.08 -1.48 2.39
-10.05 -1.68 2.39
-10.01 -1.89 2.39
-9.97 -2.09 2.39
-9.93 -2.29 2.39
-9.89 -2.49 2.39
-9.84 -2.68 2.39
-9.78 -2.88 2.39
-9.72 -3.08 2.39
-9.66 -3.27 2.39
-9.60 -3.47 2.39
-9.53 -3.66 2.39
-9.45 -3.85 2.39
-9.37 -4.04 2.39
-9.29 -4.23 2.39
-9.21 -4.41 2.39
-9.12 -4.60 2.39
-9.03 -4.78 2.39
-6.52 -3.63 1.75
-8.83 -5.14 2.39
-8.73 -5.32 2.39
-8.62 -5.49 2.39
-6.27 -4.18 1.76
-6.25 -4.35 1.78
-6.25 -4.54 1.81
-6.25 -4.73 1.83
-6.27 -4.95 1.87
-6.29 -5.17 1.90
-6.30 -5.39 1.94
-6.28 -5.60 1.97
-6.28 -5.82 2.00
-6.28 -6.07 2.04
-7.22 -7.26 2.39
-6.57 -6.88 2.22
-6.92 -7.55 2.39
-6.77 -7.68 2.39
-6.62 -7.82 2.39
-6.46 -7.95 2.39
-6.30 -8.08 2.39
-6.28 -8.40 2.45
-6.23 -8.69 2.49
-6.05 -8.81 2.49
-5.88 -8.93 2.49
-5.70 -9.05 2.49
-5.51 -9.16 2.49
-5.33 -9.27 2.49
-5.14 -9.38 2.49
-4.95 -9.48 2.49
-4.76 -9.58 2.49
-4.57 -9.67 2.49
-4.38 -9.76 2.49
-4.18 -9.85 2.49
-3.98 -9.93 2.49
-3.78 -10.01 2.49
-3.58 -10.09 2.49
-3.38 -10.16 2.49
-3.17 -10.22 2.49
-2.97 -10.29 2.49
-2.76 -10.34 2.49
-2.55 -10.40 2.49
-2.34 -10.45 2.49
-2.13 -10.49 2.49
-1.92 -10.53 2.49
-1.71 -10.57 2.49
-1.50 -10.60 2.49
-1.29 -10.63 2.49
-1.07 -10.66 2.49
-0.86 -10.68 2.49
-0.64 -10.69 2.49
-0.43 -10.70 2.49
-0.21 -10.71 2.49
0.00 -9.71 2.49
0.20 -9.71 2.49
0.39 -9.71 2.49
0.58 -9.70 2.49
0.78 -9.68 2.49
0.97 -9.67 2.49
1.17 -9.64 2.49
1.36 -9.62 2.49
1.55 -9.59 2.49
1.74 -9.56 2.49
1.94 -9.52 2.49
2.13 -9.48 2.49
2.32 -9.43 2.49
2.50 -9.38 2.49
2.69 -9.33 2.49
2.88 -9.28 2.49
3.06 -9.22 2.49
3.25 -9.15 2.49
3.43 -9.08 2.49
3.61 -9.01 2.49
3.79 -8.94 2.49
3.97 -8.86 2.49
4.15 -8.78 2.49
4.32 -8.69 2.49
4.50 -8.60 2.49
4.67 -8.51 2.49
4.84 -8.41 2.49
5.00 -8.31 2.49
5.17 -8.21 2.49
5.33 -8.11 2.49
5.49 -8.00 2.49
5.65 -7.88 2.49
5.81 -7.77 2.49
5.96 -7.65 2.49
6.11 -7.53 2.49
6.26 -7.40 2.49
6.41 -7.27 2.49
6.55 -7.14 2.49
6.70 -7.01 2.49
6.83 -6.87 2.49
6.97 -6.73 2.49
7.10 -6.59 2.49
7.23 -6.45 2.49
7.36 -6.30 2.49
7.48 -6.15 2.49
7.60 -6.00 2.49
7.72 -5.84 2.49
7.84 -5.69 2.49
7.95 -5.53 2.49
8.06 -5.37 2.49
8.16 -5.20 2.49
8.26 -5.04 2.49
8.02 -4.67 2.39
8.11 -4.51 2.39
8.19 -4.34 2.39
8.28 -4.18 2.39
8.36 -4.01 2.39
8.44 -3.84 2.39
8.51 -3.67 2.39
8.58 -3.50 2.39
8.65 -3.32 2.39
8.71 -3.15 2.39
8.77 -2.97 2.39
8.83 -2.80 2.39
8.88 -2.62 2.39
8.93 -2.44 2.39
8.98 -2.26 2.39
9.02 -2.08 2.39
9.06 -1.90 2.39
9.09 -1.71 2.39
9.12 -1.53 2.39
9.15 -1.35 2.39
9.17 -1.16 2.39
9.19 -0.98 2.39
9.21 -0.79 2.39
10.59 -0.70 2.74
9.99 -0.46 2.59
9.46 -0.24 2.45
9.30 -0.05 2.41
9.30 0.14 2.41
9.29 0.32 2.41
9.28 0.51 2.41
9.27 0.69 2.41
9.25 0.88 2.41
9.23 1.07 2.41
9.20 1.25 2.41
9.18 1.43 2.41
9.14 1.62 2.41
9.11 1.80 2.41
9.00 1.97 2.39
8.85 2.12 2.36
8.80 2.30 2.36
8.77 2.48 2.36
8.74 2.66 2.37
8.70 2.84 2.38
8.67 3.03 2.38
8.63 3.21 2.39
8.59 3.39 2.40
8.55 3.57 2.41
8.48 3.75 2.41
8.40 3.91 2.41
8.32 4.08 2.41
8.23 4.25 2.41
8.14 4.41 2.41
8.05 4.57 2.41
7.96 4.73 2.41
7.86 4.89 2.41
7.76 5.05 2.41
7.66 5.20 2.41
7.55 5.35 2.41
7.44 5.50 2.41
7.33 5.65 2.41
7.21 5.80 2.41
7.09 5.94 2.41
6.97 6.08 2.41
6.85 6.22 2.41
6.72 6.35 2.41
6.59 6.48 2.41
6.46 6.62 2.41
6.32 6.74 2.41
6.18 6.87 2.41
6.00 6.94 2.39
5.86 7.06 2.39
5.72 7.18 2.39
5.57 7.29 2.39
5.42 7.40 2.39
5.27 7.51 2.39
5.12 7.61 2.39
4.97 7.71 2.39
2.55 4.14 1.27
4.65 7.90 2.39
4.49 7.99 2.39
4.33 8.08 2.39
4.17 8.17 2.39
4.00 8.25 2.39
3.84 8.33 2.39
3.67 8.40 2.39
3.50 8.47 2.39
2.86 7.35 2.06
2.70 7.35 2.04
2.53 7.36 2.03
2.39 7.42 2.03
2.63 8.78 2.39
2.45 8.83 2.39
2.28 8.90 2.40
2.10 8.92 2.39
2.00 9.34 2.49
1.81 9.38 2.49
1.62 9.42 2.49
1.43 9.45 2.49
1.24 9.47 2.49
1.05 9.50 2.49
0.86 9.52 2.49
0.67 9.53 2.49
0.48 9.54 2.49
0.29 9.55 2.49
0.10 9.55 2.49
-0.10 9.55 2.49
-0.29 9.55 2.49
-0.48 9.54 2.49
-0.67 9.53 2.49
-0.86 9.51 2.49
-1.05 9.50 2.49
-1.24 9.47 2.49
-1.43 9.45 2.49
-1.62 9.42 2.49
-1.81 9.38 2.49
-2.00 9.34 2.49
-2.19 9.30 2.49
-2.37 9.26 2.49
-2.56 9.21 2.49
-2.74 9.15 2.49
-2.93 9.10 2.49
-3.11 9.04 2.49
-3.29 8.97 2.49
-3.47 8.91 2.49
-3.65 8.83 2.49
-3.83 8.76 2.49
-4.00 8.68 2.49
-4.17 8.60 2.49
-4.35 8.52 2.49
-4.52 8.43 2.49
-4.69 8.34 2.49
-4.85 8.24 2.49
-5.02 8.14 2.49
-5.18 8.04 2.49
-5.34 7.94 2.49
-5.50 7.83 2.49
-5.66 7.72 2.49
-5.81 7.60 2.49
-5.96 7.48 2.49
-5.99 7.21 2.44
-6.01 6.95 2.39
-6.14 6.82 2.39
-6.28 6.70 2.39
-6.41 6.57 2.39
-6.54 6.44 2.39
-6.67 6.31 2.39
-6.80 6.17 2.39
-6.92 6.04 2.39
-7.04 5.90 2.39
-7.16 5.75 2.39
-7.27 5.61 2.39
-7.39 5.46 2.39
-7.50 5.32 2.39
-7.60 5.16 2.39
-7.70 5.01 2.39
-7.80 4.86 2.39
-7.90 4.70 2.39
-8.00 4.54 2.39
-8.09 4.38 2.39
-8.17 4.22 2.39
-8.26 4.05 2.39
-8.34 3.89 2.39
-8.42 3.72 2.39
-8.49 3.55 2.39
-8.56 3.38 2.39
-8.63 3.21 2.39
-8.69 3.03 2.39
-8.75 2.86 2.39
-8.81 2.68 2.39
-8.86 2.51 2.39
-8.91 2.33 2.39
-8.96 2.15 2.39
-9.00 1.97 2.39
-9.04 1.79 2.39
-9.08 1.61 2.39
-9.11 1.42 2.39
-9.14 1.24 2.39
-9.16 1.06 2.39
-9.18 0.87 2.39
-9.20 0.69 2.39
-9.21 0.50 2.39
-9.22 0.32 2.39
-9.23 0.13 2.39
-9.23 -0.05 2.39
-9.23 -0.24 2.39
-9.23 -0.42 2.39
-9.22 -0.61 2.39
-9.21 -0.79 2.39
-9.19 -0.98 2.39
-9.17 -1.16 2.39
-9.15 -1.35 2.39
-9.12 -1.53 2.39
-9.09 -1.71 2.39
-9.05 -1.89 2.39
-9.01 -2.08 2.39
-8.97 -2.26 2.39
-8.93 -2.44 2.39
-8.88 -2.62 2.39
-8.82 -2.79 2.39
-8.77 -2.97 2.39
-6.34 -2.29 1.74
-8.64 -3.32 2.39
-8.58 -3.49 2.39
-6.25 -2.69 1.76
-6.24 -2.84 1.77
-6.23 -2.99 1.78
-6.22 -3.14 1.80
-6.23 -3.30 1.82
-6.23 -3.46 1.84
-6.25 -3.64 1.86
-6.26 -3.82 1.89
-6.27 -4.00 1.92
-6.27 -4.18 1.94
-6.26 -4.35 1.97
-6.25 -4.54 1.99
-6.25 -4.73 2.02
-6.27 -4.95 2.06
-7.17 -5.89 2.39
-7.05 -6.04 2.39
-6.56 -5.85 2.26
-6.81 -6.32 2.39
-6.68 -6.45 2.39
-6.55 -6.59 2.39
-6.42 -6.72 2.39
-6.28 -6.85 2.39
-6.26 -7.11 2.44
-6.26 -7.40 2.49
-6.11 -7.52 2.49
-5.96 -7.65 2.49
-5.81 -7.77 2.49
-5.65 -7.88 2.49
-5.49 -7.99 2.49
-5.33 -8.10 2.49
-5.17 -8.21 2.49
-5.00 -8.31 2.49
-4.83 -8.41 2.49
-4.67 -8.51 2.49
-4.49 -8.60 2.49
-4.32 -8.69 2.49
-4.15 -8.78 2.49
-3.97 -8.86 2.49
-3.79 -8.94 2.49
-3.61 -9.01 2.49
-3.43 -9.08 2.49
-3.25 -9.15 2.49
-3.06 -9.21 2.49
-2.88 -9.27 2.49
-2.69 -9.33 2.49
-2.50 -9.38 2.49
-2.32 -9.43 2.49
-2.13 -9.48 2.49
-1.94 -9.52 2.49
-1.74 -9.55 2.49
-1.55 -9.59 2.49
-1.36 -9.62 2.49
-1.17 -9.64 2.49
-0.97 -9.67 2.49
-0.78 -9.68 2.49
-0.58 -9.70 2.49
-0.39 -9.71 2.49
-0.19 -9.71 2.49
0.00 -8.88 2.49
0.18 -8.88 2.49
0.36 -8.87 2.49
0.53 -8.86 2.49
0.71 -8.85 2.49
0.89 -8.83 2.49
1.07 -8.82 2.49
1.24 -8.79 2.49
1.42 -8.76 2.49
1.59 -8.73 2.49
1.77 -8.70 2.49
1.94 -8.66 2.49
2.12 -8.62 2.49
2.29 -8.58 2.49
2.46 -8.53 2.49
2.63 -8.48 2.49
2.80 -8.42 2.49
2.97 -8.37 2.49
3.14 -8.30 2.49
3.30 -8.24 2.49
3.47 -8.17 2.49
3.63 -8.10 2.49
3.79 -8.02 2.49
3.95 -7.95 2.49
4.11 -7.86 2.49
4.27 -7.78 2.49
4.42 -7.69 2.49
4.57 -7.60 2.49
4.73 -7.51 2.49
4.87 -7.41 2.49
5.02 -7.31 2.49
5.17 -7.21 2.49
5.31 -7.10 2.49
5.45 -6.99 2.49
5.59 -6.88 2.49
5.73 -6.77 2.49
5.86 -6.65 2.49
5.99 -6.53 2.49
6.12 -6.41 2.49
6.25 -6.28 2.49
6.37 -6.16 2.49
6.49 -6.03 2.49
6.61 -5.89 2.49
6.73 -5.76 2.49
6.84 -5.62 2.49
6.95 -5.48 2.49
7.06 -5.34 2.49
7.17 -5.20 2.49
7.27 -5.05 2.49
7.37 -4.91 2.49
7.15 -4.56 2.39
7.24 -4.42 2.39
7.33 -4.27 2.39
7.41 -4.12 2.39
7.49 -3.97 2.39
7.57 -3.82 2.39
7.64 -3.67 2.39
7.71 -3.51 2.39
7.78 -3.35 2.39
7.85 -3.20 2.39
7.91 -3.04 2.39
7.97 -2.88 2.39
8.02 -2.72 2.39
8.07 -2.56 2.39
8.12 -2.39 2.39
8.17 -2.23 2.39
8.21 -2.07 2.39
8.25 -1.90 2.39
8.28 -1.73 2.39
8.31 -1.57 2.39
8.34 -1.40 2.39
8.37 -1.23 2.39
8.39 -1.06 2.39
8.41 -0.89 2.39
10.11 -0.87 2.87
9.57 -0.63 2.71
9.08 -0.42 2.57
8.64 -0.22 2.44
8.51 -0.05 2.41
8.50 0.12 2.41
8.50 0.29 2.41
8.49 0.46 2.41
8.48 0.63 2.41
8.46 0.80 2.41
8.44 0.97 2.41
8.42 1.14 2.41
8.39 1.31 2.41
8.36 1.48 2.41
8.33 1.65 2.41
8.30 1.81 2.41
8.26 1.98 2.41
8.21 2.14 2.41
8.17 2.31 2.41
8.12 2.47 2.41
8.07 2.63 2.41
8.01 2.79 2.41
7.95 2.95 2.41
7.89 3.11 2.41
7.82 3.27 2.41
7.76 3.43 2.41
7.68 3.58 2.41
7.61 3.73 2.41
7.53 3.89 2.41
7.45 4.04 2.41
7.37 4.18 2.41
7.28 4.33 2.41
7.19 4.47 2.41
7.10 4.62 2.41
7.00 4.76 2.41
6.91 4.90 2.41
6.81 5.03 2.41
6.70 5.17 2.41
6.60 5.30 2.41
6.49 5.43 2.41
6.38 5.56 2.41
6.26 5.69 2.41
6.15 5.81 2.41
5.99 5.89 2.39
5.87 6.01 2.39
5.75 6.13 2.39
5.62 6.24 2.39
5.49 6.35 2.39
5.36 6.46 2.39
5.23 6.57 2.39
5.10 6.67 2.39
4.96 6.77 2.39
4.83 6.87 2.39
4.69 6.96 2.39
4.55 7.05 2.39
2.55 4.14 1.39
4.26 7.23 2.39
4.11 7.31 2.39
3.96 7.39 2.39
3.81 7.47 2.39
3.66 7.55 2.39
3.51 7.62 2.39
3.36 7.69 2.39
3.20 7.75 2.39
2.87 7.37 2.25
2.70 7.35 2.23
2.53 7.36 2.22
2.39 7.42 2.22
2.41 8.03 2.39
2.27 8.15 2.41
2.08 8.12 2.39
2.00 8.51 2.49
1.83 8.55 2.49
1.66 8.59 2.49
1.49 8.62 2.49
1.31 8.65 2.49
1.14 8.67 2.49
0.96 8.69 2.49
0.79 8.71 2.49
0.61 8.72 2.49
0.44 8.73 2.49
0.26 8.74 2.49
0.09 8.74 2.49
-0.09 8.74 2.49
-0.26 8.74 2.49
-0.44 8.73 2.49
-0.61 8.72 2.49
-0.79 8.71 2.49
-0.96 8.69 2.49
-1.14 8.67 2.49
-1.31 8.64 2.49
-1.49 8.62 2.49
-1.66 8.59 2.49
-1.83 8.55 2.49
-2.00 8.51 2.49
-2.17 8.47 2.49
-2.34 8.43 2.49
-2.51 8.38 2.49
-2.68 8.33 2.49
-2.85 8.27 2.49
-3.01 8.21 2.49
-3.18 8.15 2.49
-3.34 8.08 2.49
-3.50 8.02 2.49
-3.66 7.95 2.49
-3.82 7.87 2.49
-3.98 7.79 2.49
-4.13 7.71 2.49
-4.29 7.63 2.49
-4.44 7.54 2.49
-4.59 7.45 2.49
-4.74 7.36 2.49
-4.89 7.26 2.49
-5.03 7.16 2.49
-5.18 7.06 2.49
-5.32 6.96 2.49
-5.46 6.85 2.49
-5.59 6.74 2.49
-5.73 6.62 2.49
-5.86 6.51 2.49
-5.99 6.39 2.49
-6.01 6.16 2.45
-6.02 5.92 2.40
-6.10 5.77 2.39
-6.23 5.66 2.40
-6.33 5.52 2.39
-6.44 5.39 2.39
-6.55 5.27 2.39
-6.66 5.13 2.39
-6.76 5.00 2.39
-6.86 4.86 2.39
-6.95 4.72 2.39
-7.05 4.58 2.39
-7.14 4.44 2.39
-7.23 4.30 2.39
-7.32 4.15 2.39
-7.40 4.01 2.39
-7.48 3.86 2.39
-7.56 3.71 2.39
-7.63 3.56 2.39
-7.70 3.40 2.39
-7.77 3.25 2.39
-7.83 3.09 2.39
-7.89 2.93 2.39
-7.95 2.77 2.39
-8.01 2.61 2.39
-8.06 2.45 2.39
-8.11 2.29 2.39
-8.15 2.13 2.39
-8.20 1.97 2.39
-8.24 1.80 2.39
-8.27 1.64 2.39
-8.30 1.47 2.39
-8.33 1.30 2.39
-8.36 1.13 2.39
-8.38 0.97 2.39
-8.40 0.80 2.39
-8.42 0.63 2.39
-8.43 0.46 2.39
-8.44 0.29 2.39
-8.44 0.12 2.39
-8.44 -0.05 2.39
-8.44 -0.22 2.39
-8.44 -0.39 2.39
-8.43 -0.56 2.39
-6.20 -0.53 1.76
-6.20 -0.66 1.76
-6.20 -0.79 1.77
-6.20 -0.91 1.77
-6.20 -1.04 1.78
-6.19 -1.17 1.78
-6.19 -1.30 1.79
-6.19 -1.43 1.80
-6.19 -1.56 1.81
-6.20 -1.69 1.82
-6.20 -1.83 1.83
-6.20 -1.96 1.84
-6.21 -2.11 1.85
-6.22 -2.25 1.87
-6.23 -2.40 1.89
-6.24 -2.54 1.90
-6.25 -2.69 1.92
-6.25 -2.84 1.94
-6.24 -2.99 1.95
-6.24 -3.15 1.97
-6.23 -3.30 1.99
-6.23 -3.46 2.01
-6.23 -3.63 2.03
-6.26 -3.82 2.07
-7.15 -4.56 2.39
-7.06 -4.70 2.39
-6.54 -4.55 2.25
-6.87 -4.98 2.39
-6.77 -5.12 2.39
-6.66 -5.26 2.39
-6.56 -5.39 2.39
-6.45 -5.52 2.39
-6.34 -5.65 2.39
-6.25 -5.80 2.40
-6.24 -6.03 2.45
-6.24 -6.28 2.49
-6.12 -6.41 2.49
-5.99 -6.53 2.49
-5.86 -6.65 2.49
-5.72 -6.77 2.49
-5.59 -6.88 2.49
-5.45 -6.99 2.49
-5.31 -7.10 2.49
-5.16 -7.21 2.49
-5.02 -7.31 2.49
-4.87 -7.41 2.49
-4.72 -7.50 2.49
-4.57 -7.60 2.49
-4.42 -7.69 2.49
-4.26 -7.78 2.49
-4.11 -7.86 2.49
-3.95 -7.94 2.49
-3.79 -8.02 2.49
-3.63 -8.10 2.49
-3.47 -8.17 2.49
-3.30 -8.24 2.49
-3.14 -8.30 2.49
-2.97 -8.36 2.49
-2.80 -8.42 2.49
-2.63 -8.48 2.49
-2.46 -8.53 2.49
-2.29 -8.58 2.49
-2.12 -8.62 2.49
-1.94 -8.66 2.49
-1.77 -8.70 2.49
-1.59 -8.73 2.49
-1.42 -8.76 2.49
-1.24 -8.79 2.49
-1.07 -8.81 2.49
-0.89 -8.83 2.49
-0.71 -8.85 2.49
-0.53 -8.86 2.49
-0.36 -8.87 2.49
-0.18 -8.88 2.49
0.00 -8.17 2.49
0.16 -8.17 2.49
0.33 -8.16 2.49
0.49 -8.15 2.49
0.65 -8.14 2.49
0.82 -8.13 2.49
0.98 -8.11 2.49
1.14 -8.09 2.49
1.31 -8.06 2.49
1.47 -8.03 2.49
1.63 -8.00 2.49
1.79 -7.97 2.49
1.95 -7.93 2.49
2.11 -7.89 2.49
2.26 -7.85 2.49
2.42 -7.80 2.49
2.58 -7.75 2.49
2.73 -7.70 2.49
2.89 -7.64 2.49
3.04 -7.58 2.49
3.19 -7.52 2.49
3.34 -7.45 2.49
3.49 -7.38 2.49
3.63 -7.31 2.49
3.78 -7.23 2.49
3.92 -7.16 2.49
4.07 -7.08 2.49
4.21 -6.99 2.49
4.35 -6.91 2.49
4.48 -6.82 2.49
4.62 -6.73 2.49
4.75 -6.63 2.49
4.89 -6.53 2.49
5.01 -6.43 2.49
5.14 -6.33 2.49
5.27 -6.23 2.49
5.39 -6.12 2.49
5.51 -6.01 2.49
5.63 -5.90 2.49
5.75 -5.78 2.49
5.86 -5.66 2.49
5.97 -5.55 2.49
6.08 -5.42 2.49
6.19 -5.30 2.49
6.29 -5.17 2.49
6.40 -5.05 2.49
6.50 -4.92 2.49
6.59 -4.78 2.49
6.41 -4.46 2.39
6.50 -4.33 2.39
6.58 -4.20 2.39
6.66 -4.06 2.39
6.74 -3.93 2.39
6.82 -3.79 2.39
6.89 -3.65 2.39
6.97 -3.51 2.39
7.03 -3.37 2.39
7.10 -3.23 2.39
7.16 -3.09 2.39
7.22 -2.94 2.39
7.28 -2.80 2.39
7.33 -2.65 2.39
7.38 -2.50 2.39
7.43 -2.35 2.39
7.47 -2.20 2.39
7.52 -2.05 2.39
7.55 -1.90 2.39
7.59 -1.75 2.39
7.62 -1.60 2.39
7.65 -1.44 2.39
7.68 -1.29 2.39
7.70 -1.13 2.39
7.72 -0.98 2.39
7.74 -0.82 2.39
9.16 -0.79 2.83
8.72 -0.58 2.69
8.31 -0.38 2.56
7.94 -0.20 2.44
7.83 -0.04 2.41
7.83 0.11 2.41
7.82 0.27 2.41
7.81 0.43 2.41
7.80 0.58 2.41
7.79 0.74 2.41
7.77 0.90 2.41
7.75 1.05 2.41
7.73 1.21 2.41
7.70 1.36 2.41
7.67 1.52 2.41
7.64 1.67 2.41
7.60 1.82 2.41
7.56 1.97 2.41
7.52 2.12 2.41
7.47 2.27 2.41
7.42 2.42 2.41
7.37 2.57 2.41
7.32 2.72 2.41
7.26 2.87 2.41
7.20 3.01 2.41
7.14 3.15 2.41
7.07 3.30 2.41
7.01 3.44 2.41
6.93 3.58 2.41
6.86 3.71 2.41
6.78 3.85 2.41
6.70 3.99 2.41
6.62 4.12 2.41
6.54 4.25 2.41
6.45 4.38 2.41
6.36 4.51 2.41
6.27 4.63 2.41
6.17 4.76 2.41
6.07 4.88 2.41
5.93 4.97 2.39
5.83 5.09 2.39
5.73 5.20 2.39
5.62 5.32 2.39
5.51 5.43 2.39
5.40 5.54 2.39
5.29 5.64 2.39
5.18 5.75 2.39
5.06 5.85 2.39
4.94 5.95 2.39
4.82 6.05 2.39
4.70 6.14 2.39
4.57 6.23 2.39
4.44 6.32 2.39
4.32 6.41 2.39
4.19 6.50 2.39
2.55 4.14 1.50
3.92 6.66 2.39
3.79 6.73 2.39
3.65 6.81 2.39
3.51 6.88 2.39
3.37 6.95 2.39
3.23 7.02 2.39
3.09 7.08 2.39
2.95 7.14 2.39
2.80 7.20 2.39
2.66 7.25 2.39
2.51 7.30 2.39
2.37 7.35 2.39
2.22 7.40 2.39
2.07 7.44 2.39
2.00 7.80 2.49
1.84 7.84 2.49
1.69 7.87 2.49
1.53 7.91 2.49
1.37 7.94 2.49
1.21 7.96 2.49
1.05 7.98 2.49
0.89 8.00 2.49
0.73 8.02 2.49
0.57 8.03 2.49
0.40 8.04 2.49
0.24 8.05 2.49
0.08 8.05 2.49
-0.08 8.05 2.49
-0.24 8.05 2.49
-0.40 8.04 2.49
-0.57 8.03 2.49
-0.73 8.02 2.49
-0.89 8.00 2.49
-1.05 7.98 2.49
-1.21 7.96 2.49
-1.37 7.93 2.49
-1.53 7.91 2.49
-1.69 7.87 2.49
-1.84 7.84 2.49
-2.00 7.80 2.49
-2.16 7.76 2.49
-2.31 7.71 2.49
-2.47 7.67 2.49
-2.62 7.62 2.49
-2.77 7.56 2.49
-2.92 7.50 2.49
-3.07 7.44 2.49
-3.22 7.38 2.49
-3.37 7.32 2.49
-3.52 7.25 2.49
-3.66 7.18 2.49
-3.81 7.10 2.49
-3.95 7.02 2.49
-4.09 6.94 2.49
-4.23 6.86 2.49
-4.37 6.77 2.49
-4.50 6.69 2.49
-4.63 6.59 2.49
-4.77 6.50 2.49
-4.90 6.40 2.49
-5.02 6.31 2.49
-5.15 6.20 2.49
-5.27 6.10 2.49
-5.40 5.99 2.49
-5.52 5.88 2.49
-5.63 5.77 2.49
-5.75 5.66 2.49
-5.86 5.54 2.49
-5.97 5.42 2.49
-6.03 5.26 2.47
-6.03 5.05 2.43
-6.05 4.86 2.40
-6.13 4.73 2.39
-6.22 4.60 2.39
-6.31 4.48 2.39
-6.40 4.35 2.39
-6.49 4.22 2.39
-6.57 4.09 2.39
-6.66 3.96 2.39
-6.73 3.82 2.39
-6.81 3.69 2.39
-6.88 3.55 2.39
-6.96 3.41 2.39
-7.02 3.27 2.39
-7.09 3.13 2.39
-7.15 2.99 2.39
-7.21 2.85 2.39
-7.27 2.70 2.39
-7.32 2.55 2.39
-7.37 2.41 2.39
-7.42 2.26 2.39
-7.46 2.11 2.39
-7.51 1.96 2.39
-7.55 1.81 2.39
-7.58 1.66 2.39
-7.61 1.50 2.39
-7.64 1.35 2.39
-7.67 1.20 2.39
-7.69 1.04 2.39
-7.71 0.89 2.39
-7.73 0.73 2.39
-7.75 0.58 2.39
-7.76 0.42 2.39
-7.77 0.27 2.39
-7.77 0.11 2.39
-7.77 -0.04 2.39
-7.77 -0.20 2.39
-7.77 -0.36 2.39
-7.76 -0.51 2.39
-6.20 -0.53 1.91
-6.21 -0.66 1.92
-6.21 -0.79 1.92
-6.21 -0.91 1.93
-6.21 -1.04 1.94
-6.21 -1.17 1.94
-6.21 -1.30 1.95
-6.21 -1.43 1.96
-6.21 -1.56 1.97
-6.21 -1.69 1.98
-6.20 -1.83 1.99
-6.20 -1.96 2.00
-6.20 -2.10 2.01
-6.21 -2.24 2.03
-6.21 -2.39 2.04
-6.23 -2.54 2.07
-7.16 -3.09 2.39
-7.10 -3.23 2.39
-7.03 -3.37 2.39
-6.96 -3.51 2.39
-6.89 -3.65 2.39
-6.52 -3.63 2.29
-6.74 -3.93 2.39
-6.66 -4.06 2.39
-6.58 -4.20 2.39
-6.49 -4.33 2.39
-6.43 -4.47 2.40
-6.32 -4.58 2.39
-6.23 -4.72 2.39
-6.22 -4.91 2.43
-6.23 -5.12 2.47
-6.19 -5.30 2.49
-6.08 -5.42 2.49
-5.97 -5.54 2.49
-5.86 -5.66 2.49
-5.75 -5.78 2.49
-5.63 -5.89 2.49
-5.51 -6.01 2.49
-5.39 -6.12 2.49
-5.27 -6.22 2.49
-5.14 -6.33 2.49
-5.01 -6.43 2.49
-4.88 -6.53 2.49
-4.75 -6.63 2.49
-4.62 -6.72 2.49
-4.48 -6.82 2.49
-4.35 -6.90 2.49
-4.21 -6.99 2.49
-4.07 -7.07 2.49
-3.92 -7.16 2.49
-3.78 -7.23 2.49
-3.63 -7.31 2.49
-3.49 -7.38 2.49
-3.34 -7.45 2.49
-3.19 -7.51 2.49
-3.04 -7.58 2.49
-2.88 -7.64 2.49
-2.73 -7.69 2.49
-2.58 -7.75 2.49
-2.42 -7.80 2.49
-2.26 -7.85 2.49
-2.11 -7.89 2.49
-1.95 -7.93 2.49
-1.79 -7.97 2.49
-1.63 -8.00 2.49
-1.47 -8.03 2.49
-1.30 -8.06 2.49
-1.14 -8.09 2.49
-0.98 -8.11 2.49
-0.82 -8.13 2.49
-0.65 -8.14 2.49
-0.49 -8.15 2.49
-0.33 -8.16 2.49
-0.16 -8.17 2.49
0.00 -7.55 2.49
0.15 -7.55 2.49
0.30 -7.55 2.49
0.45 -7.54 2.49
0.61 -7.53 2.49
0.76 -7.52 2.49
0.91 -7.50 2.49
1.06 -7.48 2.49
1.21 -7.46 2.49
1.36 -7.43 2.49
1.51 -7.40 2.49
1.65 -7.37 2.49
1.80 -7.34 2.49
1.95 -7.30 2.49
2.09 -7.26 2.49
2.24 -7.21 2.49
2.38 -7.17 2.49
2.53 -7.12 2.49
2.67 -7.07 2.49
2.81 -7.01 2.49
2.95 -6.95 2.49
3.09 -6.89 2.49
3.23 -6.83 2.49
3.36 -6.76 2.49
3.50 -6.69 2.49
3.63 -6.62 2.49
3.76 -6.55 2.49
3.89 -6.47 2.49
4.02 -6.39 2.49
4.15 -6.31 2.49
4.27 -6.22 2.49
4.40 -6.13 2.49
4.52 -6.04 2.49
4.64 -5.95 2.49
4.76 -5.86 2.49
4.87 -5.76 2.49
4.99 -5.66 2.49
5.10 -5.56 2.49
5.21 -5.45 2.49
5.32 -5.35 2.49
5.42 -5.24 2.49
5.53 -5.13 2.49
5.63 -5.02 2.49
5.73 -4.90 2.49
5.82 -4.79 2.49
5.92 -4.67 2.49
6.01 -4.55 2.49
5.85 -4.24 2.39
5.95 -4.14 2.40
6.01 -4.00 2.39
6.09 -3.88 2.39
6.16 -3.76 2.39
6.24 -3.63 2.39
6.31 -3.51 2.39
6.38 -3.38 2.39
6.44 -3.25 2.39
6.51 -3.12 2.39
6.57 -2.99 2.39
6.62 -2.86 2.39
6.68 -2.72 2.39
6.73 -2.59 2.39
6.78 -2.45 2.39
6.83 -2.31 2.39
6.87 -2.18 2.39
6.91 -2.04 2.39
6.95 -1.90 2.39
6.99 -1.76 2.39
7.02 -1.62 2.39
7.05 -1.48 2.39
7.08 -1.33 2.39
7.10 -1.19 2.39
7.13 -1.05 2.39
7.14 -0.91 2.39
7.16 -0.76 2.39
7.17 -0.62 2.39
8.00 -0.53 2.66
7.66 -0.35 2.55
7.34 -0.19 2.44
7.24 -0.04 2.41
7.24 0.10 2.41
7.24 0.25 2.41
7.23 0.39 2.41
7.22 0.54 2.41
7.21 0.68 2.41
7.19 0.83 2.41
7.17 0.97 2.41
7.15 1.12 2.41
7.12 1.26 2.41
7.10 1.40 2.41
7.07 1.54 2.41
7.03 1.69 2.41
7.00 1.83 2.41
6.96 1.97 2.41
6.92 2.10 2.41
6.87 2.24 2.41
6.82 2.38 2.41
6.77 2.52 2.41
6.72 2.65 2.41
6.67 2.79 2.41
6.61 2.92 2.41
6.55 3.05 2.41
6.48 3.18 2.41
6.42 3.31 2.41
6.35 3.44 2.41
6.28 3.56 2.41
6.20 3.69 2.41
6.13 3.81 2.41
6.05 3.93 2.41
5.93 4.03 2.39
5.85 4.14 2.39
5.76 4.26 2.39
5.67 4.38 2.39
5.58 4.49 2.39
5.49 4.60 2.39
5.40 4.71 2.39
5.30 4.81 2.39
5.20 4.92 2.39
5.10 5.02 2.39
5.00 5.12 2.39
4.90 5.22 2.39
4.79 5.32 2.39
4.68 5.41 2.39
4.57 5.51 2.39
4.46 5.60 2.39
4.35 5.68 2.39
4.23 5.77 2.39
4.11 5.85 2.39
4.00 5.93 2.39
3.88 6.01 2.39
2.55 4.14 1.63
3.63 6.16 2.39
3.51 6.23 2.39
3.38 6.30 2.39
3.25 6.37 2.39
3.12 6.43 2.39
2.99 6.49 2.39
2.86 6.55 2.39
2.73 6.61 2.39
2.60 6.66 2.39
2.46 6.71 2.39
2.33 6.76 2.39
2.19 6.80 2.39
2.05 6.85 2.39
2.00 7.18 2.49
1.85 7.22 2.49
1.71 7.26 2.49
1.56 7.29 2.49
1.41 7.32 2.49
1.27 7.35 2.49
1.12 7.37 2.49
0.97 7.39 2.49
0.82 7.41 2.49
0.67 7.42 2.49
0.52 7.43 2.49
0.37 7.44 2.49
0.22 7.45 2.49
0.08 7.45 2.49
-0.07 7.45 2.49
-0.22 7.45 2.49
-0.37 7.44 2.49
-0.52 7.43 2.49
-0.67 7.42 2.49
-0.82 7.41 2.49
-0.97 7.39 2.49
-1.12 7.37 2.49
-1.27 7.35 2.49
-1.41 7.32 2.49
-1.56 7.29 2.49
-1.71 7.26 2.49
-1.85 7.22 2.49
-2.00 7.18 2.49
-2.14 7.14 2.49
-2.28 7.10 2.49
-2.43 7.05 2.49
-2.57 7.00 2.49
-2.71 6.95 2.49
-2.85 6.89 2.49
-2.98 6.83 2.49
-3.12 6.77 2.49
-3.26 6.71 2.49
-3.39 6.64 2.49
-3.52 6.57 2.49
-3.66 6.50 2.49
-3.79 6.43 2.49
-3.91 6.35 2.49
-4.04 6.27 2.49
-4.17 6.19 2.49
-4.29 6.10 2.49
-4.41 6.02 2.49
-4.53 5.93 2.49
-4.65 5.84 2.49
-4.77 5.74 2.49
-4.88 5.65 2.49
-5.00 5.55 2.49
-5.11 5.45 2.49
-5.22 5.34 2.49
-5.32 5.24 2.49
-5.43 5.13 2.49
-5.53 5.02 2.49
-5.63 4.91 2.49
-5.73 4.80 2.49
-5.82 4.68 2.49
-5.92 4.56 2.49
-6.01 4.44 2.49
-6.05 4.29 2.47
-6.05 4.11 2.44
-6.06 3.94 2.41
-6.09 3.79 2.39
-6.16 3.66 2.39
-6.23 3.54 2.39
-6.30 3.41 2.39
-6.37 3.29 2.39
-6.44 3.16 2.39
-6.50 3.03 2.39
-6.56 2.90 2.39
-6.62 2.77 2.39
-6.67 2.63 2.39
-6.73 2.50 2.39
-6.78 2.36 2.39
-6.82 2.23 2.39
-6.87 2.09 2.39
-6.91 1.95 2.39
-6.95 1.81 2.39
-6.98 1.67 2.39
-7.02 1.53 2.39
-7.05 1.39 2.39
-7.07 1.25 2.39
-7.10 1.11 2.39
-7.12 0.97 2.39
-7.14 0.82 2.39
-7.15 0.68 2.39
-7.17 0.54 2.39
-7.18 0.39 2.39
-7.19 0.25 2.39
-7.19 0.10 2.39
-7.19 -0.04 2.39
-7.19 -0.19 2.39
-7.19 -0.33 2.39
-7.18 -0.47 2.39
-6.20 -0.53 2.07
-6.21 -0.66 2.07
-7.14 -0.91 2.39
-7.12 -1.05 2.39
-7.10 -1.19 2.39
-6.36 -1.20 2.15
-7.05 -1.48 2.39
-7.02 -1.62 2.39
-6.99 -1.76 2.39
-6.95 -1.90 2.39
-6.91 -2.04 2.39
-6.87 -2.18 2.39
-6.83 -2.31 2.39
-6.38 -2.31 2.25
-6.73 -2.59 2.39
-6.68 -2.72 2.39
-6.62 -2.86 2.39
-6.56 -2.99 2.39
-6.50 -3.12 2.39
-6.44 -3.25 2.39
-6.37 -3.38 2.39
-6.31 -3.51 2.39
-6.24 -3.63 2.39
-6.21 -3.78 2.41
-6.21 -3.96 2.44
-6.21 -4.14 2.47
-6.18 -4.30 2.49
-6.10 -4.42 2.49
-6.01 -4.55 2.49
-5.91 -4.67 2.49
-5.82 -4.78 2.49
-5.72 -4.90 2.49
-5.62 -5.02 2.49
-5.52 -5.13 2.49
-5.42 -5.24 2.49
-5.31 -5.35 2.49
-5.21 -5.45 2.49
-5.10 -5.56 2.49
-4.98 -5.66 2.49
-4.87 -5.76 2.49
-4.75 -5.85 2.49
-4.64 -5.95 2.49
-4.52 -6.04 2.49
-4.39 -6.13 2.49
-4.27 -6.22 2.49
-4.15 -6.30 2.49
-4.02 -6.39 2.49
-3.89 -6.47 2.49
-3.76 -6.54 2.49
-3.63 -6.62 2.49
-3.50 -6.69 2.49
-3.36 -6.76 2.49
-3.22 -6.83 2.49
-3.09 -6.89 2.49
-2.95 -6.95 2.49
-2.81 -7.01 2.49
-2.67 -7.06 2.49
-2.53 -7.12 2.49
-2.38 -7.17 2.49
-2.24 -7.21 2.49
-2.09 -7.26 2.49
-1.95 -7.30 2.49
-1.80 -7.34 2.49
-1.65 -7.37 2.49
-1.50 -7.40 2.49
-1.36 -7.43 2.49
-1.21 -7.46 2.49
-1.06 -7.48 2.49
-0.91 -7.50 2.49
-0.76 -7.52 2.49
-0.61 -7.53 2.49
-0.45 -7.54 2.49
-0.30 -7.55 2.49
-0.15 -7.55 2.49
0.00 -7.02 2.49
0.14 -7.02 2.49
0.28 -7.01 2.49
0.42 -7.01 2.49
0.56 -7.00 2.49
0.70 -6.98 2.49
0.84 -6.97 2.49
0.98 -6.95 2.49
1.12 -6.93 2.49
1.26 -6.91 2.49
1.40 -6.88 2.49
1.54 -6.85 2.49
1.67 -6.82 2.49
1.81 -6.78 2.49
1.95 -6.74 2.49
2.08 -6.70 2.49
2.21 -6.66 2.49
2.35 -6.61 2.49
2.48 -6.56 2.49
2.61 -6.51 2.49
2.74 -6.46 2.49
2.87 -6.40 2.49
3.00 -6.34 2.49
3.12 -6.28 2.49
3.25 -6.22 2.49
3.37 -6.15 2.49
3.50 -6.08 2.49
3.62 -6.01 2.49
3.74 -5.94 2.49
3.85 -5.86 2.49
3.97 -5.78 2.49
4.09 -5.70 2.49
4.20 -5.62 2.49
4.31 -5.53 2.49
4.42 -5.44 2.49
4.53 -5.35 2.49
4.63 -5.26 2.49
4.74 -5.17 2.49
4.84 -5.07 2.49
4.94 -4.97 2.49
5.04 -4.87 2.49
5.13 -4.77 2.49
5.23 -4.66 2.49
5.32 -4.56 2.49
5.41 -4.45 2.49
5.50 -4.34 2.49
5.35 -4.05 2.39
5.43 -3.94 2.39
5.51 -3.83 2.39
5.59 -3.72 2.39
5.66 -3.61 2.39
5.73 -3.49 2.39
5.80 -3.38 2.39
5.86 -3.26 2.39
5.93 -3.14 2.39
5.99 -3.02 2.39
6.05 -2.90 2.39
6.10 -2.78 2.39
6.16 -2.66 2.39
6.21 -2.53 2.39
6.26 -2.41 2.39
6.30 -2.28 2.39
6.35 -2.15 2.39
6.39 -2.02 2.39
6.43 -1.89 2.39
6.46 -1.77 2.39
6.50 -1.64 2.39
6.53 -1.50 2.39
6.55 -1.37 2.39
6.58 -1.24 2.39
6.60 -1.11 2.39
6.62 -0.98 2.39
6.64 -0.84 2.39
6.65 -0.71 2.39
6.67 -0.57 2.39
6.68 -0.44 2.39
6.68 -0.31 2.39
6.82 -0.18 2.44
6.73 -0.04 2.41
6.73 0.10 2.41
6.73 0.23 2.41
6.72 0.37 2.41
6.71 0.50 2.41
6.70 0.64 2.41
6.68 0.77 2.41
6.67 0.90 2.41
6.65 1.04 2.41
6.62 1.17 2.41
6.60 1.30 2.41
6.57 1.43 2.41
6.54 1.57 2.41
6.50 1.70 2.41
6.47 1.83 2.41
6.43 1.96 2.41
6.39 2.08 2.41
6.34 2.21 2.41
6.30 2.34 2.41
6.25 2.46 2.41
6.20 2.59 2.41
6.14 2.71 2.41
6.09 2.84 2.41
6.03 2.96 2.41
5.93 3.06 2.39
5.86 3.17 2.39
5.80 3.29 2.39
5.73 3.41 2.39
5.66 3.52 2.39
5.59 3.63 2.39
5.51 3.74 2.39
5.44 3.85 2.39
5.36 3.96 2.39
5.28 4.07 2.39
5.19 4.17 2.39
5.11 4.28 2.39
5.02 4.38 2.39
4.93 4.48 2.39
4.84 4.57 2.39
4.75 4.67 2.39
4.65 4.76 2.39
4.55 4.86 2.39
4.45 4.95 2.39
4.35 5.03 2.39
4.25 5.12 2.39
4.15 5.20 2.39
4.04 5.29 2.39
3.93 5.36 2.39
3.83 5.44 2.39
3.72 5.52 2.39
3.60 5.59 2.39
2.55 4.14 1.75
3.38 5.73 2.39
3.26 5.80 2.39
3.14 5.86 2.39
3.02 5.92 2.39
2.90 5.98 2.39
2.78 6.04 2.39
2.66 6.09 2.39
2.54 6.14 2.39
2.41 6.19 2.39
2.29 6.24 2.39
2.16 6.29 2.39
2.04 6.33 2.39
1.99 6.64 2.49
1.86 6.68 2.49
1.72 6.71 2.49
1.59 6.75 2.49
1.45 6.78 2.49
1.32 6.81 2.49
1.18 6.83 2.49
1.04 6.85 2.49
0.90 6.87 2.49
0.76 6.89 2.49
0.63 6.90 2.49
0.49 6.91 2.49
0.35 6.92 2.49
0.21 6.93 2.49
0.07 6.93 2.49
-0.07 6.93 2.49
-0.21 6.93 2.49
-0.35 6.92 2.49
-0.49 6.91 2.49
-0.63 6.90 2.49
-0.76 6.89 2.49
-0.90 6.87 2.49
-1.04 6.85 2.49
-1.18 6.83 2.49
-1.31 6.81 2.49
-1.45 6.78 2.49
-1.59 6.75 2.49
-1.72 6.71 2.49
-1.86 6.68 2.49
-1.99 6.64 2.49
-2.12 6.60 2.49
-2.26 6.56 2.49
-2.39 6.51 2.49
-2.52 6.46 2.49
-2.65 6.41 2.49
-2.78 6.35 2.49
-2.90 6.30 2.49
-3.03 6.24 2.49
-3.15 6.18 2.49
-3.28 6.11 2.49
-3.40 6.05 2.49
-3.52 5.98 2.49
-3.64 5.90 2.49
-3.76 5.83 2.49
-3.87 5.75 2.49
-3.99 5.68 2.49
-4.10 5.59 2.49
-4.21 5.51 2.49
-4.32 5.43 2.49
-4.43 5.34 2.49
-4.54 5.25 2.49
-4.64 5.16 2.49
-4.75 5.06 2.49
-4.85 4.97 2.49
-4.95 4.87 2.49
-5.05 4.77 2.49
-5.14 4.67 2.49
-5.23 4.56 2.49
-5.33 4.46 2.49
-5.41 4.35 2.49
-5.50 4.24 2.49
-5.59 4.13 2.49
-5.67 4.02 2.49
-5.75 3.90 2.49
-5.83 3.79 2.49
-5.90 3.67 2.49
-5.97 3.55 2.49
-6.05 3.43 2.49
-6.07 3.29 2.48
-6.07 3.13 2.45
-6.07 2.98 2.43
-6.08 2.83 2.41
-6.10 2.69 2.39
-6.15 2.57 2.39
-6.20 2.45 2.39
-6.25 2.32 2.39
-6.30 2.20 2.39
-6.34 2.07 2.39
-6.38 1.94 2.39
-6.42 1.81 2.39
-6.46 1.69 2.39
-6.49 1.56 2.39
-6.52 1.42 2.39
-6.55 1.29 2.39
-6.58 1.16 2.39
-6.60 1.03 2.39
-6.62 0.90 2.39
-6.64 0.76 2.39
-6.65 0.63 2.39
-6.66 0.50 2.39
-6.67 0.36 2.39
-6.68 0.23 2.39
-6.68 0.10 2.39
-6.69 -0.04 2.39
-6.68 -0.17 2.39
-6.68 -0.31 2.39
-6.67 -0.44 2.39
-6.66 -0.57 2.39
-6.65 -0.71 2.39
-6.64 -0.84 2.39
-6.62 -0.98 2.39
-6.60 -1.11 2.39
-6.36 -1.20 2.31
-6.55 -1.37 2.39
-6.52 -1.50 2.39
-6.49 -1.63 2.39
-6.46 -1.76 2.39
-6.42 -1.89 2.39
-6.39 -2.02 2.39
-6.34 -2.15 2.39
-6.30 -2.28 2.39
-6.25 -2.40 2.39
-6.21 -2.53 2.39
-6.19 -2.67 2.40
-6.19 -2.82 2.42
-6.19 -2.97 2.45
-6.19 -3.12 2.47
-6.18 -3.28 2.49
-6.11 -3.40 2.49
-6.04 -3.52 2.49
-5.97 -3.64 2.49
-5.90 -3.76 2.49
-5.82 -3.88 2.49
-5.75 -4.00 2.49
-5.66 -4.11 2.49
-5.58 -4.23 2.49
-5.50 -4.34 2.49
-5.41 -4.45 2.49
-5.32 -4.55 2.49
-5.23 -4.66 2.49
-5.13 -4.77 2.49
-5.04 -4.87 2.49
-4.94 -4.97 2.49
-4.84 -5.07 2.49
-4.74 -5.16 2.49
-4.63 -5.26 2.49
-4.53 -5.35 2.49
-4.42 -5.44 2.49
-4.31 -5.53 2.49
-4.20 -5.61 2.49
-4.08 -5.70 2.49
-3.97 -5.78 2.49
-3.85 -5.86 2.49
-3.73 -5.93 2.49
-3.62 -6.01 2.49
-3.49 -6.08 2.49
-3.37 -6.15 2.49
-3.25 -6.22 2.49
-3.12 -6.28 2.49
-3.00 -6.34 2.49
-2.87 -6.40 2.49
-2.74 -6.46 2.49
-2.61 -6.51 2.49
-2.48 -6.56 2.49
-2.35 -6.61 2.49
-2.21 -6.66 2.49
-2.08 -6.70 2.49
-1.94 -6.74 2.49
-1.81 -6.78 2.49
-1.67 -6.82 2.49
-1.54 -6.85 2.49
-1.40 -6.88 2.49
-1.26 -6.90 2.49
-1.12 -6.93 2.49
-0.98 -6.95 2.49
-0.84 -6.97 2.49
-0.70 -6.98 2.49
-0.56 -7.00 2.49
-0.42 -7.01 2.49
-0.28 -7.01 2.49
-0.14 -7.02 2.49
0.00 -6.55 2.49
0.13 -6.55 2.49
0.26 -6.54 2.49
0.39 -6.54 2.49
0.53 -6.53 2.49
0.66 -6.52 2.49
0.79 -6.50 2.49
0.92 -6.48 2.49
1.05 -6.46 2.49
1.18 -6.44 2.49
1.30 -6.42 2.49
1.43 -6.39 2.49
1.56 -6.36 2.49
1.69 -6.33 2.49
1.81 -6.29 2.49
1.94 -6.25 2.49
2.07 -6.21 2.49
2.19 -6.17 2.49
2.31 -6.12 2.49
2.44 -6.08 2.49
2.56 -6.03 2.49
2.68 -5.97 2.49
2.80 -5.92 2.49
2.91 -5.86 2.49
3.03 -5.80 2.49
3.15 -5.74 2.49
3.26 -5.67 2.49
3.37 -5.61 2.49
3.48 -5.54 2.49
3.60 -5.47 2.49
3.70 -5.39 2.49
3.81 -5.32 2.49
3.92 -5.24 2.49
4.02 -5.16 2.49
4.12 -5.08 2.49
4.22 -4.99 2.49
4.32 -4.91 2.49
4.42 -4.82 2.49
4.52 -4.73 2.49
4.61 -4.64 2.49
4.70 -4.54 2.49
4.79 -4.45 2.49
4.88 -4.35 2.49
4.96 -4.25 2.49
5.05 -4.15 2.49
4.92 -3.88 2.39
4.99 -3.78 2.39
5.07 -3.68 2.39
5.14 -3.58 2.39
5.21 -3.47 2.39
5.28 -3.37 2.39
5.35 -3.26 2.39
5.41 -3.15 2.39
5.47 -3.04 2.39
5.53 -2.93 2.39
5.59 -2.82 2.39
5.64 -2.71 2.39
5.69 -2.59 2.39
5.74 -2.48 2.39
5.79 -2.36 2.39
5.84 -2.24 2.39
5.88 -2.13 2.39
5.92 -2.01 2.39
5.96 -1.89 2.39
6.00 -1.77 2.39
6.03 -1.65 2.39
6.06 -1.53 2.39
6.09 -1.40 2.39
6.12 -1.28 2.39
6.14 -1.16 2.39
6.16 -1.03 2.39
6.18 -0.91 2.39
6.20 -0.79 2.39
6.21 -0.66 2.39
6.22 -0.54 2.39
6.23 -0.41 2.39
6.24 -0.29 2.39
6.24 -0.16 2.39
6.24 -0.04 2.39
6.24 0.09 2.39
6.24 0.21 2.39
6.27 0.34 2.41
6.26 0.47 2.41
6.25 0.59 2.41
6.24 0.72 2.41
6.22 0.84 2.41
6.20 0.97 2.41
6.18 1.09 2.41
6.16 1.22 2.41
6.13 1.34 2.41
6.10 1.46 2.41
6.07 1.58 2.41
6.04 1.70 2.41
5.96 1.81 2.39
5.92 1.93 2.39
5.88 2.05 2.39
5.84 2.17 2.39
