ply
format ascii 1.0
element vertex 2945
property float32 x
property float32 y
property float32 z
end_header
4.44 16.00 2.00
4.17 16.27 2.03
4.54 19.30 2.39
4.15 19.39 2.39
3.76 19.47 2.39
3.37 19.54 2.39
2.97 19.61 2.39
2.58 19.66 2.39
2.20 19.83 2.41
1.87 20.61 2.49
1.45 20.64 2.49
1.04 20.67 2.49
0.62 20.69 2.49
0.21 20.70 2.49
-0.21 20.70 2.49
-0.63 20.69 2.49
-1.04 20.68 2.49
-1.46 20.66 2.49
-1.87 20.63 2.49
-2.28 20.59 2.49
-2.70 20.54 2.49
-3.11 20.48 2.49
-3.52 20.42 2.49
-3.93 20.35 2.49
-4.34 20.27 2.49
-4.75 20.18 2.49
-5.15 20.09 2.49
-5.55 19.98 2.49
-5.96 19.87 2.49
-6.09 18.93 2.39
-6.47 18.81 2.39
-6.85 18.68 2.39
-7.23 18.54 2.39
-7.60 18.40 2.39
-7.97 18.25 2.39
-8.33 18.09 2.39
-8.70 17.92 2.39
-9.06 17.75 2.39
-9.41 17.57 2.39
-9.77 17.38 2.39
-9.74 15.11 2.15
-6.61 9.82 1.42
-9.72 13.84 2.03
-9.78 13.34 1.98
-9.77 12.79 1.93
-9.77 12.26 1.88
-9.77 11.77 1.83
-9.76 11.29 1.79
-9.76 10.84 1.74
-9.75 10.41 1.71
-9.69 9.93 1.66
-9.75 9.60 1.64
-9.74 9.22 1.60
-9.74 8.85 1.57
-9.74 8.50 1.54
-9.74 8.16 1.52
-9.73 7.83 1.49
-9.73 7.51 1.47
-9.73 7.20 1.44
-9.73 6.90 1.42
-9.72 6.61 1.40
-9.72 6.33 1.38
-9.72 6.05 1.36
-9.72 5.78 1.35
-9.71 5.52 1.33
-9.71 5.26 1.31
-9.71 5.01 1.30
-9.71 4.77 1.29
-9.71 4.53 1.27
-9.70 4.29 1.26
-9.70 4.06 1.25
-9.70 3.83 1.24
-9.70 3.61 1.23
-9.70 3.39 1.22
-9.70 3.17 1.21
-9.69 2.95 1.20
-9.69 2.74 1.19
-9.69 2.53 1.19
-9.69 2.33 1.18
-9.69 2.12 1.18
-9.62 1.90 1.16
-9.68 1.72 1.16
-9.68 1.52 1.16
-9.68 1.32 1.16
-9.68 1.12 1.15
-9.68 0.92 1.15
-9.68 0.73 1.15
-9.67 0.53 1.15
-9.67 0.34 1.14
-9.67 0.14 1.14
-9.67 -0.05 1.14
-9.67 -0.24 1.14
-9.67 -0.44 1.14
-9.66 -0.63 1.14
-9.66 -0.83 1.14
-9.66 -1.02 1.15
-9.66 -1.22 1.15
-9.66 -1.42 1.15
-9.66 -1.62 1.15
-9.66 -1.82 1.16
-9.65 -2.22 1.17
-9.65 -2.42 1.17
-9.65 -2.63 1.18
-9.65 -2.84 1.18
-9.65 -3.05 1.19
-9.64 -3.26 1.20
-9.64 -3.48 1.21
-9.64 -3.70 1.21
-9.64 -3.92 1.22
-9.64 -4.15 1.23
-9.63 -4.38 1.24
-9.63 -4.62 1.25
-9.63 -4.85 1.27
-9.63 -5.10 1.28
-9.63 -5.35 1.29
-9.62 -5.60 1.31
-9.62 -5.86 1.32
-9.55 -6.09 1.33
-9.62 -6.40 1.36
-9.62 -6.68 1.37
-9.61 -6.97 1.39
-9.61 -7.27 1.41
-9.61 -7.57 1.43
-9.61 -7.89 1.46
-9.60 -8.22 1.48
-9.60 -8.55 1.51
-9.60 -8.90 1.53
-9.60 -9.27 1.56
-9.59 -9.64 1.59
-9.58 -10.02 1.62
-9.59 -10.44 1.66
-9.58 -10.87 1.70
-9.58 -11.31 1.74
-9.57 -11.78 1.78
-9.57 -12.27 1.82
-9.57 -12.79 1.87
-9.56 -13.33 1.92
-9.56 -13.91 1.97
-9.55 -14.51 2.03
-9.55 -15.16 2.10
-9.49 -15.76 2.15
-9.47 -18.11 2.39
-9.11 -18.30 2.39
-8.74 -18.48 2.39
-8.37 -18.66 2.39
-7.99 -18.82 2.39
-7.61 -18.98 2.39
-7.23 -19.13 2.39
-6.84 -19.27 2.39
-6.45 -19.40 2.39
-6.06 -19.52 2.39
-5.71 -19.78 2.41
-5.50 -20.60 2.49
-5.09 -20.71 2.49
-4.67 -20.81 2.49
-4.25 -20.89 2.49
-3.83 -20.97 2.49
-3.41 -21.05 2.49
-2.99 -21.11 2.49
-2.56 -21.16 2.49
-2.14 -21.21 2.49
-1.71 -21.24 2.49
-1.28 -21.27 2.49
-0.86 -21.29 2.49
-0.43 -21.30 2.49
-0.00 -17.82 2.49
0.36 -17.81 2.49
0.71 -17.80 2.49
1.07 -17.78 2.49
1.43 -17.76 2.49
1.78 -17.72 2.49
2.14 -17.68 2.49
2.39 -16.90 2.39
2.73 -16.85 2.39
3.06 -16.79 2.39
3.40 -16.72 2.39
3.73 -16.65 2.39
4.07 -16.57 2.39
4.40 -16.48 2.39
4.73 -16.38 2.39
5.05 -16.28 2.39
5.38 -16.18 2.39
5.70 -16.06 2.39
5.98 -15.84 2.38
5.61 -13.99 2.12
5.85 -13.78 2.10
5.45 -12.16 1.87
5.58 -11.81 1.83
5.85 -11.76 1.84
5.39 -10.30 1.63
5.40 -9.85 1.58
5.55 -9.66 1.57
5.79 -9.63 1.58
6.04 -9.60 1.59
6.31 -9.59 1.61
6.59 -9.59 1.64
5.72 -7.97 1.38
5.77 -7.71 1.35
5.90 -7.56 1.35
6.10 -7.51 1.36
5.47 -6.46 1.19
5.49 -6.23 1.17
5.49 -5.99 1.14
5.58 -5.84 1.14
5.77 -5.81 1.15
5.98 -5.78 1.17
6.20 -5.75 1.19
6.45 -5.75 1.22
6.69 -5.73 1.24
7.08 -5.82 1.29
5.56 -4.39 1.00
5.60 -4.23 0.99
5.56 -4.03 0.97
5.69 -3.96 0.98
5.74 -3.82 0.97
5.91 -3.76 0.99
6.18 -3.77 1.02
6.46 -3.76 1.06
6.73 -3.74 1.09
10.30 -5.45 1.65
10.54 -5.31 1.67
10.58 -5.07 1.66
5.83 -2.65 0.91
5.83 -2.51 0.90
5.71 -2.32 0.87
5.71 -2.19 0.87
5.72 -2.07 0.86
5.78 -1.96 0.86
5.91 -1.87 0.88
6.28 -1.85 0.93
6.74 -1.84 0.99
13.82 -3.47 2.02
15.05 -3.46 2.19
15.46 -3.23 2.24
15.52 -2.92 2.24
15.57 -2.61 2.24
5.31 -0.78 0.76
5.31 -0.67 0.76
5.31 -0.56 0.76
5.15 -0.44 0.73
5.17 -0.34 0.74
5.18 -0.24 0.74
5.20 -0.13 0.74
5.32 -0.03 0.76
15.75 0.23 2.24
15.74 0.55 2.24
15.72 0.87 2.24
15.70 1.18 2.24
15.67 1.49 2.24
15.63 1.81 2.24
15.59 2.12 2.24
15.54 2.43 2.24
15.48 2.74 2.24
15.43 3.06 2.24
15.37 3.37 2.25
15.31 3.68 2.25
6.92 1.81 1.02
6.32 1.79 0.94
6.00 1.83 0.90
5.79 1.89 0.87
5.78 2.02 0.87
5.65 2.10 0.86
5.74 2.27 0.88
5.71 2.39 0.88
5.90 2.61 0.92
8.67 4.04 1.37
8.11 3.98 1.29
7.76 4.01 1.25
6.99 3.79 1.14
6.62 3.76 1.09
6.52 3.88 1.09
6.38 3.97 1.08
6.22 4.05 1.06
6.21 4.22 1.08
6.21 4.41 1.09
6.20 4.59 1.11
6.17 4.76 1.12
11.63 9.36 2.14
11.47 9.61 2.14
11.30 9.86 2.15
11.12 10.11 2.15
10.94 10.35 2.16
11.61 11.44 2.34
11.43 11.71 2.35
11.23 11.99 2.36
10.59 11.77 2.27
10.17 11.77 2.23
9.86 11.89 2.22
9.66 12.13 2.22
9.45 12.37 2.23
9.24 12.61 2.24
9.02 12.85 2.25
8.80 13.08 2.26
8.58 13.32 2.27
8.35 13.55 2.28
6.30 10.71 1.78
6.02 10.72 1.76
5.73 10.70 1.74
5.60 10.97 1.77
7.12 14.67 2.34
6.86 14.89 2.35
6.59 15.10 2.37
6.32 15.31 2.38
6.04 15.52 2.39
5.73 15.64 2.39
5.42 15.75 2.39
5.10 15.86 2.39
4.78 15.96 2.39
4.46 16.05 2.39
4.14 16.14 2.39
3.81 16.22 2.39
3.49 16.29 2.39
3.16 16.36 2.39
2.83 16.42 2.39
2.50 16.48 2.39
2.17 16.52 2.39
1.91 17.28 2.49
1.57 17.31 2.49
1.22 17.34 2.49
0.87 17.37 2.49
0.52 17.38 2.49
0.17 17.39 2.49
-0.18 17.39 2.49
-0.53 17.39 2.49
-0.87 17.37 2.49
-1.22 17.36 2.49
-1.57 17.33 2.49
-1.92 17.30 2.49
-2.27 17.26 2.49
-2.61 17.21 2.49
-2.96 17.16 2.49
-3.30 17.10 2.49
-3.65 17.03 2.49
-3.99 16.95 2.49
-4.33 16.87 2.49
-4.67 16.78 2.49
-5.00 16.69 2.49
-5.34 16.59 2.49
-5.67 16.48 2.49
-6.00 16.37 2.49
-6.07 15.57 2.39
-6.38 15.45 2.39
-6.69 15.32 2.39
-7.00 15.19 2.39
-7.30 15.05 2.39
-7.61 14.90 2.39
-7.90 14.75 2.39
-8.20 14.59 2.39
-8.49 14.42 2.39
-8.78 14.25 2.39
-9.07 14.08 2.39
-6.61 9.82 1.69
-9.63 13.71 2.39
-9.91 13.51 2.39
-9.71 11.70 2.17
-9.74 11.27 2.12
-9.76 10.84 2.08
-9.75 10.41 2.03
-9.69 9.93 1.98
-9.75 9.60 1.95
-9.74 9.22 1.91
-9.74 8.85 1.87
-9.74 8.50 1.84
-9.74 8.16 1.81
-9.73 7.83 1.78
-9.73 7.51 1.75
-9.73 7.20 1.72
-9.73 6.90 1.70
-9.72 6.61 1.67
-9.72 6.33 1.65
-9.72 6.05 1.63
-9.72 5.78 1.61
-9.71 5.52 1.59
-9.71 5.26 1.57
-9.71 5.01 1.55
-9.71 4.77 1.53
-9.71 4.53 1.52
-9.70 4.29 1.50
-9.70 4.06 1.49
-9.70 3.83 1.48
-9.70 3.61 1.47
-9.70 3.39 1.45
-9.70 3.17 1.44
-9.69 2.95 1.43
-9.69 2.74 1.43
-9.69 2.53 1.42
-9.69 2.33 1.41
-9.69 2.12 1.40
-9.62 1.90 1.39
-9.68 1.72 1.39
-9.68 1.52 1.38
-9.68 1.32 1.38
-9.68 1.12 1.38
-9.68 0.92 1.37
-9.68 0.73 1.37
-9.67 0.53 1.37
-9.67 0.34 1.37
-9.67 0.14 1.36
-9.67 -0.05 1.36
-9.67 -0.24 1.36
-9.67 -0.44 1.36
-9.66 -0.63 1.36
-9.66 -0.83 1.37
-9.66 -1.02 1.37
-9.66 -1.22 1.37
-9.66 -1.42 1.37
-9.66 -1.62 1.38
-9.66 -1.82 1.38
-9.65 -2.22 1.39
-9.65 -2.42 1.40
-9.65 -2.63 1.41
-9.65 -2.84 1.41
-9.65 -3.05 1.42
-9.64 -3.26 1.43
-9.64 -3.48 1.44
-9.64 -3.70 1.45
-9.64 -3.92 1.46
-9.64 -4.15 1.47
-9.63 -4.38 1.49
-9.63 -4.62 1.50
-9.63 -4.85 1.51
-9.63 -5.10 1.53
-9.63 -5.35 1.54
-9.62 -5.60 1.56
-9.62 -5.86 1.58
-9.55 -6.09 1.59
-9.62 -6.40 1.62
-9.62 -6.68 1.64
-9.61 -6.97 1.66
-9.61 -7.27 1.69
-9.61 -7.57 1.71
-9.61 -7.89 1.74
-9.60 -8.22 1.77
-9.60 -8.55 1.80
-9.60 -8.90 1.83
-9.60 -9.27 1.87
-9.59 -9.64 1.90
-9.58 -10.02 1.94
-9.59 -10.44 1.98
-9.58 -10.87 2.03
-9.58 -11.31 2.07
-8.79 -10.82 1.95
-8.54 -10.95 1.94
-8.54 -11.41 1.99
-8.54 -11.90 2.05
-9.68 -14.09 2.39
-9.40 -14.28 2.39
-9.11 -14.46 2.39
-8.82 -14.65 2.39
-8.52 -14.82 2.39
-8.22 -14.99 2.39
-7.92 -15.15 2.39
-7.62 -15.31 2.39
-7.31 -15.46 2.39
-7.00 -15.60 2.39
-6.68 -15.74 2.39
-6.36 -15.87 2.39
-6.04 -15.99 2.39
-5.74 -16.17 2.40
-5.63 -16.92 2.49
-5.29 -17.03 2.49
-4.95 -17.13 2.49
-4.60 -17.23 2.49
-4.26 -17.32 2.49
-3.91 -17.40 2.49
-3.56 -17.47 2.49
-3.20 -17.54 2.49
-2.85 -17.60 2.49
-2.50 -17.65 2.49
-2.14 -17.70 2.49
-1.79 -17.74 2.49
-1.43 -17.77 2.49
-1.07 -17.79 2.49
-0.72 -17.81 2.49
-0.36 -17.82 2.49
-0.00 -15.30 2.49
0.31 -15.30 2.49
0.61 -15.29 2.49
0.92 -15.27 2.49
1.22 -15.25 2.49
1.53 -15.22 2.49
1.84 -15.18 2.49
2.14 -15.14 2.49
2.34 -14.47 2.39
2.63 -14.42 2.39
2.92 -14.36 2.39
3.21 -14.30 2.39
3.49 -14.23 2.39
3.78 -14.15 2.39
4.06 -14.07 2.39
4.34 -13.99 2.39
4.62 -13.89 2.39
4.90 -13.80 2.39
5.17 -13.69 2.39
5.44 -13.58 2.39
5.72 -13.47 2.39
5.38 -12.01 2.15
5.56 -11.77 2.13
5.86 -11.79 2.15
5.43 -10.39 1.92
5.45 -9.94 1.85
5.56 -9.68 1.83
5.79 -9.63 1.84
6.05 -9.61 1.86
6.32 -9.61 1.88
5.71 -8.31 1.65
5.69 -7.93 1.60
5.76 -7.70 1.57
5.86 -7.52 1.56
6.10 -7.50 1.58
5.45 -6.45 1.38
5.50 -6.24 1.36
5.49 -5.98 1.33
5.59 -5.85 1.33
5.76 -5.80 1.34
5.96 -5.76 1.36
6.17 -5.73 1.38
6.44 -5.74 1.42
6.71 -5.74 1.45
9.54 -7.84 2.03
5.55 -4.38 1.16
5.56 -4.21 1.14
5.56 -4.04 1.13
5.62 -3.91 1.12
5.73 -3.82 1.13
5.89 -3.76 1.15
6.18 -3.76 1.19
6.44 -3.75 1.23
6.72 -3.74 1.26
10.03 -5.31 1.87
10.03 -5.06 1.85
10.18 -4.88 1.86
5.55 -2.53 1.00
5.58 -2.40 1.00
5.61 -2.28 1.00
5.56 -2.14 0.98
5.65 -2.04 0.99
5.70 -1.93 0.99
5.90 -1.87 1.02
6.27 -1.85 1.08
6.73 -1.84 1.15
13.22 -3.32 2.25
13.28 -3.06 2.25
13.34 -2.79 2.25
13.39 -2.52 2.25
13.43 -2.25 2.25
5.31 -0.78 0.89
5.31 -0.67 0.88
5.08 -0.54 0.84
5.14 -0.44 0.85
5.12 -0.34 0.85
5.14 -0.23 0.85
5.17 -0.13 0.86
5.32 -0.03 0.88
13.67 0.20 2.26
13.66 0.48 2.26
8.36 0.46 1.39
8.35 0.63 1.39
8.35 0.80 1.39
8.34 0.97 1.39
8.34 1.13 1.39
8.33 1.30 1.40
8.33 1.48 1.40
13.42 2.66 2.27
13.35 2.92 2.27
13.27 3.19 2.26
6.89 1.80 1.18
6.30 1.78 1.09
5.88 1.79 1.02
5.80 1.89 1.01
5.60 1.95 0.98
5.62 2.09 1.00
5.66 2.24 1.01
5.70 2.38 1.03
5.70 2.52 1.03
8.66 4.04 1.59
8.18 4.02 1.51
7.77 4.01 1.45
6.99 3.79 1.32
6.62 3.76 1.26
6.52 3.88 1.26
6.38 3.97 1.25
6.23 4.05 1.23
6.20 4.22 1.25
6.20 4.40 1.26
6.21 4.60 1.28
6.17 4.77 1.30
10.26 8.25 2.19
10.12 8.48 2.20
9.98 8.71 2.20
9.83 8.94 2.21
9.69 9.16 2.22
9.53 9.39 2.23
9.38 9.61 2.24
9.21 9.83 2.24
9.05 10.05 2.25
8.88 10.27 2.26
9.21 11.10 2.40
8.99 11.29 2.40
8.77 11.48 2.41
8.54 11.66 2.41
8.31 11.83 2.41
7.95 11.81 2.37
7.61 11.81 2.34
7.34 11.91 2.33
6.30 10.71 2.07
6.02 10.72 2.05
5.73 10.70 2.02
5.60 10.97 2.05
6.24 12.86 2.38
6.00 13.04 2.39
5.74 13.15 2.39
5.48 13.27 2.39
5.21 13.37 2.39
4.94 13.48 2.39
4.67 13.57 2.39
4.39 13.66 2.39
4.12 13.75 2.39
3.84 13.83 2.39
3.56 13.90 2.39
3.28 13.97 2.39
3.00 14.04 2.39
2.72 14.10 2.39
2.44 14.15 2.39
2.15 14.19 2.39
1.95 14.85 2.49
1.65 14.89 2.49
1.35 14.92 2.49
1.05 14.94 2.49
0.75 14.96 2.49
0.45 14.97 2.49
0.15 14.98 2.49
-0.15 14.98 2.49
-0.45 14.98 2.49
-0.75 14.97 2.49
-1.05 14.95 2.49
-1.35 14.93 2.49
-1.65 14.90 2.49
-1.95 14.86 2.49
-2.25 14.82 2.49
-2.55 14.78 2.49
-2.84 14.72 2.49
-3.14 14.67 2.49
-3.43 14.60 2.49
-3.73 14.53 2.49
-4.02 14.46 2.49
-4.31 14.37 2.49
-4.60 14.29 2.49
-4.88 14.19 2.49
-5.17 14.10 2.49
-5.45 13.99 2.49
-5.73 13.88 2.49
-5.99 13.72 2.49
-6.03 13.08 2.39
-6.29 12.96 2.39
-6.55 12.83 2.39
-6.81 12.70 2.39
-7.06 12.56 2.39
-7.31 12.42 2.39
-7.56 12.27 2.39
-7.81 12.12 2.39
-6.61 9.82 1.96
-8.29 11.80 2.39
-8.53 11.63 2.39
-8.76 11.46 2.39
-8.99 11.29 2.39
-9.22 11.11 2.39
-9.44 10.92 2.39
-9.66 10.73 2.39
-9.88 10.54 2.39
-9.69 9.93 2.30
-9.71 9.18 2.21
-9.68 8.80 2.16
-9.71 8.47 2.13
-9.74 8.16 2.10
-9.73 7.83 2.06
-9.73 7.51 2.03
-9.73 7.20 2.00
-9.73 6.90 1.97
-9.72 6.61 1.94
-9.72 6.33 1.92
-9.72 6.05 1.89
-9.72 5.78 1.87
-9.71 5.52 1.84
-9.71 5.26 1.82
-9.71 5.01 1.80
-9.71 4.77 1.78
-9.71 4.53 1.77
-9.70 4.29 1.75
-9.70 4.06 1.73
-9.70 3.83 1.72
-9.70 3.61 1.70
-9.70 3.39 1.69
-9.70 3.17 1.68
-9.69 2.95 1.67
-9.69 2.74 1.66
-9.69 2.53 1.65
-9.69 2.33 1.64
-9.69 2.12 1.63
-9.62 1.90 1.61
-9.68 1.72 1.62
-9.68 1.52 1.61
-9.68 1.32 1.61
-9.68 1.12 1.60
-9.68 0.92 1.60
-9.68 0.73 1.59
-9.67 0.53 1.59
-9.67 0.34 1.59
-9.67 0.14 1.59
-9.67 -0.05 1.59
-9.67 -0.25 1.59
-9.67 -0.44 1.59
-9.66 -0.63 1.59
-9.66 -0.83 1.59
-9.66 -1.02 1.59
-9.66 -1.22 1.60
-9.66 -1.42 1.60
-9.66 -1.62 1.60
-9.66 -1.82 1.61
-9.65 -2.22 1.62
-9.65 -2.42 1.63
-9.65 -2.63 1.64
-9.65 -2.84 1.65
-9.65 -3.05 1.65
-9.64 -3.26 1.67
-9.64 -3.48 1.68
-9.64 -3.70 1.69
-9.64 -3.92 1.70
-9.64 -4.15 1.71
-9.63 -4.38 1.73
-9.63 -4.62 1.75
-9.63 -4.85 1.76
-9.63 -5.10 1.78
-9.63 -5.35 1.80
-9.62 -5.60 1.82
-9.62 -5.86 1.84
-9.55 -6.09 1.85
-9.62 -6.40 1.89
-9.62 -6.68 1.91
-9.61 -6.97 1.94
-9.61 -7.27 1.97
-9.61 -7.58 2.00
-9.61 -7.89 2.03
-9.60 -8.22 2.06
-9.03 -8.04 1.97
-8.67 -8.04 1.93
-8.56 -8.27 1.94
-8.56 -8.60 1.98
-8.56 -8.95 2.02
-8.57 -9.34 2.07
-9.70 -11.00 2.39
-9.48 -11.20 2.39
-9.25 -11.39 2.39
-8.63 -11.07 2.29
-8.79 -11.75 2.39
-8.55 -11.92 2.39
-8.31 -12.09 2.39
-8.07 -12.26 2.39
-7.82 -12.42 2.39
-7.57 -12.57 2.39
-7.32 -12.72 2.39
-7.06 -12.87 2.39
-6.80 -13.01 2.39
-6.54 -13.14 2.39
-6.27 -13.27 2.39
-6.01 -13.39 2.39
-5.76 -13.57 2.40
-5.70 -14.21 2.49
-5.41 -14.32 2.49
-5.12 -14.43 2.49
-4.83 -14.53 2.49
-4.54 -14.62 2.49
-4.25 -14.71 2.49
-3.95 -14.79 2.49
-3.65 -14.87 2.49
-3.35 -14.94 2.49
-3.05 -15.00 2.49
-2.75 -15.06 2.49
-2.45 -15.11 2.49
-2.15 -15.16 2.49
-1.84 -15.20 2.49
-1.53 -15.23 2.49
-1.23 -15.26 2.49
-0.92 -15.28 2.49
-0.62 -15.29 2.49
-0.31 -15.30 2.49
-0.00 -13.39 2.49
0.27 -13.39 2.49
0.54 -13.38 2.49
0.80 -13.37 2.49
1.07 -13.35 2.49
1.34 -13.32 2.49
1.61 -13.29 2.49
1.87 -13.25 2.49
2.14 -13.21 2.49
2.30 -12.62 2.39
2.56 -12.57 2.39
2.81 -12.52 2.39
3.06 -12.46 2.39
3.31 -12.39 2.39
3.55 -12.32 2.39
3.80 -12.25 2.39
4.04 -12.17 2.39
4.29 -12.08 2.39
4.53 -11.99 2.39
4.77 -11.89 2.39
5.00 -11.80 2.39
5.24 -11.69 2.39
5.47 -11.58 2.39
5.70 -11.47 2.39
5.45 -10.44 2.20
5.40 -9.85 2.10
5.54 -9.64 2.08
5.79 -9.62 2.10
6.03 -9.58 2.12
6.10 -9.27 2.07
6.09 -8.86 2.01
5.69 -7.94 1.83
5.76 -7.70 1.80
5.86 -7.52 1.78
6.09 -7.50 1.81
5.44 -6.43 1.58
5.46 -6.20 1.55
5.49 -5.98 1.52
5.54 -5.80 1.50
5.74 -5.77 1.52
5.96 -5.75 1.55
6.19 -5.74 1.58
6.44 -5.74 1.61
6.70 -5.74 1.65
7.07 -5.81 1.71
5.53 -4.36 1.32
5.57 -4.21 1.31
5.57 -4.04 1.29
5.63 -3.91 1.29
5.74 -3.82 1.29
5.88 -3.75 1.31
6.16 -3.76 1.35
6.45 -3.75 1.40
6.74 -3.75 1.45
10.00 -5.30 2.12
9.99 -5.04 2.10
10.21 -4.89 2.13
5.54 -2.52 1.14
5.57 -2.40 1.14
5.57 -2.27 1.13
5.56 -2.14 1.12
5.61 -2.03 1.12
5.69 -1.93 1.13
5.89 -1.86 1.16
6.27 -1.85 1.23
6.72 -1.83 1.31
11.41 -2.87 2.21
11.45 -2.63 2.21
11.48 -2.40 2.21
11.51 -2.17 2.20
11.53 -1.93 2.20
5.19 -0.76 0.99
4.94 -0.62 0.94
4.96 -0.53 0.94
5.00 -0.43 0.95
5.01 -0.33 0.95
5.03 -0.23 0.95
5.17 -0.13 0.98
5.32 -0.03 1.00
12.23 0.18 2.31
12.22 0.43 2.31
8.19 0.45 1.55
8.19 0.61 1.55
8.18 0.78 1.55
8.18 0.95 1.55
8.17 1.11 1.56
8.17 1.28 1.56
8.16 1.45 1.57
12.04 2.38 2.32
11.99 2.63 2.32
11.94 2.87 2.32
6.86 1.79 1.34
6.33 1.79 1.24
5.90 1.80 1.17
5.74 1.88 1.14
5.58 1.95 1.12
5.62 2.09 1.13
5.61 2.22 1.14
5.64 2.36 1.16
5.68 2.51 1.17
8.67 4.05 1.81
8.20 4.03 1.73
7.73 3.99 1.65
6.99 3.79 1.51
6.62 3.76 1.44
6.41 3.81 1.41
6.36 3.96 1.42
6.23 4.06 1.41
6.23 4.24 1.43
6.19 4.39 1.44
6.21 4.60 1.46
6.29 4.85 1.51
9.22 7.42 2.24
9.10 7.62 2.25
8.97 7.82 2.26
8.83 8.02 2.26
8.69 8.22 2.27
8.55 8.42 2.28
8.40 8.62 2.28
8.25 8.81 2.29
8.10 9.00 2.30
7.94 9.19 2.30
7.78 9.37 2.31
7.61 9.56 2.32
7.45 9.74 2.33
7.27 9.92 2.33
7.10 10.10 2.34
6.92 10.28 2.35
6.73 10.45 2.36
6.65 10.80 2.41
6.43 10.93 2.41
6.02 10.72 2.33
5.73 10.70 2.30
5.60 10.97 2.34
5.50 11.33 2.39
5.27 11.44 2.39
5.04 11.54 2.39
4.81 11.64 2.39
4.57 11.74 2.39
4.33 11.83 2.39
4.10 11.91 2.39
3.86 11.99 2.39
3.61 12.07 2.39
3.37 12.14 2.39
3.13 12.20 2.39
2.88 12.26 2.39
2.64 12.32 2.39
2.39 12.37 2.39
2.14 12.42 2.39
1.97 12.99 2.49
1.71 13.03 2.49
1.45 13.06 2.49
1.18 13.09 2.49
0.92 13.11 2.49
0.66 13.13 2.49
0.39 13.14 2.49
0.13 13.15 2.49
-0.13 13.15 2.49
-0.40 13.14 2.49
-0.66 13.13 2.49
-0.93 13.12 2.49
-1.19 13.10 2.49
-1.45 13.07 2.49
-1.71 13.04 2.49
-1.98 13.01 2.49
-2.24 12.97 2.49
-2.50 12.92 2.49
-2.76 12.87 2.49
-3.01 12.81 2.49
-3.27 12.75 2.49
-3.53 12.68 2.49
-3.78 12.61 2.49
-4.03 12.53 2.49
-4.29 12.45 2.49
-4.54 12.37 2.49
-4.78 12.27 2.49
-5.03 12.18 2.49
-5.27 12.08 2.49
-5.52 11.97 2.49
-5.76 11.86 2.49
-5.97 11.70 2.49
-5.98 11.16 2.39
-6.19 11.02 2.39
-6.42 10.89 2.39
-6.63 10.76 2.39
-6.85 10.63 2.39
-6.61 9.82 2.24
-7.27 10.35 2.39
-7.48 10.20 2.39
-7.69 10.05 2.39
-7.89 9.90 2.39
-8.09 9.74 2.39
-8.28 9.58 2.39
-8.47 9.41 2.39
-8.66 9.24 2.39
-8.85 9.07 2.39
-9.03 8.89 2.39
-9.21 8.71 2.39
-9.38 8.52 2.39
-9.55 8.33 2.39
-9.72 8.14 2.39
-9.88 7.95 2.39
-9.67 6.57 2.20
-9.66 6.29 2.17
-9.67 6.02 2.14
-9.70 5.77 2.12
-9.71 5.52 2.10
-9.71 5.26 2.08
-9.71 5.01 2.06
-9.71 4.77 2.03
-9.71 4.53 2.01
-9.70 4.29 2.00
-9.70 4.06 1.98
-9.70 3.83 1.96
-9.70 3.61 1.94
-9.70 3.39 1.93
-9.70 3.17 1.92
-9.69 2.95 1.90
-9.69 2.74 1.89
-9.69 2.53 1.88
-9.69 2.33 1.87
-9.69 2.12 1.86
-9.62 1.90 1.84
-9.68 1.72 1.85
-9.68 1.52 1.84
-9.68 1.32 1.83
-9.68 1.12 1.83
-9.68 0.92 1.82
-9.68 0.73 1.82
-9.67 0.53 1.82
-9.67 0.34 1.81
-9.67 0.14 1.81
-9.67 -0.05 1.81
-9.67 -0.25 1.81
-9.67 -0.44 1.81
-9.66 -0.63 1.81
-9.66 -0.83 1.82
-9.66 -1.02 1.82
-9.66 -1.22 1.82
-9.66 -1.42 1.83
-9.66 -1.62 1.83
-9.66 -1.82 1.84
-9.65 -2.22 1.85
-9.65 -2.42 1.86
-9.65 -2.63 1.87
-9.65 -2.84 1.88
-9.65 -3.05 1.89
-9.64 -3.27 1.90
-9.64 -3.48 1.91
-9.64 -3.70 1.93
-9.64 -3.92 1.94
-9.64 -4.15 1.96
-9.63 -4.38 1.98
-9.63 -4.62 1.99
-9.63 -4.86 2.01
-9.63 -5.10 2.03
-9.63 -5.35 2.05
-9.02 -5.25 1.95
-8.64 -5.27 1.89
-8.59 -5.47 1.90
-8.58 -5.71 1.92
-8.58 -5.96 1.95
-8.58 -6.22 1.98
-8.58 -6.49 2.00
-8.57 -6.76 2.03
-9.75 -8.34 2.39
-9.58 -8.54 2.39
-8.93 -8.28 2.27
-8.65 -8.35 2.24
-9.05 -9.10 2.39
-8.85 -9.26 2.39
-8.68 -9.46 2.39
-8.49 -9.63 2.39
-8.30 -9.80 2.39
-8.10 -9.97 2.39
-7.90 -10.13 2.39
-7.69 -10.29 2.39
-7.49 -10.44 2.39
-7.28 -10.59 2.39
-7.06 -10.73 2.39
-6.85 -10.87 2.39
-6.63 -11.01 2.39
-6.40 -11.14 2.39
-6.18 -11.26 2.39
-5.95 -11.39 2.39
-5.77 -11.59 2.41
-5.73 -12.12 2.49
-5.48 -12.23 2.49
-5.24 -12.34 2.49
-4.99 -12.44 2.49
-4.74 -12.54 2.49
-4.49 -12.63 2.49
-4.23 -12.72 2.49
-3.98 -12.80 2.49
-3.72 -12.88 2.49
-3.46 -12.95 2.49
-3.20 -13.02 2.49
-2.94 -13.08 2.49
-2.67 -13.13 2.49
-2.41 -13.18 2.49
-2.14 -13.23 2.49
-1.88 -13.27 2.49
-1.61 -13.30 2.49
-1.34 -13.33 2.49
-1.08 -13.35 2.49
-0.81 -13.37 2.49
-0.54 -13.39 2.49
-0.27 -13.39 2.49
-0.00 -11.90 2.49
0.24 -11.90 2.49
0.48 -11.89 2.49
0.71 -11.88 2.49
0.95 -11.86 2.49
1.19 -11.83 2.49
1.43 -11.81 2.49
1.66 -11.78 2.49
1.90 -11.74 2.49
2.13 -11.70 2.49
2.27 -11.17 2.39
2.49 -11.12 2.39
2.72 -11.07 2.39
2.94 -11.01 2.39
3.16 -10.95 2.39
3.38 -10.88 2.39
3.59 -10.81 2.39
3.81 -10.73 2.39
4.02 -10.65 2.39
4.24 -10.57 2.39
4.45 -10.48 2.39
4.66 -10.39 2.39
4.86 -10.29 2.39
5.07 -10.19 2.39
5.27 -10.09 2.39
5.45 -9.94 2.38
5.54 -9.65 2.34
5.78 -9.61 2.36
6.03 -9.58 2.38
6.10 -9.27 2.33
5.70 -8.29 2.12
5.71 -7.97 2.06
5.76 -7.71 2.02
5.86 -7.51 2.00
6.09 -7.49 2.03
5.44 -6.42 1.77
5.48 -6.21 1.74
5.49 -5.98 1.71
5.58 -5.85 1.70
5.74 -5.77 1.71
5.95 -5.75 1.74
6.19 -5.74 1.78
6.44 -5.74 1.82
6.70 -5.73 1.86
5.55 -4.56 1.51
5.52 -4.36 1.48
5.55 -4.20 1.47
5.58 -4.05 1.45
5.61 -3.90 1.44
5.67 -3.77 1.44
5.87 -3.74 1.47
6.17 -3.76 1.52
6.45 -3.75 1.57
6.74 -3.75 1.63
9.71 -5.14 2.32
9.77 -4.93 2.31
9.84 -4.72 2.31
5.53 -2.52 1.28
5.56 -2.40 1.28
5.57 -2.27 1.27
5.57 -2.14 1.26
5.62 -2.03 1.26
5.68 -1.92 1.27
5.88 -1.86 1.31
6.26 -1.84 1.38
6.76 -1.84 1.48
10.25 -2.58 2.24
10.28 -2.37 2.23
10.31 -2.15 2.23
10.33 -1.94 2.23
10.42 -1.75 2.24
5.19 -0.76 1.11
4.93 -0.62 1.05
4.96 -0.53 1.06
4.99 -0.43 1.06
4.95 -0.33 1.05
4.91 -0.22 1.04
5.01 -0.13 1.06
5.30 -0.03 1.12
11.17 0.16 2.37
11.16 0.39 2.37
8.01 0.44 1.70
8.01 0.60 1.70
8.00 0.76 1.71
8.00 0.92 1.71
7.99 1.09 1.71
7.99 1.25 1.72
7.98 1.41 1.72
7.96 1.58 1.72
10.99 2.40 2.39
10.95 2.63 2.39
6.98 1.82 1.53
6.35 1.80 1.40
5.93 1.81 1.32
5.75 1.88 1.29
5.57 1.95 1.25
5.60 2.08 1.27
5.62 2.22 1.29
5.65 2.36 1.30
5.69 2.51 1.32
8.73 4.07 2.05
8.33 4.09 1.97
7.88 4.07 1.89
7.11 3.85 1.72
6.64 3.77 1.63
6.42 3.82 1.59
6.39 3.98 1.60
6.22 4.05 1.58
6.23 4.24 1.60
6.19 4.39 1.62
6.21 4.59 1.64
6.26 4.83 1.69
8.36 6.72 2.29
8.24 6.90 2.29
8.12 7.09 2.30
7.99 7.26 2.30
7.87 7.44 2.31
7.74 7.62 2.31
7.60 7.79 2.32
7.46 7.96 2.33
7.32 8.13 2.33
7.18 8.30 2.34
7.03 8.47 2.35
6.88 8.63 2.35
6.72 8.80 2.36
6.57 8.96 2.37
6.40 9.12 2.38
6.24 9.27 2.38
6.07 9.43 2.39
5.88 9.55 2.39
5.69 9.66 2.39
5.49 9.78 2.39
5.30 9.88 2.39
5.10 9.99 2.39
4.89 10.09 2.39
4.69 10.18 2.39
4.48 10.28 2.39
4.28 10.36 2.39
4.07 10.45 2.39
3.86 10.53 2.39
3.65 10.60 2.39
3.43 10.67 2.39
3.22 10.74 2.39
3.00 10.80 2.39
2.78 10.86 2.39
2.56 10.92 2.39
2.35 10.96 2.39
2.12 11.01 2.39
1.99 11.53 2.49
1.75 11.57 2.49
1.52 11.60 2.49
1.29 11.63 2.49
1.05 11.65 2.49
0.82 11.67 2.49
0.59 11.69 2.49
0.35 11.70 2.49
0.12 11.70 2.49
-0.12 11.70 2.49
-0.35 11.70 2.49
-0.59 11.69 2.49
-0.82 11.68 2.49
-1.06 11.66 2.49
-1.29 11.64 2.49
-1.53 11.61 2.49
-1.76 11.58 2.49
-1.99 11.54 2.49
-2.22 11.50 2.49
-2.45 11.45 2.49
-2.68 11.40 2.49
-2.91 11.35 2.49
-3.14 11.29 2.49
-3.37 11.22 2.49
-3.59 11.15 2.49
-3.81 11.08 2.49
-4.04 11.00 2.49
-4.26 10.92 2.49
-4.48 10.84 2.49
-4.69 10.74 2.49
-4.91 10.65 2.49
-5.12 10.55 2.49
-5.33 10.45 2.49
-5.54 10.34 2.49
-5.75 10.23 2.49
-5.96 10.11 2.49
-5.96 9.68 2.42
-6.09 9.46 2.39
-6.28 9.34 2.39
-6.47 9.21 2.39
-6.66 9.08 2.39
-6.84 8.94 2.39
-7.02 8.81 2.39
-7.19 8.67 2.39
-7.37 8.52 2.39
-7.54 8.37 2.39
-7.71 8.22 2.39
-7.87 8.07 2.39
-8.03 7.91 2.39
-8.19 7.75 2.39
-8.35 7.58 2.39
-8.50 7.41 2.39
-8.65 7.24 2.39
-8.79 7.07 2.39
-8.93 6.89 2.39
-9.07 6.71 2.39
-9.21 6.53 2.39
-9.34 6.34 2.39
-9.46 6.16 2.39
-9.59 5.97 2.39
-9.71 5.77 2.39
-9.82 5.58 2.39
-9.93 5.38 2.39
-9.68 4.05 2.22
-9.64 3.81 2.19
-9.64 3.58 2.17
-9.64 3.37 2.16
-9.64 3.15 2.14
-9.66 2.94 2.13
-9.67 2.74 2.12
-9.69 2.53 2.12
-9.69 2.32 2.10
-9.69 2.12 2.09
-9.62 1.90 2.07
-9.68 1.71 2.08
-9.68 1.51 2.07
-9.68 1.32 2.06
-9.68 1.12 2.05
-9.68 0.92 2.05
-9.68 0.73 2.05
-8.91 0.49 1.88
-8.92 0.31 1.88
-8.93 0.13 1.88
-8.93 -0.05 1.88
-8.93 -0.23 1.88
-8.92 -0.41 1.88
-8.92 -0.59 1.88
-8.90 -0.76 1.88
-8.89 -0.94 1.88
-9.66 -1.22 2.05
-9.66 -1.42 2.05
-9.66 -1.62 2.06
-9.66 -1.82 2.07
-9.65 -2.22 2.08
-9.65 -2.43 2.09
-8.68 -2.37 1.89
-8.62 -2.54 1.89
-8.61 -2.73 1.90
-8.61 -2.91 1.91
-8.60 -3.11 1.92
-8.60 -3.30 1.94
-8.60 -3.50 1.95
-8.60 -3.70 1.97
-8.60 -3.91 1.98
-9.84 -5.73 2.39
-9.73 -5.93 2.39
-8.67 -5.52 2.16
-9.48 -6.31 2.39
-9.36 -6.50 2.39
-8.92 -6.47 2.31
-8.66 -6.55 2.28
-8.95 -7.06 2.39
-8.81 -7.24 2.39
-8.66 -7.41 2.39
-8.51 -7.59 2.39
-8.36 -7.76 2.39
-8.20 -7.92 2.39
-8.04 -8.09 2.39
-7.88 -8.25 2.39
-7.71 -8.40 2.39
-7.54 -8.56 2.39
-7.37 -8.71 2.39
-7.20 -8.85 2.39
-7.02 -9.00 2.39
-6.83 -9.14 2.39
-6.65 -9.27 2.39
-6.46 -9.40 2.39
-6.27 -9.53 2.39
-6.08 -9.66 2.39
-5.89 -9.78 2.39
-5.78 -10.05 2.43
-5.73 -10.44 2.49
-5.52 -10.55 2.49
-5.30 -10.66 2.49
-5.09 -10.76 2.49
-4.87 -10.86 2.49
-4.65 -10.96 2.49
-4.43 -11.05 2.49
-4.21 -11.14 2.49
-3.98 -11.22 2.49
-3.76 -11.30 2.49
-3.53 -11.37 2.49
-3.30 -11.44 2.49
-3.07 -11.50 2.49
-2.84 -11.56 2.49
-2.61 -11.62 2.49
-2.37 -11.67 2.49
-2.14 -11.71 2.49
-1.90 -11.75 2.49
-1.67 -11.79 2.49
-1.43 -11.82 2.49
-1.19 -11.84 2.49
-0.96 -11.86 2.49
-0.72 -11.88 2.49
-0.48 -11.89 2.49
-0.24 -11.90 2.49
-0.00 -10.69 2.49
0.21 -10.69 2.49
0.43 -10.68 2.49
0.64 -10.67 2.49
0.86 -10.66 2.49
1.07 -10.64 2.49
1.28 -10.61 2.49
1.49 -10.58 2.49
1.71 -10.55 2.49
1.92 -10.51 2.49
2.13 -10.47 2.49
2.26 -10.06 2.41
2.46 -10.01 2.41
2.64 -9.90 2.39
2.84 -9.84 2.39
3.03 -9.78 2.39
3.23 -9.72 2.39
3.42 -9.65 2.39
3.62 -9.58 2.39
3.81 -9.50 2.39
4.00 -9.42 2.39
4.18 -9.34 2.39
4.37 -9.25 2.39
4.55 -9.16 2.39
4.74 -9.07 2.39
4.92 -8.97 2.39
5.10 -8.87 2.39
5.27 -8.76 2.39
5.45 -8.65 2.39
5.62 -8.54 2.39
5.72 -8.32 2.36
5.70 -7.95 2.29
5.76 -7.70 2.25
5.85 -7.50 2.23
6.09 -7.49 2.26
5.48 -6.48 1.99
5.47 -6.21 1.94
5.48 -5.98 1.90
5.58 -5.84 1.89
5.74 -5.77 1.91
5.96 -5.76 1.94
6.21 -5.77 1.99
6.33 -5.64 1.99
6.80 -5.83 2.10
5.56 -4.57 1.69
5.52 -4.35 1.65
5.55 -4.20 1.63
5.47 -3.97 1.58
5.62 -3.91 1.61
5.67 -3.77 1.60
5.90 -3.76 1.64
6.16 -3.76 1.69
6.44 -3.75 1.75
6.73 -3.74 1.81
8.98 -4.76 2.39
5.52 -2.79 1.45
5.54 -2.66 1.44
5.52 -2.51 1.43
5.53 -2.39 1.42
5.53 -2.25 1.40
5.58 -2.14 1.41
5.61 -2.03 1.40
5.63 -1.91 1.40
5.87 -1.86 1.45
6.26 -1.84 1.53
6.76 -1.84 1.65
9.55 -2.40 2.32
9.58 -2.20 2.31
9.61 -2.01 2.31
9.67 -1.82 2.32
9.75 -1.63 2.33
5.19 -0.76 1.23
4.91 -0.62 1.17
4.94 -0.53 1.17
4.94 -0.42 1.17
4.96 -0.33 1.17
4.91 -0.22 1.16
5.02 -0.13 1.18
5.30 -0.03 1.25
10.17 0.15 2.40
10.17 0.35 2.40
7.84 0.43 1.85
7.84 0.59 1.85
7.84 0.75 1.86
7.83 0.91 1.86
7.83 1.06 1.86
7.83 1.23 1.87
7.84 1.39 1.88
7.85 1.55 1.89
9.96 2.18 2.41
9.91 2.38 2.41
7.10 1.85 1.73
6.38 1.80 1.57
5.75 1.75 1.42
5.57 1.82 1.39
5.56 1.94 1.39
5.57 2.07 1.40
5.60 2.21 1.42
5.63 2.35 1.44
5.67 2.51 1.46
8.71 4.06 2.27
8.29 4.07 2.18
7.72 3.99 2.05
6.99 3.79 1.88
6.62 3.76 1.80
6.45 3.84 1.77
6.34 3.95 1.77
6.27 4.08 1.77
6.25 4.25 1.79
6.21 4.41 1.80
6.26 4.63 1.84
6.27 4.84 1.88
7.63 6.14 2.32
7.52 6.30 2.32
7.41 6.47 2.33
7.30 6.63 2.33
7.18 6.79 2.34
7.06 6.95 2.34
6.93 7.11 2.35
6.81 7.26 2.36
6.68 7.42 2.36
6.54 7.57 2.37
6.41 7.72 2.38
6.27 7.87 2.38
6.12 8.01 2.39
5.97 8.14 2.39
5.80 8.26 2.39
5.64 8.37 2.39
5.47 8.49 2.39
5.29 8.59 2.39
5.12 8.70 2.39
4.94 8.80 2.39
4.77 8.90 2.39
4.59 8.99 2.39
4.41 9.08 2.39
4.22 9.17 2.39
4.04 9.25 2.39
3.85 9.33 2.39
3.66 9.40 2.39
3.47 9.48 2.39
3.28 9.54 2.39
3.09 9.61 2.39
2.90 9.67 2.39
2.70 9.72 2.39
2.51 9.78 2.39
2.31 9.83 2.39
2.11 9.87 2.39
1.99 10.34 2.49
1.79 10.38 2.49
1.58 10.41 2.49
1.37 10.44 2.49
1.16 10.47 2.49
0.95 10.49 2.49
0.74 10.51 2.49
0.53 10.52 2.49
0.32 10.53 2.49
0.10 10.53 2.49
-0.11 10.53 2.49
-0.32 10.53 2.49
-0.53 10.52 2.49
-0.74 10.51 2.49
-0.95 10.49 2.49
-1.16 10.47 2.49
-1.37 10.45 2.49
-1.58 10.42 2.49
-1.79 10.39 2.49
-2.00 10.35 2.49
-2.21 10.31 2.49
-2.41 10.26 2.49
-2.62 10.21 2.49
-2.83 10.16 2.49
-3.03 10.10 2.49
-3.23 10.04 2.49
-3.43 9.97 2.49
-3.63 9.90 2.49
-3.83 9.83 2.49
-4.03 9.75 2.49
-4.22 9.67 2.49
-4.42 9.58 2.49
-4.61 9.49 2.49
-4.80 9.40 2.49
-4.99 9.30 2.49
-5.17 9.20 2.49
-5.36 9.10 2.49
-5.54 8.99 2.49
-5.72 8.88 2.49
-5.90 8.76 2.49
-5.95 8.46 2.44
-5.99 8.17 2.39
-6.16 8.05 2.39
-6.31 7.92 2.39
-6.47 7.80 2.39
-6.63 7.67 2.39
-6.78 7.53 2.39
-6.93 7.40 2.39
-7.08 7.26 2.39
-7.23 7.11 2.39
-7.37 6.97 2.39
-7.51 6.82 2.39
-7.65 6.67 2.39
-7.78 6.51 2.39
-7.91 6.36 2.39
-8.04 6.20 2.39
-8.16 6.04 2.39
-8.28 5.87 2.39
-8.40 5.71 2.39
-8.51 5.54 2.39
-8.62 5.37 2.39
-8.73 5.19 2.39
-8.84 5.02 2.39
-8.94 4.84 2.39
-9.03 4.66 2.39
-9.13 4.48 2.39
-9.22 4.30 2.39
-9.30 4.11 2.39
-9.38 3.92 2.39
-9.46 3.74 2.39
-9.54 3.54 2.39
-9.61 3.35 2.39
-9.67 3.16 2.39
-9.74 2.97 2.39
-9.80 2.77 2.39
-9.85 2.57 2.39
-9.90 2.38 2.39
-9.62 1.90 2.30
-8.63 0.47 2.03
-8.63 0.30 2.02
-8.63 0.13 2.02
-8.63 -0.05 2.02
-8.63 -0.22 2.02
-8.63 -0.39 2.02
-8.62 -0.57 2.02
-8.62 -0.74 2.03
-8.62 -0.92 2.03
-9.86 -2.69 2.39
-8.83 -2.60 2.15
-9.75 -3.08 2.39
-9.69 -3.28 2.39
-9.62 -3.47 2.39
-9.55 -3.67 2.39
-8.79 -3.58 2.22
-9.40 -4.05 2.39
-9.31 -4.24 2.39
-9.23 -4.42 2.39
-9.14 -4.61 2.39
-9.05 -4.79 2.39
-8.95 -4.97 2.39
-8.85 -5.15 2.39
-8.74 -5.33 2.39
-8.64 -5.50 2.39
-8.52 -5.68 2.39
-8.41 -5.85 2.39
-8.29 -6.01 2.39
-8.17 -6.18 2.39
-8.04 -6.34 2.39
-7.92 -6.50 2.39
-7.79 -6.66 2.39
-7.65 -6.82 2.39
-7.51 -6.97 2.39
-7.37 -7.12 2.39
-7.23 -7.27 2.39
-7.08 -7.41 2.39
-6.93 -7.55 2.39
-6.78 -7.69 2.39
-6.62 -7.83 2.39
-6.47 -7.96 2.39
-6.31 -8.09 2.39
-6.14 -8.21 2.39
-5.98 -8.33 2.39
-5.81 -8.45 2.39
-5.79 -8.80 2.46
-5.70 -9.05 2.49
-5.52 -9.17 2.49
-5.33 -9.27 2.49
-5.15 -9.38 2.49
-4.96 -9.48 2.49
-4.77 -9.58 2.49
-4.57 -9.67 2.49
-4.38 -9.76 2.49
-4.18 -9.85 2.49
-3.98 -9.93 2.49
-3.78 -10.01 2.49
-3.58 -10.08 2.49
-3.38 -10.15 2.49
-3.17 -10.22 2.49
-2.97 -10.28 2.49
-2.76 -10.34 2.49
-2.55 -10.39 2.49
-2.34 -10.44 2.49
-2.13 -10.48 2.49
-1.92 -10.52 2.49
-1.71 -10.56 2.49
-1.50 -10.59 2.49
-1.29 -10.62 2.49
-1.07 -10.64 2.49
-0.86 -10.66 2.49
-0.65 -10.68 2.49
-0.43 -10.69 2.49
-0.22 -10.69 2.49
-0.00 -9.70 2.49
0.19 -9.70 2.49
0.39 -9.69 2.49
0.58 -9.68 2.49
0.78 -9.67 2.49
0.97 -9.65 2.49
1.16 -9.63 2.49
1.36 -9.60 2.49
1.55 -9.57 2.49
1.74 -9.54 2.49
1.93 -9.50 2.49
2.12 -9.46 2.49
2.24 -9.15 2.42
2.39 -8.98 2.39
2.57 -8.93 2.39
2.75 -8.87 2.39
2.93 -8.81 2.39
3.11 -8.75 2.39
3.28 -8.69 2.39
3.45 -8.62 2.39
3.63 -8.55 2.39
3.80 -8.47 2.39
3.96 -8.39 2.39
4.13 -8.31 2.39
4.30 -8.23 2.39
4.46 -8.14 2.39
4.62 -8.04 2.39
4.78 -7.95 2.39
4.94 -7.85 2.39
5.10 -7.75 2.39
5.25 -7.64 2.39
5.40 -7.54 2.39
5.55 -7.43 2.39
5.70 -7.31 2.39
5.84 -7.19 2.39
5.45 -6.44 2.17
5.48 -6.22 2.14
5.49 -5.98 2.09
5.57 -5.83 2.08
5.73 -5.76 2.10
5.98 -5.77 2.15
6.07 -5.64 2.14
6.07 -5.41 2.10
6.07 -5.19 2.06
6.07 -4.99 2.03
5.51 -4.35 1.81
5.54 -4.19 1.80
5.57 -4.04 1.78
5.62 -3.91 1.77
5.67 -3.77 1.76
5.90 -3.76 1.81
6.17 -3.76 1.87
6.48 -3.78 1.94
8.13 -4.52 2.41
8.22 -4.36 2.41
8.31 -4.19 2.41
5.56 -2.66 1.59
5.51 -2.51 1.57
5.48 -2.36 1.54
5.56 -2.26 1.55
5.58 -2.14 1.55
5.62 -2.03 1.55
5.64 -1.91 1.54
5.86 -1.86 1.59
6.25 -1.84 1.69
6.75 -1.84 1.81
8.93 -2.25 2.39
8.96 -2.06 2.38
9.01 -1.88 2.39
9.08 -1.71 2.40
9.14 -1.53 2.40
5.19 -0.76 1.36
4.90 -0.62 1.28
4.93 -0.52 1.29
4.95 -0.43 1.29
4.95 -0.33 1.29
4.90 -0.22 1.27
5.03 -0.13 1.31
5.30 -0.03 1.38
9.26 0.14 2.40
9.26 0.32 2.40
8.13 0.45 2.11
7.92 0.59 2.06
7.92 0.75 2.07
7.92 0.91 2.07
7.91 1.08 2.08
7.91 1.24 2.08
7.89 1.40 2.08
9.08 1.80 2.41
9.04 1.98 2.41
9.00 2.16 2.41
8.96 2.34 2.41
6.36 1.80 1.72
5.82 1.77 1.58
5.59 1.83 1.53
5.55 1.94 1.53
5.56 2.07 1.54
5.55 2.19 1.55
5.56 2.32 1.57
5.50 2.43 1.57
8.38 3.91 2.41
8.30 4.07 2.41
7.95 4.10 2.33
6.99 3.79 2.07
6.62 3.76 1.98
6.48 3.85 1.96
6.42 3.99 1.97
6.28 4.09 1.95
6.22 4.22 1.96
6.22 4.41 1.99
6.23 4.61 2.02
6.28 4.85 2.07
7.20 5.79 2.41
7.03 5.89 2.39
6.81 5.94 2.36
6.71 6.09 2.36
6.60 6.24 2.37
6.48 6.38 2.37
6.37 6.53 2.38
6.25 6.67 2.38
6.13 6.81 2.39
6.00 6.94 2.39
5.86 7.06 2.39
5.71 7.17 2.39
5.57 7.29 2.39
5.42 7.40 2.39
5.27 7.50 2.39
5.12 7.61 2.39
4.96 7.71 2.39
4.81 7.81 2.39
4.65 7.90 2.39
4.49 7.99 2.39
4.33 8.08 2.39
4.17 8.17 2.39
4.00 8.25 2.39
3.83 8.33 2.39
3.67 8.40 2.39
3.50 8.47 2.39
3.33 8.54 2.39
3.15 8.61 2.39
2.98 8.67 2.39
2.81 8.73 2.39
2.63 8.78 2.39
2.45 8.83 2.39
2.29 8.92 2.40
2.10 8.96 2.40
2.00 9.35 2.49
1.81 9.39 2.49
1.62 9.42 2.49
1.43 9.46 2.49
1.24 9.48 2.49
1.05 9.51 2.49
0.86 9.53 2.49
0.67 9.54 2.49
0.48 9.55 2.49
0.29 9.56 2.49
0.09 9.57 2.49
-0.10 9.57 2.49
-0.29 9.56 2.49
-0.48 9.56 2.49
-0.67 9.54 2.49
-0.87 9.53 2.49
-1.06 9.51 2.49
-1.25 9.49 2.49
-1.44 9.46 2.49
-1.63 9.43 2.49
-1.82 9.40 2.49
-2.01 9.36 2.49
-2.19 9.32 2.49
-2.38 9.27 2.49
-2.57 9.23 2.49
-2.75 9.17 2.49
-2.93 9.12 2.49
-3.12 9.06 2.49
-3.30 8.99 2.49
-3.48 8.93 2.49
-3.66 8.86 2.49
-3.84 8.78 2.49
-4.01 8.70 2.49
-4.19 8.62 2.49
-4.36 8.54 2.49
-4.53 8.45 2.49
-4.70 8.36 2.49
-4.87 8.26 2.49
-5.03 8.16 2.49
-5.20 8.06 2.49
-5.36 7.96 2.49
-5.52 7.85 2.49
-5.67 7.74 2.49
-5.83 7.62 2.49
-5.94 7.45 2.48
-5.94 7.16 2.42
-6.02 6.96 2.39
-6.16 6.84 2.39
-6.30 6.71 2.39
-6.43 6.59 2.39
-6.56 6.46 2.39
-6.69 6.33 2.39
-6.82 6.19 2.39
-6.94 6.05 2.39
-7.06 5.91 2.39
-7.18 5.77 2.39
-7.30 5.63 2.39
-7.41 5.48 2.39
-7.52 5.33 2.39
-7.63 5.18 2.39
-7.73 5.03 2.39
-7.83 4.87 2.39
-7.93 4.71 2.39
-8.02 4.55 2.39
-8.11 4.39 2.39
-8.20 4.23 2.39
-8.28 4.07 2.39
-8.37 3.90 2.39
-8.44 3.73 2.39
-8.52 3.56 2.39
-8.59 3.39 2.39
-8.66 3.22 2.39
-8.72 3.04 2.39
-8.78 2.87 2.39
-8.84 2.69 2.39
-8.89 2.51 2.39
-8.94 2.34 2.39
-8.99 2.16 2.39
-9.03 1.98 2.39
-9.07 1.79 2.39
-9.11 1.61 2.39
-9.14 1.43 2.39
-9.17 1.25 2.39
-9.19 1.06 2.39
-9.21 0.88 2.39
-9.23 0.69 2.39
-9.24 0.51 2.39
-8.72 0.30 2.25
-9.26 0.14 2.39
-9.26 -0.05 2.39
-9.26 -0.24 2.39
-9.25 -0.42 2.39
-9.24 -0.61 2.39
-8.71 -0.75 2.26
-9.21 -0.98 2.39
-9.19 -1.16 2.39
-9.17 -1.35 2.39
-9.14 -1.53 2.39
-9.11 -1.72 2.39
-9.08 -1.90 2.39
-9.04 -2.08 2.39
-8.99 -2.26 2.39
-8.95 -2.44 2.39
-8.82 -2.60 2.37
-8.85 -2.80 2.39
-8.79 -2.98 2.39
-8.73 -3.15 2.39
-8.66 -3.33 2.39
-8.60 -3.50 2.39
-8.53 -3.67 2.39
-8.45 -3.84 2.39
-8.37 -4.01 2.39
-8.29 -4.18 2.39
-8.21 -4.35 2.39
-8.12 -4.51 2.39
-8.03 -4.67 2.39
-7.93 -4.83 2.39
-7.83 -4.99 2.39
-7.73 -5.15 2.39
-7.63 -5.30 2.39
-7.52 -5.46 2.39
-7.41 -5.61 2.39
-7.30 -5.75 2.39
-7.18 -5.90 2.39
-7.06 -6.04 2.39
-6.94 -6.18 2.39
-6.82 -6.32 2.39
-6.69 -6.46 2.39
-6.56 -6.59 2.39
-6.42 -6.72 2.39
-6.29 -6.85 2.39
-6.15 -6.98 2.39
-6.01 -7.10 2.39
-5.87 -7.22 2.39
-5.80 -7.44 2.42
-5.80 -7.75 2.49
-5.66 -7.88 2.49
-5.50 -8.00 2.49
-5.33 -8.11 2.49
-5.17 -8.21 2.49
-5.01 -8.31 2.49
-4.84 -8.41 2.49
-4.67 -8.51 2.49
-4.50 -8.60 2.49
-4.32 -8.69 2.49
-4.15 -8.77 2.49
-3.97 -8.86 2.49
-3.79 -8.93 2.49
-3.61 -9.01 2.49
-3.43 -9.08 2.49
-3.25 -9.15 2.49
-3.06 -9.21 2.49
-2.88 -9.27 2.49
-2.69 -9.32 2.49
-2.50 -9.38 2.49
-2.32 -9.42 2.49
-2.13 -9.47 2.49
-1.94 -9.51 2.49
-1.74 -9.55 2.49
-1.55 -9.58 2.49
-1.36 -9.61 2.49
-1.17 -9.63 2.49
-0.97 -9.65 2.49
-0.78 -9.67 2.49
-0.59 -9.68 2.49
-0.39 -9.69 2.49
-0.20 -9.70 2.49
-0.00 -8.87 2.49
0.18 -8.87 2.49
0.35 -8.86 2.49
0.53 -8.85 2.49
0.71 -8.84 2.49
0.89 -8.82 2.49
1.06 -8.80 2.49
1.24 -8.78 2.49
1.42 -8.75 2.49
1.59 -8.72 2.49
1.76 -8.68 2.49
1.94 -8.65 2.49
2.11 -8.61 2.49
2.23 -8.38 2.44
2.35 -8.16 2.39
2.52 -8.11 2.39
2.68 -8.06 2.39
2.84 -8.00 2.39
3.00 -7.94 2.39
3.16 -7.88 2.39
3.31 -7.81 2.39
3.47 -7.75 2.39
3.62 -7.67 2.39
3.78 -7.60 2.39
3.93 -7.52 2.39
4.08 -7.44 2.39
4.23 -7.36 2.39
4.37 -7.27 2.39
4.52 -7.18 2.39
4.66 -7.09 2.39
4.80 -6.99 2.39
4.94 -6.89 2.39
5.08 -6.79 2.39
5.21 -6.69 2.39
5.34 -6.58 2.39
5.44 -6.43 2.38
5.48 -6.22 2.34
5.49 -5.98 2.29
5.51 -5.77 2.25
5.72 -5.75 2.29
5.97 -5.77 2.34
6.07 -5.64 2.34
6.07 -5.41 2.30
6.07 -5.19 2.26
5.54 -4.55 2.02
5.56 -4.39 2.00
5.56 -4.21 1.97
5.59 -4.06 1.95
5.62 -3.91 1.94
5.67 -3.78 1.93
5.94 -3.79 1.99
6.05 -3.69 2.00
6.07 -3.54 1.99
6.14 -3.41 1.99
6.21 -3.29 1.99
6.27 -3.16 1.99
5.57 -2.67 1.75
5.51 -2.51 1.71
5.48 -2.36 1.69
5.55 -2.26 1.70
5.50 -2.11 1.67
5.62 -2.03 1.69
5.64 -1.91 1.69
5.85 -1.85 1.74
6.28 -1.85 1.85
8.20 -2.24 2.41
8.24 -2.07 2.41
8.28 -1.91 2.41
8.31 -1.74 2.41
8.35 -1.57 2.41
4.89 -0.82 1.41
4.91 -0.72 1.41
4.89 -0.62 1.40
4.89 -0.52 1.40
4.92 -0.42 1.40
4.95 -0.33 1.41
4.94 -0.23 1.40
5.01 -0.13 1.42
5.04 -0.03 1.43
8.48 0.12 2.41
8.47 0.29 2.41
8.13 0.45 2.31
7.92 0.59 2.26
7.92 0.75 2.26
7.92 0.91 2.26
7.91 1.08 2.27
7.91 1.24 2.28
7.89 1.40 2.28
8.31 1.64 2.41
8.27 1.81 2.41
8.24 1.98 2.41
8.19 2.14 2.41
6.11 1.73 1.81
5.86 1.78 1.74
5.61 1.83 1.68
5.54 1.93 1.67
5.56 2.07 1.69
5.59 2.21 1.71
5.57 2.33 1.72
5.67 2.51 1.76
7.67 3.58 2.41
6.27 3.08 1.99
6.20 3.20 1.99
6.14 3.33 1.99
6.07 3.45 1.99
6.00 3.57 1.99
5.99 3.73 2.01
5.99 3.90 2.04
5.99 4.07 2.06
5.99 4.25 2.09
5.99 4.43 2.12
6.69 5.16 2.41
6.59 5.30 2.41
6.48 5.43 2.41
6.37 5.56 2.41
6.25 5.68 2.41
6.10 5.77 2.39
5.98 5.89 2.39
5.86 6.01 2.39
5.74 6.12 2.39
5.61 6.24 2.39
5.49 6.35 2.39
5.36 6.46 2.39
5.23 6.56 2.39
5.10 6.67 2.39
4.96 6.77 2.39
4.82 6.87 2.39
4.68 6.96 2.39
4.54 7.05 2.39
4.40 7.14 2.39
4.26 7.23 2.39
4.11 7.31 2.39
3.96 7.39 2.39
3.81 7.47 2.39
3.66 7.55 2.39
3.51 7.62 2.39
3.36 7.69 2.39
3.20 7.75 2.39
3.04 7.82 2.39
2.89 7.88 2.39
2.73 7.93 2.39
2.57 7.99 2.39
2.41 8.04 2.39
2.25 8.08 2.39
2.11 8.22 2.42
2.00 8.52 2.49
1.83 8.56 2.49
1.66 8.59 2.49
1.49 8.62 2.49
1.31 8.65 2.49
1.14 8.68 2.49
0.96 8.70 2.49
0.79 8.72 2.49
0.61 8.73 2.49
0.44 8.74 2.49
0.26 8.75 2.49
0.09 8.75 2.49
-0.09 8.75 2.49
-0.27 8.75 2.49
-0.44 8.74 2.49
-0.62 8.73 2.49
-0.79 8.72 2.49
-0.97 8.70 2.49
-1.14 8.68 2.49
-1.32 8.66 2.49
-1.49 8.63 2.49
-1.66 8.60 2.49
-1.84 8.57 2.49
-2.01 8.53 2.49
-2.18 8.49 2.49
-2.35 8.44 2.49
-2.52 8.39 2.49
-2.69 8.34 2.49
-2.85 8.29 2.49
-3.02 8.23 2.49
-3.18 8.17 2.49
-3.35 8.10 2.49
-3.51 8.03 2.49
-3.67 7.96 2.49
-3.83 7.89 2.49
-3.99 7.81 2.49
-4.14 7.73 2.49
-4.30 7.65 2.49
-4.45 7.56 2.49
-4.60 7.47 2.49
-4.75 7.38 2.49
-4.90 7.28 2.49
-5.05 7.18 2.49
-5.19 7.08 2.49
-5.33 6.97 2.49
-5.47 6.87 2.49
-5.61 6.76 2.49
-5.74 6.64 2.49
-5.88 6.53 2.49
-5.93 6.32 2.46
-5.93 6.08 2.41
-6.00 5.91 2.39
-6.14 5.80 2.40
-6.24 5.66 2.39
-6.35 5.54 2.39
-6.46 5.41 2.39
-6.57 5.28 2.39
-6.67 5.15 2.39
-6.78 5.01 2.39
-6.88 4.88 2.39
-6.98 4.74 2.39
-7.07 4.60 2.39
-7.16 4.46 2.39
-7.25 4.31 2.39
-7.34 4.17 2.39
-7.42 4.02 2.39
-7.50 3.87 2.39
-7.58 3.72 2.39
-7.65 3.57 2.39
-7.72 3.41 2.39
-7.79 3.26 2.39
-7.86 3.10 2.39
-7.92 2.94 2.39
-7.98 2.78 2.39
-8.03 2.62 2.39
-8.08 2.46 2.39
-8.13 2.30 2.39
-8.18 2.14 2.39
-8.22 1.97 2.39
-8.26 1.81 2.39
-8.30 1.64 2.39
-8.33 1.47 2.39
-8.36 1.31 2.39
-8.38 1.14 2.39
-8.40 0.97 2.39
-8.42 0.80 2.39
-8.44 0.63 2.39
-8.45 0.46 2.39
-8.46 0.29 2.39
-8.47 0.12 2.39
-8.47 -0.05 2.39
-8.47 -0.22 2.39
-8.46 -0.39 2.39
-8.45 -0.56 2.39
-8.44 -0.73 2.39
-8.43 -0.90 2.39
-8.41 -1.06 2.39
-8.38 -1.23 2.39
-8.36 -1.40 2.39
-8.33 -1.57 2.39
-8.30 -1.74 2.39
-8.26 -1.90 2.39
-8.22 -2.07 2.39
-8.18 -2.23 2.39
-8.14 -2.40 2.39
-8.09 -2.56 2.39
-8.03 -2.72 2.39
-7.98 -2.88 2.39
-7.92 -3.04 2.39
-7.86 -3.20 2.39
-7.79 -3.36 2.39
-7.73 -3.51 2.39
-7.65 -3.67 2.39
-7.58 -3.82 2.39
-7.50 -3.97 2.39
-7.42 -4.12 2.39
-7.34 -4.27 2.39
-7.25 -4.42 2.39
-7.16 -4.56 2.39
-7.07 -4.71 2.39
-6.97 -4.85 2.39
-6.88 -4.99 2.39
-6.78 -5.13 2.39
-6.67 -5.26 2.39
-6.57 -5.39 2.39
-6.46 -5.53 2.39
-6.34 -5.65 2.39
-6.23 -5.78 2.39
-6.11 -5.90 2.39
-5.99 -6.03 2.39
-5.87 -6.15 2.39
-5.83 -6.35 2.43
-5.82 -6.61 2.48
-5.73 -6.77 2.49
-5.59 -6.88 2.49
-5.45 -6.99 2.49
-5.31 -7.10 2.49
-5.17 -7.21 2.49
-5.02 -7.31 2.49
-4.88 -7.41 2.49
-4.73 -7.51 2.49
-4.58 -7.60 2.49
-4.42 -7.69 2.49
-4.27 -7.78 2.49
-4.11 -7.86 2.49
-3.95 -7.94 2.49
-3.79 -8.02 2.49
-3.63 -8.10 2.49
-3.47 -8.17 2.49
-3.30 -8.23 2.49
-3.14 -8.30 2.49
-2.97 -8.36 2.49
-2.80 -8.42 2.49
-2.63 -8.47 2.49
-2.46 -8.52 2.49
-2.29 -8.57 2.49
-2.12 -8.62 2.49
-1.94 -8.66 2.49
-1.77 -8.69 2.49
-1.59 -8.73 2.49
-1.42 -8.76 2.49
-1.24 -8.78 2.49
-1.07 -8.81 2.49
-0.89 -8.82 2.49
-0.71 -8.84 2.49
-0.54 -8.85 2.49
-0.36 -8.86 2.49
-0.18 -8.87 2.49
-0.00 -8.16 2.49
0.16 -8.16 2.49
0.33 -8.15 2.49
0.49 -8.14 2.49
0.65 -8.13 2.49
0.82 -8.12 2.49
0.98 -8.10 2.49
1.14 -8.08 2.49
1.30 -8.05 2.49
1.46 -8.02 2.49
1.62 -7.99 2.49
1.78 -7.96 2.49
1.94 -7.92 2.49
2.10 -7.88 2.49
2.23 -7.73 2.46
2.31 -7.46 2.39
2.46 -7.41 2.39
2.61 -7.36 2.39
2.76 -7.31 2.39
2.90 -7.25 2.39
3.05 -7.19 2.39
3.19 -7.13 2.39
3.33 -7.06 2.39
3.48 -6.99 2.39
3.61 -6.92 2.39
3.75 -6.85 2.39
3.89 -6.77 2.39
4.02 -6.69 2.39
4.16 -6.61 2.39
4.29 -6.52 2.39
4.42 -6.43 2.39
4.54 -6.34 2.39
4.67 -6.25 2.39
4.79 -6.15 2.39
4.92 -6.05 2.39
5.04 -5.95 2.39
5.15 -5.85 2.39
5.27 -5.75 2.39
5.38 -5.64 2.39
5.49 -5.53 2.39
5.60 -5.42 2.39
5.71 -5.30 2.39
5.82 -5.19 2.39
5.92 -5.07 2.39
5.55 -4.57 2.21
5.52 -4.36 2.16
5.54 -4.19 2.13
5.52 -4.01 2.09
5.61 -3.90 2.10
5.65 -3.76 2.09
5.94 -3.79 2.17
6.06 -3.69 2.18
6.05 -3.53 2.15
6.05 -3.36 2.13
6.05 -3.21 2.10
6.05 -3.05 2.08
6.05 -2.90 2.06
5.50 -2.50 1.86
5.48 -2.36 1.83
5.54 -2.26 1.84
5.57 -2.14 1.83
5.62 -2.03 1.84
5.66 -1.92 1.84
5.97 -1.89 1.93
6.19 -1.82 1.99
6.23 -1.70 1.99
6.26 -1.57 1.99
6.29 -1.45 1.99
7.65 -1.60 2.41
7.68 -1.45 2.41
4.91 -0.82 1.53
4.93 -0.73 1.53
4.87 -0.62 1.51
4.85 -0.52 1.50
4.91 -0.42 1.52
4.84 -0.32 1.50
4.99 -0.23 1.54
5.02 -0.13 1.55
5.05 -0.03 1.56
7.81 0.11 2.41
7.80 0.27 2.41
7.79 0.43 2.41
7.78 0.58 2.41
7.77 0.74 2.41
7.75 0.89 2.41
7.73 1.05 2.41
7.71 1.20 2.41
7.68 1.36 2.41
7.65 1.51 2.41
7.62 1.67 2.41
6.26 1.50 1.99
6.23 1.63 1.99
6.19 1.75 1.99
5.94 1.81 1.92
5.70 1.86 1.85
5.53 1.93 1.81
5.56 2.07 1.83
5.58 2.20 1.85
5.61 2.34 1.88
5.68 2.51 1.92
6.00 2.80 2.05
6.00 2.95 2.07
6.00 3.10 2.09
6.00 3.25 2.11
6.00 3.41 2.13
6.00 3.57 2.16
6.00 3.73 2.18
5.99 3.90 2.21
5.99 4.07 2.24
5.99 4.25 2.27
5.99 4.43 2.30
6.12 4.72 2.39
6.02 4.84 2.39
5.93 4.96 2.39
5.82 5.08 2.39
5.72 5.20 2.39
5.62 5.31 2.39
5.51 5.42 2.39
5.40 5.53 2.39
5.28 5.64 2.39
5.17 5.74 2.39
5.05 5.85 2.39
4.93 5.95 2.39
4.81 6.04 2.39
4.69 6.14 2.39
4.57 6.23 2.39
4.44 6.32 2.39
4.31 6.41 2.39
4.18 6.49 2.39
4.05 6.58 2.39
3.92 6.66 2.39
3.78 6.73 2.39
3.65 6.81 2.39
3.51 6.88 2.39
3.37 6.95 2.39
3.23 7.02 2.39
3.09 7.08 2.39
2.95 7.14 2.39
2.80 7.20 2.39
2.66 7.25 2.39
2.51 7.30 2.39
2.36 7.35 2.39
2.22 7.40 2.39
2.11 7.59 2.44
2.00 7.81 2.49
1.84 7.84 2.49
1.69 7.88 2.49
1.53 7.91 2.49
1.37 7.94 2.49
1.21 7.97 2.49
1.05 7.99 2.49
0.89 8.01 2.49
0.73 8.03 2.49
0.56 8.04 2.49
0.40 8.05 2.49
0.24 8.06 2.49
0.08 8.06 2.49
-0.08 8.06 2.49
-0.24 8.06 2.49
-0.41 8.05 2.49
-0.57 8.04 2.49
-0.73 8.03 2.49
-0.89 8.01 2.49
-1.05 7.99 2.49
-1.21 7.97 2.49
-1.37 7.95 2.49
-1.53 7.92 2.49
-1.69 7.89 2.49
-1.85 7.85 2.49
-2.01 7.81 2.49
-2.16 7.77 2.49
-2.32 7.73 2.49
-2.47 7.68 2.49
-2.63 7.63 2.49
-2.78 7.58 2.49
-2.93 7.52 2.49
-3.08 7.46 2.49
-3.23 7.40 2.49
-3.38 7.33 2.49
-3.53 7.26 2.49
-3.67 7.19 2.49
-3.82 7.12 2.49
-3.96 7.04 2.49
-4.10 6.96 2.49
-4.24 6.88 2.49
-4.38 6.79 2.49
-4.51 6.70 2.49
-4.65 6.61 2.49
-4.78 6.52 2.49
-4.91 6.42 2.49
-5.04 6.32 2.49
-5.16 6.22 2.49
-5.29 6.11 2.49
-5.41 6.01 2.49
-5.53 5.90 2.49
-5.65 5.79 2.49
-5.77 5.67 2.49
-5.88 5.56 2.49
-5.92 5.38 2.47
-5.92 5.17 2.42
-5.95 4.98 2.39
-6.05 4.86 2.39
-6.14 4.74 2.39
-6.24 4.61 2.39
-6.33 4.49 2.39
-6.42 4.36 2.39
-6.51 4.23 2.39
-6.59 4.10 2.39
-6.67 3.97 2.39
-6.75 3.83 2.39
-6.83 3.70 2.39
-6.90 3.56 2.39
-6.97 3.42 2.39
-7.04 3.28 2.39
-7.11 3.14 2.39
-7.17 3.00 2.39
-7.23 2.85 2.39
-7.29 2.71 2.39
-7.34 2.56 2.39
-7.39 2.41 2.39
-7.44 2.27 2.39
-7.48 2.12 2.39
-7.53 1.97 2.39
-7.57 1.81 2.39
-7.60 1.66 2.39
-7.63 1.51 2.39
-7.66 1.36 2.39
-7.69 1.20 2.39
-7.71 1.05 2.39
-7.73 0.89 2.39
-7.75 0.74 2.39
-7.77 0.58 2.39
-7.78 0.43 2.39
-7.79 0.27 2.39
-7.79 0.11 2.39
-7.79 -0.04 2.39
-7.79 -0.20 2.39
-7.79 -0.36 2.39
-7.78 -0.51 2.39
-7.77 -0.67 2.39
-7.75 -0.82 2.39
-7.74 -0.98 2.39
-7.72 -1.13 2.39
-7.69 -1.29 2.39
-7.67 -1.44 2.39
-7.64 -1.60 2.39
-7.60 -1.75 2.39
-7.57 -1.90 2.39
-7.53 -2.05 2.39
-7.49 -2.21 2.39
-7.44 -2.36 2.39
-7.39 -2.50 2.39
-7.34 -2.65 2.39
-7.29 -2.80 2.39
-7.23 -2.95 2.39
-7.17 -3.09 2.39
-7.11 -3.23 2.39
-7.04 -3.38 2.39
-6.97 -3.52 2.39
-6.90 -3.66 2.39
-6.83 -3.79 2.39
-6.75 -3.93 2.39
-6.67 -4.07 2.39
-6.59 -4.20 2.39
-6.50 -4.33 2.39
-6.42 -4.46 2.39
-6.33 -4.59 2.39
-6.23 -4.72 2.39
-6.14 -4.84 2.39
-6.05 -4.97 2.40
-5.94 -5.08 2.39
-5.85 -5.21 2.40
-5.84 -5.42 2.43
-5.83 -5.63 2.48
-5.75 -5.78 2.49
-5.64 -5.90 2.49
-5.52 -6.01 2.49
-5.39 -6.12 2.49
-5.27 -6.23 2.49
-5.15 -6.33 2.49
-5.02 -6.43 2.49
-4.89 -6.53 2.49
-4.76 -6.63 2.49
-4.62 -6.73 2.49
-4.49 -6.82 2.49
-4.35 -6.91 2.49
-4.21 -6.99 2.49
-4.07 -7.07 2.49
-3.93 -7.16 2.49
-3.78 -7.23 2.49
-3.64 -7.31 2.49
-3.49 -7.38 2.49
-3.34 -7.45 2.49
-3.19 -7.51 2.49
-3.04 -7.58 2.49
-2.89 -7.63 2.49
-2.73 -7.69 2.49
-2.58 -7.74 2.49
-2.42 -7.79 2.49
-2.26 -7.84 2.49
-2.11 -7.88 2.49
-1.95 -7.93 2.49
-1.79 -7.96 2.49
-1.63 -8.00 2.49
-1.47 -8.03 2.49
-1.31 -8.06 2.49
-1.14 -8.08 2.49
-0.98 -8.10 2.49
-0.82 -8.12 2.49
-0.66 -8.13 2.49
-0.49 -8.14 2.49
-0.33 -8.15 2.49
-0.17 -8.16 2.49
-0.00 -7.55 2.49
0.15 -7.54 2.49
0.30 -7.54 2.49
0.45 -7.53 2.49
0.60 -7.52 2.49
0.75 -7.51 2.49
0.90 -7.49 2.49
1.05 -7.47 2.49
1.20 -7.45 2.49
1.35 -7.42 2.49
1.50 -7.39 2.49
1.65 -7.36 2.49
1.80 -7.32 2.49
1.94 -7.29 2.49
2.09 -7.24 2.49
2.22 -7.17 2.48
2.28 -6.86 2.39
2.42 -6.81 2.39
2.55 -6.76 2.39
2.69 -6.71 2.39
2.82 -6.65 2.39
2.95 -6.59 2.39
3.08 -6.53 2.39
3.21 -6.47 2.39
3.34 -6.40 2.39
3.47 -6.33 2.39
3.60 -6.26 2.39
3.72 -6.19 2.39
3.84 -6.11 2.39
3.97 -6.03 2.39
4.09 -5.95 2.39
4.20 -5.87 2.39
4.32 -5.78 2.39
4.44 -5.69 2.39
4.55 -5.60 2.39
4.66 -5.51 2.39
4.77 -5.41 2.39
4.88 -5.32 2.39
4.98 -5.22 2.39
5.08 -5.11 2.39
5.18 -5.01 2.39
5.28 -4.91 2.39
5.38 -4.80 2.39
5.47 -4.69 2.39
5.57 -4.58 2.39
5.52 -4.35 2.33
5.54 -4.20 2.31
5.47 -3.97 2.24
5.57 -3.87 2.25
5.65 -3.76 2.25
5.93 -3.78 2.33
6.06 -3.69 2.35
6.05 -3.53 2.33
6.05 -3.37 2.30
6.05 -3.21 2.27
5.52 -2.79 2.06
5.54 -2.66 2.04
5.56 -2.53 2.03
5.55 -2.39 2.01
5.57 -2.27 2.00
5.60 -2.15 1.99
5.62 -2.03 1.99
5.64 -1.91 1.98
5.97 -1.89 2.08
6.04 -1.78 2.09
6.04 -1.65 2.08
6.04 -1.52 2.07
6.04 -1.39 2.06
6.04 -1.26 2.05
6.03 -1.14 2.04
4.93 -0.83 1.66
4.95 -0.73 1.66
4.87 -0.62 1.63
4.79 -0.51 1.60
4.91 -0.42 1.64
4.87 -0.32 1.63
4.83 -0.22 1.61
4.96 -0.13 1.65
5.02 -0.03 1.67
6.01 0.09 2.00
6.01 0.21 2.00
6.01 0.33 2.01
6.01 0.45 2.01
6.01 0.57 2.01
6.01 0.69 2.02
6.02 0.82 2.02
6.02 0.94 2.03
6.02 1.06 2.04
6.02 1.19 2.04
6.01 1.32 2.05
6.01 1.44 2.06
6.01 1.57 2.07
6.01 1.70 2.08
5.77 1.76 2.01
5.75 1.88 2.02
5.59 1.95 1.98
5.59 2.08 1.99
5.62 2.22 2.02
5.63 2.35 2.04
5.66 2.50 2.07
6.00 2.80 2.21
6.00 2.95 2.23
6.00 3.10 2.25
6.00 3.25 2.28
6.00 3.41 2.30
6.00 3.57 2.33
6.00 3.73 2.36
5.99 3.90 2.39
5.92 4.02 2.39
5.84 4.14 2.39
5.75 4.26 2.39
5.67 4.37 2.39
5.58 4.48 2.39
5.49 4.59 2.39
5.39 4.70 2.39
5.30 4.81 2.39
5.20 4.92 2.39
5.10 5.02 2.39
5.00 5.12 2.39
4.89 5.22 2.39
4.79 5.32 2.39
4.68 5.41 2.39
4.57 5.50 2.39
4.46 5.59 2.39
4.34 5.68 2.39
4.23 5.77 2.39
4.11 5.85 2.39
3.99 5.93 2.39
3.87 6.01 2.39
3.75 6.09 2.39
3.63 6.16 2.39
3.50 6.23 2.39
3.38 6.30 2.39
3.25 6.37 2.39
3.12 6.43 2.39
2.99 6.49 2.39
2.86 6.55 2.39
2.73 6.61 2.39
2.59 6.66 2.39
2.46 6.71 2.39
2.33 6.76 2.39
2.19 6.81 2.39
2.11 7.05 2.46
2.00 7.19 2.49
1.85 7.23 2.49
1.71 7.26 2.49
1.56 7.29 2.49
1.41 7.32 2.49
1.27 7.35 2.49
1.12 7.38 2.49
0.97 7.40 2.49
0.82 7.41 2.49
0.67 7.43 2.49
0.52 7.44 2.49
0.37 7.45 2.49
0.22 7.46 2.49
0.07 7.46 2.49
-0.08 7.46 2.49
-0.23 7.46 2.49
-0.38 7.45 2.49
-0.53 7.44 2.49
-0.68 7.43 2.49
-0.82 7.42 2.49
-0.97 7.40 2.49
-1.12 7.38 2.49
-1.27 7.36 2.49
-1.42 7.33 2.49
-1.56 7.30 2.49
-1.71 7.27 2.49
-1.86 7.23 2.49
-2.00 7.19 2.49
-2.15 7.15 2.49
-2.29 7.11 2.49
-2.43 7.06 2.49
-2.57 7.01 2.49
-2.71 6.96 2.49
-2.85 6.90 2.49
-2.99 6.85 2.49
-3.13 6.79 2.49
-3.26 6.72 2.49
-3.40 6.66 2.49
-3.53 6.59 2.49
-3.66 6.51 2.49
-3.79 6.44 2.49
-3.92 6.36 2.49
-4.05 6.28 2.49
-4.18 6.20 2.49
-4.30 6.12 2.49
-4.42 6.03 2.49
-4.54 5.94 2.49
-4.66 5.85 2.49
-4.78 5.76 2.49
-4.90 5.66 2.49
-5.01 5.56 2.49
-5.12 5.46 2.49
-5.23 5.36 2.49
-5.34 5.25 2.49
-5.44 5.14 2.49
-5.54 5.03 2.49
-5.64 4.92 2.49
-5.74 4.81 2.49
-5.84 4.69 2.49
-5.92 4.56 2.49
-5.91 4.37 2.45
-5.92 4.20 2.42
-5.94 4.04 2.39
-6.02 3.92 2.39
-6.12 3.81 2.40
-6.18 3.67 2.39
-6.25 3.55 2.39
-6.32 3.42 2.39
-6.39 3.29 2.39
-6.45 3.17 2.39
-6.52 3.04 2.39
-6.58 2.91 2.39
-6.64 2.77 2.39
-6.69 2.64 2.39
-6.74 2.51 2.39
-6.79 2.37 2.39
-6.84 2.23 2.39
-6.88 2.10 2.39
-6.93 1.96 2.39
-6.96 1.82 2.39
-7.00 1.68 2.39
-7.03 1.54 2.39
-7.06 1.40 2.39
-7.09 1.25 2.39
-7.12 1.11 2.39
-7.14 0.97 2.39
-7.16 0.83 2.39
-7.17 0.68 2.39
-7.19 0.54 2.39
-7.20 0.39 2.39
-7.20 0.25 2.39
-7.21 0.10 2.39
-7.21 -0.04 2.39
-7.21 -0.18 2.39
-7.20 -0.33 2.39
-7.20 -0.47 2.39
-7.19 -0.62 2.39
-7.17 -0.76 2.39
-7.16 -0.91 2.39
-7.14 -1.05 2.39
-7.12 -1.19 2.39
-7.09 -1.34 2.39
-7.06 -1.48 2.39
-7.03 -1.62 2.39
-7.00 -1.76 2.39
-6.96 -1.90 2.39
-6.93 -2.04 2.39
-6.88 -2.18 2.39
-6.84 -2.32 2.39
-6.79 -2.45 2.39
-6.74 -2.59 2.39
-6.69 -2.73 2.39
-6.63 -2.86 2.39
-6.58 -2.99 2.39
-6.51 -3.12 2.39
-6.45 -3.25 2.39
-6.39 -3.38 2.39
-6.32 -3.51 2.39
-6.25 -3.64 2.39
-6.17 -3.76 2.39
-6.10 -3.88 2.39
-6.02 -4.01 2.39
-5.94 -4.13 2.39
-5.86 -4.25 2.39
-5.85 -4.42 2.42
-5.84 -4.61 2.46
-5.83 -4.79 2.49
-5.73 -4.91 2.49
-5.63 -5.02 2.49
-5.53 -5.13 2.49
-5.43 -5.24 2.49
-5.32 -5.35 2.49
-5.21 -5.46 2.49
-5.10 -5.56 2.49
-4.99 -5.66 2.49
-4.88 -5.76 2.49
-4.76 -5.86 2.49
-4.64 -5.95 2.49
-4.52 -6.04 2.49
-4.40 -6.13 2.49
-4.27 -6.22 2.49
-4.15 -6.31 2.49
-4.02 -6.39 2.49
-3.89 -6.47 2.49
-3.76 -6.54 2.49
-3.63 -6.62 2.49
-3.50 -6.69 2.49
-3.36 -6.76 2.49
-3.23 -6.82 2.49
-3.09 -6.89 2.49
-2.95 -6.95 2.49
-2.81 -7.01 2.49
-2.67 -7.06 2.49
-2.53 -7.11 2.49
-2.38 -7.16 2.49
-2.24 -7.21 2.49
-2.09 -7.25 2.49
-1.95 -7.29 2.49
-1.80 -7.33 2.49
-1.65 -7.37 2.49
-1.51 -7.40 2.49
-1.36 -7.43 2.49
-1.21 -7.45 2.49
-1.06 -7.47 2.49
-0.91 -7.49 2.49
-0.76 -7.51 2.49
