ply
format ascii 1.0
element vertex 2790
property float32 x
property float32 y
property float32 z
end_header
-16.02 -2.09 -2.42
-16.02 -2.42 -2.41
-15.93 -2.73 -2.40
-15.93 -3.06 -2.40
-15.93 -3.40 -2.40
-16.02 -3.75 -2.41
-15.93 -4.07 -2.40
-15.94 -4.41 -2.41
-15.94 -4.76 -2.41
-16.02 -5.14 -2.43
-15.94 -5.46 -2.42
-15.94 -5.82 -2.43
-16.03 -6.22 -2.45
-16.03 -6.60 -2.46
-16.03 -6.97 -2.48
-16.78 -7.70 -2.60
-16.80 -8.13 -2.62
-16.83 -8.56 -2.64
-16.86 -9.01 -2.67
-16.89 -9.46 -2.69
-6.21 -9.48 -1.46
5.86 -4.10 -0.81
5.87 -0.17 -0.76
5.90 -0.05 -0.77
2.88 7.82 -1.32
-25.84 24.31 -5.35
-18.67 7.30 -2.83
-18.60 6.85 -2.79
-18.54 6.40 -2.75
-18.48 5.97 -2.71
-18.42 5.54 -2.67
-18.37 5.13 -2.64
-18.32 4.72 -2.61
-18.27 4.32 -2.58
-18.22 3.92 -2.55
-18.18 3.53 -2.52
-18.14 3.15 -2.50
-18.10 2.77 -2.47
-18.07 2.39 -2.45
-18.04 2.02 -2.43
-18.00 1.65 -2.41
-17.98 1.29 -2.39
-16.13 0.83 -2.13
-16.12 0.51 -2.12
-16.10 0.18 -2.11
-16.09 -0.14 -2.10
-16.07 -0.46 -2.08
-16.06 -0.79 -2.08
-16.05 -1.11 -2.07
-16.04 -1.43 -2.06
-16.03 -1.76 -2.05
-16.03 -2.08 -2.05
-16.02 -2.41 -2.04
-16.02 -2.74 -2.04
-16.02 -3.07 -2.04
-16.01 -3.40 -2.04
-16.01 -3.74 -2.04
-16.02 -4.08 -2.04
-16.02 -4.43 -2.04
-16.02 -4.77 -2.04
-16.03 -5.13 -2.04
-16.04 -5.49 -2.05
-16.05 -5.85 -2.06
-16.06 -6.22 -2.06
-16.07 -6.60 -2.07
-16.08 -6.99 -2.08
-16.10 -7.38 -2.09
-16.11 -7.78 -2.11
-16.13 -8.19 -2.12
-16.16 -8.62 -2.13
-16.18 -9.05 -2.15
-16.20 -9.50 -2.17
-6.21 -9.47 -1.20
5.89 -5.95 -0.72
5.87 -5.69 -0.71
5.87 -5.47 -0.70
5.87 -5.25 -0.69
5.87 -5.04 -0.68
5.87 -4.84 -0.67
5.87 -4.65 -0.67
5.87 -4.46 -0.66
5.87 -4.28 -0.65
5.87 -4.10 -0.65
5.89 -3.94 -0.64
5.90 -3.78 -0.64
5.90 -3.62 -0.64
5.91 -3.46 -0.63
5.92 -3.30 -0.63
5.92 -3.15 -0.63
5.93 -3.01 -0.62
5.93 -2.86 -0.62
5.93 -2.72 -0.62
5.93 -2.57 -0.62
5.93 -2.43 -0.62
5.93 -2.30 -0.61
5.93 -2.16 -0.61
5.93 -2.03 -0.61
5.93 -1.89 -0.61
5.93 -1.76 -0.61
5.93 -1.64 -0.61
5.93 -1.51 -0.61
5.93 -1.38 -0.61
5.93 -1.26 -0.61
5.94 -1.13 -0.61
5.94 -1.01 -0.62
5.94 -0.89 -0.62
5.94 -0.77 -0.62
5.94 -0.65 -0.62
5.94 -0.53 -0.62
5.94 -0.41 -0.63
5.93 -0.29 -0.63
5.87 -0.17 -0.62
5.91 -0.05 -0.63
5.91 0.07 -0.64
5.91 0.19 -0.64
5.90 0.31 -0.64
5.90 0.43 -0.65
5.89 0.54 -0.65
5.88 0.66 -0.65
5.88 0.78 -0.66
5.88 0.90 -0.66
5.88 1.02 -0.67
5.88 1.15 -0.68
5.88 1.27 -0.68
5.88 1.39 -0.69
5.88 1.52 -0.70
5.88 1.65 -0.70
5.89 1.78 -0.71
5.91 1.91 -0.72
5.92 2.05 -0.73
5.89 3.81 -0.86
2.88 7.82 -1.12
-20.96 24.15 -4.15
-20.54 22.72 -3.96
-21.36 22.70 -4.02
-22.36 22.82 -4.11
-23.40 22.94 -4.20
-24.51 23.08 -4.30
-25.68 23.22 -4.41
-26.92 23.38 -4.52
-28.24 23.55 -4.65
-17.75 6.95 -2.26
-17.70 6.53 -2.22
-17.65 6.11 -2.19
-17.60 5.70 -2.16
-17.55 5.29 -2.13
-17.51 4.90 -2.10
-17.47 4.51 -2.07
-17.43 4.13 -2.05
-17.39 3.75 -2.03
-17.35 3.38 -2.00
-17.32 3.02 -1.98
-17.29 2.66 -1.96
-17.26 2.30 -1.94
-17.23 1.94 -1.92
-17.20 1.59 -1.91
-17.18 1.24 -1.89
-15.62 0.81 -1.71
-15.55 0.50 -1.69
-15.53 0.19 -1.68
-15.52 -0.13 -1.67
-15.51 -0.44 -1.66
-15.49 -0.75 -1.65
-15.48 -1.06 -1.64
-15.47 -1.37 -1.63
-15.47 -1.68 -1.63
-15.46 -2.00 -1.62
-15.45 -2.31 -1.61
-15.45 -2.63 -1.61
-15.44 -2.95 -1.61
-15.44 -3.27 -1.60
-15.44 -3.59 -1.60
-15.44 -3.92 -1.60
-15.44 -4.25 -1.60
-15.44 -4.59 -1.60
-15.44 -4.93 -1.60
-15.44 -5.27 -1.60
-15.45 -5.62 -1.60
-15.45 -5.98 -1.61
-15.46 -6.34 -1.61
-15.47 -6.71 -1.62
-15.47 -7.08 -1.62
-15.48 -7.47 -1.63
-15.50 -7.86 -1.64
-15.51 -8.26 -1.65
-15.52 -8.67 -1.66
-15.54 -9.09 -1.67
-15.64 -9.58 -1.69
-23.38 -34.13 -3.45
-6.21 -9.47 -0.94
-20.89 -33.27 -3.25
-20.32 -33.86 -3.25
-19.75 -34.45 -3.26
-19.17 -35.05 -3.27
-18.59 -35.67 -3.28
-18.01 -36.30 -3.29
-17.41 -36.94 -3.31
-16.81 -37.60 -3.33
-16.20 -38.27 -3.35
-15.58 -38.96 -3.37
-14.95 -39.67 -3.39
2.20 -8.27 -0.48
2.34 -8.12 -0.48
5.88 -10.75 -0.72
5.86 -10.22 -0.70
5.86 -9.76 -0.68
5.86 -9.33 -0.66
5.88 -8.96 -0.64
5.90 -8.61 -0.63
5.92 -8.28 -0.62
5.92 -7.94 -0.61
5.92 -7.61 -0.59
5.92 -7.31 -0.58
5.92 -7.02 -0.57
5.92 -6.74 -0.56
5.92 -6.47 -0.55
5.93 -6.22 -0.54
5.93 -5.97 -0.54
5.93 -5.74 -0.53
5.93 -5.51 -0.52
5.93 -5.30 -0.52
5.93 -5.09 -0.51
5.93 -4.88 -0.51
5.93 -4.69 -0.50
5.93 -4.50 -0.50
5.93 -4.31 -0.49
5.87 -4.09 -0.48
5.93 -3.96 -0.49
5.93 -3.79 -0.48
5.93 -3.63 -0.48
5.93 -3.47 -0.48
5.93 -3.31 -0.48
5.93 -3.15 -0.48
5.93 -3.00 -0.47
5.93 -2.86 -0.47
5.93 -2.71 -0.47
5.93 -2.57 -0.47
5.93 -2.43 -0.47
5.93 -2.29 -0.47
5.93 -2.16 -0.47
5.93 -2.02 -0.47
5.93 -1.89 -0.47
5.93 -1.76 -0.47
5.93 -1.63 -0.47
5.93 -1.50 -0.47
5.93 -1.38 -0.47
5.93 -1.25 -0.48
5.94 -1.13 -0.48
5.94 -1.01 -0.48
5.94 -0.88 -0.48
5.94 -0.76 -0.48
5.94 -0.64 -0.49
5.94 -0.52 -0.49
5.94 -0.40 -0.49
5.94 -0.28 -0.49
5.87 -0.16 -0.49
5.92 -0.04 -0.50
5.94 0.07 -0.50
5.94 0.19 -0.51
5.94 0.31 -0.51
5.94 0.43 -0.52
5.94 0.55 -0.52
5.94 0.67 -0.52
5.94 0.79 -0.53
5.94 0.92 -0.53
5.94 1.04 -0.54
5.94 1.16 -0.55
5.94 1.29 -0.55
5.94 1.41 -0.56
5.94 1.54 -0.56
5.94 1.67 -0.57
5.94 1.80 -0.58
5.94 1.93 -0.58
5.94 2.06 -0.59
5.94 2.19 -0.60
5.94 2.33 -0.61
5.94 2.47 -0.62
5.94 2.61 -0.62
5.92 2.75 -0.63
5.91 2.89 -0.64
5.90 3.03 -0.65
5.89 3.17 -0.66
5.89 3.33 -0.67
5.89 3.49 -0.68
5.89 3.65 -0.69
5.89 3.81 -0.70
5.91 4.00 -0.72
2.87 7.82 -0.93
-14.36 23.24 -3.00
-15.06 23.30 -3.04
-15.77 23.37 -3.08
-16.52 23.44 -3.12
-17.29 23.51 -3.16
-18.09 23.59 -3.21
-18.92 23.67 -3.26
-20.83 25.02 -3.50
-21.16 24.40 -3.45
-21.16 23.43 -3.36
-21.16 22.50 -3.28
-21.15 21.60 -3.20
-22.11 21.69 -3.26
-23.11 21.79 -3.33
-24.18 21.89 -3.41
-25.31 22.00 -3.49
-26.50 22.12 -3.58
-27.77 22.24 -3.67
-29.12 22.38 -3.77
-30.57 22.53 -3.88
-40.73 21.96 -4.57
-40.62 20.86 -4.49
-40.52 19.79 -4.41
-40.42 18.74 -4.33
-40.32 17.72 -4.26
-17.04 7.08 -1.77
-17.04 6.69 -1.75
-17.04 6.30 -1.73
-17.04 5.91 -1.70
-17.04 5.53 -1.68
-17.04 5.15 -1.66
-17.04 4.78 -1.64
-17.04 4.41 -1.62
-17.04 4.05 -1.61
-17.05 3.69 -1.59
-17.05 3.34 -1.57
-17.05 2.98 -1.56
-17.05 2.63 -1.54
-17.05 2.28 -1.53
-17.05 1.93 -1.51
-17.05 1.59 -1.50
-17.05 1.24 -1.49
-17.19 0.91 -1.49
-15.02 0.49 -1.29
-15.00 0.19 -1.28
-14.99 -0.11 -1.27
-14.98 -0.41 -1.26
-14.97 -0.71 -1.25
-14.96 -1.01 -1.24
-14.95 -1.31 -1.24
-14.94 -1.62 -1.23
-14.93 -1.92 -1.22
-14.92 -2.22 -1.22
-14.92 -2.53 -1.21
-14.91 -2.84 -1.21
-14.91 -3.15 -1.20
-14.90 -3.46 -1.20
-14.90 -3.78 -1.19
-14.90 -4.09 -1.19
-14.89 -4.42 -1.19
-14.89 -4.74 -1.19
-14.89 -5.07 -1.19
-14.89 -5.41 -1.19
-14.89 -5.75 -1.19
-14.89 -6.10 -1.19
-14.90 -6.45 -1.19
-14.90 -6.81 -1.19
-14.90 -7.18 -1.19
-14.91 -7.55 -1.20
-14.92 -7.93 -1.20
-14.92 -8.33 -1.21
-14.93 -8.73 -1.21
-14.94 -9.14 -1.22
-23.44 -34.19 -2.52
-6.21 -9.46 -0.68
-19.71 -31.38 -2.23
-19.17 -31.92 -2.22
-18.63 -32.47 -2.23
-18.08 -33.02 -2.23
-17.52 -33.59 -2.23
-16.96 -34.17 -2.24
-16.39 -34.76 -2.24
-15.82 -35.36 -2.25
-15.24 -35.98 -2.26
-14.65 -36.60 -2.27
-14.05 -37.25 -2.29
-13.43 -37.91 -2.30
5.90 -24.05 -0.83
2.20 -8.27 -0.29
2.35 -8.16 -0.29
5.84 -18.84 -0.67
5.87 -17.68 -0.64
5.91 -16.65 -0.61
5.91 -15.65 -0.58
5.91 -14.76 -0.55
5.91 -13.94 -0.53
5.91 -13.20 -0.51
5.91 -12.53 -0.49
5.91 -11.90 -0.48
5.92 -11.33 -0.46
5.92 -10.80 -0.45
5.92 -10.31 -0.44
5.92 -9.84 -0.42
5.92 -9.41 -0.41
5.92 -9.01 -0.40
5.92 -8.63 -0.40
5.86 -8.19 -0.38
5.92 -7.93 -0.38
5.92 -7.61 -0.38
5.92 -7.30 -0.37
5.92 -7.01 -0.36
5.92 -6.73 -0.36
5.92 -6.47 -0.35
5.93 -6.21 -0.35
5.93 -5.97 -0.35
5.93 -5.73 -0.34
5.93 -5.51 -0.34
5.93 -5.29 -0.34
5.93 -5.08 -0.33
5.93 -4.88 -0.33
5.93 -4.68 -0.33
5.93 -4.49 -0.33
5.93 -4.31 -0.33
5.87 -4.09 -0.32
5.93 -3.96 -0.33
5.93 -3.79 -0.32
5.93 -3.62 -0.32
5.93 -3.46 -0.32
5.93 -3.30 -0.32
5.93 -3.15 -0.32
5.93 -3.00 -0.32
5.93 -2.85 -0.32
5.93 -2.71 -0.32
5.93 -2.56 -0.32
5.93 -2.42 -0.33
5.93 -2.29 -0.33
5.93 -2.15 -0.33
5.93 -2.02 -0.33
5.93 -1.89 -0.33
5.93 -1.76 -0.33
5.93 -1.63 -0.33
5.93 -1.50 -0.33
5.93 -1.37 -0.34
5.93 -1.25 -0.34
5.94 -1.13 -0.34
5.94 -1.00 -0.34
5.94 -0.88 -0.35
5.94 -0.76 -0.35
5.94 -0.64 -0.35
5.94 -0.52 -0.35
5.94 -0.40 -0.36
5.94 -0.28 -0.36
5.87 -0.16 -0.36
5.92 -0.04 -0.36
5.94 0.08 -0.37
5.94 0.20 -0.37
5.94 0.32 -0.38
5.94 0.44 -0.38
5.94 0.56 -0.38
5.94 0.68 -0.39
5.94 0.80 -0.39
5.94 0.92 -0.40
5.94 1.04 -0.40
5.94 1.17 -0.41
5.94 1.29 -0.41
5.94 1.42 -0.42
5.94 1.54 -0.42
5.94 1.67 -0.43
5.94 1.80 -0.44
5.94 1.93 -0.44
5.94 2.06 -0.45
5.94 2.20 -0.46
5.94 2.34 -0.46
5.94 2.47 -0.47
5.94 2.62 -0.48
5.94 2.76 -0.49
5.94 2.91 -0.49
5.94 3.06 -0.50
5.94 3.21 -0.51
5.94 3.37 -0.52
5.94 3.52 -0.53
5.94 3.69 -0.54
5.89 3.82 -0.55
5.95 4.03 -0.56
5.95 4.21 -0.57
5.95 4.39 -0.59
5.95 4.57 -0.60
5.95 4.77 -0.61
5.95 4.97 -0.62
5.92 5.15 -0.64
5.90 5.35 -0.65
5.89 5.56 -0.66
5.89 5.79 -0.68
5.89 6.02 -0.70
5.91 6.29 -0.72
5.97 7.79 -0.84
2.87 7.82 -0.74
-14.36 24.33 -2.47
-14.36 23.26 -2.38
-14.26 22.09 -2.28
-14.93 22.14 -2.31
-15.62 22.18 -2.33
-16.33 22.23 -2.36
-17.07 22.28 -2.40
-17.84 22.34 -2.43
-18.63 22.40 -2.47
-19.46 22.46 -2.50
-20.33 22.53 -2.54
-21.16 22.52 -2.58
-21.16 21.64 -2.51
-20.95 20.58 -2.43
-21.88 20.64 -2.47
-22.85 20.71 -2.52
-23.88 20.78 -2.58
-24.96 20.86 -2.63
-26.11 20.94 -2.69
-8.52 6.55 -0.86
-28.63 21.13 -2.83
-30.02 21.23 -2.91
-39.25 22.22 -3.46
-39.16 21.14 -3.39
-39.07 20.09 -3.32
-38.99 19.07 -3.26
-38.91 18.07 -3.20
-38.84 17.10 -3.14
-17.21 7.17 -1.37
-17.18 6.75 -1.35
-17.18 6.36 -1.33
-17.18 5.97 -1.31
-17.18 5.59 -1.29
-17.19 5.21 -1.27
-17.19 4.83 -1.25
-17.19 4.46 -1.24
-17.19 4.10 -1.22
-17.19 3.73 -1.20
-17.19 3.37 -1.19
-17.19 3.02 -1.17
-17.19 2.66 -1.16
-17.19 2.31 -1.15
-17.19 1.96 -1.13
-17.19 1.61 -1.12
-17.19 1.27 -1.11
-17.19 0.92 -1.10
-17.19 0.57 -1.09
-14.96 0.20 -0.94
-14.96 -0.10 -0.93
-14.96 -0.40 -0.92
-14.96 -0.70 -0.91
-14.96 -1.00 -0.90
-14.96 -1.31 -0.90
-14.96 -1.61 -0.89
-14.96 -1.91 -0.88
-14.96 -2.22 -0.88
-14.96 -2.53 -0.87
-14.96 -2.84 -0.87
-14.96 -3.15 -0.86
-14.96 -3.46 -0.86
-15.01 -3.79 -0.85
-15.09 -4.14 -0.85
-15.16 -4.49 -0.85
-15.22 -4.84 -0.85
-15.28 -5.20 -0.85
-15.34 -5.56 -0.85
-15.38 -5.93 -0.85
-15.42 -6.30 -0.85
-14.97 -6.47 -0.83
-15.48 -7.06 -0.85
-15.50 -7.45 -0.85
-15.51 -7.85 -0.85
-15.52 -8.24 -0.85
-15.32 -8.53 -0.84
-14.97 -8.74 -0.82
-23.50 -34.25 -1.58
-6.21 -9.46 -0.43
-19.97 -31.77 -1.41
-19.38 -32.25 -1.40
-18.89 -32.90 -1.40
-18.40 -33.60 -1.40
-17.84 -34.17 -1.40
-17.00 -34.23 -1.38
-16.43 -34.81 -1.38
-16.08 -35.93 -1.40
-15.38 -36.27 -1.39
-14.79 -36.93 -1.40
-14.25 -37.77 -1.41
5.81 -48.05 -0.51
5.86 -41.44 -0.44
5.84 -36.05 -0.39
5.85 -32.05 -0.35
5.88 -28.92 -0.32
5.89 -26.24 -0.30
5.89 -24.00 -0.28
2.20 -8.26 -0.10
2.34 -8.12 -0.10
5.90 -19.01 -0.23
5.90 -17.76 -0.22
5.91 -16.64 -0.21
5.91 -15.64 -0.20
5.91 -14.75 -0.20
5.91 -13.93 -0.19
5.91 -13.19 -0.19
5.91 -12.52 -0.18
5.91 -11.90 -0.18
5.92 -11.32 -0.17
5.92 -10.79 -0.17
5.92 -10.30 -0.17
5.92 -9.84 -0.17
5.92 -9.41 -0.16
5.92 -9.00 -0.16
5.92 -8.62 -0.16
5.86 -8.18 -0.16
5.92 -7.92 -0.16
5.92 -7.60 -0.16
5.92 -7.29 -0.16
5.92 -7.00 -0.16
5.92 -6.73 -0.16
5.92 -6.46 -0.16
5.93 -6.21 -0.16
5.93 -5.96 -0.16
5.93 -5.73 -0.16
5.93 -5.50 -0.16
5.93 -5.29 -0.16
5.93 -5.08 -0.16
5.93 -4.87 -0.16
5.93 -4.68 -0.16
5.93 -4.49 -0.16
5.93 -4.31 -0.16
5.87 -4.08 -0.16
5.93 -3.95 -0.16
5.93 -3.78 -0.17
5.93 -3.62 -0.17
5.93 -3.46 -0.17
5.93 -3.30 -0.17
5.93 -3.15 -0.17
5.93 -2.99 -0.17
5.93 -2.85 -0.18
5.93 -2.70 -0.18
5.93 -2.56 -0.18
5.93 -2.42 -0.18
5.93 -2.28 -0.18
5.93 -2.15 -0.19
5.93 -2.01 -0.19
5.93 -1.88 -0.19
5.93 -1.75 -0.19
5.93 -1.62 -0.19
5.93 -1.50 -0.20
5.93 -1.37 -0.20
5.93 -1.25 -0.20
5.94 -1.12 -0.20
5.94 -1.00 -0.21
5.94 -0.88 -0.21
5.94 -0.76 -0.21
5.94 -0.63 -0.22
5.94 -0.51 -0.22
5.94 -0.39 -0.22
5.94 -0.27 -0.23
5.87 -0.15 -0.23
5.94 -0.04 -0.23
5.94 0.08 -0.24
5.94 0.20 -0.24
5.94 0.32 -0.24
5.94 0.44 -0.25
5.94 0.56 -0.25
5.94 0.68 -0.25
5.94 0.80 -0.26
5.94 0.92 -0.26
5.94 1.05 -0.27
5.94 1.17 -0.27
5.94 1.29 -0.28
5.94 1.42 -0.28
5.94 1.55 -0.29
5.94 1.67 -0.29
5.94 1.80 -0.30
5.94 1.94 -0.30
5.94 2.07 -0.31
5.94 2.20 -0.31
5.94 2.34 -0.32
5.94 2.48 -0.32
5.94 2.62 -0.33
5.94 2.76 -0.34
5.94 2.91 -0.34
5.94 3.06 -0.35
5.94 3.21 -0.36
5.94 3.37 -0.37
5.94 3.53 -0.37
5.94 3.69 -0.38
5.88 3.82 -0.39
5.95 4.03 -0.40
5.95 4.21 -0.41
5.95 4.39 -0.42
5.95 4.58 -0.43
5.95 4.77 -0.44
5.95 4.97 -0.45
5.95 5.18 -0.46
5.95 5.39 -0.47
5.95 5.62 -0.48
5.95 5.85 -0.50
5.95 6.09 -0.51
5.95 6.34 -0.53
5.95 6.60 -0.54
5.95 6.87 -0.56
5.95 7.16 -0.57
5.95 7.46 -0.59
5.96 7.79 -0.61
5.94 8.09 -0.63
5.91 8.40 -0.65
5.90 8.75 -0.67
5.90 9.14 -0.69
5.92 9.60 -0.72
2.87 7.81 -0.56
-5.44 35.79 -2.47
-14.30 25.41 -1.89
-14.36 24.35 -1.83
-14.36 23.27 -1.76
-14.36 22.26 -1.70
-14.36 21.31 -1.64
-15.00 21.31 -1.65
-15.65 21.32 -1.67
-16.32 21.32 -1.68
-17.01 21.32 -1.70
-17.72 21.32 -1.72
-18.46 21.32 -1.74
-19.22 21.32 -1.76
-20.02 21.32 -1.78
-20.86 21.35 -1.80
-21.16 20.81 -1.78
-20.80 19.64 -1.71
-21.67 19.65 -1.73
-22.61 19.69 -1.76
-23.60 19.74 -1.79
-8.63 6.93 -0.64
-8.78 6.76 -0.64
-8.80 6.50 -0.62
-28.18 19.95 -1.95
-29.51 20.02 -2.00
-30.93 20.09 -2.05
-10.36 6.44 -0.67
-10.61 6.30 -0.67
-37.77 21.41 -2.34
-37.70 20.39 -2.29
-37.64 19.38 -2.24
-37.58 18.41 -2.20
-37.52 17.45 -2.15
-37.46 16.52 -2.10
-17.22 7.19 -0.95
-17.18 6.77 -0.93
-16.83 6.24 -0.89
-16.83 5.86 -0.88
-16.83 5.48 -0.86
-16.83 5.11 -0.85
-16.83 4.74 -0.83
-16.83 4.38 -0.82
-16.83 4.02 -0.80
-16.83 3.67 -0.79
-16.83 3.32 -0.78
-16.83 2.97 -0.76
-16.83 2.62 -0.75
-16.83 2.27 -0.74
-16.83 1.93 -0.73
-16.83 1.59 -0.72
-16.84 1.25 -0.71
-17.19 0.93 -0.71
-17.19 0.58 -0.70
-15.00 0.21 -0.60
-15.86 -0.10 -0.63
-15.86 -0.42 -0.62
-15.96 -0.74 -0.61
-15.96 -1.06 -0.60
-15.96 -1.38 -0.60
-15.96 -1.71 -0.59
-15.87 -2.02 -0.58
-15.87 -2.34 -0.57
-15.87 -2.67 -0.56
-15.87 -3.00 -0.55
-15.87 -3.33 -0.55
-15.99 -3.69 -0.54
-15.99 -4.03 -0.54
-15.99 -4.37 -0.53
-15.99 -4.72 -0.52
-15.94 -5.06 -0.52
-15.87 -5.39 -0.51
-15.87 -5.74 -0.50
-15.87 -6.11 -0.50
-15.87 -6.48 -0.49
-15.07 -6.50 -0.46
-15.95 -7.27 -0.48
-15.96 -7.66 -0.48
-15.97 -8.06 -0.47
-15.88 -8.42 -0.47
-15.88 -8.84 -0.46
-15.07 -8.79 -0.44
-14.42 -15.72 -0.39
-23.56 -34.31 -0.65
-6.22 -9.45 -0.17
-19.98 -31.76 -0.56
-19.39 -32.24 -0.55
-18.89 -32.88 -0.54
-18.41 -33.59 -0.54
-17.05 -32.64 -0.51
-16.28 -32.76 -0.49
-15.71 -33.25 -0.49
-15.15 -33.81 -0.48
-15.49 -36.52 -0.51
-14.88 -37.13 -0.50
-14.26 -37.76 -0.50
5.82 -48.05 0.58
5.86 -41.41 0.50
5.84 -36.05 0.43
5.85 -32.05 0.38
5.88 -28.91 0.34
5.89 -26.23 0.31
5.89 -23.98 0.28
2.20 -8.25 0.10
2.34 -8.12 0.09
5.90 -19.00 0.22
5.90 -17.74 0.20
5.91 -16.63 0.19
5.91 -15.63 0.17
5.91 -14.73 0.16
5.91 -13.92 0.15
5.91 -13.18 0.14
5.91 -12.51 0.13
5.91 -11.89 0.12
5.92 -11.31 0.11
5.92 -10.78 0.11
5.92 -10.29 0.10
5.92 -9.83 0.09
5.92 -9.40 0.09
5.92 -8.99 0.08
5.92 -8.61 0.08
5.86 -8.17 0.07
5.92 -7.92 0.06
5.92 -7.59 0.06
5.92 -7.29 0.05
5.92 -7.00 0.05
5.92 -6.72 0.05
5.92 -6.45 0.04
5.93 -6.20 0.04
5.93 -5.96 0.03
5.93 -5.72 0.03
5.93 -5.50 0.02
5.93 -5.28 0.02
5.93 -5.07 0.02
5.93 -4.87 0.01
5.93 -4.67 0.01
5.93 -4.48 0.01
5.93 -4.30 0.00
5.87 -4.08 -0.00
5.93 -3.95 -0.00
5.93 -3.78 -0.01
5.93 -3.61 -0.01
5.93 -3.45 -0.01
5.93 -3.30 -0.02
5.93 -3.14 -0.02
5.93 -2.99 -0.02
5.93 -2.84 -0.03
5.93 -2.70 -0.03
5.93 -2.56 -0.03
5.93 -2.42 -0.04
5.93 -2.28 -0.04
5.93 -2.14 -0.04
5.93 -2.01 -0.05
5.93 -1.88 -0.05
5.93 -1.75 -0.05
5.93 -1.62 -0.06
5.93 -1.49 -0.06
5.93 -1.37 -0.06
5.93 -1.24 -0.07
5.94 -1.12 -0.07
5.94 -0.99 -0.07
5.94 -0.87 -0.07
5.94 -0.75 -0.08
5.94 -0.63 -0.08
5.94 -0.51 -0.08
5.94 -0.39 -0.09
5.94 -0.27 -0.09
5.87 -0.15 -0.09
5.94 -0.03 -0.10
5.94 0.09 -0.10
5.94 0.21 -0.10
5.94 0.33 -0.11
5.94 0.44 -0.11
5.94 0.56 -0.12
5.94 0.69 -0.12
5.94 0.81 -0.12
5.94 0.93 -0.13
5.94 1.05 -0.13
5.94 1.17 -0.14
5.94 1.30 -0.14
5.94 1.42 -0.14
5.94 1.55 -0.15
5.94 1.68 -0.15
5.94 1.81 -0.16
5.94 1.94 -0.16
5.94 2.07 -0.17
5.94 2.21 -0.17
5.94 2.34 -0.17
5.94 2.48 -0.18
5.94 2.62 -0.18
5.94 2.77 -0.19
5.94 2.92 -0.20
5.94 3.07 -0.20
5.94 3.22 -0.21
5.94 3.37 -0.21
5.94 3.53 -0.22
5.94 3.70 -0.22
5.88 3.83 -0.23
5.95 4.04 -0.24
5.95 4.21 -0.24
5.95 4.40 -0.25
5.95 4.58 -0.26
5.95 4.78 -0.27
5.95 4.98 -0.27
5.95 5.19 -0.28
5.95 5.40 -0.29
5.95 5.62 -0.30
5.95 5.85 -0.31
5.95 6.09 -0.32
5.95 6.34 -0.33
5.95 6.61 -0.34
5.95 6.88 -0.35
5.95 7.17 -0.36
5.95 7.47 -0.38
5.95 7.78 -0.39
5.95 8.12 -0.40
5.95 8.47 -0.42
5.95 8.84 -0.44
5.96 9.24 -0.45
5.96 9.66 -0.47
5.96 10.11 -0.49
5.96 10.59 -0.51
5.96 11.11 -0.53
5.96 11.67 -0.56
5.96 12.28 -0.59
5.96 12.93 -0.62
5.93 13.57 -0.64
5.91 14.30 -0.68
5.92 15.19 -0.72
2.87 7.81 -0.37
-14.36 25.53 -1.24
-14.36 24.37 -1.19
-14.36 23.29 -1.14
-14.36 22.28 -1.10
-14.45 21.46 -1.06
-15.08 21.46 -1.07
-15.74 21.46 -1.08
-16.41 21.46 -1.08
-17.11 21.46 -1.09
-17.83 21.46 -1.10
-18.57 21.46 -1.11
-19.34 21.47 -1.12
-20.13 21.47 -1.13
-20.96 21.47 -1.14
-21.16 20.82 -1.11
-21.17 20.01 -1.08
-22.04 20.01 -1.09
-8.52 7.43 -0.41
-8.69 7.27 -0.40
-8.84 7.11 -0.40
-8.97 6.92 -0.39
-9.09 6.72 -0.39
-9.00 6.38 -0.37
-29.48 20.02 -1.19
-10.25 6.67 -0.40
-10.53 6.55 -0.40
-37.33 22.20 -1.39
-37.34 21.19 -1.35
-37.40 20.25 -1.32
-37.40 19.29 -1.28
-37.34 18.32 -1.24
-37.41 17.43 -1.21
-37.35 16.50 -1.18
-17.22 7.20 -0.53
-17.18 6.78 -0.51
-16.87 6.27 -0.49
-17.23 6.01 -0.49
-17.32 5.65 -0.48
-17.32 5.27 -0.46
-17.32 4.89 -0.45
-17.32 4.52 -0.44
-17.32 4.15 -0.43
-17.32 3.79 -0.41
-17.32 3.42 -0.40
-17.32 3.06 -0.39
-17.32 2.71 -0.38
-17.32 2.35 -0.37
-17.32 2.00 -0.36
-17.19 1.64 -0.34
-17.19 1.29 -0.33
-17.19 0.94 -0.32
-17.19 0.60 -0.31
-15.05 0.22 -0.26
-15.86 -0.09 -0.27
-15.86 -0.41 -0.26
-15.93 -0.73 -0.25
-16.15 -1.06 -0.25
-16.15 -1.39 -0.24
-15.96 -1.70 -0.23
-15.87 -2.01 -0.22
-15.87 -2.33 -0.21
-15.87 -2.66 -0.20
-15.87 -2.99 -0.19
-15.87 -3.32 -0.18
-15.99 -3.68 -0.17
-15.99 -4.02 -0.17
-15.99 -4.36 -0.16
-15.99 -4.71 -0.15
-15.97 -5.05 -0.14
-15.87 -5.38 -0.13
-15.87 -5.73 -0.12
-15.87 -6.10 -0.11
-15.87 -6.46 -0.11
-15.06 -6.49 -0.09
-16.16 -7.35 -0.09
-16.16 -7.75 -0.08
-15.97 -8.05 -0.07
-15.88 -8.41 -0.06
-15.88 -8.82 -0.05
-15.07 -8.77 -0.04
-37.90 -32.43 0.09
-37.31 -33.25 0.11
-14.42 -15.71 0.09
-23.62 -34.37 0.29
-6.22 -9.45 0.08
-20.09 -31.90 0.29
-19.54 -32.46 0.30
-18.98 -33.01 0.31
-18.42 -33.58 0.32
-17.85 -34.15 0.34
-17.23 -34.63 0.35
-16.66 -35.25 0.36
-16.10 -35.91 0.37
-15.50 -36.51 0.39
-14.89 -37.13 0.40
-14.27 -37.75 0.41
-0.00 -45.57 1.58
0.92 -45.57 1.58
5.82 -48.05 1.67
5.86 -41.38 1.44
5.84 -36.05 1.25
5.86 -32.04 1.12
3.92 -19.26 0.67
5.89 -26.21 0.91
5.89 -23.97 0.84
2.21 -8.27 0.29
2.36 -8.17 0.29
5.90 -18.99 0.67
5.90 -17.73 0.62
5.91 -16.62 0.58
5.91 -15.62 0.55
5.91 -14.72 0.52
5.91 -13.91 0.49
5.91 -13.18 0.47
5.91 -12.50 0.44
5.91 -11.88 0.42
5.92 -11.31 0.40
5.92 -10.78 0.38
5.92 -10.28 0.37
5.92 -9.82 0.35
5.92 -9.39 0.34
5.92 -8.99 0.32
5.92 -8.61 0.31
5.86 -8.16 0.29
5.92 -7.91 0.29
5.92 -7.59 0.28
5.92 -7.28 0.27
5.92 -6.99 0.26
5.92 -6.71 0.25
5.92 -6.45 0.24
5.93 -6.20 0.23
5.93 -5.95 0.22
5.93 -5.72 0.21
5.93 -5.49 0.21
5.93 -5.28 0.20
5.93 -5.07 0.19
5.93 -4.86 0.19
5.93 -4.67 0.18
5.93 -4.48 0.17
5.93 -4.30 0.17
5.87 -4.08 0.16
5.93 -3.94 0.16
5.93 -3.77 0.15
5.93 -3.61 0.15
5.93 -3.45 0.14
5.93 -3.29 0.14
5.93 -3.14 0.13
5.93 -2.99 0.13
5.93 -2.84 0.12
5.93 -2.69 0.12
5.93 -2.55 0.11
5.93 -2.41 0.11
5.93 -2.27 0.10
5.93 -2.14 0.10
5.93 -2.01 0.09
5.93 -1.87 0.09
5.93 -1.74 0.09
5.93 -1.61 0.08
5.93 -1.49 0.08
5.93 -1.36 0.08
5.93 -1.24 0.07
5.94 -1.11 0.07
5.94 -0.99 0.06
5.94 -0.87 0.06
5.94 -0.75 0.06
5.94 -0.63 0.05
5.94 -0.51 0.05
5.94 -0.39 0.05
5.94 -0.27 0.04
5.87 -0.15 0.04
5.94 -0.03 0.04
5.94 0.09 0.03
5.94 0.21 0.03
5.94 0.33 0.03
5.94 0.45 0.02
5.94 0.57 0.02
5.94 0.69 0.02
5.94 0.81 0.01
5.94 0.93 0.01
5.94 1.05 0.00
5.94 1.18 0.00
5.94 1.30 -0.00
5.94 1.43 -0.01
5.94 1.55 -0.01
5.94 1.68 -0.01
5.94 1.81 -0.02
5.94 1.94 -0.02
5.94 2.08 -0.02
5.94 2.21 -0.03
5.94 2.35 -0.03
5.94 2.49 -0.03
5.94 2.63 -0.04
5.94 2.77 -0.04
5.94 2.92 -0.05
5.94 3.07 -0.05
5.94 3.22 -0.05
5.94 3.38 -0.06
5.94 3.54 -0.06
5.94 3.70 -0.07
5.88 3.83 -0.07
5.95 4.04 -0.08
5.95 4.22 -0.08
5.95 4.40 -0.08
5.95 4.59 -0.09
5.95 4.78 -0.09
5.95 4.98 -0.10
5.95 5.19 -0.10
5.95 5.41 -0.11
5.95 5.63 -0.12
5.95 5.86 -0.12
5.95 6.10 -0.13
5.95 6.35 -0.13
5.95 6.61 -0.14
5.95 6.89 -0.15
5.95 7.17 -0.15
5.95 7.47 -0.16
5.94 7.78 -0.17
5.95 8.12 -0.18
5.95 8.48 -0.19
5.95 8.85 -0.20
5.96 9.25 -0.21
5.96 9.67 -0.22
5.96 10.12 -0.23
5.96 10.60 -0.24
5.96 11.12 -0.25
5.96 11.68 -0.26
5.96 12.29 -0.28
5.96 12.94 -0.29
5.96 13.66 -0.31
5.97 14.45 -0.33
5.97 15.32 -0.35
2.86 7.81 -0.18
5.97 17.36 -0.40
5.97 18.57 -0.43
5.93 19.80 -0.46
5.98 21.51 -0.50
5.98 23.33 -0.54
5.99 25.46 -0.59
5.95 27.80 -0.65
5.96 30.85 -0.72
-14.36 25.54 -0.58
-14.36 24.39 -0.55
-14.36 23.31 -0.53
-14.36 22.30 -0.50
-14.44 21.46 -0.48
-15.07 21.46 -0.48
-15.71 21.44 -0.48
-16.42 21.49 -0.48
-17.09 21.46 -0.47
-17.84 21.50 -0.47
-18.55 21.46 -0.47
-19.35 21.50 -0.47
-20.11 21.47 -0.46
-20.94 21.47 -0.46
-21.16 20.84 -0.44
-21.17 20.02 -0.42
-22.02 20.01 -0.42
-8.79 7.67 -0.16
-9.00 7.54 -0.16
-9.14 7.35 -0.15
-9.25 7.14 -0.14
-10.58 7.83 -0.16
-9.87 7.00 -0.14
-8.93 6.07 -0.12
-9.07 5.91 -0.11
-9.32 5.81 -0.11
-9.93 5.91 -0.11
-9.95 5.66 -0.10
-36.66 19.87 -0.35
-36.62 18.91 -0.33
-36.58 17.97 -0.30
-36.55 17.05 -0.28
-36.51 16.15 -0.25
-17.23 7.21 -0.11
-17.18 6.79 -0.10
-16.91 6.29 -0.09
-17.19 6.01 -0.08
-17.32 5.67 -0.07
-17.32 5.28 -0.06
-17.32 4.91 -0.05
-17.32 4.53 -0.03
-17.32 4.16 -0.02
-17.32 3.80 -0.01
-17.32 3.44 -0.00
-17.32 3.08 0.01
-17.32 2.72 0.02
-17.32 2.36 0.03
-17.32 2.01 0.04
-17.19 1.65 0.05
-17.19 1.30 0.06
-17.19 0.95 0.07
-17.19 0.61 0.08
-15.05 0.23 0.07
-15.86 -0.08 0.09
-15.86 -0.40 0.10
-15.93 -0.72 0.11
-16.15 -1.05 0.12
-16.15 -1.38 0.13
-15.96 -1.68 0.14
-15.87 -2.00 0.14
-15.87 -2.32 0.15
-15.87 -2.65 0.16
-15.87 -2.98 0.17
-15.87 -3.31 0.18
-15.99 -3.67 0.20
-15.99 -4.01 0.21
-15.99 -4.35 0.22
-15.99 -4.70 0.23
-15.99 -5.05 0.24
-15.87 -5.36 0.25
-15.87 -5.72 0.26
-15.87 -6.08 0.27
-15.87 -6.45 0.28
-15.06 -6.48 0.28
-16.16 -7.34 0.31
-16.16 -7.73 0.32
-15.98 -8.04 0.33
-15.88 -8.40 0.34
-15.88 -8.81 0.35
-15.06 -8.76 0.35
-19.07 -11.60 0.46
-19.06 -12.13 0.48
-17.04 -11.33 0.44
-16.92 -11.75 0.45
-16.89 -12.24 0.47
-35.84 -28.22 1.07
-13.60 -11.16 0.42
-32.99 -28.20 1.06
-13.28 -11.82 0.44
-30.44 -28.21 1.05
-29.24 -28.21 1.04
-28.09 -28.21 1.04
-26.99 -28.22 1.03
-14.43 -15.71 0.57
-24.90 -28.22 1.03
-23.91 -28.22 1.02
-22.96 -28.22 1.02
-20.37 -28.38 1.02
-20.23 -29.41 1.05
-6.22 -9.45 0.34
-20.10 -31.89 1.13
-19.55 -32.45 1.15
-18.99 -33.00 1.17
-18.43 -33.57 1.19
-17.86 -34.14 1.20
-17.24 -34.62 1.22
-16.67 -35.24 1.24
-16.11 -35.90 1.26
-15.51 -36.50 1.28
-14.93 -37.21 1.30
-14.27 -37.74 1.32
-13.82 -47.85 1.67
-12.79 -47.86 1.67
-10.60 -43.11 1.50
-10.38 -46.23 1.61
-0.00 -43.46 2.49
0.87 -43.45 2.49
1.75 -43.43 2.49
2.51 -41.61 2.38
3.35 -41.58 2.38
4.19 -41.54 2.38
5.03 -41.49 2.38
5.87 -41.43 2.38
5.85 -36.05 2.08
5.86 -32.04 1.85
3.89 -19.11 1.11
4.30 -19.15 1.11
5.89 -23.95 1.39
5.89 -22.05 1.29
5.90 -20.40 1.19
5.90 -18.98 1.11
5.90 -17.72 1.04
5.91 -16.61 0.98
5.91 -15.61 0.93
5.91 -14.71 0.88
5.91 -13.90 0.83
5.91 -13.17 0.79
5.91 -12.49 0.75
5.91 -11.87 0.72
5.92 -11.30 0.69
5.92 -10.77 0.66
5.92 -10.28 0.63
5.92 -9.82 0.61
5.92 -9.38 0.59
5.92 -8.98 0.57
5.92 -8.60 0.55
5.85 -8.15 0.52
5.92 -7.90 0.51
5.92 -7.58 0.49
5.92 -7.28 0.48
5.92 -6.99 0.46
5.92 -6.71 0.45
5.92 -6.44 0.44
5.93 -6.19 0.42
5.93 -5.95 0.41
5.93 -5.71 0.40
5.93 -5.49 0.39
5.93 -5.27 0.38
5.93 -5.06 0.37
5.93 -4.86 0.36
5.93 -4.66 0.35
5.93 -4.47 0.34
5.93 -4.29 0.33
5.87 -4.07 0.32
5.93 -3.94 0.32
5.93 -3.77 0.31
5.93 -3.60 0.30
5.93 -3.44 0.29
5.93 -3.29 0.29
5.93 -3.13 0.28
5.93 -2.98 0.28
5.93 -2.83 0.27
5.93 -2.69 0.26
5.93 -2.55 0.26
5.93 -2.41 0.25
5.93 -2.27 0.25
5.93 -2.13 0.24
5.93 -2.00 0.24
5.93 -1.87 0.23
5.93 -1.74 0.23
5.93 -1.61 0.22
5.93 -1.48 0.22
5.93 -1.36 0.21
5.93 -1.23 0.21
5.94 -1.11 0.20
5.94 -0.99 0.20
5.94 -0.86 0.20
5.94 -0.74 0.19
5.94 -0.62 0.19
5.94 -0.50 0.18
5.94 -0.38 0.18
5.94 -0.26 0.18
5.87 -0.14 0.17
5.94 -0.02 0.17
5.94 0.09 0.17
5.94 0.21 0.16
5.94 0.33 0.16
5.94 0.45 0.16
5.94 0.57 0.15
5.94 0.69 0.15
5.94 0.81 0.15
5.94 0.94 0.14
5.94 1.06 0.14
5.94 1.18 0.14
5.94 1.31 0.13
5.94 1.43 0.13
5.94 1.56 0.13
5.94 1.69 0.13
5.94 1.82 0.12
5.94 1.95 0.12
5.94 2.08 0.12
5.94 2.22 0.12
5.94 2.35 0.11
5.94 2.49 0.11
5.94 2.63 0.11
5.94 2.78 0.11
5.94 2.92 0.10
5.94 3.07 0.10
5.94 3.23 0.10
5.94 3.38 0.10
5.94 3.54 0.09
5.94 3.71 0.09
5.88 3.83 0.09
5.95 4.05 0.09
5.95 4.22 0.08
5.95 4.41 0.08
5.95 4.59 0.08
5.95 4.79 0.08
5.95 4.99 0.08
5.95 5.20 0.07
5.95 5.41 0.07
5.95 5.63 0.07
5.95 5.86 0.07
5.95 6.10 0.06
5.95 6.36 0.06
5.95 6.62 0.06
5.95 6.89 0.06
5.95 7.18 0.06
5.95 7.48 0.05
5.94 7.78 0.05
5.95 8.13 0.05
5.95 8.48 0.05
5.95 8.86 0.04
5.96 9.25 0.04
5.96 9.68 0.04
5.96 10.13 0.04
5.96 10.61 0.04
5.96 11.13 0.03
5.96 11.69 0.03
5.96 12.29 0.03
5.96 12.95 0.03
5.96 13.67 0.02
5.97 14.46 0.02
5.97 15.33 0.02
2.86 7.81 0.01
5.97 17.37 0.01
5.97 18.58 0.01
5.93 19.80 0.01
5.98 21.53 0.01
5.98 23.35 0.00
5.99 25.48 -0.00
5.95 27.80 -0.01
6.00 31.08 -0.01
6.00 34.87 -0.02
6.01 39.66 -0.02
6.03 45.94 -0.03
-14.36 25.56 0.08
-14.36 24.41 0.09
-14.36 23.33 0.09
-14.36 22.31 0.10
-14.43 21.46 0.10
-15.06 21.46 0.11
-15.70 21.44 0.12
-16.41 21.49 0.13
-17.08 21.46 0.14
-17.82 21.50 0.16
-18.54 21.46 0.17
-19.33 21.50 0.19
-20.10 21.47 0.20
-20.92 21.47 0.22
-21.16 20.86 0.23
-21.17 20.04 0.23
-21.99 20.01 0.25
-22.90 20.01 0.27
-9.42 7.90 0.11
-9.45 7.61 0.12
-9.53 7.37 0.12
-8.69 6.44 0.12
-8.72 6.19 0.12
-8.75 5.95 0.12
-8.82 5.75 0.13
-9.02 5.63 0.13
-9.23 5.50 0.14
-30.34 17.27 0.47
-31.22 16.95 0.50
-30.41 15.73 0.50
-25.11 12.35 0.42
-26.88 12.56 0.46
-27.38 12.13 0.48
-17.26 7.24 0.31
-17.18 6.80 0.32
-16.91 6.31 0.32
-17.18 6.02 0.33
-17.32 5.68 0.34
-17.32 5.30 0.35
-17.32 4.92 0.36
-17.32 4.54 0.37
-17.32 4.18 0.38
-17.32 3.81 0.38
-17.32 3.45 0.39
-17.32 3.09 0.40
-17.32 2.73 0.41
-17.32 2.37 0.42
-17.32 2.02 0.43
-17.19 1.66 0.43
-17.19 1.31 0.44
-17.19 0.96 0.45
-17.19 0.62 0.46
-15.05 0.24 0.41
-15.86 -0.07 0.45
-15.86 -0.39 0.45
-15.93 -0.71 0.47
-16.15 -1.04 0.48
-16.15 -1.37 0.49
-15.95 -1.67 0.50
-15.87 -1.99 0.50
-15.87 -2.31 0.52
-15.87 -2.64 0.53
-15.87 -2.97 0.54
-15.87 -3.30 0.55
-15.99 -3.66 0.56
-10.88 -2.72 0.39
-15.99 -4.34 0.59
-15.99 -4.69 0.60
-10.96 -3.45 0.42
-15.87 -5.35 0.62
-15.87 -5.71 0.64
-10.54 -4.03 0.43
-10.52 -4.27 0.44
-10.50 -4.51 0.45
-15.99 -7.25 0.70
-10.88 -5.20 0.49
-10.53 -5.29 0.48
-10.46 -5.52 0.49
-10.34 -5.73 0.50
-10.42 -6.05 0.51
-10.39 -6.32 0.52
-17.60 -11.19 0.91
-10.96 -7.28 0.58
-10.47 -7.26 0.57
-10.37 -7.50 0.58
-10.38 -7.83 0.59
-10.30 -8.10 0.60
-10.40 -8.52 0.62
-10.39 -8.87 0.64
-10.59 -9.41 0.67
-10.95 -10.14 0.71
-10.56 -10.18 0.71
-10.45 -10.48 0.72
-10.48 -10.95 0.74
-11.56 -12.58 0.84
-24.94 -28.25 1.88
-23.95 -28.25 1.86
-23.00 -28.25 1.84
-26.00 -33.28 2.15
-25.11 -33.51 2.15
-20.43 -28.43 1.81
-20.28 -29.46 1.86
-6.22 -9.44 0.59
-20.11 -31.88 1.98
-19.56 -32.44 2.01
-19.00 -33.00 2.03
-18.44 -33.56 2.05
-17.45 -33.34 2.03
-16.50 -33.12 2.00
-15.94 -33.68 2.03
-15.38 -34.24 2.05
-14.68 -34.52 2.06
-14.32 -35.66 2.12
-14.01 -37.01 2.19
-13.63 -38.34 2.26
-12.79 -38.40 2.25
-12.06 -38.80 2.27
-11.40 -39.43 2.30
-10.81 -40.43 2.35
-10.16 -41.31 2.40
-9.26 -41.19 2.39
-8.41 -41.28 2.39
-6.64 -36.30 2.09
-6.72 -41.42 2.39
-5.98 -42.25 2.43
-5.25 -43.32 2.49
-4.37 -43.37 2.49
-3.50 -43.40 2.49
-2.62 -43.43 2.49
-1.75 -43.45 2.49
-0.87 -43.46 2.49
-0.00 -31.15 2.49
0.63 -31.14 2.49
1.25 -31.13 2.49
1.88 -31.11 2.49
2.40 -29.79 2.39
2.21 -21.86 1.75
3.60 -29.71 2.39
4.20 -29.66 2.39
4.80 -29.60 2.39
5.40 -29.53 2.39
3.90 -19.11 1.55
4.30 -19.13 1.55
5.89 -23.94 1.95
5.89 -22.03 1.80
5.90 -20.39 1.67
5.90 -18.96 1.56
5.90 -17.71 1.46
5.91 -16.59 1.38
5.91 -15.60 1.30
5.91 -14.70 1.23
5.91 -13.89 1.17
5.91 -13.16 1.12
5.91 -12.48 1.07
5.91 -11.86 1.02
5.92 -11.29 0.98
5.92 -10.76 0.94
5.92 -10.27 0.90
5.92 -9.81 0.87
5.92 -9.38 0.84
5.92 -8.97 0.81
5.92 -8.59 0.78
5.85 -8.14 0.75
5.92 -7.90 0.73
5.92 -7.58 0.71
5.92 -7.27 0.69
5.92 -6.98 0.67
5.92 -6.70 0.65
5.92 -6.44 0.63
5.93 -6.18 0.62
5.93 -5.94 0.60
5.93 -5.71 0.59
5.93 -5.48 0.57
5.93 -5.27 0.56
5.93 -5.06 0.54
5.93 -4.85 0.53
5.93 -4.66 0.52
5.93 -4.47 0.51
5.93 -4.29 0.50
5.87 -4.07 0.48
5.93 -3.93 0.48
5.93 -3.76 0.47
5.93 -3.60 0.46
5.93 -3.44 0.45
5.93 -3.28 0.44
5.93 -3.13 0.43
5.93 -2.98 0.42
5.93 -2.83 0.42
5.93 -2.69 0.41
5.93 -2.54 0.40
5.93 -2.40 0.40
5.93 -2.27 0.39
5.93 -2.13 0.38
5.93 -2.00 0.38
5.93 -1.87 0.37
5.93 -1.74 0.37
5.93 -1.61 0.36
5.93 -1.48 0.35
5.93 -1.35 0.35
5.93 -1.23 0.34
5.94 -1.11 0.34
5.94 -0.98 0.34
5.94 -0.86 0.33
5.94 -0.74 0.33
5.94 -0.62 0.32
5.94 -0.50 0.32
5.94 -0.38 0.31
5.94 -0.26 0.31
5.87 -0.14 0.30
5.94 -0.02 0.30
5.94 0.10 0.30
5.94 0.22 0.30
5.94 0.34 0.29
5.94 0.46 0.29
5.94 0.58 0.29
5.94 0.70 0.28
5.94 0.82 0.28
5.94 0.94 0.28
5.94 1.06 0.28
5.94 1.19 0.27
5.94 1.31 0.27
5.94 1.44 0.27
5.94 1.56 0.27
5.94 1.69 0.27
5.94 1.82 0.26
5.94 1.95 0.26
5.94 2.09 0.26
5.94 2.22 0.26
5.94 2.36 0.26
5.94 2.50 0.26
5.94 2.64 0.25
5.94 2.78 0.25
5.94 2.93 0.25
5.94 3.08 0.25
5.94 3.23 0.25
5.94 3.39 0.25
5.94 3.55 0.25
5.94 3.71 0.25
5.88 3.84 0.25
5.95 4.05 0.25
5.95 4.23 0.25
5.95 4.41 0.25
5.95 4.60 0.25
5.95 4.79 0.25
5.95 4.99 0.25
5.95 5.20 0.25
5.95 5.42 0.25
5.95 5.64 0.25
5.95 5.87 0.25
5.95 6.11 0.26
5.95 6.36 0.26
5.95 6.62 0.26
5.95 6.90 0.26
5.95 7.18 0.27
5.95 7.49 0.27
5.94 7.78 0.27
5.95 8.14 0.28
5.95 8.49 0.28
5.95 8.86 0.29
5.96 9.26 0.29
5.96 9.68 0.30
5.96 10.13 0.30
5.96 10.62 0.31
5.96 11.14 0.32
5.96 11.70 0.33
5.96 12.30 0.34
5.96 12.96 0.35
5.96 13.68 0.36
5.97 14.47 0.37
5.97 15.34 0.39
2.86 7.81 0.20
5.97 17.38 0.43
5.97 18.60 0.45
5.93 19.80 0.47
5.98 21.54 0.51
5.98 23.37 0.55
5.99 25.50 0.59
5.94 27.80 0.63
6.00 31.10 0.70
6.00 34.89 0.78
6.01 39.69 0.88
6.03 45.98 1.02
-9.76 35.18 0.83
-9.50 31.74 0.76
-9.55 29.73 0.72
-9.47 27.58 0.67
-10.07 27.51 0.68
-9.39 24.15 0.61
-9.78 23.73 0.61
-9.55 21.90 0.57
-9.97 21.67 0.58
-9.67 19.96 0.54
-10.08 19.77 0.55
-10.17 18.13 0.52
-14.36 24.43 0.72
-14.36 23.34 0.71
-14.36 22.33 0.69
-14.41 21.46 0.68
-15.05 21.46 0.70
-10.00 13.67 0.46
-10.07 13.19 0.46
-10.45 13.14 0.47
-10.82 13.06 0.48
-11.13 12.90 0.49
-11.63 12.94 0.50
-12.27 13.12 0.53
-12.62 12.96 0.54
-13.09 12.92 0.55
-13.59 12.88 0.57
-14.38 13.09 0.60
-14.70 12.86 0.61
-15.28 12.83 0.64
-15.85 12.78 0.66
-16.77 12.98 0.69
-17.27 12.81 0.71
-8.62 6.13 0.36
-8.64 5.89 0.36
-8.69 5.67 0.36
-8.87 5.54 0.37
-9.06 5.41 0.38
-22.00 12.54 0.91
-22.69 12.33 0.95
-23.49 12.17 0.98
-24.58 12.11 1.03
-25.91 12.13 1.09
-27.25 12.09 1.15
-28.75 12.08 1.22
-17.18 6.82 0.74
-16.91 6.32 0.73
-17.18 6.03 0.74
-17.32 5.69 0.76
-17.32 5.31 0.76
-17.32 4.93 0.77
-17.32 4.56 0.77
-17.32 4.19 0.78
-17.32 3.82 0.78
-17.32 3.46 0.79
-17.32 3.10 0.80
-17.32 2.74 0.81
-17.32 2.39 0.81
-17.32 2.03 0.82
-17.32 1.68 0.83
-17.19 1.32 0.83
-10.63 0.60 0.52
-10.62 0.39 0.53
-10.57 0.17 0.53
-10.45 -0.04 0.53
-10.56 -0.25 0.54
-10.54 -0.46 0.55
-10.53 -0.67 0.55
-15.96 -1.34 0.85
-15.96 -1.66 0.86
-10.64 -1.33 0.58
-10.63 -1.54 0.59
-10.57 -1.75 0.59
-10.48 -1.95 0.60
-10.57 -2.19 0.61
-10.55 -2.41 0.62
-10.54 -2.63 0.63
-10.75 -2.91 0.65
-15.99 -4.68 0.98
-10.99 -3.45 0.68
-10.61 -3.57 0.67
-10.52 -3.78 0.67
-10.48 -4.00 0.68
-10.53 -4.26 0.70
-10.50 -4.50 0.71
-14.96 -6.77 1.03
-10.85 -5.17 0.76
-10.47 -5.26 0.75
-10.43 -5.50 0.76
-10.30 -5.70 0.76
-10.40 -6.03 0.78
-10.37 -6.30 0.80
-10.51 -6.67 0.82
-10.86 -7.20 0.87
-10.47 -7.25 0.86
-10.34 -7.47 0.86
-10.33 -7.78 0.88
-10.26 -8.06 0.89
-10.31 -8.44 0.92
-10.32 -8.80 0.94
-10.33 -9.18 0.97
-10.42 -9.64 1.00
-10.56 -10.17 1.04
-10.41 -10.44 1.05
-10.42 -10.88 1.08
-11.39 -12.38 1.21
-21.81 -24.68 2.39
-21.20 -24.98 2.39
-20.59 -25.27 2.39
-19.97 -25.55 2.39
-19.36 -25.82 2.39
-18.75 -26.08 2.39
-18.14 -26.33 2.39
-6.23 -9.44 0.85
-16.92 -26.80 2.39
-16.31 -27.02 2.39
-15.70 -27.24 2.39
-15.09 -27.44 2.39
-14.48 -27.64 2.38
-13.87 -27.82 2.38
-13.27 -28.00 2.38
-12.66 -28.17 2.38
-12.27 -28.84 2.43
-11.60 -28.86 2.42
-10.84 -28.63 2.38
-10.24 -28.76 2.38
-9.63 -28.89 2.38
-9.03 -29.01 2.39
-8.42 -29.12 2.39
-7.82 -29.23 2.39
-7.22 -29.32 2.39
-6.62 -29.41 2.39
-6.06 -29.70 2.40
-5.64 -30.84 2.49
-5.02 -30.91 2.49
-4.39 -30.97 2.49
-3.76 -31.02 2.49
-3.13 -31.06 2.49
-2.51 -31.09 2.49
-1.88 -31.12 2.49
-1.25 -31.14 2.49
-0.63 -31.15 2.49
-0.00 -24.25 2.49
0.49 -24.25 2.49
0.98 -24.24 2.49
1.46 -24.22 2.49
1.95 -24.19 2.49
2.31 -22.88 2.36
2.13 -17.58 1.81
3.27 -23.08 2.39
3.74 -23.02 2.39
4.21 -22.97 2.39
3.90 -19.11 1.99
4.31 -19.16 2.00
5.60 -22.75 2.39
6.07 -22.66 2.39
5.83 -20.13 2.13
5.90 -18.95 2.01
5.90 -17.70 1.89
5.91 -16.58 1.78
5.91 -15.59 1.68
5.91 -14.69 1.59
5.91 -13.88 1.51
5.91 -13.15 1.44
5.91 -12.47 1.38
5.91 -11.85 1.32
5.92 -11.28 1.27
5.92 -10.75 1.22
5.92 -10.26 1.17
5.92 -9.80 1.13
5.92 -9.37 1.09
5.92 -8.97 1.05
5.92 -8.59 1.02
5.85 -8.13 0.97
5.92 -7.89 0.96
5.92 -7.57 0.93
5.92 -7.26 0.90
5.92 -6.97 0.88
5.92 -6.70 0.85
5.92 -6.43 0.83
5.93 -6.18 0.81
5.93 -5.94 0.79
5.93 -5.70 0.77
5.93 -5.48 0.75
5.93 -5.26 0.74
5.93 -5.05 0.72
5.93 -4.85 0.70
5.93 -4.65 0.69
5.93 -4.47 0.68
5.93 -4.28 0.66
5.87 -4.06 0.64
5.93 -3.93 0.64
5.93 -3.76 0.63
5.93 -3.60 0.62
5.93 -3.43 0.60
5.93 -3.28 0.59
5.93 -3.12 0.58
5.93 -2.97 0.57
5.93 -2.83 0.57
5.93 -2.68 0.56
5.93 -2.54 0.55
5.93 -2.40 0.54
5.93 -2.26 0.53
5.93 -2.13 0.53
5.93 -1.99 0.52
5.93 -1.86 0.51
5.93 -1.73 0.51
5.93 -1.60 0.50
5.93 -1.48 0.49
5.93 -1.35 0.49
5.93 -1.23 0.48
5.94 -1.10 0.48
5.94 -0.98 0.47
5.94 -0.86 0.47
5.94 -0.74 0.46
5.94 -0.61 0.46
5.94 -0.49 0.45
5.94 -0.37 0.45
5.94 -0.26 0.44
5.86 -0.13 0.44
5.94 -0.02 0.44
5.94 0.10 0.43
5.94 0.22 0.43
5.94 0.34 0.43
5.94 0.46 0.42
5.94 0.58 0.42
5.94 0.70 0.42
5.94 0.82 0.42
5.94 0.94 0.41
5.94 1.07 0.41
5.94 1.19 0.41
5.94 1.31 0.41
5.94 1.44 0.41
5.94 1.57 0.41
5.94 1.70 0.41
5.94 1.82 0.40
5.94 1.96 0.40
5.94 2.09 0.40
5.94 2.22 0.40
5.94 2.36 0.40
5.94 2.50 0.40
5.94 2.64 0.40
5.94 2.79 0.40
5.94 2.93 0.40
5.94 3.08 0.40
5.94 3.24 0.40
5.94 3.39 0.40
5.94 3.55 0.41
5.94 3.72 0.41
5.88 3.84 0.40
5.95 4.06 0.41
5.95 4.23 0.41
5.95 4.42 0.42
5.95 4.60 0.42
5.95 4.80 0.42
5.95 5.00 0.43
5.95 5.21 0.43
5.95 5.42 0.43
5.95 5.64 0.44
5.95 5.88 0.44
5.95 6.12 0.45
5.95 6.37 0.45
5.95 6.63 0.46
5.95 6.90 0.47
5.95 7.19 0.48
5.95 7.49 0.48
5.93 7.78 0.49
5.95 8.14 0.50
5.95 8.50 0.51
5.95 8.87 0.53
5.96 9.27 0.54
5.96 9.69 0.55
5.96 10.14 0.57
5.96 10.63 0.58
5.96 11.15 0.60
5.96 11.71 0.62
5.96 12.31 0.65
5.96 12.97 0.67
5.96 13.69 0.70
5.97 14.48 0.73
5.97 15.35 0.76
2.86 7.81 0.38
5.97 17.40 0.84
5.97 18.61 0.89
5.92 19.80 0.94
5.98 21.56 1.01
5.98 23.38 1.09
5.99 25.52 1.18
5.94 27.80 1.28
6.00 31.12 1.42
6.00 34.91 1.58
6.01 39.72 1.79
6.03 46.01 2.06
2.25 44.97 1.99
-8.23 38.52 1.76
-9.74 35.12 1.65
-9.02 30.16 1.43
-9.02 28.11 1.34
-9.45 27.52 1.33
-9.38 25.63 1.25
-9.24 23.76 1.17
-9.20 22.32 1.12
-9.46 21.73 1.10
-9.28 20.19 1.04
-8.76 18.10 0.94
-9.11 17.90 0.95
-9.56 17.89 0.96
-10.00 17.83 0.98
-10.49 17.87 1.00
-7.43 12.08 0.69
-7.70 11.99 0.69
-10.25 15.27 0.90
-10.69 15.26 0.92
-9.96 13.62 0.84
-10.00 13.12 0.83
-10.36 13.03 0.84
-10.71 12.94 0.85
-11.12 12.89 0.87
-11.58 12.90 0.89
-12.19 13.05 0.93
-12.59 12.94 0.94
-13.04 12.88 0.97
-13.53 12.84 0.99
-14.29 13.03 1.03
-14.67 12.84 1.05
-15.20 12.77 1.08
-15.80 12.75 1.11
-16.68 12.92 1.17
-17.22 12.79 1.20
-9.57 6.81 0.66
-18.87 12.87 1.30
-19.54 12.77 1.33
-20.40 12.75 1.39
-21.43 12.81 1.45
-22.07 12.60 1.49
-22.53 12.27 1.52
-23.43 12.15 1.58
-24.52 12.10 1.65
-25.87 12.13 1.74
-27.21 12.10 1.82
-28.81 12.12 1.93
-17.18 6.83 1.15
-16.91 6.33 1.14
-13.79 4.85 0.93
-13.81 4.55 0.93
-13.83 4.25 0.93
-13.85 3.95 0.94
-13.87 3.66 0.94
-13.88 3.36 0.95
-14.03 3.11 0.96
-17.32 3.47 1.19
-17.32 3.11 1.20
-17.32 2.75 1.20
-17.32 2.40 1.21
-17.32 2.04 1.22
-17.32 1.69 1.22
-17.19 1.33 1.22
-17.19 0.99 1.23
-10.57 0.39 0.76
-10.53 0.18 0.77
-10.46 -0.03 0.77
-10.53 -0.24 0.78
-10.52 -0.45 0.78
-10.54 -0.67 0.79
-10.67 -0.89 0.81
-15.86 -1.64 1.21
-10.64 -1.32 0.82
-10.51 -1.52 0.82
-10.49 -1.73 0.83
-10.43 -1.94 0.83
-10.48 -2.16 0.85
-10.52 -2.39 0.86
-10.47 -2.60 0.86
-10.59 -2.86 0.89
-15.99 -4.67 1.35
-10.66 -3.34 0.91
-10.51 -3.53 0.91
-10.47 -3.75 0.92
-10.46 -3.99 0.94
-10.45 -4.22 0.95
-10.45 -4.47 0.96
-10.53 -4.76 0.98
-10.85 -5.17 1.03
-10.44 -5.23 1.01
-10.38 -5.46 1.02
-10.32 -5.70 1.03
-10.34 -5.99 1.05
-10.34 -6.27 1.07
-10.41 -6.60 1.09
-10.84 -7.18 1.16
-10.48 -7.25 1.14
-10.32 -7.45 1.15
-10.31 -7.77 1.17
-10.27 -8.07 1.19
-10.30 -8.43 1.22
-10.32 -8.80 1.25
-10.35 -9.18 1.28
-10.43 -9.63 1.32
-10.53 -10.13 1.36
-10.41 -10.43 1.38
-10.43 -10.87 1.42
-11.41 -12.39 1.60
-17.34 -19.60 2.49
-16.87 -19.86 2.49
-16.40 -20.12 2.49
-15.93 -20.36 2.49
-15.46 -20.60 2.49
-14.99 -20.83 2.49
-14.52 -21.06 2.49
-6.23 -9.43 1.10
-8.39 -13.28 1.54
-8.10 -13.41 1.54
-7.86 -13.62 1.55
-12.14 -22.05 2.49
-11.66 -22.23 2.49
-11.18 -22.40 2.49
-10.70 -22.56 2.49
-10.21 -22.71 2.49
-9.73 -22.86 2.49
-9.25 -23.00 2.49
-8.76 -23.13 2.49
-8.28 -23.25 2.49
-7.80 -23.37 2.49
-7.31 -23.48 2.49
-6.82 -23.58 2.49
-6.34 -23.67 2.49
-5.85 -23.76 2.49
-5.37 -23.84 2.49
-4.88 -23.91 2.49
-4.39 -23.98 2.49
-3.90 -24.04 2.49
-3.42 -24.09 2.49
-2.93 -24.13 2.49
-2.44 -24.17 2.49
-1.95 -24.20 2.49
-1.46 -24.23 2.49
-0.98 -24.24 2.49
-0.49 -24.25 2.49
-0.00 -19.84 2.49
0.40 -19.84 2.49
0.80 -19.83 2.49
1.20 -19.81 2.49
1.60 -19.79 2.49
2.00 -19.76 2.49
2.30 -18.96 2.39
2.17 -15.27 1.93
2.23 -13.71 1.74
3.44 -18.77 2.39
3.82 -18.72 2.39
4.20 -18.65 2.39
4.58 -18.59 2.39
2.28 -8.51 1.10
5.34 -18.43 2.39
5.72 -18.34 2.39
6.09 -18.25 2.39
5.85 -16.41 2.16
5.91 -15.58 2.06
5.91 -14.68 1.95
5.91 -13.87 1.86
5.91 -13.14 1.77
5.91 -12.46 1.69
5.91 -11.85 1.62
5.92 -11.27 1.56
5.92 -10.74 1.49
5.92 -10.25 1.44
5.92 -9.79 1.39
5.92 -9.36 1.34
5.92 -8.96 1.30
5.92 -8.58 1.25
5.85 -8.12 1.20
5.92 -7.88 1.18
5.92 -7.56 1.15
5.92 -7.26 1.11
5.92 -6.97 1.08
5.92 -6.69 1.06
5.92 -6.43 1.03
5.93 -6.17 1.00
5.93 -5.93 0.98
5.93 -5.70 0.96
5.93 -5.47 0.94
5.93 -5.26 0.92
5.93 -5.05 0.90
5.93 -4.84 0.88
5.93 -4.65 0.86
5.93 -4.46 0.84
5.93 -4.28 0.83
5.88 -4.06 0.81
5.93 -3.92 0.80
5.93 -3.76 0.79
5.93 -3.59 0.77
5.93 -3.43 0.76
5.93 -3.27 0.75
5.93 -3.12 0.74
5.93 -2.97 0.73
5.93 -2.82 0.72
5.93 -2.68 0.71
5.93 -2.53 0.70
5.93 -2.40 0.69
5.93 -2.26 0.68
5.93 -2.12 0.67
5.93 -1.99 0.66
5.93 -1.86 0.65
5.93 -1.73 0.65
5.93 -1.60 0.64
5.93 -1.47 0.63
5.93 -1.35 0.63
5.93 -1.22 0.62
5.94 -1.10 0.61
5.94 -0.97 0.61
5.94 -0.85 0.60
5.94 -0.73 0.60
5.94 -0.61 0.59
5.94 -0.49 0.59
5.94 -0.37 0.58
5.94 -0.25 0.58
5.86 -0.13 0.57
5.94 -0.01 0.57
5.94 0.11 0.57
5.94 0.23 0.57
5.94 0.34 0.56
5.94 0.46 0.56
5.94 0.58 0.56
5.94 0.70 0.56
5.94 0.83 0.55
5.94 0.95 0.55
5.94 1.07 0.55
5.94 1.19 0.55
5.94 1.32 0.55
5.94 1.44 0.55
5.94 1.57 0.55
5.94 1.70 0.55
5.94 1.83 0.54
5.94 1.96 0.54
5.94 2.09 0.55
5.94 2.23 0.55
5.94 2.37 0.55
5.94 2.50 0.55
5.94 2.65 0.55
5.94 2.79 0.55
5.94 2.94 0.55
5.94 3.09 0.55
5.94 3.24 0.56
5.94 3.40 0.56
5.94 3.56 0.56
5.94 3.72 0.57
5.88 3.85 0.56
5.95 4.06 0.57
5.95 4.24 0.58
5.95 4.42 0.58
5.95 4.61 0.59
5.95 4.80 0.59
5.95 5.00 0.60
5.95 5.21 0.61
5.95 5.43 0.62
5.95 5.65 0.62
5.95 5.88 0.63
5.95 6.12 0.64
5.95 6.37 0.65
5.95 6.64 0.66
5.95 6.91 0.67
5.95 7.20 0.69
5.95 7.50 0.70
5.93 7.79 0.71
5.95 8.15 0.73
5.95 8.50 0.75
5.95 8.88 0.77
5.96 9.28 0.79
5.96 9.70 0.81
5.96 10.15 0.83
5.96 10.63 0.86
5.96 11.15 0.89
5.96 11.72 0.92
5.96 12.32 0.96
5.96 12.98 0.99
5.96 13.70 1.04
5.97 14.49 1.08
5.97 15.36 1.13
2.85 7.81 0.57
5.97 17.41 1.26
5.97 18.62 1.33
5.92 19.81 1.41
5.98 21.58 1.52
5.98 23.40 1.64
5.99 25.54 1.77
5.93 27.81 1.92
5.27 27.35 1.88
4.95 28.82 1.97
5.32 35.13 2.39
4.62 35.27 2.39
3.91 35.40 2.39
3.21 35.50 2.39
2.50 35.59 2.39
1.86 37.19 2.49
1.12 37.24 2.49
0.37 37.26 2.49
-0.37 37.26 2.49
-1.12 37.25 2.49
-1.87 37.21 2.49
-2.61 37.14 2.49
-3.35 37.06 2.49
-4.09 36.96 2.49
-4.82 36.83 2.49
-5.55 36.68 2.49
-6.02 35.00 2.39
-6.71 34.82 2.39
-7.39 34.63 2.39
-8.07 34.41 2.39
-8.74 34.17 2.39
-9.40 33.91 2.38
-9.01 30.13 2.14
-9.04 28.19 2.02
-9.45 27.54 1.99
-9.37 25.62 1.87
-9.23 23.75 1.75
-9.17 22.27 1.66
-9.44 21.69 1.63
-8.59 18.70 1.43
-8.68 17.93 1.39
-9.11 17.90 1.40
-9.56 17.89 1.42
-10.00 17.85 1.44
-9.31 15.86 1.30
-7.36 11.98 1.00
-7.61 11.86 1.00
-10.25 15.28 1.32
-10.72 15.31 1.34
-9.95 13.61 1.22
-9.99 13.12 1.20
-10.33 13.02 1.21
-10.67 12.90 1.23
-11.10 12.89 1.25
-11.58 12.91 1.28
-12.20 13.06 1.33
-12.55 12.91 1.35
-13.02 12.87 1.38
-13.53 12.85 1.41
-14.29 13.04 1.47
-14.61 12.80 1.49
-15.18 12.77 1.53
-15.79 12.76 1.57
-16.68 12.93 1.64
-17.17 12.77 1.68
-9.58 6.83 0.93
-9.65 6.59 0.93
-19.51 12.76 1.86
-20.47 12.81 1.94
-21.39 12.80 2.01
-22.05 12.60 2.06
-22.03 12.01 2.05
-22.12 11.49 2.05
-22.20 10.97 2.05
-22.27 10.46 2.05
-22.33 9.94 2.05
-22.38 9.43 2.05
-17.18 6.84 1.57
-13.61 5.10 1.24
-13.62 4.80 1.24
-13.63 4.50 1.24
-13.65 4.20 1.24
-13.66 3.91 1.25
-13.68 3.62 1.25
-13.70 3.33 1.25
-13.72 3.05 1.26
-13.76 2.77 1.26
-13.79 2.48 1.27
-13.87 2.21 1.28
-14.66 2.04 1.36
-17.32 2.06 1.61
-17.32 1.70 1.62
-16.87 1.32 1.58
-10.65 0.62 1.00
-10.52 0.40 1.00
-10.48 0.19 1.00
-10.41 -0.02 1.00
-10.47 -0.23 1.01
-10.48 -0.44 1.02
-10.49 -0.66 1.03
-10.57 -0.87 1.04
-15.86 -1.63 1.58
-10.65 -1.31 1.07
-10.52 -1.51 1.06
-10.48 -1.72 1.07
-10.43 -1.93 1.07
-10.47 -2.15 1.09
-10.49 -2.38 1.10
-10.45 -2.59 1.11
-10.57 -2.85 1.13
-10.58 -3.08 1.15
-10.66 -3.34 1.17
-10.45 -3.50 1.16
-10.46 -3.74 1.17
-10.39 -3.95 1.18
-10.45 -4.22 1.20
-10.44 -4.46 1.22
-10.54 -4.75 1.25
-10.76 -5.12 1.29
-10.45 -5.23 1.27
-10.40 -5.47 1.29
-10.33 -5.70 1.30
-10.35 -5.99 1.32
-10.34 -6.26 1.34
-10.42 -6.60 1.38
-10.70 -7.08 1.44
-10.40 -7.19 1.42
-10.34 -7.46 1.44
-10.35 -7.78 1.47
-10.33 -8.10 1.50
-10.33 -8.44 1.53
-10.33 -8.80 1.56
-10.37 -9.19 1.60
-10.42 -9.62 1.64
-10.50 -10.09 1.69
-10.40 -10.41 1.72
-10.44 -10.88 1.76
-11.46 -12.43 1.99
-13.41 -15.15 2.38
-13.06 -15.37 2.38
-12.71 -15.57 2.38
-12.36 -15.78 2.38
-12.00 -15.98 2.39
-12.15 -16.86 2.49
-11.77 -17.06 2.49
-6.22 -9.41 1.36
-8.52 -13.48 1.93
-8.22 -13.59 1.92
-8.03 -13.91 1.95
-9.87 -17.92 2.49
-9.48 -18.07 2.49
-9.10 -18.22 2.49
-8.71 -18.36 2.49
-8.32 -18.49 2.49
-7.93 -18.62 2.49
-7.54 -18.74 2.49
-7.15 -18.85 2.49
-6.76 -18.96 2.49
-6.36 -19.06 2.49
-5.97 -19.16 2.49
-5.58 -19.25 2.49
-5.18 -19.33 2.49
-4.78 -19.41 2.49
-4.39 -19.48 2.49
-3.99 -19.54 2.49
-3.59 -19.60 2.49
-3.19 -19.65 2.49
-2.80 -19.70 2.49
-2.40 -19.74 2.49
-2.00 -19.77 2.49
-1.60 -19.80 2.49
-1.20 -19.82 2.49
-0.80 -19.83 2.49
-0.40 -19.84 2.49
-0.00 -16.77 2.49
0.34 -16.77 2.49
0.68 -16.76 2.49
1.01 -16.75 2.49
1.35 -16.73 2.49
1.69 -16.70 2.49
2.03 -16.67 2.49
2.26 -15.95 2.39
2.15 -13.20 1.98
2.16 -11.77 1.77
2.41 -11.78 1.78
3.55 -15.76 2.39
3.87 -15.70 2.39
2.28 -8.51 1.30
4.51 -15.56 2.39
4.83 -15.48 2.39
5.14 -15.40 2.39
5.46 -15.31 2.39
5.78 -15.22 2.39
6.09 -15.12 2.39
5.85 -13.73 2.18
5.91 -13.13 2.10
5.91 -12.46 2.01
5.91 -11.84 1.92
5.92 -11.27 1.85
5.92 -10.74 1.77
5.92 -10.24 1.71
5.92 -9.79 1.65
5.92 -9.36 1.59
5.92 -8.95 1.54
5.92 -8.57 1.49
5.85 -8.12 1.43
5.92 -7.88 1.40
5.92 -7.56 1.37
5.92 -7.25 1.33
5.92 -6.96 1.29
5.92 -6.69 1.26
5.92 -6.42 1.23
5.93 -6.17 1.20
5.93 -5.92 1.17
5.93 -5.69 1.15
5.93 -5.47 1.12
5.93 -5.25 1.10
5.93 -5.04 1.07
5.93 -4.84 1.05
5.93 -4.64 1.03
5.93 -4.46 1.01
5.93 -4.27 1.00
5.88 -4.06 0.97
5.93 -3.92 0.96
5.93 -3.75 0.95
5.93 -3.59 0.93
5.93 -3.43 0.92
5.93 -3.27 0.90
5.93 -3.11 0.89
5.93 -2.96 0.88
5.93 -2.82 0.86
5.93 -2.67 0.85
5.93 -2.53 0.84
5.93 -2.39 0.83
5.93 -2.25 0.82
5.93 -2.12 0.81
5.93 -1.98 0.80
5.93 -1.85 0.79
5.93 -1.72 0.79
5.93 -1.59 0.78
5.93 -1.47 0.77
5.93 -1.34 0.76
5.93 -1.22 0.76
5.94 -1.09 0.75
5.94 -0.97 0.74
5.94 -0.85 0.74
5.94 -0.73 0.73
5.94 -0.61 0.73
5.94 -0.49 0.72
5.94 -0.37 0.72
5.94 -0.25 0.71
5.86 -0.13 0.70
5.94 -0.01 0.71
5.94 0.11 0.70
5.94 0.23 0.70
5.94 0.35 0.70
5.94 0.47 0.70
5.94 0.59 0.69
5.94 0.71 0.69
5.94 0.83 0.69
5.94 0.95 0.69
5.94 1.07 0.69
5.94 1.20 0.69
5.94 1.32 0.69
5.94 1.45 0.69
5.94 1.58 0.69
5.94 1.70 0.69
5.94 1.83 0.69
5.94 1.96 0.69
5.94 2.10 0.69
5.94 2.23 0.69
5.94 2.37 0.69
5.94 2.51 0.69
5.94 2.65 0.70
5.94 2.79 0.70
5.94 2.94 0.70
5.94 3.09 0.71
5.94 3.24 0.71
5.94 3.40 0.72
5.94 3.56 0.72
5.94 3.73 0.73
5.88 3.85 0.72
5.95 4.07 0.74
5.95 4.24 0.74
5.95 4.43 0.75
5.95 4.61 0.76
5.95 4.81 0.77
5.95 5.01 0.78
5.95 5.22 0.79
5.95 5.43 0.80
5.95 5.65 0.81
5.95 5.89 0.82
5.95 6.13 0.84
5.95 6.38 0.85
5.95 6.64 0.87
5.95 6.92 0.88
5.95 7.20 0.90
5.95 7.50 0.92
5.93 7.79 0.94
5.95 8.16 0.96
5.95 8.51 0.99
5.95 8.88 1.01
5.96 9.28 1.04
5.96 9.71 1.07
5.96 10.16 1.10
5.96 10.64 1.14
5.96 11.16 1.18
5.96 11.72 1.22
5.96 12.33 1.27
5.96 12.99 1.32
5.96 13.71 1.38
5.97 14.50 1.44
5.97 15.37 1.51
2.85 7.81 0.76
5.97 17.42 1.68
5.97 18.64 1.78
5.92 19.82 1.88
5.98 21.59 2.03
5.15 20.14 1.88
4.94 21.07 1.95
5.17 24.23 2.23
5.01 26.02 2.39
4.49 26.15 2.39
3.97 26.26 2.39
3.45 26.36 2.39
2.92 26.45 2.39
2.39 26.52 2.39
1.94 27.73 2.49
1.39 27.77 2.49
0.83 27.80 2.49
0.28 27.82 2.49
-0.28 27.82 2.49
-0.84 27.81 2.49
-1.39 27.78 2.49
-1.95 27.74 2.49
-2.50 27.68 2.49
-3.05 27.61 2.49
-3.60 27.52 2.49
-4.15 27.42 2.49
-4.69 27.30 2.49
-5.23 27.17 2.49
-5.77 27.03 2.49
-6.06 25.86 2.39
-6.54 25.60 2.39
-7.04 25.42 2.39
-7.53 25.23 2.39
-8.02 25.02 2.39
-8.51 24.81 2.39
-8.98 24.58 2.39
-9.22 23.74 2.33
-9.12 22.17 2.19
-9.43 21.68 2.17
-8.53 18.57 1.88
-8.72 18.03 1.85
-9.10 17.89 1.86
-9.56 17.90 1.88
-10.03 17.92 1.91
-9.28 15.83 1.71
-7.36 11.98 1.32
-7.61 11.86 1.32
-10.24 15.27 1.73
-10.74 15.34 1.77
-9.98 13.67 1.61
-9.98 13.11 1.57
-10.32 13.01 1.59
-10.65 12.89 1.60
-11.09 12.89 1.64
-11.56 12.90 1.68
-12.18 13.06 1.73
-12.53 12.90 1.75
-13.02 12.88 1.79
-13.57 12.90 1.84
-14.27 13.03 1.91
-14.59 12.79 1.93
-15.12 12.74 1.97
-15.89 12.85 2.05
-16.65 12.92 2.12
-17.13 12.75 2.16
-9.53 6.80 1.19
-17.00 11.62 2.10
-17.13 11.22 2.10
-17.25 10.81 2.10
-17.37 10.41 2.10
-17.48 10.00 2.09
-17.58 9.60 2.09
-17.67 9.19 2.09
-17.76 8.79 2.09
-17.83 8.39 2.09
-17.90 7.98 2.09
-18.05 7.62 2.10
-17.18 6.85 1.99
-13.56 5.09 1.57
-13.62 4.81 1.57
-13.59 4.49 1.57
-13.61 4.20 1.57
-13.63 3.91 1.57
-13.64 3.62 1.57
-13.66 3.33 1.57
-13.67 3.04 1.57
-13.68 2.76 1.57
-13.68 2.48 1.58
-13.74 2.20 1.59
-14.05 1.96 1.62
-17.32 2.07 2.01
-17.32 1.72 2.01
-16.86 1.33 1.97
-10.66 0.63 1.25
-10.48 0.40 1.23
-10.47 0.19 1.24
-10.43 -0.02 1.24
-10.46 -0.23 1.25
-10.48 -0.44 1.26
-10.50 -0.65 1.27
-10.57 -0.87 1.28
-14.99 -1.53 1.83
-10.67 -1.31 1.31
-10.51 -1.50 1.30
-10.51 -1.72 1.31
-10.47 -1.93 1.32
-10.49 -2.15 1.33
-10.49 -2.37 1.34
-10.44 -2.58 1.35
-10.52 -2.83 1.38
-10.58 -3.07 1.40
-10.66 -3.33 1.42
-10.49 -3.51 1.42
-10.50 -3.75 1.43
-10.40 -3.95 1.44
-10.46 -4.21 1.46
-10.42 -4.45 1.48
-10.48 -4.72 1.50
-10.76 -5.11 1.56
-10.44 -5.22 1.54
-10.41 -5.47 1.56
-10.32 -5.69 1.57
-10.35 -5.98 1.59
-10.30 -6.23 1.61
-10.37 -6.56 1.65
-10.69 -7.07 1.73
-10.39 -7.17 1.71
-10.37 -7.47 1.74
-10.33 -7.76 1.76
-10.31 -8.08 1.79
-10.32 -8.42 1.83
-10.32 -8.78 1.87
-10.41 -9.22 1.92
-10.43 -9.62 1.97
-10.59 -10.17 2.04
-9.89 -9.88 1.95
-9.81 -10.21 1.98
-9.88 -10.70 2.04
-11.24 -12.68 2.38
-10.95 -12.87 2.38
-10.66 -13.05 2.38
-10.37 -13.23 2.38
-10.07 -13.40 2.38
-9.78 -13.57 2.38
-9.48 -13.73 2.38
-6.22 -9.41 1.62
-8.82 -13.95 2.37
-8.27 -13.67 2.30
-8.27 -14.31 2.38
-7.96 -14.45 2.38
-7.99 -15.21 2.49
-7.66 -15.34 2.49
-7.34 -15.46 2.49
-7.02 -15.58 2.49
-6.69 -15.69 2.49
-6.36 -15.80 2.49
-6.03 -15.90 2.49
-5.70 -15.99 2.49
-5.37 -16.08 2.49
-5.04 -16.17 2.49
-4.71 -16.25 2.49
-4.38 -16.32 2.49
-4.04 -16.39 2.49
-3.71 -16.45 2.49
-3.37 -16.51 2.49
-3.04 -16.56 2.49
-2.70 -16.60 2.49
-2.36 -16.64 2.49
-2.03 -16.68 2.49
-1.69 -16.71 2.49
-1.35 -16.73 2.49
-1.01 -16.75 2.49
-0.68 -16.76 2.49
-0.34 -16.77 2.49
-0.00 -14.51 2.49
0.29 -14.51 2.49
0.58 -14.50 2.49
0.88 -14.49 2.49
1.17 -14.47 2.49
1.46 -14.45 2.49
1.75 -14.42 2.49
2.04 -14.39 2.49
2.24 -13.76 2.39
2.14 -11.69 2.03
2.15 -10.50 1.83
