ply
format ascii 1.0
element vertex 2947
property float32 x
property float32 y
property float32 z
end_header
16.65 -0.82 2.06
16.57 -0.49 2.06
16.49 -0.15 2.06
16.40 0.18 2.06
16.30 0.50 2.06
16.20 0.83 2.06
15.76 1.12 2.02
12.05 1.10 1.56
9.92 1.11 1.29
8.68 1.15 1.14
7.40 1.13 0.98
7.34 1.27 0.98
7.28 1.41 0.98
11.33 2.43 1.54
11.33 2.67 1.55
11.33 2.91 1.57
11.33 3.16 1.58
11.33 3.41 1.60
11.33 3.66 1.62
11.33 3.91 1.63
11.33 4.17 1.65
11.33 4.43 1.67
11.33 4.69 1.70
11.33 4.96 1.72
11.34 5.24 1.74
11.34 5.52 1.76
11.34 5.80 1.79
11.34 6.09 1.82
11.34 6.39 1.84
11.34 6.70 1.87
11.34 7.01 1.90
11.34 7.33 1.93
11.34 7.66 1.97
11.34 8.00 2.00
11.35 8.34 2.04
11.35 8.70 2.08
11.35 9.07 2.12
11.35 9.46 2.16
11.30 9.81 2.19
10.84 9.79 2.15
10.66 10.03 2.16
10.49 10.27 2.17
10.31 10.52 2.18
10.13 10.76 2.20
9.95 11.01 2.21
9.77 11.25 2.23
9.59 11.50 2.24
9.40 11.75 2.26
9.21 12.00 2.27
9.01 12.24 2.29
8.80 12.48 2.31
8.59 12.71 2.32
8.37 12.94 2.34
8.15 13.18 2.35
7.90 13.37 2.36
7.65 13.57 2.37
7.39 13.74 2.38
7.11 13.89 2.38
6.82 14.01 2.38
6.53 14.12 2.38
6.31 14.41 2.41
5.97 14.42 2.39
5.67 14.52 2.39
5.37 14.62 2.39
5.07 14.72 2.39
4.77 14.81 2.39
4.47 14.89 2.39
4.17 14.98 2.39
3.86 15.05 2.39
2.36 10.01 1.58
3.25 15.19 2.39
2.95 15.25 2.39
2.64 15.31 2.39
2.33 15.36 2.39
2.02 15.44 2.40
1.78 16.11 2.50
1.46 16.15 2.50
1.13 16.19 2.50
0.81 16.22 2.50
0.48 16.24 2.50
0.15 16.26 2.50
-0.18 16.27 2.50
-0.51 16.28 2.50
-0.83 16.29 2.50
-1.16 16.28 2.50
-1.49 16.28 2.50
-1.82 16.27 2.50
-2.15 16.25 2.50
-2.49 16.23 2.50
-2.82 16.20 2.50
-3.15 16.17 2.50
-3.38 15.64 2.42
-3.81 16.09 2.50
-4.14 16.04 2.50
-4.47 15.98 2.50
-4.81 15.92 2.50
-5.14 15.86 2.50
-5.47 15.79 2.50
-5.80 15.71 2.50
-6.03 15.38 2.46
-6.19 14.90 2.39
-6.51 14.82 2.39
-6.83 14.72 2.39
-7.14 14.62 2.39
-7.46 14.52 2.39
-7.77 14.41 2.39
-8.09 14.30 2.39
-8.40 14.18 2.39
-8.71 14.05 2.39
-9.02 13.92 2.39
-9.33 13.78 2.39
-9.64 13.64 2.39
-9.95 13.49 2.39
-13.05 16.97 3.05
-9.82 12.24 2.22
-9.78 11.71 2.15
-9.84 11.31 2.11
-9.84 10.86 2.05
-9.84 10.43 2.00
-9.84 10.02 1.95
-9.84 9.63 1.91
-9.85 9.25 1.86
-9.85 8.88 1.82
-9.85 8.53 1.78
-9.85 8.19 1.74
-9.85 7.86 1.71
-9.85 7.55 1.67
-9.85 7.24 1.64
-9.85 6.94 1.61
-9.85 6.65 1.58
-9.86 6.36 1.55
-9.86 6.09 1.52
-9.86 5.82 1.50
-9.86 5.55 1.47
-9.86 5.29 1.45
-9.86 5.04 1.43
-9.86 4.80 1.40
-9.86 4.55 1.38
-9.86 4.32 1.36
-9.86 4.08 1.35
-9.86 3.85 1.33
-9.87 3.63 1.31
-9.87 3.40 1.29
-9.87 3.18 1.28
-9.87 2.97 1.26
-9.87 2.75 1.25
-9.87 2.54 1.23
-9.87 2.33 1.22
-9.87 2.12 1.21
-9.87 1.92 1.20
-9.87 1.71 1.19
-9.82 1.50 1.17
-9.87 1.31 1.16
-9.87 1.11 1.15
-9.87 0.91 1.14
-9.88 0.71 1.14
-9.88 0.51 1.13
-9.88 0.31 1.12
-9.88 0.11 1.11
-9.88 -0.09 1.11
-9.88 -0.29 1.10
-9.88 -0.48 1.09
-9.88 -0.68 1.09
-9.88 -0.88 1.08
-9.88 -1.08 1.08
-9.88 -1.28 1.07
-9.88 -1.48 1.07
-9.88 -1.69 1.07
-9.88 -1.89 1.07
-9.89 -2.10 1.06
-9.89 -2.31 1.06
-9.83 -2.50 1.05
-9.89 -2.73 1.06
-9.89 -2.94 1.06
-9.89 -3.16 1.06
-9.89 -3.38 1.06
-9.89 -3.60 1.06
-9.89 -3.83 1.06
-9.89 -4.06 1.07
-9.89 -4.29 1.07
-9.89 -4.53 1.07
-9.89 -4.77 1.08
-9.90 -5.02 1.08
-9.90 -5.27 1.09
-9.90 -5.53 1.09
-9.90 -5.79 1.10
-9.90 -6.06 1.11
-9.90 -6.34 1.11
-9.83 -6.58 1.11
-9.90 -6.92 1.13
-9.90 -7.22 1.14
-9.90 -7.52 1.15
-9.90 -7.84 1.17
-9.91 -8.17 1.18
-9.91 -8.51 1.19
-9.91 -8.86 1.21
-9.91 -9.23 1.23
-9.91 -9.61 1.24
-9.91 -10.00 1.26
-9.91 -10.41 1.28
-6.59 -7.21 0.87
-9.92 -11.28 1.33
-9.92 -11.75 1.36
-9.92 -12.24 1.38
-9.92 -12.76 1.42
-9.92 -13.30 1.45
-9.93 -13.88 1.48
-9.92 -14.47 1.52
-9.93 -15.13 1.56
-9.93 -15.81 1.61
-9.93 -16.54 1.66
-9.94 -17.32 1.71
-9.94 -18.16 1.77
-9.94 -19.06 1.83
-9.95 -20.03 1.90
-9.95 -21.09 1.98
-9.95 -22.24 2.06
-9.91 -23.38 2.15
-10.04 -26.60 2.39
-9.52 -26.83 2.39
-8.99 -27.05 2.39
-6.25 -20.16 1.77
-6.20 -21.49 1.88
-6.19 -23.18 2.01
-6.38 -25.97 2.24
-6.26 -27.91 2.39
-5.95 -29.24 2.50
-5.37 -29.35 2.50
-4.78 -29.45 2.50
-4.19 -29.53 2.50
-3.59 -29.59 2.50
-3.00 -29.64 2.50
-2.40 -29.67 2.50
-1.81 -29.68 2.50
-1.21 -29.68 2.50
-0.62 -29.66 2.50
-0.02 -23.33 2.50
0.44 -23.30 2.50
0.91 -23.25 2.50
1.37 -23.19 2.50
1.83 -23.12 2.50
2.29 -23.04 2.50
2.74 -22.95 2.50
3.20 -22.84 2.50
3.64 -22.72 2.50
4.09 -22.59 2.50
4.53 -22.45 2.50
4.76 -21.38 2.39
5.17 -21.23 2.39
5.58 -21.06 2.39
5.98 -20.89 2.39
6.38 -20.70 2.39
6.77 -20.51 2.39
7.16 -20.30 2.39
7.54 -20.09 2.39
7.91 -19.87 2.39
8.28 -19.64 2.39
8.64 -19.40 2.39
8.99 -19.16 2.39
9.34 -18.90 2.39
9.68 -18.64 2.39
15.89 -29.17 3.80
16.41 -28.73 3.80
16.91 -28.28 3.80
11.04 -17.64 2.41
11.34 -17.35 2.41
11.63 -17.04 2.41
11.92 -16.74 2.41
12.20 -16.42 2.41
10.63 -13.73 2.06
10.91 -13.52 2.07
11.19 -13.31 2.08
11.46 -13.09 2.09
11.23 -12.33 2.01
11.40 -12.02 2.01
11.60 -11.75 2.01
11.78 -11.46 2.01
12.00 -11.22 2.02
12.17 -10.93 2.02
9.82 -8.47 1.61
10.01 -8.29 1.62
10.20 -8.11 1.63
10.38 -7.92 1.65
10.57 -7.73 1.66
6.79 -4.76 1.05
6.73 -4.52 1.04
6.67 -4.29 1.02
6.62 -4.07 1.00
6.56 -3.86 0.99
6.53 -3.67 0.98
6.57 -3.52 0.98
6.61 -3.37 0.98
6.64 -3.22 0.98
6.67 -3.07 0.98
6.69 -2.92 0.98
12.97 -5.35 1.89
13.19 -5.13 1.92
13.41 -4.91 1.94
13.64 -4.69 1.97
13.87 -4.46 2.00
14.11 -4.22 2.03
14.35 -3.99 2.07
14.92 -3.82 2.15
14.39 -3.38 2.07
14.36 -3.07 2.07
14.33 -2.77 2.07
14.30 -2.46 2.07
14.26 -2.16 2.06
14.22 -1.87 2.06
14.18 -1.57 2.06
14.13 -1.28 2.06
14.09 -0.99 2.06
6.66 -0.33 0.98
6.63 -0.20 0.98
6.61 -0.07 0.98
6.57 0.07 0.98
6.54 0.20 0.98
6.51 0.33 0.98
6.47 0.46 0.98
6.43 0.58 0.98
6.39 0.71 0.98
6.34 0.83 0.98
6.30 0.96 0.98
6.30 1.09 0.99
6.30 1.22 0.99
6.49 1.39 1.03
11.33 2.66 1.82
11.33 2.91 1.83
11.33 3.15 1.85
11.33 3.40 1.87
11.33 3.65 1.89
11.33 3.90 1.91
11.33 4.16 1.93
11.33 4.42 1.95
11.33 4.68 1.98
11.33 4.95 2.00
11.34 5.23 2.03
11.34 5.51 2.05
11.34 5.79 2.08
11.34 6.09 2.11
11.34 6.38 2.14
11.20 6.60 2.15
10.93 6.75 2.13
10.71 6.91 2.12
10.56 7.12 2.12
10.47 7.37 2.14
10.38 7.63 2.16
10.29 7.89 2.18
10.20 8.14 2.20
10.08 8.39 2.22
9.97 8.64 2.24
9.91 8.95 2.27
9.86 9.27 2.31
9.80 9.59 2.34
9.52 9.70 2.33
9.13 9.69 2.29
8.96 9.89 2.30
8.78 10.10 2.31
8.60 10.31 2.32
8.42 10.52 2.33
8.24 10.73 2.35
8.04 10.92 2.36
7.83 11.10 2.37
7.62 11.28 2.37
7.40 11.44 2.38
7.17 11.58 2.38
6.92 11.71 2.38
6.67 11.83 2.38
6.43 11.94 2.38
6.18 12.06 2.38
5.96 12.23 2.39
5.70 12.33 2.39
5.45 12.43 2.39
5.19 12.53 2.39
4.93 12.62 2.39
4.67 12.71 2.39
4.41 12.79 2.39
4.15 12.87 2.39
3.89 12.95 2.39
3.63 13.02 2.39
3.36 13.09 2.39
2.36 10.00 1.82
2.83 13.21 2.39
2.56 13.26 2.39
2.29 13.31 2.39
2.02 13.35 2.39
1.83 13.97 2.50
1.55 14.01 2.50
1.27 14.04 2.50
0.98 14.07 2.50
0.70 14.10 2.50
0.41 14.12 2.50
0.13 14.13 2.50
-0.16 14.14 2.50
-0.44 14.15 2.50
-0.73 14.15 2.50
-1.01 14.15 2.50
-1.30 14.14 2.50
-1.59 14.13 2.50
-1.87 14.11 2.50
-2.16 14.09 2.50
-2.45 14.06 2.50
-2.74 14.03 2.50
-3.02 13.99 2.50
-3.31 13.95 2.50
-3.60 13.90 2.50
-3.88 13.85 2.50
-4.17 13.80 2.50
-4.46 13.74 2.50
-4.74 13.67 2.50
-5.03 13.60 2.50
-5.31 13.53 2.50
-5.60 13.45 2.50
-5.88 13.37 2.50
-6.04 13.01 2.45
-6.18 12.64 2.39
-6.45 12.54 2.39
-6.72 12.44 2.39
-6.99 12.34 2.39
-7.25 12.23 2.39
-7.52 12.12 2.39
-7.79 12.00 2.39
-8.05 11.87 2.39
-8.31 11.74 2.39
-8.57 11.61 2.39
-8.84 11.47 2.39
-9.09 11.33 2.39
-9.35 11.18 2.39
-9.61 11.03 2.39
-9.86 10.87 2.39
-9.80 9.57 2.21
-9.79 9.18 2.16
-9.84 8.86 2.12
-9.85 8.52 2.08
-9.85 8.18 2.04
-9.85 7.85 1.99
-9.85 7.53 1.96
-9.85 7.23 1.92
-9.85 6.93 1.88
-9.85 6.64 1.85
-9.86 6.35 1.82
-9.86 6.08 1.79
-9.86 5.81 1.76
-9.86 5.29 1.70
-9.86 5.03 1.68
-9.86 4.79 1.66
-9.86 4.54 1.63
-9.86 4.31 1.61
-9.86 4.07 1.59
-9.86 3.84 1.57
-9.87 3.62 1.55
-9.87 3.39 1.53
-9.87 3.17 1.51
-9.87 2.96 1.50
-9.87 2.74 1.48
-9.87 2.53 1.47
-9.87 2.32 1.45
-9.87 2.11 1.44
-9.87 1.91 1.43
-9.87 1.70 1.41
-9.81 1.49 1.39
-9.87 1.30 1.39
-9.87 1.10 1.38
-9.87 0.90 1.37
-9.88 0.70 1.36
-9.88 0.50 1.35
-9.88 0.30 1.35
-9.88 0.10 1.34
-9.88 -0.10 1.33
-9.88 -0.29 1.33
-9.88 -0.49 1.32
-9.88 -0.69 1.31
-9.88 -0.89 1.31
-9.88 -1.09 1.31
-9.88 -1.29 1.30
-9.88 -1.49 1.30
-9.88 -1.70 1.30
-9.88 -1.90 1.30
-9.89 -2.11 1.29
-9.89 -2.31 1.29
-9.83 -2.51 1.29
-9.89 -2.74 1.29
-9.89 -2.95 1.29
-9.89 -3.17 1.30
-9.89 -3.39 1.30
-9.89 -3.61 1.30
-9.89 -3.84 1.31
-9.89 -4.07 1.31
-9.89 -4.30 1.31
-9.89 -4.54 1.32
-9.89 -4.78 1.33
-9.90 -5.03 1.33
-9.90 -5.28 1.34
-9.90 -5.54 1.35
-9.90 -5.80 1.36
-9.90 -6.07 1.37
-9.90 -6.35 1.38
-9.84 -6.59 1.38
-9.90 -6.92 1.41
-9.90 -7.22 1.42
-9.90 -7.53 1.44
-9.90 -7.85 1.45
-9.91 -8.18 1.47
-9.91 -8.52 1.49
-9.91 -8.87 1.51
-9.91 -9.24 1.53
-9.91 -9.62 1.56
-9.91 -10.01 1.58
-9.91 -10.42 1.61
-6.59 -7.21 1.09
-9.92 -11.29 1.67
-9.92 -11.76 1.71
-9.92 -12.25 1.74
-9.92 -12.77 1.78
-9.92 -13.31 1.83
-9.93 -13.89 1.87
-9.91 -14.47 1.92
-9.93 -15.14 1.98
-9.93 -15.82 2.03
-9.93 -16.55 2.10
-9.88 -17.23 2.15
-9.88 -19.91 2.39
-9.50 -20.14 2.39
-9.11 -20.36 2.39
-8.71 -20.56 2.39
-8.31 -20.76 2.39
-7.90 -20.95 2.39
-7.49 -21.12 2.39
-6.35 -19.11 2.15
-6.65 -21.44 2.39
-6.23 -21.59 2.39
-6.05 -22.65 2.50
-5.59 -22.78 2.50
-5.14 -22.89 2.50
-4.68 -23.00 2.50
-4.22 -23.08 2.50
-3.76 -23.16 2.50
-3.29 -23.23 2.50
-2.83 -23.28 2.50
-2.36 -23.32 2.50
-1.89 -23.35 2.50
-1.42 -23.36 2.50
-0.96 -23.36 2.50
-0.49 -23.35 2.50
-0.02 -19.23 2.50
0.36 -19.21 2.50
0.75 -19.17 2.50
1.13 -19.13 2.50
1.51 -19.08 2.50
1.88 -19.01 2.50
2.26 -18.94 2.50
2.53 -18.08 2.39
2.88 -18.00 2.39
3.23 -17.90 2.39
3.58 -17.80 2.39
3.93 -17.69 2.39
4.27 -17.57 2.39
4.61 -17.44 2.39
4.95 -17.30 2.39
5.28 -17.16 2.39
5.61 -17.00 2.39
5.93 -16.84 2.39
6.29 -16.79 2.41
6.61 -16.61 2.41
6.92 -16.43 2.41
7.22 -16.24 2.41
7.52 -16.05 2.41
7.82 -15.84 2.41
8.11 -15.63 2.41
8.39 -15.42 2.41
8.60 -15.07 2.39
8.76 -14.67 2.36
8.92 -14.27 2.33
9.06 -13.88 2.31
9.21 -13.51 2.28
9.35 -13.15 2.26
9.49 -12.79 2.24
9.62 -12.43 2.22
9.74 -12.08 2.20
9.85 -11.74 2.18
9.98 -11.42 2.17
10.10 -11.10 2.15
10.22 -10.79 2.14
10.34 -10.48 2.13
10.44 -10.18 2.12
10.57 -9.89 2.11
10.79 -9.70 2.12
9.81 -8.47 1.91
10.00 -8.29 1.92
10.19 -8.11 1.93
10.38 -7.93 1.94
10.57 -7.74 1.96
6.86 -4.82 1.26
6.76 -4.55 1.23
6.70 -4.32 1.21
6.69 -4.12 1.20
6.64 -3.91 1.18
6.59 -3.70 1.16
6.54 -3.51 1.14
6.45 -3.30 1.12
6.41 -3.11 1.11
6.40 -2.95 1.10
6.36 -2.78 1.09
6.35 -2.62 1.08
6.35 -2.48 1.08
6.29 -2.31 1.07
6.29 -2.17 1.06
6.29 -2.03 1.06
6.29 -1.89 1.06
6.29 -1.75 1.06
6.29 -1.62 1.06
6.29 -1.48 1.06
6.29 -1.35 1.06
6.29 -1.22 1.06
6.29 -1.09 1.06
6.29 -0.96 1.06
6.30 -0.83 1.06
6.29 -0.70 1.06
6.29 -0.58 1.06
6.29 -0.45 1.07
6.32 -0.32 1.07
6.32 -0.20 1.08
6.32 -0.07 1.08
6.35 0.06 1.09
6.36 0.19 1.10
6.36 0.31 1.10
6.36 0.44 1.11
6.36 0.57 1.11
6.32 0.70 1.12
6.33 0.83 1.12
6.33 0.96 1.13
6.36 1.09 1.14
6.36 1.22 1.15
6.49 1.39 1.19
11.33 2.66 2.09
11.33 2.90 2.10
11.33 3.14 2.12
11.33 3.39 2.14
11.33 3.64 2.17
11.18 3.84 2.16
11.03 4.04 2.15
10.87 4.23 2.14
10.71 4.42 2.14
10.56 4.61 2.13
10.47 4.82 2.14
10.39 5.04 2.15
10.30 5.26 2.16
10.21 5.47 2.17
10.12 5.69 2.18
10.02 5.90 2.19
9.93 6.12 2.20
9.84 6.34 2.22
9.74 6.56 2.23
9.66 6.79 2.25
9.58 7.03 2.27
9.49 7.26 2.29
9.39 7.49 2.31
9.27 7.71 2.32
9.15 7.93 2.34
9.03 8.14 2.35
8.90 8.36 2.37
8.78 8.58 2.38
8.67 8.82 2.41
8.48 8.99 2.41
8.28 9.14 2.41
8.08 9.29 2.41
7.88 9.43 2.41
7.67 9.57 2.41
7.39 9.62 2.39
7.17 9.73 2.38
6.97 9.86 2.38
6.75 9.98 2.38
6.54 10.10 2.38
6.33 10.22 2.38
6.12 10.35 2.39
5.92 10.49 2.39
5.70 10.60 2.39
5.48 10.70 2.39
5.26 10.80 2.39
5.04 10.89 2.39
4.81 10.98 2.39
4.59 11.07 2.39
4.36 11.15 2.39
4.13 11.23 2.39
3.90 11.30 2.39
3.67 11.37 2.39
3.44 11.44 2.39
3.20 11.50 2.39
2.97 11.56 2.39
2.36 10.00 2.06
2.50 11.67 2.39
2.26 11.72 2.39
2.03 11.76 2.39
1.87 12.31 2.50
1.62 12.35 2.50
1.37 12.38 2.50
1.12 12.41 2.50
0.87 12.43 2.50
0.62 12.45 2.50
0.36 12.47 2.50
0.11 12.48 2.50
-0.14 12.49 2.50
-0.39 12.50 2.50
-0.65 12.50 2.50
-0.90 12.49 2.50
-1.15 12.48 2.50
-1.40 12.47 2.50
-1.66 12.45 2.50
-1.91 12.43 2.50
-2.16 12.41 2.50
-2.42 12.38 2.50
-2.67 12.34 2.50
-2.92 12.30 2.50
-3.18 12.26 2.50
-3.43 12.21 2.50
-3.68 12.16 2.50
-3.93 12.11 2.50
-4.18 12.05 2.50
-4.43 11.98 2.50
-4.68 11.91 2.50
-4.93 11.84 2.50
-5.18 11.76 2.50
-5.43 11.68 2.50
-5.68 11.60 2.50
-5.92 11.50 2.50
-6.05 11.19 2.45
-6.15 10.84 2.39
-6.38 10.74 2.39
-6.61 10.64 2.39
-6.84 10.53 2.39
-7.07 10.42 2.39
-7.30 10.30 2.39
-7.53 10.18 2.39
-7.75 10.05 2.39
-7.98 9.93 2.39
-8.20 9.79 2.39
-8.42 9.65 2.39
-8.64 9.51 2.39
-8.86 9.36 2.39
-9.07 9.21 2.39
-9.29 9.06 2.39
-9.50 8.90 2.39
-9.71 8.73 2.39
-9.91 8.57 2.39
-9.80 7.17 2.19
-9.80 6.88 2.15
-9.84 6.62 2.12
-9.86 6.34 2.09
-9.86 6.07 2.05
-9.86 5.80 2.02
-9.80 5.50 1.98
-9.86 5.28 1.96
-9.86 5.02 1.93
-9.86 4.78 1.91
-9.86 4.54 1.88
-9.86 4.30 1.86
-9.86 4.06 1.84
-9.86 3.83 1.81
-9.87 3.61 1.79
-9.87 3.39 1.77
-9.87 3.17 1.75
-9.87 2.95 1.74
-9.87 2.74 1.72
-9.87 2.52 1.70
-9.87 2.31 1.69
-9.87 2.11 1.67
-9.87 1.90 1.66
-9.87 1.70 1.64
-9.81 1.48 1.62
-9.87 1.29 1.62
-9.87 1.09 1.61
-9.87 0.89 1.60
-9.88 0.69 1.59
-9.88 0.49 1.58
-9.88 0.29 1.57
-9.88 0.10 1.57
-9.88 -0.10 1.56
-9.88 -0.30 1.55
-9.88 -0.50 1.55
-9.88 -0.70 1.54
-9.88 -0.90 1.54
-9.88 -1.10 1.53
-9.88 -1.30 1.53
-9.88 -1.50 1.53
-9.88 -1.70 1.53
-9.88 -1.91 1.53
-9.89 -2.11 1.53
-9.89 -2.32 1.53
-9.82 -2.52 1.52
-9.89 -2.74 1.53
-9.89 -2.96 1.53
-9.89 -3.18 1.53
-9.89 -3.40 1.54
-9.89 -3.62 1.54
-9.89 -3.85 1.55
-9.89 -4.08 1.55
-9.89 -4.31 1.56
-9.89 -4.55 1.57
-9.89 -4.79 1.58
-9.90 -5.04 1.59
-9.90 -5.29 1.60
-9.90 -5.55 1.61
-9.90 -5.81 1.62
-9.90 -6.08 1.64
-9.90 -6.36 1.65
-9.84 -6.60 1.66
-9.90 -6.93 1.68
-9.90 -7.23 1.70
-9.90 -7.54 1.72
-9.90 -7.86 1.74
-9.91 -8.19 1.77
-9.91 -8.53 1.79
-9.91 -8.88 1.82
-9.91 -9.25 1.84
-9.91 -9.62 1.87
-9.91 -10.02 1.91
-9.91 -10.43 1.94
-6.59 -7.21 1.31
-9.92 -11.30 2.02
-9.92 -11.77 2.06
-9.92 -12.26 2.11
-4.81 -6.19 1.04
-4.61 -6.19 1.03
-4.43 -6.20 1.01
-4.32 -6.32 1.01
-4.23 -6.45 1.02
-4.14 -6.59 1.02
-4.04 -6.73 1.03
-3.93 -6.86 1.04
-3.82 -6.99 1.04
-3.71 -7.11 1.05
-3.59 -7.23 1.05
-3.47 -7.35 1.06
-3.34 -7.47 1.07
-3.23 -7.64 1.08
-3.23 -8.08 1.13
-3.23 -8.58 1.19
-6.17 -17.40 2.39
-6.07 -18.29 2.50
-5.71 -18.42 2.50
-5.35 -18.54 2.50
-4.98 -18.66 2.50
-4.60 -18.76 2.50
-4.23 -18.85 2.50
-3.85 -18.93 2.50
-3.47 -19.01 2.50
-3.09 -19.07 2.50
-2.71 -19.12 2.50
-2.33 -19.17 2.50
-1.94 -19.20 2.50
-1.56 -19.23 2.50
-1.17 -19.24 2.50
-0.79 -19.25 2.50
-0.40 -19.24 2.50
-0.02 -16.34 2.50
0.31 -16.32 2.50
0.63 -16.30 2.50
0.96 -16.26 2.50
1.28 -16.22 2.50
1.60 -16.17 2.50
1.91 -16.04 2.49
2.14 -15.39 2.39
2.45 -15.32 2.39
2.75 -15.24 2.39
3.05 -15.16 2.39
3.34 -15.07 2.39
3.64 -14.97 2.39
3.93 -14.87 2.39
4.21 -14.75 2.39
4.50 -14.64 2.39
4.78 -14.51 2.39
5.06 -14.38 2.39
5.33 -14.24 2.39
5.60 -14.10 2.39
5.87 -13.95 2.39
6.17 -13.89 2.41
6.43 -13.73 2.41
6.68 -13.56 2.41
6.93 -13.39 2.41
7.18 -13.21 2.41
7.42 -13.03 2.41
7.66 -12.84 2.41
7.89 -12.64 2.41
8.12 -12.45 2.41
8.34 -12.24 2.41
8.53 -12.00 2.40
8.66 -11.69 2.38
8.80 -11.39 2.37
8.93 -11.09 2.35
9.05 -10.79 2.33
9.17 -10.50 2.31
9.28 -10.21 2.30
9.38 -9.92 2.28
9.49 -9.64 2.27
9.62 -9.39 2.26
9.75 -9.14 2.26
9.87 -8.89 2.25
9.81 -8.49 2.21
10.00 -8.30 2.22
10.18 -8.12 2.23
10.32 -7.90 2.24
10.41 -7.64 2.23
6.87 -4.83 1.45
6.76 -4.56 1.42
6.71 -4.33 1.39
6.69 -4.13 1.38
6.64 -3.92 1.36
6.59 -3.71 1.34
6.54 -3.51 1.32
6.45 -3.30 1.29
6.41 -3.12 1.27
6.40 -2.96 1.27
6.36 -2.79 1.25
6.35 -2.63 1.24
6.35 -2.48 1.24
6.32 -2.33 1.23
6.32 -2.18 1.22
6.35 -2.05 1.23
6.35 -1.91 1.22
6.35 -1.78 1.22
6.35 -1.64 1.22
6.35 -1.50 1.22
6.32 -1.36 1.21
6.32 -1.23 1.21
6.32 -1.10 1.21
6.35 -0.97 1.22
6.35 -0.84 1.22
6.35 -0.71 1.22
6.35 -0.59 1.22
6.35 -0.46 1.22
6.32 -0.33 1.22
6.32 -0.20 1.22
6.32 -0.07 1.23
6.35 0.05 1.24
6.36 0.18 1.25
6.36 0.31 1.25
6.36 0.44 1.26
6.36 0.57 1.26
6.32 0.69 1.26
6.33 0.82 1.27
6.33 0.95 1.28
6.36 1.09 1.30
6.36 1.22 1.30
6.49 1.38 1.34
10.33 2.41 2.15
10.28 2.62 2.16
10.23 2.83 2.17
10.18 3.04 2.17
10.13 3.25 2.18
10.08 3.45 2.19
10.02 3.66 2.20
9.96 3.87 2.21
9.90 4.07 2.22
9.83 4.28 2.23
9.75 4.48 2.24
9.67 4.69 2.25
9.59 4.89 2.26
9.50 5.09 2.27
9.42 5.29 2.28
9.33 5.49 2.29
9.25 5.69 2.31
9.16 5.90 2.32
9.07 6.10 2.33
8.98 6.31 2.35
8.88 6.51 2.36
8.79 6.72 2.38
8.69 6.92 2.39
8.58 7.12 2.41
8.43 7.29 2.41
8.26 7.44 2.41
8.09 7.59 2.41
7.92 7.74 2.41
7.75 7.88 2.41
7.57 8.02 2.41
7.40 8.16 2.41
7.22 8.29 2.41
7.04 8.42 2.41
6.86 8.55 2.41
6.67 8.67 2.41
6.49 8.79 2.41
6.30 8.91 2.41
6.11 9.02 2.41
5.88 9.07 2.39
5.69 9.18 2.39
5.49 9.28 2.39
5.30 9.38 2.39
5.10 9.48 2.39
4.91 9.57 2.39
4.71 9.66 2.39
4.51 9.74 2.39
4.31 9.82 2.39
4.10 9.90 2.39
3.90 9.98 2.39
3.70 10.05 2.39
3.49 10.11 2.39
3.28 10.18 2.39
3.08 10.24 2.39
2.87 10.30 2.39
2.66 10.35 2.39
2.36 10.00 2.30
2.24 10.45 2.39
2.03 10.49 2.39
1.89 10.98 2.50
1.67 11.02 2.50
1.45 11.05 2.50
1.22 11.08 2.50
1.00 11.11 2.50
0.77 11.13 2.50
0.55 11.15 2.50
0.32 11.16 2.50
0.10 11.17 2.50
-0.13 11.18 2.50
-0.35 11.18 2.50
-0.58 11.18 2.50
-0.81 11.17 2.50
-1.03 11.16 2.50
-1.26 11.15 2.50
-1.49 11.14 2.50
-1.71 11.12 2.50
-1.94 11.09 2.50
-2.16 11.06 2.50
-2.39 11.03 2.50
-2.62 10.99 2.50
-2.84 10.95 2.50
-3.07 10.91 2.50
-3.29 10.86 2.50
-3.52 10.81 2.50
-3.74 10.76 2.50
-3.96 10.70 2.50
-4.19 10.63 2.50
-4.41 10.56 2.50
-4.63 10.49 2.50
-4.85 10.42 2.50
-5.07 10.34 2.50
-5.29 10.26 2.50
-5.50 10.17 2.50
-5.72 10.08 2.50
-5.94 9.98 2.50
-6.05 9.73 2.46
-6.10 9.37 2.39
-6.30 9.27 2.39
-6.50 9.16 2.39
-6.70 9.05 2.39
-6.90 8.94 2.39
-7.10 8.82 2.39
-7.30 8.70 2.39
-7.49 8.57 2.39
-7.68 8.44 2.39
-7.87 8.31 2.39
-8.06 8.17 2.39
-8.25 8.03 2.39
-8.43 7.89 2.39
-8.62 7.74 2.39
-8.80 7.59 2.39
-8.97 7.43 2.39
-9.15 7.27 2.39
-9.33 7.11 2.39
-9.50 6.94 2.39
-9.67 6.77 2.39
-9.83 6.60 2.39
-10.00 6.42 2.39
-9.80 5.49 2.24
-9.82 5.25 2.21
-9.80 4.98 2.18
-9.81 4.74 2.15
-9.84 4.51 2.13
-9.86 4.29 2.11
-9.86 4.06 2.08
-9.86 3.83 2.06
-9.87 3.60 2.04
-9.87 3.38 2.01
-9.87 3.16 1.99
-9.87 2.94 1.97
-9.87 2.73 1.96
-9.87 2.51 1.94
-9.87 2.31 1.92
-9.87 2.10 1.91
-9.87 1.89 1.89
-9.87 1.69 1.88
-9.81 1.47 1.85
-9.87 1.28 1.85
-9.87 1.08 1.84
-9.87 0.88 1.83
-9.88 0.68 1.82
-9.88 0.48 1.81
-9.88 0.29 1.80
-9.88 0.09 1.79
-9.88 -0.11 1.79
-9.88 -0.31 1.78
-9.88 -0.51 1.78
-9.88 -0.71 1.77
-9.88 -0.90 1.77
-9.88 -1.10 1.76
-9.88 -1.31 1.76
-9.88 -1.51 1.76
-9.88 -1.71 1.76
-9.88 -1.92 1.76
-9.89 -2.12 1.76
-9.89 -2.33 1.76
-9.82 -2.52 1.75
-9.89 -2.75 1.77
-9.89 -2.97 1.77
-9.89 -3.18 1.78
-9.89 -3.40 1.78
-9.89 -3.63 1.79
-9.89 -3.85 1.79
-9.89 -4.08 1.80
-9.89 -4.32 1.81
-9.89 -4.56 1.82
-9.89 -4.80 1.83
-9.90 -5.04 1.84
-9.90 -5.30 1.86
-9.90 -5.55 1.87
-9.90 -5.82 1.89
-9.90 -6.09 1.90
-9.90 -6.37 1.92
-9.84 -6.61 1.93
-9.90 -6.94 1.96
-9.90 -7.24 1.99
-9.90 -7.55 2.01
-9.90 -7.87 2.04
-9.91 -8.20 2.06
-9.91 -8.54 2.09
-9.90 -8.88 2.12
-9.86 -9.21 2.15
-9.85 -9.58 2.18
-9.90 -10.01 2.23
-6.57 -7.20 1.53
-10.04 -11.46 2.39
-9.83 -11.68 2.39
-9.62 -11.90 2.39
-4.80 -6.19 1.22
-4.60 -6.19 1.20
-4.42 -6.19 1.18
-4.23 -6.19 1.16
-4.05 -6.19 1.15
-3.88 -6.19 1.13
-3.71 -6.19 1.11
-3.55 -6.19 1.10
-3.38 -6.19 1.09
-3.23 -6.21 1.08
-3.23 -6.52 1.12
-3.23 -6.86 1.16
-3.23 -7.23 1.21
-3.23 -7.64 1.27
-3.23 -8.09 1.33
-3.23 -8.58 1.40
-5.46 -15.42 2.50
-5.16 -15.54 2.50
-4.85 -15.65 2.50
-4.54 -15.75 2.50
-4.23 -15.84 2.50
-3.91 -15.93 2.50
-3.59 -16.01 2.50
-3.27 -16.08 2.50
-2.95 -16.14 2.50
-2.63 -16.19 2.50
-2.30 -16.24 2.50
-1.98 -16.28 2.50
-1.65 -16.31 2.50
-1.33 -16.33 2.50
-1.00 -16.35 2.50
-0.67 -16.35 2.50
-0.35 -16.35 2.50
-0.02 -14.19 2.50
0.26 -14.18 2.50
0.55 -14.16 2.50
0.83 -14.13 2.50
1.11 -14.10 2.50
1.39 -14.06 2.50
1.66 -14.01 2.50
1.91 -13.74 2.46
2.13 -13.33 2.40
2.39 -13.26 2.39
2.65 -13.19 2.39
2.90 -13.11 2.39
3.16 -13.03 2.39
2.73 -10.36 1.92
3.67 -12.85 2.39
3.91 -12.75 2.39
4.16 -12.65 2.39
4.40 -12.54 2.39
4.64 -12.42 2.39
4.88 -12.30 2.39
5.11 -12.17 2.39
5.34 -12.04 2.39
5.57 -11.90 2.39
5.79 -11.76 2.39
6.05 -11.70 2.41
6.27 -11.54 2.41
6.48 -11.39 2.41
6.69 -11.23 2.41
6.89 -11.06 2.41
7.09 -10.89 2.41
7.29 -10.72 2.41
7.48 -10.54 2.41
7.67 -10.36 2.41
7.85 -10.18 2.41
7.66 -9.53 2.30
7.81 -9.33 2.29
7.95 -9.12 2.29
8.09 -8.91 2.28
8.22 -8.70 2.28
8.35 -8.49 2.27
8.47 -8.28 2.27
8.60 -8.07 2.27
8.72 -7.86 2.26
8.83 -7.65 2.26
8.94 -7.43 2.25
9.04 -7.22 2.25
9.14 -7.00 2.25
9.24 -6.79 2.25
6.87 -4.84 1.65
6.77 -4.57 1.61
6.71 -4.34 1.58
6.70 -4.14 1.56
6.64 -3.93 1.54
6.59 -3.72 1.51
6.54 -3.52 1.49
6.46 -3.31 1.46
6.41 -3.13 1.44
6.41 -2.97 1.43
6.36 -2.79 1.41
6.35 -2.64 1.40
6.35 -2.49 1.40
6.32 -2.33 1.38
6.32 -2.19 1.38
6.35 -2.06 1.38
6.35 -1.92 1.38
6.35 -1.78 1.37
6.35 -1.64 1.37
6.35 -1.51 1.37
6.35 -1.38 1.37
6.32 -1.24 1.36
6.32 -1.10 1.36
6.35 -0.98 1.37
6.35 -0.85 1.37
6.36 -0.72 1.37
6.35 -0.59 1.37
6.35 -0.46 1.37
6.32 -0.33 1.37
6.32 -0.21 1.37
6.32 -0.08 1.38
6.35 0.05 1.39
6.36 0.18 1.39
6.36 0.30 1.40
6.36 0.43 1.41
6.36 0.56 1.41
6.32 0.69 1.41
6.33 0.82 1.42
6.33 0.95 1.43
6.36 1.08 1.45
6.36 1.21 1.46
6.49 1.37 1.50
9.67 2.25 2.25
9.62 2.45 2.25
9.58 2.64 2.26
9.53 2.84 2.27
9.48 3.03 2.28
9.43 3.22 2.29
9.37 3.42 2.30
9.31 3.61 2.30
9.25 3.80 2.31
9.18 3.99 2.32
9.11 4.18 2.33
9.04 4.37 2.34
8.97 4.56 2.35
8.89 4.75 2.36
8.81 4.94 2.37
8.73 5.13 2.38
8.65 5.32 2.40
8.56 5.51 2.41
8.44 5.67 2.41
8.30 5.83 2.41
8.17 5.98 2.41
8.03 6.13 2.41
7.89 6.28 2.41
7.74 6.42 2.41
7.60 6.57 2.41
7.45 6.71 2.41
7.30 6.84 2.41
7.15 6.98 2.41
6.99 7.11 2.41
6.84 7.23 2.41
6.68 7.36 2.41
6.52 7.48 2.41
6.36 7.60 2.41
6.19 7.71 2.41
5.99 7.78 2.39
5.82 7.88 2.39
5.65 7.99 2.39
5.48 8.09 2.39
5.31 8.19 2.39
5.14 8.29 2.39
4.97 8.38 2.39
4.79 8.47 2.39
4.61 8.56 2.39
4.44 8.64 2.39
4.26 8.72 2.39
4.08 8.80 2.39
3.89 8.88 2.39
3.71 8.95 2.39
3.53 9.02 2.39
3.34 9.08 2.39
3.01 8.71 2.28
2.91 9.03 2.35
2.71 9.03 2.34
2.46 8.83 2.27
2.40 9.36 2.39
2.21 9.40 2.39
2.02 9.44 2.39
1.91 9.89 2.50
1.71 9.93 2.50
1.51 9.96 2.50
1.31 9.99 2.50
1.11 10.02 2.50
0.90 10.04 2.50
0.70 10.06 2.50
0.50 10.08 2.50
0.29 10.09 2.50
0.09 10.10 2.50
-0.12 10.10 2.50
-0.32 10.10 2.50
-0.53 10.10 2.50
-0.73 10.10 2.50
-0.93 10.09 2.50
-1.14 10.08 2.50
-1.34 10.06 2.50
-1.55 10.04 2.50
-1.75 10.02 2.50
-1.96 9.99 2.50
-2.16 9.96 2.50
-2.37 9.93 2.50
-2.57 9.89 2.50
-2.77 9.85 2.50
-2.98 9.80 2.50
-3.18 9.76 2.50
-3.38 9.70 2.50
-3.58 9.65 2.50
-3.78 9.59 2.50
-3.98 9.53 2.50
-4.18 9.46 2.50
-4.38 9.39 2.50
-4.57 9.32 2.50
-4.77 9.24 2.50
-4.96 9.16 2.50
-5.16 9.08 2.50
-5.35 8.99 2.50
-5.54 8.90 2.50
-5.73 8.80 2.50
-5.92 8.70 2.50
-6.06 8.52 2.48
-6.07 8.18 2.41
-6.21 8.04 2.39
-6.39 7.93 2.39
-6.57 7.82 2.39
-6.74 7.70 2.39
-6.91 7.59 2.39
-7.08 7.46 2.39
-7.25 7.34 2.39
-7.41 7.21 2.39
-7.58 7.08 2.39
-7.74 6.94 2.39
-7.90 6.80 2.39
-8.06 6.66 2.39
-8.21 6.52 2.39
-8.36 6.37 2.39
-8.52 6.22 2.39
-8.66 6.06 2.39
-8.81 5.90 2.39
-8.96 5.74 2.39
-9.10 5.58 2.39
-9.24 5.41 2.39
-9.37 5.24 2.39
-9.50 5.07 2.39
-9.63 4.89 2.39
-9.76 4.71 2.39
-9.89 4.53 2.39
-10.01 4.34 2.39
-9.81 2.92 2.20
-9.81 2.70 2.18
-9.81 2.49 2.16
-9.82 2.28 2.15
-9.84 2.08 2.13
-9.86 1.88 2.12
-9.87 1.68 2.11
-9.81 1.47 2.08
-9.87 1.27 2.08
-9.87 1.07 2.07
-9.87 0.87 2.06
-9.88 0.67 2.05
-9.88 0.48 2.04
-9.88 0.28 2.03
-9.88 0.08 2.03
-9.88 -0.12 2.02
-9.88 -0.32 2.01
-9.88 -0.51 2.01
-9.88 -0.71 2.00
-9.88 -0.91 2.00
-9.88 -1.11 2.00
-9.88 -1.31 1.99
-9.88 -1.52 1.99
-9.88 -1.72 1.99
-9.88 -1.92 1.99
-9.89 -2.13 2.00
-9.89 -2.34 2.00
-9.82 -2.53 1.99
-9.89 -2.76 2.01
-9.89 -2.97 2.01
-9.89 -3.19 2.02
-9.89 -3.41 2.02
-9.89 -3.63 2.03
-9.89 -3.86 2.04
-9.89 -4.09 2.05
-9.89 -4.33 2.06
-9.89 -4.56 2.08
-9.89 -4.81 2.09
-9.90 -5.05 2.10
-9.90 -5.31 2.12
-9.87 -5.55 2.13
-9.85 -5.80 2.14
-9.84 -6.06 2.16
-9.84 -6.34 2.18
-9.84 -6.62 2.21
-10.04 -8.32 2.39
-9.90 -8.54 2.39
-9.75 -8.76 2.39
-9.60 -8.97 2.39
-9.44 -9.18 2.39
-9.27 -9.39 2.39
-9.10 -9.59 2.39
-6.56 -7.20 1.76
-8.75 -9.99 2.39
-8.57 -10.18 2.39
-8.38 -10.37 2.39
-4.79 -6.18 1.40
-4.60 -6.18 1.38
-4.41 -6.18 1.36
-4.22 -6.18 1.34
-4.05 -6.18 1.32
-3.87 -6.18 1.30
-3.70 -6.18 1.28
-3.54 -6.18 1.26
-3.38 -6.18 1.25
-3.23 -6.21 1.24
-3.23 -6.53 1.29
-3.23 -6.87 1.34
-3.23 -7.24 1.40
-3.23 -7.64 1.46
-3.23 -8.09 1.53
-3.23 -8.58 1.61
-4.74 -13.39 2.50
-4.48 -13.49 2.50
-4.21 -13.59 2.50
-3.94 -13.67 2.50
-3.67 -13.75 2.50
-3.39 -13.83 2.50
-3.12 -13.90 2.50
-2.84 -13.96 2.50
-2.56 -14.01 2.50
-2.28 -14.06 2.50
-2.00 -14.10 2.50
-1.72 -14.13 2.50
-1.44 -14.16 2.50
-1.15 -14.18 2.50
-0.87 -14.19 2.50
-0.59 -14.20 2.50
-0.30 -14.20 2.50
-0.02 -12.53 2.50
0.23 -12.52 2.50
0.48 -12.50 2.50
0.73 -12.48 2.50
0.98 -12.45 2.50
1.22 -12.42 2.50
1.47 -12.38 2.50
1.71 -12.33 2.50
1.92 -12.04 2.45
2.12 -11.80 2.41
2.34 -11.66 2.39
2.27 -10.25 2.12
2.39 -9.88 2.05
2.60 -9.88 2.07
3.24 -11.37 2.39
3.46 -11.28 2.39
3.68 -11.19 2.39
3.89 -11.10 2.39
4.11 -11.00 2.39
4.32 -10.89 2.39
4.52 -10.79 2.39
4.73 -10.67 2.39
4.93 -10.55 2.39
5.13 -10.43 2.39
5.32 -10.30 2.39
5.52 -10.17 2.39
5.71 -10.04 2.39
5.89 -9.90 2.39
6.11 -9.82 2.41
6.29 -9.68 2.41
6.37 -9.38 2.37
6.52 -9.19 2.36
6.65 -9.00 2.35
6.79 -8.81 2.34
6.92 -8.61 2.34
7.04 -8.42 2.33
7.17 -8.23 2.32
7.29 -8.04 2.31
7.41 -7.85 2.31
7.52 -7.66 2.30
7.63 -7.47 2.30
7.74 -7.28 2.29
7.84 -7.08 2.28
7.94 -6.89 2.28
8.03 -6.69 2.27
8.13 -6.50 2.27
8.22 -6.31 2.27
8.31 -6.12 2.26
6.87 -4.85 1.85
6.77 -4.58 1.80
6.71 -4.34 1.77
6.70 -4.15 1.75
6.64 -3.93 1.72
6.59 -3.73 1.69
6.54 -3.53 1.67
6.46 -3.32 1.63
6.41 -3.13 1.61
6.41 -2.97 1.60
6.37 -2.80 1.58
6.35 -2.64 1.57
6.35 -2.49 1.56
6.32 -2.34 1.54
6.32 -2.19 1.54
6.35 -2.06 1.54
6.35 -1.92 1.53
6.35 -1.79 1.53
6.35 -1.65 1.53
6.35 -1.51 1.52
6.35 -1.38 1.52
6.32 -1.24 1.51
6.32 -1.11 1.51
6.35 -0.99 1.52
6.35 -0.86 1.52
6.36 -0.73 1.52
6.35 -0.60 1.52
6.35 -0.47 1.52
6.32 -0.34 1.52
6.32 -0.21 1.52
6.32 -0.08 1.53
6.35 0.04 1.54
6.36 0.17 1.54
6.36 0.30 1.55
6.36 0.43 1.56
6.36 0.56 1.56
6.32 0.68 1.56
6.33 0.81 1.57
6.33 0.94 1.58
6.36 1.08 1.60
6.36 1.21 1.61
6.49 1.37 1.65
9.08 2.11 2.33
9.04 2.29 2.34
8.99 2.47 2.34
8.95 2.66 2.35
8.90 2.84 2.36
8.85 3.02 2.37
8.79 3.20 2.38
8.73 3.38 2.38
8.67 3.56 2.39
8.61 3.74 2.40
8.54 3.91 2.41
8.44 4.08 2.41
8.34 4.24 2.41
8.24 4.39 2.41
8.13 4.55 2.41
8.02 4.70 2.41
7.90 4.85 2.41
7.79 5.00 2.41
7.67 5.15 2.41
7.55 5.29 2.41
7.43 5.43 2.41
7.30 5.57 2.41
7.17 5.70 2.41
7.04 5.84 2.41
6.91 5.97 2.41
6.78 6.09 2.41
6.64 6.22 2.41
6.50 6.34 2.41
6.36 6.46 2.41
6.22 6.58 2.41
6.08 6.69 2.41
5.90 6.76 2.39
5.75 6.87 2.39
5.60 6.97 2.39
5.45 7.08 2.39
5.30 7.18 2.39
5.15 7.27 2.39
5.00 7.37 2.39
4.84 7.46 2.39
4.68 7.55 2.39
4.53 7.64 2.39
4.37 7.72 2.39
4.21 7.80 2.39
4.04 7.88 2.39
3.88 7.95 2.39
3.72 8.02 2.39
3.55 8.09 2.39
3.38 8.15 2.39
3.05 7.80 2.27
2.99 8.13 2.35
2.83 8.20 2.36
2.66 8.25 2.36
2.42 8.04 2.28
2.36 8.48 2.39
2.19 8.53 2.39
2.02 8.57 2.39
1.92 8.98 2.50
1.74 9.02 2.50
1.56 9.05 2.50
1.38 9.08 2.50
1.19 9.11 2.50
1.01 9.13 2.50
0.82 9.15 2.50
0.64 9.17 2.50
0.45 9.18 2.50
0.27 9.19 2.50
0.08 9.20 2.50
-0.11 9.21 2.50
-0.29 9.21 2.50
-0.48 9.21 2.50
-0.67 9.20 2.50
-0.85 9.19 2.50
-1.04 9.18 2.50
-1.23 9.17 2.50
-1.41 9.15 2.50
-1.60 9.12 2.50
-1.79 9.10 2.50
-1.97 9.07 2.50
-2.16 9.04 2.50
-2.34 9.00 2.50
-2.53 8.97 2.50
-2.71 8.92 2.50
-2.90 8.88 2.50
-3.08 8.83 2.50
-3.26 8.78 2.50
-3.44 8.73 2.50
-3.62 8.67 2.50
-3.81 8.61 2.50
-3.98 8.54 2.50
-4.16 8.47 2.50
-4.34 8.40 2.50
-4.52 8.33 2.50
-4.69 8.25 2.50
-4.87 8.17 2.50
-5.04 8.08 2.50
-5.21 7.99 2.50
-5.39 7.90 2.50
-5.56 7.81 2.50
-5.72 7.71 2.50
-5.89 7.61 2.50
-6.06 7.51 2.50
-6.06 7.21 2.43
-6.12 6.99 2.39
-6.28 6.88 2.40
-6.42 6.77 2.39
-6.58 6.65 2.39
-6.72 6.53 2.39
-6.87 6.41 2.39
-7.02 6.29 2.39
-7.16 6.16 2.39
-7.30 6.03 2.39
-7.44 5.90 2.39
-7.58 5.76 2.39
-7.71 5.62 2.39
-7.85 5.48 2.39
-7.98 5.34 2.39
-8.10 5.19 2.39
-8.23 5.04 2.39
-8.35 4.88 2.39
-8.47 4.73 2.39
-8.59 4.57 2.39
-8.71 4.41 2.39
-8.82 4.25 2.39
-8.93 4.08 2.39
-9.03 3.91 2.39
-9.14 3.74 2.39
-9.24 3.57 2.39
-9.34 3.39 2.39
-9.43 3.21 2.39
-9.52 3.03 2.39
-9.61 2.85 2.39
-9.70 2.66 2.39
-9.78 2.47 2.39
-9.86 2.29 2.39
-9.93 2.09 2.39
-10.00 1.90 2.39
-10.07 1.70 2.39
-9.80 1.46 2.32
-9.87 -1.12 2.23
-9.86 -1.32 2.23
-9.86 -1.52 2.22
-9.87 -1.72 2.23
-9.87 -1.93 2.23
-9.82 -2.54 2.23
-10.09 -4.91 2.39
-10.02 -5.13 2.39
-9.94 -5.34 2.39
-9.86 -5.55 2.39
-9.77 -5.76 2.39
-9.68 -5.97 2.39
-9.59 -6.18 2.39
-9.48 -6.38 2.39
-9.38 -6.59 2.39
-9.27 -6.79 2.39
-9.15 -6.99 2.39
-9.03 -7.19 2.39
-8.90 -7.38 2.39
-8.77 -7.58 2.39
-8.64 -7.77 2.39
-8.50 -7.95 2.39
-8.36 -8.14 2.39
-8.21 -8.32 2.39
-8.06 -8.50 2.39
-4.91 -5.38 1.49
-4.82 -5.51 1.49
-4.74 -5.64 1.50
-4.65 -5.77 1.50
-4.56 -5.89 1.51
-4.47 -6.01 1.52
-4.37 -6.13 1.52
-4.22 -6.17 1.51
-4.04 -6.17 1.49
-3.87 -6.17 1.47
-3.70 -6.18 1.45
-3.53 -6.18 1.43
-3.37 -6.18 1.41
-3.23 -6.22 1.40
-3.23 -6.53 1.46
-3.23 -6.87 1.52
-3.23 -7.24 1.58
-3.23 -7.65 1.66
-3.23 -8.09 1.74
-3.23 -8.59 1.83
-4.19 -11.83 2.50
-3.95 -11.91 2.50
-3.72 -12.00 2.50
-3.48 -12.07 2.50
-3.24 -12.14 2.50
-2.99 -12.21 2.50
-2.75 -12.27 2.50
-2.51 -12.32 2.50
-2.26 -12.37 2.50
-2.01 -12.41 2.50
-1.77 -12.44 2.50
-1.52 -12.47 2.50
-1.27 -12.50 2.50
-1.02 -12.52 2.50
-0.77 -12.53 2.50
-0.52 -12.54 2.50
-0.27 -12.54 2.50
-0.02 -11.21 2.50
0.20 -11.20 2.50
0.43 -11.19 2.50
0.65 -11.17 2.50
0.87 -11.14 2.50
1.09 -11.11 2.50
1.31 -11.08 2.50
1.53 -11.04 2.50
1.75 -10.99 2.50
1.92 -10.71 2.44
2.09 -10.44 2.39
2.29 -10.38 2.39
2.39 -9.90 2.30
2.61 -9.91 2.31
2.90 -10.19 2.39
3.10 -10.11 2.39
3.29 -10.03 2.39
3.48 -9.95 2.39
3.68 -9.86 2.39
3.87 -9.77 2.39
4.05 -9.67 2.39
4.24 -9.57 2.39
4.42 -9.47 2.39
4.60 -9.36 2.39
4.77 -9.25 2.39
4.95 -9.14 2.39
5.12 -9.02 2.39
5.29 -8.89 2.39
5.45 -8.77 2.39
5.61 -8.64 2.39
5.77 -8.51 2.39
5.93 -8.37 2.39
6.11 -8.27 2.41
6.22 -8.09 2.39
6.35 -7.92 2.39
6.47 -7.74 2.38
6.58 -7.57 2.37
6.69 -7.39 2.36
6.80 -7.21 2.35
6.90 -7.04 2.35
6.99 -6.85 2.34
7.08 -6.67 2.33
7.17 -6.49 2.32
7.26 -6.31 2.31
7.34 -6.13 2.31
7.43 -5.95 2.30
7.51 -5.77 2.30
7.59 -5.59 2.29
6.87 -4.86 2.05
6.77 -4.59 2.00
6.71 -4.35 1.96
6.70 -4.16 1.94
6.65 -3.94 1.90
6.60 -3.74 1.87
6.55 -3.54 1.84
6.46 -3.32 1.81
6.41 -3.14 1.78
6.41 -2.98 1.77
6.37 -2.81 1.74
6.35 -2.65 1.73
6.35 -2.50 1.72
6.32 -2.34 1.70
6.32 -2.20 1.70
6.34 -2.07 1.70
6.35 -1.93 1.69
6.35 -1.79 1.69
6.35 -1.66 1.68
6.35 -1.52 1.68
6.35 -1.39 1.68
6.32 -1.25 1.67
6.32 -1.12 1.67
6.35 -0.99 1.67
6.35 -0.86 1.67
6.36 -0.73 1.67
6.35 -0.60 1.67
6.35 -0.47 1.68
6.32 -0.34 1.67
6.32 -0.22 1.67
6.32 -0.09 1.68
6.35 0.04 1.69
6.36 0.17 1.70
6.36 0.29 1.70
6.36 0.42 1.71
6.36 0.55 1.72
6.32 0.68 1.72
6.33 0.81 1.73
6.33 0.94 1.73
6.36 1.07 1.75
6.36 1.20 1.77
6.49 1.36 1.81
8.56 1.98 2.41
8.51 2.15 2.41
8.44 2.31 2.41
8.37 2.48 2.41
8.30 2.64 2.41
8.23 2.80 2.41
8.15 2.96 2.41
8.07 3.11 2.41
7.99 3.27 2.41
7.90 3.42 2.41
7.81 3.57 2.41
7.72 3.72 2.41
7.63 3.87 2.41
7.53 4.01 2.41
7.44 4.16 2.41
7.34 4.30 2.41
7.23 4.43 2.41
7.13 4.57 2.41
7.02 4.70 2.41
6.91 4.84 2.41
6.80 4.97 2.41
6.69 5.09 2.41
6.57 5.22 2.41
6.45 5.34 2.41
6.33 5.46 2.41
6.21 5.58 2.41
6.09 5.70 2.41
5.92 5.77 2.39
5.80 5.88 2.39
5.67 5.99 2.39
5.54 6.09 2.39
5.41 6.20 2.39
5.27 6.30 2.39
5.14 6.39 2.39
5.00 6.49 2.39
4.86 6.58 2.39
4.72 6.67 2.39
4.58 6.76 2.39
4.44 6.84 2.39
4.30 6.92 2.39
4.15 7.00 2.39
4.01 7.08 2.39
3.86 7.15 2.39
3.71 7.22 2.39
3.56 7.29 2.39
3.41 7.36 2.39
3.09 7.05 2.27
3.00 7.23 2.31
2.90 7.42 2.36
2.75 7.47 2.36
2.51 7.26 2.27
2.41 7.47 2.33
2.33 7.74 2.39
2.18 7.81 2.40
2.01 7.83 2.39
1.93 8.20 2.50
1.77 8.24 2.50
1.60 8.28 2.50
1.43 8.31 2.50
1.26 8.33 2.50
1.09 8.36 2.50
0.92 8.38 2.50
0.75 8.40 2.50
0.58 8.42 2.50
0.41 8.43 2.50
0.24 8.44 2.50
0.07 8.45 2.50
-0.10 8.45 2.50
-0.27 8.45 2.50
-0.44 8.45 2.50
-0.61 8.44 2.50
-0.79 8.43 2.50
-0.96 8.42 2.50
-1.13 8.41 2.50
-1.30 8.39 2.50
-1.47 8.37 2.50
-1.64 8.35 2.50
-1.81 8.32 2.50
-1.98 8.29 2.50
-2.15 8.26 2.50
-2.32 8.22 2.50
-2.49 8.18 2.50
-2.66 8.14 2.50
-2.83 8.09 2.50
-2.99 8.05 2.50
-3.16 8.00 2.50
-3.33 7.94 2.50
-3.49 7.88 2.50
-3.65 7.82 2.50
-3.82 7.76 2.50
-3.98 7.69 2.50
-4.14 7.62 2.50
-4.30 7.55 2.50
-4.46 7.48 2.50
-4.62 7.40 2.50
-4.78 7.31 2.50
-4.93 7.23 2.50
-5.09 7.14 2.50
-5.24 7.05 2.50
-5.39 6.96 2.50
-5.54 6.86 2.50
-5.69 6.76 2.50
-5.84 6.66 2.50
-5.99 6.55 2.50
-6.06 6.38 2.47
-6.07 6.13 2.42
-6.15 5.96 2.39
-6.28 5.85 2.39
-6.41 5.74 2.39
-6.54 5.62 2.39
-6.67 5.50 2.39
-6.80 5.38 2.39
-6.92 5.25 2.39
-7.04 5.12 2.39
-7.16 4.99 2.39
-7.28 4.86 2.39
-7.39 4.73 2.39
-7.51 4.59 2.39
-7.62 4.45 2.39
-7.72 4.30 2.39
-7.83 4.16 2.39
-7.93 4.01 2.39
-8.03 3.86 2.39
-8.13 3.71 2.39
-8.23 3.55 2.39
-8.32 3.40 2.39
-8.41 3.24 2.39
-8.50 3.08 2.39
-8.58 2.91 2.39
-8.66 2.75 2.39
-8.74 2.58 2.39
-8.81 2.41 2.39
-8.89 2.24 2.39
-8.95 2.07 2.39
-9.02 1.89 2.39
-9.08 1.72 2.39
-9.14 1.54 2.39
-9.20 1.36 2.39
-9.25 1.18 2.39
-9.30 1.00 2.39
-9.34 0.81 2.39
-9.38 0.63 2.39
-9.42 0.44 2.39
-9.46 0.25 2.39
-9.49 0.06 2.39
-9.51 -0.13 2.39
-9.54 -0.32 2.39
-9.56 -0.51 2.39
-9.57 -0.71 2.39
-9.58 -0.90 2.39
-9.59 -1.09 2.39
-9.59 -1.29 2.39
-9.59 -1.49 2.39
-9.59 -1.68 2.39
-9.58 -1.88 2.39
-9.57 -2.08 2.39
-9.55 -2.27 2.39
-9.53 -2.47 2.39
-9.50 -2.67 2.39
-9.47 -2.86 2.39
-9.44 -3.06 2.39
-9.40 -3.26 2.39
-9.36 -3.45 2.39
-9.31 -3.65 2.39
-9.26 -3.85 2.39
-9.21 -4.04 2.39
-9.15 -4.23 2.39
-9.08 -4.43 2.39
-9.02 -4.62 2.39
-8.94 -4.81 2.39
-8.87 -5.00 2.39
-8.79 -5.19 2.39
-8.70 -5.37 2.39
-8.61 -5.56 2.39
-8.52 -5.74 2.39
-8.42 -5.92 2.39
-8.32 -6.10 2.39
-8.21 -6.28 2.39
-8.10 -6.46 2.39
-7.99 -6.63 2.39
-7.87 -6.80 2.39
-7.75 -6.97 2.39
-7.62 -7.14 2.39
-4.91 -4.78 1.57
-4.72 -4.78 1.53
-4.53 -4.79 1.50
-4.36 -4.79 1.47
-4.23 -4.84 1.46
-4.16 -4.95 1.47
-4.08 -5.05 1.47
-3.99 -5.16 1.48
-3.91 -5.26 1.48
-3.82 -5.36 1.49
-3.73 -5.46 1.49
-3.63 -5.56 1.49
-3.54 -5.65 1.50
-3.44 -5.75 1.50
-3.34 -5.84 1.51
-3.23 -5.93 1.51
-3.23 -6.22 1.57
-3.23 -6.53 1.63
-3.23 -6.87 1.70
-3.23 -7.25 1.77
-3.23 -7.65 1.85
-3.23 -8.10 1.94
-3.22 -8.56 2.04
-3.11 -8.78 2.07
-3.53 -10.65 2.50
-3.32 -10.73 2.50
-3.11 -10.79 2.50
-2.89 -10.86 2.50
-2.68 -10.91 2.50
-2.46 -10.97 2.50
-2.24 -11.02 2.50
-2.02 -11.06 2.50
-1.80 -11.10 2.50
-1.58 -11.13 2.50
-1.36 -11.15 2.50
-1.14 -11.18 2.50
-0.91 -11.19 2.50
-0.69 -11.21 2.50
-0.47 -11.21 2.50
-0.24 -11.21 2.50
-0.02 -10.13 2.50
0.18 -10.12 2.50
0.38 -10.11 2.50
0.58 -10.09 2.50
0.78 -10.07 2.50
0.98 -10.05 2.50
1.18 -10.02 2.50
1.38 -9.98 2.50
1.58 -9.94 2.50
1.77 -9.90 2.50
1.93 -9.64 2.44
2.07 -9.39 2.39
2.26 -9.34 2.39
2.44 -9.28 2.39
2.62 -9.22 2.39
2.80 -9.15 2.39
2.97 -9.08 2.39
3.15 -9.01 2.39
3.32 -8.93 2.39
3.50 -8.85 2.39
3.67 -8.76 2.39
3.83 -8.67 2.39
4.00 -8.58 2.39
4.16 -8.48 2.39
4.32 -8.38 2.39
4.48 -8.28 2.39
4.63 -8.18 2.39
4.79 -8.07 2.39
4.94 -7.95 2.39
5.09 -7.84 2.39
5.23 -7.72 2.39
5.37 -7.60 2.39
5.51 -7.47 2.39
5.65 -7.35 2.39
5.78 -7.22 2.39
5.91 -7.08 2.39
6.08 -7.00 2.41
6.18 -6.84 2.40
6.28 -6.67 2.39
6.38 -6.51 2.39
6.48 -6.36 2.38
6.58 -6.20 2.38
6.67 -6.04 2.37
6.75 -5.87 2.37
6.83 -5.71 2.36
6.91 -5.54 2.35
6.98 -5.38 2.35
7.05 -5.21 2.34
6.87 -4.87 2.26
6.77 -4.59 2.20
6.72 -4.36 2.15
6.70 -4.17 2.13
6.65 -3.95 2.09
6.60 -3.74 2.06
6.55 -3.54 2.02
6.46 -3.33 1.98
6.42 -3.15 1.95
6.41 -2.99 1.94
6.37 -2.81 1.91
6.35 -2.65 1.90
6.35 -2.51 1.89
6.32 -2.35 1.87
6.32 -2.21 1.86
6.32 -2.07 1.85
6.35 -1.94 1.85
6.35 -1.80 1.85
6.35 -1.66 1.84
6.35 -1.53 1.84
6.35 -1.39 1.84
6.32 -1.25 1.82
6.32 -1.12 1.82
6.35 -1.00 1.83
6.35 -0.87 1.83
6.36 -0.74 1.83
6.35 -0.61 1.83
6.35 -0.48 1.83
6.32 -0.35 1.82
6.32 -0.22 1.83
6.32 -0.09 1.83
6.35 0.03 1.85
6.36 0.16 1.85
6.36 0.29 1.86
6.36 0.42 1.86
6.36 0.55 1.87
6.32 0.67 1.87
6.33 0.80 1.88
6.33 0.93 1.89
6.36 1.07 1.91
6.36 1.20 1.92
6.49 1.36 1.97
7.87 1.81 2.41
7.81 1.97 2.41
7.76 2.12 2.41
7.69 2.27 2.41
7.63 2.42 2.41
7.56 2.57 2.41
7.49 2.71 2.41
7.42 2.86 2.41
7.35 3.00 2.41
7.27 3.14 2.41
7.19 3.28 2.41
7.11 3.42 2.41
7.02 3.55 2.41
6.94 3.69 2.41
6.85 3.82 2.41
6.75 3.95 2.41
6.66 4.08 2.41
6.57 4.20 2.41
6.47 4.33 2.41
6.37 4.45 2.41
6.27 4.57 2.41
6.16 4.69 2.41
6.06 4.80 2.41
5.91 4.89 2.39
5.80 5.00 2.39
5.69 5.11 2.39
5.58 5.21 2.39
5.46 5.32 2.39
5.35 5.42 2.39
5.23 5.52 2.39
5.11 5.62 2.39
4.99 5.71 2.39
4.87 5.80 2.39
4.74 5.89 2.39
4.62 5.98 2.39
4.49 6.07 2.39
4.36 6.15 2.39
4.23 6.23 2.39
4.10 6.31 2.39
3.97 6.39 2.39
3.83 6.46 2.39
3.70 6.53 2.39
3.56 6.60 2.39
3.43 6.67 2.39
3.12 6.39 2.27
3.00 6.47 2.28
2.96 6.74 2.36
2.82 6.79 2.36
2.68 6.85 2.36
2.45 6.65 2.27
2.41 6.98 2.37
2.30 7.10 2.39
2.15 7.15 2.39
2.00 7.19 2.39
1.94 7.54 2.50
1.78 7.57 2.50
1.63 7.61 2.50
1.48 7.64 2.50
1.32 7.67 2.50
1.16 7.69 2.50
1.01 7.72 2.50
0.85 7.74 2.50
0.70 7.75 2.50
0.54 7.77 2.50
0.38 7.78 2.50
0.22 7.79 2.50
0.06 7.80 2.50
-0.09 7.80 2.50
-0.25 7.80 2.50
-0.41 7.80 2.50
-0.57 7.79 2.50
-0.73 7.78 2.50
-0.89 7.77 2.50
-1.04 7.76 2.50
-1.20 7.74 2.50
-1.36 7.72 2.50
-1.52 7.70 2.50
-1.67 7.67 2.50
-1.83 7.65 2.50
-1.99 7.62 2.50
-2.14 7.58 2.50
-2.30 7.55 2.50
-2.45 7.51 2.50
-2.61 7.46 2.50
-2.76 7.42 2.50
-2.92 7.37 2.50
-3.07 7.32 2.50
-3.22 7.27 2.50
-3.37 7.21 2.50
-3.52 7.15 2.50
-3.67 7.09 2.50
-3.82 7.02 2.50
-3.97 6.95 2.50
-4.11 6.88 2.50
-4.26 6.81 2.50
-4.40 6.73 2.50
-4.55 6.66 2.50
-4.69 6.57 2.50
-4.83 6.49 2.50
-4.97 6.40 2.50
-5.11 6.31 2.50
-5.24 6.22 2.50
-5.38 6.12 2.50
-5.51 6.03 2.50
-5.64 5.93 2.50
-5.77 5.82 2.50
-5.90 5.72 2.50
-6.03 5.61 2.50
-6.07 5.42 2.46
-6.07 5.21 2.42
-6.13 5.05 2.39
-6.25 4.94 2.39
-6.36 4.82 2.39
-6.47 4.70 2.39
-6.58 4.58 2.39
-6.69 4.46 2.39
-6.79 4.33 2.39
-6.89 4.21 2.39
-6.99 4.08 2.39
-7.09 3.94 2.39
-7.19 3.81 2.39
-7.28 3.67 2.39
-7.37 3.53 2.39
-7.46 3.39 2.39
-7.54 3.25 2.39
-7.63 3.11 2.39
-7.71 2.96 2.39
-7.79 2.81 2.39
-7.86 2.66 2.39
-7.93 2.51 2.39
-8.00 2.36 2.39
-8.07 2.20 2.39
-8.13 2.04 2.39
-8.20 1.89 2.39
-8.25 1.73 2.39
-8.31 1.56 2.39
-8.36 1.40 2.39
-8.41 1.24 2.39
-8.46 1.07 2.39
-8.50 0.90 2.39
-8.54 0.73 2.39
-8.57 0.56 2.39
-8.61 0.39 2.39
-8.63 0.22 2.39
-8.66 0.05 2.39
-8.68 -0.13 2.39
-8.70 -0.30 2.39
-8.72 -0.48 2.39
-8.73 -0.65 2.39
-8.74 -0.83 2.39
-8.74 -1.01 2.39
-8.74 -1.18 2.39
-8.74 -1.36 2.39
-8.73 -1.54 2.39
-8.72 -1.72 2.39
-8.71 -1.90 2.39
-8.69 -2.08 2.39
-8.67 -2.26 2.39
-8.65 -2.43 2.39
-8.62 -2.61 2.39
-8.58 -2.79 2.39
-8.55 -2.97 2.39
-8.51 -3.15 2.39
-8.46 -3.32 2.39
-8.42 -3.50 2.39
-8.36 -3.68 2.39
-8.31 -3.85 2.39
-8.25 -4.03 2.39
-8.18 -4.20 2.39
-8.12 -4.37 2.39
-8.05 -4.54 2.39
-7.97 -4.71 2.39
-7.89 -4.88 2.39
-7.81 -5.05 2.39
-7.72 -5.21 2.39
-7.63 -5.38 2.39
-7.54 -5.54 2.39
-7.44 -5.70 2.39
-7.34 -5.86 2.39
-7.24 -6.02 2.39
-7.13 -6.17 2.39
-7.02 -6.32 2.39
-6.90 -6.47 2.39
-4.89 -4.78 1.73
-4.71 -4.78 1.69
-4.52 -4.78 1.66
-4.35 -4.78 1.62
-4.18 -4.78 1.59
-4.01 -4.78 1.57
-3.85 -4.78 1.54
-3.70 -4.79 1.51
-3.55 -4.79 1.49
-3.41 -4.79 1.47
-3.31 -4.85 1.46
-3.23 -4.95 1.47
-3.23 -5.17 1.52
-3.23 -5.41 1.56
-3.23 -5.66 1.62
-3.23 -5.93 1.67
-3.23 -6.22 1.74
-3.23 -6.54 1.80
-3.23 -6.88 1.88
-3.23 -7.25 1.96
-3.23 -7.65 2.05
-3.23 -8.10 2.15
-3.22 -8.55 2.25
-3.38 -9.56 2.50
-3.19 -9.63 2.50
-3.00 -9.69 2.50
-2.81 -9.75 2.50
-2.61 -9.81 2.50
-2.42 -9.86 2.50
-2.22 -9.91 2.50
-2.02 -9.95 2.50
-1.83 -9.99 2.50
-1.63 -10.02 2.50
-1.43 -10.05 2.50
-1.23 -10.08 2.50
-1.03 -10.10 2.50
-0.82 -10.11 2.50
-0.62 -10.12 2.50
-0.42 -10.13 2.50
-0.22 -10.13 2.50
-0.02 -9.23 2.50
0.17 -9.22 2.50
0.35 -9.21 2.50
0.53 -9.20 2.50
0.71 -9.18 2.50
0.89 -9.16 2.50
1.08 -9.13 2.50
1.26 -9.10 2.50
1.44 -9.06 2.50
1.61 -9.02 2.50
1.79 -8.98 2.50
1.93 -8.76 2.45
2.05 -8.52 2.39
2.22 -8.46 2.39
2.39 -8.41 2.39
2.55 -8.35 2.39
2.71 -8.29 2.39
2.87 -8.22 2.39
3.03 -8.15 2.39
3.19 -8.08 2.39
3.34 -8.00 2.39
3.50 -7.92 2.39
3.65 -7.84 2.39
3.80 -7.75 2.39
3.94 -7.66 2.39
4.09 -7.57 2.39
4.23 -7.47 2.39
4.37 -7.37 2.39
4.51 -7.27 2.39
4.64 -7.17 2.39
4.78 -7.06 2.39
4.91 -6.95 2.39
5.03 -6.84 2.39
5.16 -6.72 2.39
5.28 -6.60 2.39
5.40 -6.48 2.39
5.52 -6.36 2.39
5.63 -6.24 2.39
5.74 -6.11 2.39
5.85 -5.98 2.39
5.96 -5.85 2.39
6.10 -5.75 2.41
6.18 -5.60 2.40
6.26 -5.46 2.40
6.35 -5.31 2.39
6.43 -5.16 2.39
6.51 -5.02 2.39
6.65 -4.92 2.41
6.73 -4.77 2.41
6.81 -4.63 2.41
6.72 -4.37 2.35
6.70 -4.17 2.32
6.65 -3.96 2.28
6.60 -3.75 2.24
6.55 -3.55 2.21
6.46 -3.34 2.16
6.42 -3.16 2.13
6.41 -2.99 2.11
6.37 -2.82 2.08
6.35 -2.66 2.06
6.35 -2.51 2.05
6.32 -2.35 2.03
6.32 -2.21 2.02
6.32 -2.07 2.01
6.35 -1.94 2.02
6.35 -1.80 2.01
6.35 -1.67 2.00
6.35 -1.53 2.00
6.35 -1.40 2.00
6.32 -1.26 1.98
6.32 -1.13 1.98
6.35 -1.00 1.99
6.35 -0.87 1.99
6.36 -0.74 1.99
6.35 -0.61 1.99
6.35 -0.48 1.99
6.32 -0.35 1.98
6.32 -0.23 1.98
6.32 -0.10 1.99
6.35 0.03 2.00
6.36 0.16 2.01
6.36 0.28 2.01
6.36 0.41 2.02
6.36 0.54 2.03
6.32 0.67 2.03
6.33 0.80 2.04
6.33 0.92 2.05
6.36 1.06 2.07
6.36 1.19 2.08
6.49 1.35 2.14
7.27 1.67 2.41
7.22 1.81 2.41
7.17 1.95 2.41
7.11 2.09 2.41
7.05 2.23 2.41
6.99 2.37 2.41
6.93 2.50 2.41
6.86 2.64 2.41
6.79 2.77 2.41
6.72 2.90 2.41
6.65 3.03 2.41
6.58 3.16 2.41
6.50 3.28 2.41
6.42 3.41 2.41
6.34 3.53 2.41
6.25 3.65 2.41
6.17 3.77 2.41
6.08 3.89 2.41
5.95 3.98 2.39
5.86 4.09 2.39
5.77 4.20 2.39
5.67 4.31 2.39
5.57 4.42 2.39
5.48 4.52 2.39
5.37 4.63 2.39
5.27 4.73 2.39
5.17 4.83 2.39
5.06 4.92 2.39
4.96 5.02 2.39
4.85 5.11 2.39
4.74 5.20 2.39
4.63 5.29 2.39
4.51 5.38 2.39
4.40 5.46 2.39
4.28 5.54 2.39
4.16 5.62 2.39
4.04 5.70 2.39
3.92 5.78 2.39
3.80 5.85 2.39
3.68 5.92 2.39
3.56 5.99 2.39
3.43 6.06 2.39
3.31 6.12 2.39
3.02 5.87 2.27
2.99 6.12 2.35
2.87 6.19 2.36
2.75 6.25 2.36
2.53 6.08 2.27
2.41 6.15 2.28
2.40 6.50 2.39
2.26 6.55 2.39
2.13 6.59 2.39
2.00 6.63 2.39
1.94 6.96 2.50
1.80 6.99 2.50
1.66 7.03 2.50
1.51 7.06 2.50
1.37 7.09 2.50
1.23 7.11 2.50
1.08 7.14 2.50
0.94 7.16 2.50
0.79 7.18 2.50
0.64 7.19 2.50
0.50 7.21 2.50
0.35 7.22 2.50
0.21 7.23 2.50
0.06 7.23 2.50
-0.09 7.23 2.50
-0.23 7.23 2.50
-0.38 7.23 2.50
-0.53 7.23 2.50
-0.68 7.22 2.50
-0.82 7.21 2.50
-0.97 7.19 2.50
-1.12 7.18 2.50
-1.26 7.16 2.50
-1.41 7.14 2.50
-1.55 7.12 2.50
-1.70 7.09 2.50
-1.84 7.06 2.50
-1.99 7.03 2.50
-2.13 6.99 2.50
-2.28 6.96 2.50
-2.42 6.92 2.50
-2.56 6.87 2.50
-2.71 6.83 2.50
-2.85 6.78 2.50
-2.99 6.73 2.50
-3.13 6.68 2.50
-3.27 6.62 2.50
-3.40 6.56 2.50
-3.54 6.50 2.50
-3.68 6.44 2.50
-3.81 6.37 2.50
-3.95 6.30 2.50
-4.08 6.23 2.50
-4.21 6.16 2.50
-4.34 6.08 2.50
-4.47 6.00 2.50
-4.60 5.92 2.50
-4.73 5.84 2.50
-4.85 5.75 2.50
-4.98 5.66 2.50
-5.10 5.57 2.50
-5.22 5.48 2.50
-5.34 5.38 2.50
-5.46 5.28 2.50
-5.58 5.18 2.50
-5.69 5.08 2.50
-5.81 4.97 2.50
-5.92 4.86 2.50
-6.03 4.75 2.50
-6.07 4.59 2.47
-6.07 4.41 2.43
-6.08 4.23 2.40
-6.18 4.11 2.39
-6.28 4.00 2.40
-6.37 3.88 2.39
-6.46 3.76 2.39
-6.55 3.63 2.39
-6.63 3.51 2.39
-6.72 3.38 2.39
-6.80 3.26 2.39
-6.88 3.12 2.39
-6.96 2.99 2.39
-7.04 2.86 2.39
-7.11 2.72 2.39
-7.18 2.59 2.39
-7.25 2.45 2.39
-7.31 2.31 2.39
-7.38 2.16 2.39
-7.44 2.02 2.39
-7.49 1.88 2.39
-7.55 1.73 2.39
-7.60 1.58 2.39
-7.65 1.43 2.39
-7.70 1.28 2.39
-7.74 1.13 2.39
-7.78 0.98 2.39
-7.82 0.82 2.39
-7.85 0.67 2.39
-7.88 0.51 2.39
-7.91 0.35 2.39
-7.94 0.20 2.39
-7.96 0.04 2.39
-7.98 -0.12 2.39
-7.99 -0.28 2.39
-8.01 -0.44 2.39
-8.01 -0.60 2.39
-8.02 -0.77 2.39
-8.02 -0.93 2.39
-8.02 -1.09 2.39
-8.02 -1.26 2.39
-8.01 -1.42 2.39
-8.00 -1.58 2.39
-7.99 -1.75 2.39
-7.97 -1.91 2.39
-7.95 -2.07 2.39
-7.92 -2.24 2.39
-7.90 -2.40 2.39
-7.86 -2.56 2.39
-7.83 -2.73 2.39
-7.79 -2.89 2.39
-7.75 -3.05 2.39
-7.70 -3.21 2.39
-7.65 -3.37 2.39
-7.60 -3.53 2.39
-7.55 -3.69 2.39
-7.49 -3.85 2.39
-7.42 -4.00 2.39
-7.36 -4.16 2.39
-7.29 -4.31 2.39
-7.21 -4.47 2.39
-7.14 -4.62 2.39
-7.06 -4.77 2.39
-6.97 -4.92 2.39
-6.89 -5.07 2.39
-6.80 -5.21 2.39
-6.70 -5.36 2.39
-6.61 -5.50 2.39
-6.51 -5.64 2.39
-6.41 -5.78 2.39
-6.31 -5.92 2.40
-4.88 -4.77 1.89
-4.69 -4.77 1.85
-4.51 -4.77 1.81
-4.34 -4.77 1.78
-4.17 -4.77 1.74
-4.00 -4.78 1.71
-3.85 -4.78 1.68
-3.69 -4.78 1.66
-3.54 -4.78 1.63
-3.40 -4.78 1.60
-3.26 -4.78 1.58
-3.23 -4.95 1.61
-3.23 -5.17 1.66
-3.23 -5.41 1.72
-3.23 -5.66 1.77
-3.23 -5.93 1.84
-3.23 -6.23 1.90
-3.23 -6.54 1.98
-3.23 -6.88 2.06
-3.23 -7.25 2.15
-3.23 -7.66 2.25
-3.42 -8.57 2.50
-3.25 -8.64 2.50
-3.08 -8.71 2.50
-2.91 -8.77 2.50
-2.73 -8.83 2.50
-2.56 -8.89 2.50
-2.38 -8.94 2.50
-2.20 -8.98 2.50
-2.02 -9.03 2.50
-1.84 -9.07 2.50
-1.66 -9.10 2.50
-1.48 -9.13 2.50
-1.30 -9.16 2.50
-1.12 -9.18 2.50
-0.94 -9.20 2.50
-0.75 -9.21 2.50
-0.57 -9.22 2.50
-0.39 -9.23 2.50
-0.20 -9.23 2.50
-0.02 -8.47 2.50
0.15 -8.46 2.50
0.32 -8.45 2.50
0.49 -8.44 2.50
0.65 -8.42 2.50
0.82 -8.40 2.50
0.99 -8.38 2.50
1.15 -8.35 2.50
1.32 -8.32 2.50
1.48 -8.28 2.50
1.64 -8.25 2.50
1.80 -8.20 2.50
1.93 -8.02 2.46
2.04 -7.77 2.39
2.19 -7.72 2.39
2.34 -7.67 2.39
2.49 -7.61 2.39
2.63 -7.55 2.39
2.78 -7.49 2.39
2.92 -7.42 2.39
3.07 -7.35 2.39
3.21 -7.28 2.39
3.35 -7.20 2.39
3.49 -7.12 2.39
3.62 -7.04 2.39
3.75 -6.96 2.39
3.89 -6.87 2.39
4.02 -6.78 2.39
4.14 -6.69 2.39
4.27 -6.59 2.39
4.39 -6.50 2.39
4.51 -6.40 2.39
4.63 -6.29 2.39
4.74 -6.19 2.39
4.86 -6.08 2.39
4.97 -5.97 2.39
5.08 -5.86 2.39
5.18 -5.75 2.39
5.29 -5.63 2.39
5.39 -5.51 2.39
5.48 -5.40 2.39
5.58 -5.27 2.39
5.67 -5.15 2.39
5.76 -5.03 2.39
5.85 -4.90 2.39
5.93 -4.77 2.39
6.05 -4.67 2.41
6.13 -4.54 2.41
6.21 -4.41 2.41
6.28 -4.27 2.41
6.35 -4.14 2.41
6.42 -4.00 2.41
6.48 -3.86 2.41
6.54 -3.73 2.41
6.55 -3.56 2.39
6.47 -3.35 2.34
6.42 -3.16 2.31
6.41 -3.00 2.29
6.37 -2.83 2.26
6.35 -2.67 2.24
6.35 -2.52 2.22
6.32 -2.36 2.20
6.32 -2.22 2.19
6.32 -2.08 2.18
6.35 -1.95 2.18
6.35 -1.81 2.17
6.35 -1.67 2.17
6.35 -1.54 2.16
6.35 -1.40 2.16
6.32 -1.26 2.14
6.32 -1.13 2.14
6.35 -1.01 2.15
6.35 -0.88 2.15
6.36 -0.75 2.15
6.35 -0.62 2.14
6.35 -0.49 2.15
6.32 -0.36 2.14
6.32 -0.23 2.14
6.32 -0.10 2.14
6.35 0.02 2.16
6.36 0.15 2.17
6.36 0.28 2.17
6.36 0.41 2.18
6.36 0.54 2.19
6.32 0.66 2.19
6.33 0.79 2.20
6.33 0.92 2.21
6.36 1.06 2.23
6.36 1.19 2.24
6.49 1.35 2.30
6.75 1.54 2.41
6.70 1.68 2.41
6.65 1.81 2.41
6.60 1.94 2.41
6.55 2.07 2.41
6.49 2.19 2.41
6.44 2.32 2.41
6.38 2.44 2.41
6.31 2.57 2.41
6.25 2.69 2.41
6.18 2.81 2.41
6.11 2.93 2.41
6.04 3.05 2.41
5.93 3.14 2.39
5.85 3.26 2.39
5.78 3.37 2.39
5.70 3.48 2.39
5.62 3.59 2.39
5.54 3.69 2.39
5.45 3.80 2.39
5.36 3.90 2.39
5.28 4.01 2.39
5.19 4.11 2.39
5.10 4.20 2.39
5.00 4.30 2.39
4.91 4.40 2.39
4.81 4.49 2.39
4.71 4.58 2.39
4.61 4.67 2.39
4.51 4.75 2.39
4.41 4.84 2.39
4.31 4.92 2.39
4.20 5.00 2.39
4.10 5.08 2.39
3.99 5.16 2.39
3.88 5.23 2.39
3.77 5.31 2.39
3.66 5.38 2.39
3.54 5.45 2.39
3.43 5.51 2.39
3.31 5.58 2.39
3.04 5.35 2.27
3.00 5.54 2.33
2.91 5.66 2.36
2.80 5.72 2.36
2.68 5.77 2.36
2.47 5.62 2.27
2.41 5.79 2.33
2.36 6.01 2.39
2.23 6.06 2.39
2.11 6.10 2.39
1.99 6.16 2.40
1.94 6.44 2.50
1.81 6.48 2.50
1.68 6.51 2.50
1.54 6.55 2.50
1.41 6.57 2.50
1.28 6.60 2.50
1.14 6.63 2.50
1.01 6.65 2.50
0.87 6.67 2.50
0.74 6.69 2.50
0.60 6.70 2.50
0.46 6.71 2.50
0.33 6.72 2.50
0.19 6.73 2.50
0.05 6.74 2.50
-0.08 6.74 2.50
-0.22 6.74 2.50
-0.36 6.74 2.50
-0.49 6.73 2.50
-0.63 6.72 2.50
-0.77 6.71 2.50
-0.90 6.70 2.50
-1.04 6.68 2.50
-1.18 6.67 2.50
-1.31 6.65 2.50
-1.45 6.62 2.50
-1.59 6.60 2.50
-1.72 6.57 2.50
-1.85 6.54 2.50
-1.99 6.51 2.50
-2.12 6.47 2.50
-2.26 6.44 2.50
-2.39 6.40 2.50
-2.52 6.35 2.50
-2.65 6.31 2.50
-2.78 6.26 2.50
-2.91 6.21 2.50
-3.04 6.16 2.50
-3.17 6.10 2.50
-3.30 6.05 2.50
-3.42 5.99 2.50
-3.55 5.93 2.50
-3.68 5.86 2.50
-3.80 5.79 2.50
-3.92 5.72 2.50
-4.04 5.65 2.50
-4.16 5.58 2.50
-4.28 5.50 2.50
-4.40 5.42 2.50
-4.52 5.34 2.50
-4.63 5.26 2.50
-4.74 5.17 2.50
-4.86 5.09 2.50
-4.97 5.00 2.50
-5.08 4.90 2.50
-5.18 4.81 2.50
-5.29 4.71 2.50
-5.40 4.61 2.50
-5.50 4.51 2.50
-5.60 4.41 2.50
-5.70 4.30 2.50
-5.80 4.20 2.50
-5.89 4.09 2.50
-5.98 3.98 2.50
-6.07 3.86 2.50
-6.07 3.69 2.46
-6.08 3.53 2.43
-6.09 3.37 2.40
-6.16 3.25 2.39
-6.23 3.13 2.39
-6.31 3.01 2.39
-6.38 2.89 2.39
-6.45 2.77 2.39
-6.52 2.64 2.39
-6.59 2.52 2.39
-6.65 2.39 2.39
-6.72 2.26 2.39
-6.77 2.13 2.39
-6.83 2.00 2.39
-6.89 1.87 2.39
-6.94 1.73 2.39
-6.99 1.60 2.39
-7.04 1.46 2.39
-7.08 1.32 2.39
-7.12 1.18 2.39
-7.16 1.04 2.39
-7.20 0.90 2.39
-7.23 0.76 2.39
-7.26 0.61 2.39
-7.29 0.47 2.39
-7.31 0.32 2.39
-7.34 0.18 2.39
-7.35 0.03 2.39
-7.37 -0.12 2.39
-7.38 -0.27 2.39
-7.39 -0.42 2.39
-7.40 -0.56 2.39
-7.41 -0.71 2.39
-7.41 -0.86 2.39
-7.40 -1.01 2.39
-7.40 -1.16 2.39
-7.39 -1.32 2.39
-7.38 -1.47 2.39
-7.37 -1.62 2.39
-7.35 -1.77 2.39
-7.33 -1.92 2.39
-7.30 -2.07 2.39
-7.28 -2.22 2.39
