ply
format ascii 1.0
element vertex 2948
property float32 x
property float32 y
property float32 z
end_header
-0.98 14.05 2.50
-1.26 14.02 2.50
-1.54 13.98 2.50
-1.82 13.94 2.50
-2.10 13.89 2.50
-2.38 13.84 2.50
-2.66 13.79 2.50
-2.94 13.73 2.50
-3.21 13.66 2.50
-3.49 13.59 2.50
-3.76 13.52 2.50
-4.03 13.44 2.50
-4.30 13.36 2.50
-4.57 13.28 2.50
-4.84 13.19 2.50
-5.11 13.09 2.50
-5.38 12.99 2.50
-5.53 12.64 2.45
-5.66 12.25 2.39
-5.90 12.12 2.39
-6.06 11.85 2.36
-6.37 11.85 2.38
-6.65 11.80 2.39
-5.90 9.99 2.05
-7.14 11.55 2.39
-7.38 11.41 2.39
-7.62 11.28 2.39
-7.86 11.14 2.39
-8.09 10.99 2.39
-8.32 10.84 2.39
-8.56 10.69 2.39
-8.78 10.53 2.39
-9.01 10.37 2.39
-9.24 10.21 2.39
-9.46 10.04 2.39
-9.55 9.74 2.36
-9.57 9.00 2.27
-9.60 7.67 2.10
-9.59 7.05 2.02
-9.60 5.67 1.87
-9.63 4.21 1.73
-9.63 3.76 1.69
-9.65 2.27 1.57
-9.65 2.07 1.56
-9.65 1.86 1.55
-9.69 1.67 1.54
-32.26 -6.23 4.74
-27.48 -5.89 4.03
-24.79 -5.83 3.64
-22.83 -5.86 3.35
-21.14 -5.88 3.10
-19.67 -5.90 2.89
-18.38 -5.91 2.70
-17.23 -5.93 2.54
-16.21 -5.94 2.39
-15.29 -5.95 2.26
-14.45 -5.96 2.14
-13.69 -5.97 2.04
-12.99 -5.98 1.94
-12.35 -5.99 1.85
-11.76 -6.00 1.77
-11.22 -6.01 1.70
-10.77 -6.05 1.64
-14.74 -8.67 2.26
-14.64 -9.01 2.26
-14.53 -9.35 2.26
-14.41 -9.69 2.26
-14.29 -10.03 2.26
-14.16 -10.37 2.26
-14.02 -10.70 2.26
-13.88 -11.04 2.26
-13.73 -11.38 2.26
-13.57 -11.71 2.26
-13.40 -12.04 2.26
-13.22 -12.37 2.26
-13.04 -12.69 2.26
-12.84 -13.02 2.26
-12.64 -13.34 2.26
-12.44 -13.66 2.26
-12.22 -13.97 2.26
-12.00 -14.28 2.26
-11.77 -14.59 2.26
-11.34 -14.65 2.22
-10.88 -14.66 2.18
-10.44 -14.66 2.14
-10.00 -14.67 2.10
-23.98 -36.72 5.16
-22.61 -36.17 5.00
-9.95 -16.65 2.26
-20.54 -36.00 4.81
-9.91 -18.19 2.39
-9.58 -18.47 2.39
-9.25 -18.73 2.39
-8.91 -18.99 2.39
-8.56 -19.24 2.39
-8.21 -19.48 2.39
-7.84 -19.72 2.39
-7.48 -19.95 2.39
-6.90 -19.58 2.33
-6.38 -19.34 2.27
-6.32 -20.55 2.39
-5.98 -20.90 2.41
-5.78 -21.86 2.50
-5.36 -22.04 2.50
-4.93 -22.21 2.50
-4.50 -22.37 2.50
-4.07 -22.52 2.50
-3.62 -22.66 2.50
-3.18 -22.78 2.50
-2.73 -22.90 2.50
-2.28 -23.00 2.50
-1.82 -23.10 2.50
-1.36 -23.18 2.50
-0.90 -23.25 2.50
-0.44 -23.31 2.50
0.03 -19.24 2.50
0.41 -19.26 2.50
0.80 -19.28 2.50
1.19 -19.28 2.50
1.57 -19.27 2.50
1.96 -19.25 2.50
2.25 -18.43 2.39
2.62 -18.40 2.39
2.99 -18.35 2.39
3.35 -18.30 2.39
3.72 -18.23 2.39
4.08 -18.16 2.39
4.45 -18.08 2.39
4.81 -17.99 2.39
5.16 -17.89 2.39
2.55 -8.21 1.11
5.87 -17.66 2.39
5.99 -16.88 2.31
6.00 -15.90 2.19
6.01 -15.02 2.08
6.02 -14.21 1.99
6.03 -13.48 1.91
6.04 -12.81 1.83
6.05 -12.19 1.76
6.06 -11.61 1.70
6.07 -11.08 1.64
6.07 -10.59 1.58
6.08 -10.12 1.54
6.08 -9.69 1.49
6.07 -9.26 1.44
6.08 -8.88 1.41
6.09 -8.52 1.37
6.10 -8.18 1.34
6.10 -7.86 1.31
6.11 -7.55 1.28
6.13 -7.27 1.26
6.14 -6.99 1.23
6.14 -6.72 1.21
6.26 -6.58 1.21
6.26 -6.32 1.19
8.26 -8.02 1.54
6.27 -5.85 1.15
13.15 -11.78 2.38
6.17 -5.31 1.10
6.24 -5.15 1.10
13.17 -10.45 2.28
13.19 -10.04 2.26
6.30 -4.60 1.07
6.30 -4.41 1.05
13.56 -9.09 2.25
13.69 -8.79 2.25
13.81 -8.48 2.25
8.24 -4.84 1.33
8.01 -4.49 1.28
6.20 -3.31 0.99
6.21 -3.16 0.98
8.32 -4.02 1.31
8.73 -4.01 1.36
6.32 -2.75 0.98
14.53 -5.98 2.25
14.59 -5.67 2.25
6.33 -2.31 0.97
6.33 -2.17 0.97
14.72 -4.73 2.25
14.75 -4.41 2.25
6.33 -1.76 0.96
8.25 -2.11 1.25
6.33 -1.49 0.96
6.23 -1.33 0.95
6.23 -1.20 0.95
8.33 -1.43 1.27
8.38 -1.27 1.27
6.34 -0.83 0.97
14.71 -1.63 2.25
6.35 -0.58 0.97
14.63 -1.03 2.25
6.35 -0.32 0.98
14.50 -0.44 2.24
6.36 -0.07 0.99
14.31 0.14 2.23
14.26 0.42 2.23
14.22 0.71 2.24
14.16 0.99 2.24
6.25 0.56 1.00
6.25 0.69 1.00
6.25 0.82 1.01
8.31 1.26 1.35
8.28 1.42 1.36
8.26 1.59 1.37
7.97 1.70 1.33
6.37 1.49 1.07
12.86 3.29 2.18
6.38 1.77 1.09
12.24 3.66 2.12
12.09 3.88 2.12
13.44 4.61 2.38
6.38 2.33 1.14
13.18 5.12 2.39
6.28 2.59 1.15
6.28 2.74 1.17
12.83 5.90 2.42
12.74 6.17 2.43
12.68 6.46 2.46
12.63 6.75 2.48
12.57 7.05 2.51
12.46 7.32 2.52
12.33 7.58 2.54
12.19 7.84 2.55
12.05 8.10 2.57
6.40 4.49 1.39
6.27 4.59 1.38
6.27 4.79 1.41
6.27 4.99 1.44
6.28 5.20 1.47
6.28 5.42 1.50
6.28 5.65 1.53
6.29 5.89 1.57
6.29 6.13 1.61
6.29 6.39 1.64
6.30 6.65 1.69
6.30 6.93 1.73
6.30 7.22 1.78
6.31 7.53 1.82
6.31 7.85 1.88
6.32 8.19 1.93
6.32 8.54 1.99
6.33 8.92 2.06
6.33 9.32 2.13
6.34 9.74 2.20
6.34 10.20 2.28
6.35 10.68 2.37
6.19 10.91 2.39
5.95 11.00 2.39
5.72 11.09 2.39
5.48 11.18 2.39
5.24 11.26 2.39
5.00 11.33 2.39
4.76 11.40 2.39
4.52 11.47 2.39
4.27 11.54 2.39
4.03 11.59 2.39
3.79 11.65 2.39
3.55 11.70 2.39
3.30 11.75 2.39
3.06 11.79 2.39
2.82 11.83 2.39
2.57 11.86 2.39
2.43 12.40 2.50
2.17 12.43 2.50
1.92 12.45 2.50
1.67 12.47 2.50
1.41 12.48 2.50
1.16 12.49 2.50
0.90 12.50 2.50
0.65 12.50 2.50
0.40 12.50 2.50
0.14 12.49 2.50
-0.11 12.48 2.50
-0.36 12.46 2.50
-0.61 12.44 2.50
-0.86 12.42 2.50
-1.11 12.39 2.50
-1.36 12.36 2.50
-1.61 12.32 2.50
-1.86 12.28 2.50
-2.10 12.24 2.50
-2.35 12.19 2.50
-2.59 12.14 2.50
-2.84 12.08 2.50
-3.08 12.02 2.50
-3.32 11.95 2.50
-3.57 11.89 2.50
-3.81 11.81 2.50
-4.04 11.74 2.50
-4.28 11.66 2.50
-4.52 11.57 2.50
-4.75 11.48 2.50
-4.99 11.39 2.50
-5.22 11.29 2.50
-5.45 11.19 2.50
-5.56 10.85 2.44
-5.66 10.53 2.39
-5.88 10.42 2.39
-5.90 9.99 2.32
-6.31 10.20 2.39
-6.52 10.08 2.39
-6.73 9.96 2.39
-6.94 9.83 2.39
-7.15 9.70 2.39
-7.35 9.57 2.39
-7.55 9.43 2.39
-7.75 9.29 2.39
-7.95 9.15 2.39
-8.15 9.00 2.39
-8.34 8.85 2.39
-8.54 8.70 2.39
-8.73 8.54 2.39
-8.91 8.38 2.39
-9.10 8.21 2.39
-9.28 8.04 2.39
-9.46 7.87 2.39
-9.61 7.67 2.39
-25.93 19.86 6.33
-26.31 19.31 6.30
-9.60 6.75 2.26
-9.62 5.67 2.13
-9.62 5.16 2.07
-9.63 3.75 1.92
-9.65 2.89 1.85
-9.65 2.47 1.82
-9.68 0.09 1.69
-9.68 -0.30 1.68
-47.41 -9.20 8.08
-29.76 -6.40 5.07
-9.71 -2.29 1.65
-22.84 -5.88 3.89
-21.08 -5.88 3.60
-19.62 -5.90 3.35
-18.33 -5.91 3.14
-17.19 -5.93 2.95
-16.17 -5.94 2.78
-15.25 -5.95 2.63
-14.42 -5.97 2.50
-9.73 -4.26 1.69
-12.97 -5.98 2.26
-12.33 -5.99 2.16
-11.74 -6.00 2.07
-11.20 -6.01 1.99
-10.69 -6.01 1.91
-10.21 -6.02 1.84
-9.77 -6.03 1.77
-12.35 -7.96 2.26
-12.24 -8.24 2.26
-12.13 -8.53 2.26
-12.01 -8.81 2.26
-11.89 -9.09 2.26
-11.75 -9.36 2.26
-11.61 -9.64 2.26
-11.47 -9.91 2.26
-11.32 -10.19 2.26
-11.16 -10.45 2.26
-11.00 -10.72 2.26
-10.83 -10.99 2.26
-10.65 -11.25 2.26
-10.47 -11.51 2.26
-10.28 -11.76 2.26
-10.08 -12.02 2.26
-9.89 -12.28 2.26
-9.90 -12.81 2.31
-9.91 -13.36 2.37
-9.80 -13.78 2.39
-9.55 -14.03 2.39
-9.31 -14.27 2.39
-9.06 -14.51 2.39
-8.80 -14.74 2.39
-8.53 -14.97 2.39
-8.26 -15.19 2.39
-7.98 -15.41 2.39
-7.70 -15.62 2.39
-7.41 -15.82 2.39
-6.84 -15.40 2.30
-6.71 -15.95 2.36
-6.26 -15.76 2.30
-6.20 -16.58 2.39
-5.92 -16.85 2.41
-5.81 -17.64 2.50
-5.47 -17.81 2.50
-5.13 -17.96 2.50
-4.78 -18.11 2.50
-4.43 -18.25 2.50
-4.08 -18.38 2.50
-3.72 -18.51 2.50
-3.36 -18.62 2.50
-2.99 -18.73 2.50
-2.62 -18.82 2.50
-2.25 -18.91 2.50
-1.87 -18.99 2.50
-1.50 -19.06 2.50
-1.12 -19.12 2.50
-0.74 -19.17 2.50
-0.36 -19.21 2.50
0.03 -16.35 2.50
0.35 -16.36 2.50
0.68 -16.37 2.50
1.01 -16.37 2.50
1.34 -16.36 2.50
1.66 -16.35 2.50
1.99 -16.32 2.50
2.22 -15.61 2.39
2.53 -15.57 2.39
2.85 -15.53 2.39
3.16 -15.47 2.39
3.47 -15.41 2.39
3.77 -15.34 2.39
4.08 -15.26 2.39
4.38 -15.18 2.39
2.55 -8.21 1.30
4.98 -14.98 2.39
5.28 -14.88 2.39
5.57 -14.76 2.39
5.86 -14.64 2.39
6.02 -14.22 2.35
6.03 -13.48 2.25
6.04 -12.81 2.16
6.05 -12.19 2.07
6.06 -11.62 2.00
6.07 -11.09 1.93
6.07 -10.59 1.87
6.08 -10.13 1.81
6.08 -9.69 1.75
6.07 -9.26 1.70
6.08 -8.88 1.65
6.09 -8.52 1.61
6.10 -8.18 1.57
6.10 -7.86 1.54
6.11 -7.55 1.50
6.13 -7.28 1.48
6.14 -6.99 1.45
6.14 -6.73 1.42
6.15 -6.47 1.39
6.15 -6.22 1.37
6.16 -5.98 1.35
6.16 -5.75 1.32
6.17 -5.53 1.31
6.17 -5.32 1.29
6.18 -5.11 1.27
6.18 -4.91 1.25
6.18 -4.71 1.24
6.19 -4.52 1.22
6.22 -4.35 1.22
6.28 -4.22 1.22
6.34 -4.08 1.22
6.41 -3.94 1.22
12.29 -7.22 2.31
8.30 -4.66 1.55
6.20 -3.32 1.15
6.20 -3.16 1.14
8.37 -4.06 1.53
12.59 -5.79 2.28
6.32 -2.75 1.14
12.70 -5.24 2.28
12.75 -4.96 2.28
6.32 -2.32 1.13
12.82 -4.41 2.27
12.86 -4.14 2.27
6.33 -1.90 1.12
12.90 -3.59 2.27
8.20 -2.11 1.44
6.33 -1.49 1.11
6.23 -1.34 1.09
6.23 -1.21 1.09
6.34 -1.10 1.11
13.00 -1.98 2.28
6.34 -0.84 1.11
13.02 -1.45 2.29
6.35 -0.58 1.12
13.03 -0.93 2.30
6.35 -0.32 1.12
13.01 -0.41 2.31
6.35 -0.07 1.13
12.94 0.12 2.32
6.36 0.18 1.14
11.37 0.56 2.05
11.12 0.77 2.02
6.25 0.56 1.14
6.25 0.68 1.15
6.25 0.81 1.16
8.23 1.24 1.53
6.48 1.11 1.22
6.43 1.23 1.22
6.38 1.36 1.22
6.33 1.48 1.22
6.27 1.60 1.22
6.27 1.73 1.23
6.27 1.87 1.24
6.27 2.01 1.25
6.27 2.15 1.26
6.27 2.29 1.28
6.28 2.43 1.29
6.28 2.58 1.31
6.28 2.73 1.33
11.65 5.35 2.49
11.57 5.59 2.51
11.45 5.82 2.51
11.29 6.03 2.51
11.08 6.20 2.50
10.90 6.39 2.50
10.71 6.58 2.50
10.52 6.76 2.49
10.33 6.93 2.49
6.41 4.49 1.57
6.27 4.58 1.56
6.27 4.78 1.59
6.27 4.98 1.62
6.28 5.20 1.66
6.28 5.41 1.69
6.28 5.64 1.73
6.29 5.88 1.77
6.29 6.12 1.81
6.29 6.38 1.85
6.30 6.64 1.90
6.30 6.92 1.95
6.30 7.21 2.00
6.31 7.52 2.05
6.31 7.84 2.11
6.32 8.17 2.17
6.32 8.53 2.24
6.33 8.91 2.31
6.35 9.33 2.39
6.14 9.43 2.39
5.94 9.53 2.39
5.73 9.62 2.39
5.52 9.71 2.39
5.31 9.80 2.39
5.10 9.88 2.39
4.89 9.96 2.39
4.67 10.03 2.39
4.46 10.10 2.39
4.25 10.17 2.39
4.03 10.23 2.39
3.82 10.29 2.39
3.60 10.35 2.39
3.39 10.40 2.39
3.17 10.45 2.39
2.95 10.49 2.39
2.74 10.53 2.39
2.52 10.56 2.39
2.40 11.05 2.50
2.17 11.08 2.50
1.95 11.11 2.50
1.72 11.13 2.50
1.49 11.15 2.50
1.27 11.16 2.50
1.04 11.17 2.50
0.81 11.18 2.50
0.58 11.18 2.50
0.36 11.18 2.50
0.13 11.17 2.50
-0.09 11.16 2.50
-0.32 11.15 2.50
-0.54 11.13 2.50
-0.77 11.11 2.50
-0.99 11.09 2.50
-1.22 11.06 2.50
-1.44 11.03 2.50
-1.66 10.99 2.50
-1.88 10.95 2.50
-2.10 10.91 2.50
-2.32 10.86 2.50
-2.54 10.81 2.50
-2.76 10.76 2.50
-2.98 10.70 2.50
-3.19 10.64 2.50
-3.41 10.58 2.50
-3.62 10.51 2.50
-3.83 10.43 2.50
-4.05 10.36 2.50
-4.26 10.28 2.50
-4.46 10.19 2.50
-4.67 10.11 2.50
-4.88 10.02 2.50
-5.08 9.92 2.50
-5.29 9.83 2.50
-5.49 9.73 2.50
-5.57 9.43 2.45
-5.65 9.12 2.39
-5.83 9.01 2.39
-6.02 8.90 2.39
-6.21 8.79 2.39
-6.39 8.67 2.39
-6.57 8.55 2.39
-6.75 8.43 2.39
-6.93 8.30 2.39
-7.11 8.17 2.39
-7.28 8.04 2.39
-7.46 7.90 2.39
-7.63 7.76 2.39
-7.80 7.62 2.39
-7.96 7.48 2.39
-8.13 7.33 2.39
-8.29 7.17 2.39
-8.45 7.02 2.39
-8.61 6.86 2.39
-8.76 6.70 2.39
-8.91 6.54 2.39
-9.06 6.37 2.39
-9.21 6.20 2.39
-9.35 6.02 2.39
-9.50 5.85 2.39
-9.63 5.67 2.39
-9.62 4.66 2.27
-9.63 3.97 2.19
-9.63 3.74 2.17
-9.64 3.31 2.12
-9.67 0.86 1.95
-9.68 0.67 1.94
-9.68 -0.31 1.90
-47.32 -9.22 9.18
-43.12 -9.31 8.37
-9.71 -2.30 1.89
-24.59 -6.35 4.78
-22.14 -6.19 4.31
-19.56 -5.90 3.82
-9.74 -3.15 1.91
-9.73 -3.36 1.91
-16.13 -5.94 3.17
-15.22 -5.95 3.00
-12.47 -5.17 2.47
-9.73 -4.27 1.94
-12.38 -5.72 2.48
-12.30 -5.99 2.48
-9.76 -5.00 1.98
-11.17 -6.01 2.28
-9.76 -5.50 2.00
-10.20 -6.02 2.11
-9.75 -6.03 2.03
-10.73 -6.93 2.26
-10.63 -7.17 2.26
-10.53 -7.41 2.26
-10.42 -7.65 2.26
-10.30 -7.89 2.26
-10.18 -8.12 2.26
-10.05 -8.36 2.26
-9.92 -8.59 2.26
-9.85 -8.87 2.27
-9.85 -9.24 2.31
-9.86 -9.63 2.34
-9.86 -10.02 2.38
-9.74 -10.31 2.39
-9.57 -10.54 2.39
-9.39 -10.77 2.39
-9.21 -10.99 2.39
-9.02 -11.21 2.39
-8.82 -11.43 2.39
-8.62 -11.65 2.39
-8.42 -11.86 2.39
-8.21 -12.06 2.39
-7.99 -12.27 2.39
-7.77 -12.46 2.39
-7.54 -12.66 2.39
-7.31 -12.85 2.39
-7.08 -13.03 2.39
-6.83 -13.21 2.39
-6.59 -13.38 2.39
-6.34 -13.55 2.39
-6.08 -13.72 2.39
-5.89 -14.01 2.42
-5.80 -14.63 2.50
-5.52 -14.78 2.50
-5.24 -14.93 2.50
-4.96 -15.07 2.50
-4.66 -15.20 2.50
-4.37 -15.33 2.50
-4.07 -15.45 2.50
-3.77 -15.56 2.50
-3.47 -15.67 2.50
-3.16 -15.77 2.50
-2.85 -15.86 2.50
-2.54 -15.95 2.50
-2.23 -16.02 2.50
-1.91 -16.09 2.50
-1.59 -16.15 2.50
-1.27 -16.21 2.50
-0.95 -16.26 2.50
-0.62 -16.30 2.50
-0.30 -16.33 2.50
0.03 -14.20 2.50
0.31 -14.21 2.50
0.59 -14.22 2.50
0.88 -14.21 2.50
1.16 -14.20 2.50
1.45 -14.19 2.50
1.73 -14.16 2.50
2.01 -14.13 2.50
2.20 -13.51 2.39
2.47 -13.47 2.39
2.74 -13.43 2.39
3.01 -13.37 2.39
3.27 -13.31 2.39
3.54 -13.24 2.39
3.80 -13.17 2.39
2.54 -8.19 1.50
4.32 -13.00 2.39
4.58 -12.91 2.39
4.83 -12.81 2.39
5.09 -12.71 2.39
5.33 -12.59 2.39
5.58 -12.48 2.39
5.82 -12.35 2.39
6.06 -12.23 2.39
6.06 -11.62 2.30
6.07 -11.09 2.22
6.07 -10.60 2.15
6.08 -10.13 2.08
6.08 -9.70 2.02
6.07 -9.27 1.96
6.08 -8.89 1.90
6.09 -8.53 1.86
6.10 -8.19 1.81
6.10 -7.87 1.77
6.11 -7.56 1.73
6.13 -7.28 1.70
6.14 -7.00 1.66
6.14 -6.73 1.63
6.15 -6.47 1.60
6.15 -6.23 1.57
6.16 -5.99 1.55
6.16 -5.76 1.52
6.17 -5.54 1.50
6.17 -5.32 1.48
6.18 -5.11 1.46
6.18 -4.91 1.44
6.18 -4.72 1.42
6.19 -4.52 1.40
6.19 -4.34 1.39
6.19 -4.16 1.37
6.19 -3.98 1.36
6.19 -3.81 1.34
6.20 -3.65 1.33
6.20 -3.48 1.32
6.20 -3.32 1.31
6.20 -3.17 1.30
6.21 -3.01 1.29
6.21 -2.86 1.29
6.21 -2.71 1.28
6.21 -2.57 1.27
6.21 -2.42 1.27
6.21 -2.28 1.26
6.22 -2.14 1.26
6.22 -2.01 1.25
6.22 -1.87 1.25
6.22 -1.74 1.25
6.22 -1.60 1.24
6.23 -1.47 1.24
6.23 -1.34 1.24
6.23 -1.21 1.24
6.23 -1.08 1.24
6.23 -0.95 1.24
6.23 -0.83 1.24
6.24 -0.70 1.24
6.24 -0.58 1.25
6.24 -0.45 1.25
6.24 -0.32 1.25
6.24 -0.20 1.25
6.24 -0.07 1.26
6.24 0.05 1.26
6.25 0.18 1.27
6.25 0.30 1.27
6.25 0.43 1.28
6.25 0.55 1.29
6.25 0.68 1.30
6.25 0.81 1.30
6.26 0.94 1.31
6.26 1.06 1.32
6.26 1.19 1.33
6.26 1.32 1.34
6.26 1.46 1.35
6.26 1.59 1.36
6.27 1.73 1.38
6.27 1.86 1.39
6.27 2.00 1.40
6.27 2.14 1.42
6.27 2.28 1.43
6.28 2.43 1.45
6.28 2.57 1.47
6.28 2.72 1.49
10.23 4.68 2.45
10.10 4.87 2.45
9.94 5.04 2.44
9.77 5.21 2.44
9.60 5.37 2.43
9.44 5.53 2.42
7.74 4.75 2.02
7.41 4.75 1.96
7.67 5.14 2.06
6.43 4.49 1.76
6.27 4.57 1.75
6.27 4.77 1.78
6.27 4.98 1.81
6.28 5.19 1.85
6.28 5.41 1.89
6.28 5.63 1.93
6.29 5.87 1.97
6.29 6.11 2.01
6.29 6.37 2.06
6.30 6.63 2.11
6.30 6.91 2.17
6.30 7.20 2.22
6.31 7.51 2.28
6.31 7.83 2.35
6.26 8.09 2.39
6.08 8.19 2.39
5.90 8.30 2.39
5.72 8.39 2.39
5.53 8.49 2.39
5.35 8.58 2.39
5.16 8.66 2.39
4.98 8.74 2.39
4.79 8.82 2.39
4.60 8.90 2.39
4.41 8.97 2.39
4.22 9.04 2.39
4.03 9.11 2.39
3.83 9.17 2.39
3.64 9.23 2.39
3.45 9.28 2.39
3.25 9.33 2.39
3.06 9.38 2.39
2.87 9.42 2.39
2.68 9.51 2.41
2.48 9.54 2.40
2.38 9.95 2.50
2.17 9.98 2.50
1.97 10.01 2.50
1.76 10.03 2.50
1.56 10.05 2.50
1.35 10.07 2.50
1.15 10.08 2.50
0.94 10.09 2.50
0.74 10.10 2.50
0.53 10.10 2.50
0.33 10.10 2.50
0.12 10.10 2.50
-0.08 10.09 2.50
-0.29 10.08 2.50
-0.49 10.07 2.50
-0.69 10.05 2.50
-0.90 10.03 2.50
-1.10 10.00 2.50
-1.30 9.97 2.50
-1.50 9.94 2.50
-1.70 9.91 2.50
-1.90 9.87 2.50
-2.10 9.83 2.50
-2.30 9.78 2.50
-2.50 9.73 2.50
-2.69 9.68 2.50
-2.89 9.62 2.50
-3.08 9.56 2.50
-3.28 9.50 2.50
-3.47 9.43 2.50
-3.66 9.37 2.50
-3.85 9.29 2.50
-4.04 9.22 2.50
-4.23 9.14 2.50
-4.41 9.06 2.50
-4.60 8.97 2.50
-4.78 8.88 2.50
-4.96 8.79 2.50
-5.14 8.69 2.50
-5.32 8.60 2.50
-5.50 8.49 2.50
-5.59 8.26 2.46
-5.61 7.94 2.39
-5.79 7.85 2.40
-5.94 7.72 2.39
-5.96 7.43 2.34
-5.96 7.14 2.28
-6.10 7.00 2.27
-6.47 7.14 2.36
-6.55 6.94 2.33
-6.56 6.67 2.28
-6.68 6.53 2.27
-7.19 6.74 2.39
-7.34 6.61 2.39
-7.48 6.47 2.39
-7.62 6.33 2.39
-7.76 6.18 2.39
-7.90 6.04 2.39
-8.04 5.89 2.39
-8.17 5.73 2.39
-8.30 5.58 2.39
-8.43 5.42 2.39
-8.56 5.26 2.39
-8.68 5.10 2.39
-8.80 4.94 2.39
-8.92 4.77 2.39
-9.03 4.60 2.39
-9.15 4.42 2.39
-9.26 4.25 2.39
-9.36 4.07 2.39
-9.47 3.89 2.39
-9.57 3.71 2.39
-9.67 3.53 2.39
-9.65 2.25 2.27
-47.11 9.98 10.99
-9.66 1.84 2.24
-9.66 1.64 2.22
-9.68 0.07 2.14
-9.68 -0.32 2.13
-9.69 -0.71 2.12
-47.31 -9.26 10.31
-43.12 -9.35 9.41
-9.71 -2.31 2.12
-38.15 -9.89 8.34
-23.09 -6.48 5.06
-20.91 -6.32 4.59
-19.08 -6.19 4.20
-17.10 -5.93 3.78
-11.15 -4.12 2.47
-11.11 -4.36 2.47
-9.74 -4.05 2.18
-9.73 -4.28 2.19
-10.95 -5.07 2.47
-10.90 -5.32 2.48
-10.85 -5.57 2.48
-11.04 -5.95 2.55
-9.76 -5.51 2.27
-9.76 -5.77 2.28
-9.74 -6.03 2.30
-9.81 -6.35 2.34
-9.82 -6.63 2.36
-9.82 -6.93 2.39
-9.74 -7.17 2.39
-9.63 -7.39 2.39
-9.51 -7.60 2.39
-9.39 -7.82 2.39
-9.27 -8.03 2.39
-9.13 -8.24 2.39
-9.00 -8.45 2.39
-8.86 -8.66 2.39
-8.71 -8.86 2.39
-8.56 -9.07 2.39
-8.40 -9.27 2.39
-8.24 -9.46 2.39
-8.08 -9.66 2.39
-7.91 -9.85 2.39
-7.73 -10.03 2.39
-7.55 -10.22 2.39
-7.37 -10.40 2.39
-7.18 -10.57 2.39
-6.99 -10.75 2.39
-6.79 -10.92 2.39
-6.59 -11.08 2.39
-6.39 -11.24 2.39
-6.18 -11.40 2.39
-5.97 -11.55 2.39
-5.85 -11.91 2.44
-5.77 -12.35 2.50
-5.54 -12.49 2.50
-5.30 -12.63 2.50
-5.06 -12.77 2.50
-4.81 -12.90 2.50
-4.56 -13.02 2.50
-4.31 -13.14 2.50
-4.06 -13.25 2.50
-3.80 -13.36 2.50
-3.54 -13.46 2.50
-3.28 -13.55 2.50
-3.01 -13.64 2.50
-2.75 -13.72 2.50
-2.48 -13.80 2.50
-2.21 -13.87 2.50
-1.93 -13.94 2.50
-1.66 -13.99 2.50
-1.38 -14.04 2.50
-1.10 -14.09 2.50
-0.82 -14.13 2.50
-0.54 -14.16 2.50
-0.26 -14.18 2.50
0.03 -12.54 2.50
0.28 -12.55 2.50
0.53 -12.55 2.50
0.78 -12.55 2.50
1.03 -12.54 2.50
1.28 -12.52 2.50
1.53 -12.50 2.50
1.78 -12.47 2.50
2.03 -12.44 2.50
2.20 -12.00 2.42
2.42 -11.85 2.39
2.65 -11.80 2.39
2.89 -11.74 2.39
3.12 -11.68 2.39
3.35 -11.62 2.39
2.54 -8.19 1.70
3.81 -11.47 2.39
4.04 -11.39 2.39
4.26 -11.30 2.39
4.49 -11.21 2.39
4.71 -11.12 2.39
4.92 -11.01 2.39
5.14 -10.91 2.39
5.35 -10.79 2.39
5.56 -10.68 2.39
5.77 -10.55 2.39
5.97 -10.43 2.39
6.08 -10.14 2.36
6.08 -9.70 2.29
6.07 -9.27 2.22
6.08 -8.89 2.16
6.09 -8.53 2.10
6.10 -8.19 2.05
6.10 -7.87 2.00
6.11 -7.56 1.96
6.13 -7.29 1.92
6.14 -7.01 1.88
6.14 -6.74 1.84
6.15 -6.48 1.81
6.15 -6.23 1.78
6.16 -5.99 1.75
6.16 -5.76 1.72
6.17 -5.54 1.69
6.17 -5.33 1.67
6.18 -5.12 1.64
6.18 -4.92 1.62
6.18 -4.72 1.60
6.19 -4.53 1.58
6.19 -4.34 1.56
6.19 -4.16 1.55
6.19 -3.99 1.53
6.19 -3.82 1.51
6.20 -3.65 1.50
6.20 -3.49 1.49
6.20 -3.33 1.48
6.20 -3.17 1.47
6.21 -3.02 1.45
6.21 -2.87 1.45
6.21 -2.72 1.44
6.21 -2.57 1.43
6.21 -2.43 1.42
6.21 -2.29 1.42
6.22 -2.15 1.41
6.22 -2.01 1.41
6.22 -1.87 1.40
6.22 -1.74 1.40
6.22 -1.61 1.39
6.23 -1.48 1.39
6.23 -1.35 1.39
6.23 -1.22 1.39
6.23 -1.09 1.39
6.23 -0.96 1.39
6.23 -0.83 1.39
6.24 -0.71 1.39
6.24 -0.58 1.39
6.24 -0.45 1.40
6.24 -0.33 1.40
6.24 -0.20 1.40
6.24 -0.08 1.41
6.24 0.05 1.41
6.25 0.17 1.42
6.25 0.30 1.42
6.25 0.42 1.43
6.25 0.55 1.44
6.25 0.67 1.44
6.25 0.80 1.45
6.26 0.93 1.46
6.26 1.06 1.47
6.26 1.19 1.48
5.83 1.23 1.39
5.66 1.31 1.36
5.62 1.42 1.36
5.59 1.53 1.36
5.53 1.64 1.36
6.27 1.99 1.56
6.27 2.13 1.58
6.27 2.28 1.59
6.28 2.42 1.61
6.28 2.57 1.63
6.28 2.72 1.65
8.64 3.95 2.29
8.54 4.11 2.30
8.44 4.27 2.30
8.33 4.43 2.30
8.23 4.59 2.30
8.51 4.98 2.42
7.76 4.75 2.24
7.42 4.75 2.17
7.11 4.75 2.12
6.44 4.49 1.95
6.27 4.57 1.93
6.27 4.76 1.96
6.27 4.97 2.00
6.28 5.18 2.04
6.28 5.40 2.08
6.28 5.62 2.13
6.29 5.86 2.17
6.29 6.10 2.22
6.29 6.36 2.27
6.30 6.62 2.33
6.32 6.92 2.39
6.16 7.03 2.39
6.01 7.14 2.39
5.85 7.24 2.39
5.69 7.34 2.39
5.52 7.43 2.39
5.36 7.53 2.39
5.20 7.62 2.39
5.03 7.70 2.39
4.86 7.79 2.39
4.69 7.87 2.39
4.53 7.94 2.39
4.36 8.02 2.39
4.18 8.09 2.39
4.01 8.15 2.39
3.84 8.22 2.39
3.67 8.28 2.39
3.49 8.34 2.39
3.32 8.39 2.39
3.14 8.44 2.39
2.97 8.49 2.39
2.79 8.54 2.39
2.61 8.58 2.39
2.47 8.73 2.43
2.35 9.02 2.50
2.17 9.06 2.50
1.98 9.09 2.50
1.79 9.11 2.50
1.61 9.14 2.50
1.42 9.16 2.50
1.23 9.17 2.50
1.05 9.19 2.50
0.86 9.20 2.50
0.67 9.20 2.50
0.49 9.21 2.50
0.30 9.21 2.50
0.11 9.21 2.50
-0.07 9.20 2.50
-0.26 9.19 2.50
-0.45 9.18 2.50
-0.63 9.16 2.50
-0.82 9.14 2.50
-1.00 9.12 2.50
-1.18 9.09 2.50
-1.37 9.06 2.50
-1.55 9.03 2.50
-1.73 9.00 2.50
-1.91 8.96 2.50
-2.09 8.92 2.50
-2.28 8.87 2.50
-2.45 8.82 2.50
-2.63 8.77 2.50
-2.81 8.72 2.50
-2.99 8.66 2.50
-3.16 8.60 2.50
-3.34 8.54 2.50
-3.51 8.47 2.50
-3.68 8.40 2.50
-3.85 8.33 2.50
-4.02 8.25 2.50
-4.19 8.18 2.50
-4.36 8.09 2.50
-4.53 8.01 2.50
-4.69 7.92 2.50
-4.85 7.83 2.50
-5.02 7.74 2.50
-5.18 7.64 2.50
-5.33 7.54 2.50
-5.49 7.44 2.50
-5.60 7.28 2.48
-5.61 6.99 2.42
-5.71 6.83 2.39
-5.85 6.72 2.39
-5.97 6.58 2.38
-5.97 6.32 2.33
-5.98 6.07 2.28
-6.08 5.94 2.27
-6.44 6.03 2.36
-6.56 5.90 2.35
-6.57 5.67 2.31
-6.59 5.46 2.27
-6.71 5.34 2.27
-7.19 5.49 2.39
-7.31 5.35 2.39
-7.43 5.21 2.39
-7.55 5.07 2.39
-7.67 4.92 2.39
-7.78 4.78 2.39
-7.89 4.63 2.39
-8.00 4.48 2.39
-8.10 4.33 2.39
-8.21 4.17 2.39
-8.31 4.01 2.39
-8.41 3.85 2.39
-8.50 3.69 2.39
-8.59 3.53 2.39
-8.68 3.36 2.39
-8.77 3.19 2.39
-8.85 3.02 2.39
-8.94 2.85 2.39
-9.01 2.68 2.39
-9.09 2.50 2.39
-9.16 2.32 2.39
-9.23 2.14 2.39
-9.30 1.96 2.39
-9.36 1.78 2.39
-9.42 1.59 2.39
-9.48 1.41 2.39
-9.53 1.22 2.39
-9.58 1.03 2.39
-9.62 0.84 2.39
-9.67 0.65 2.39
-9.71 0.46 2.39
-10.82 0.07 2.65
-10.72 -0.14 2.62
-9.68 -0.32 2.36
-10.48 -0.56 2.55
-10.36 -0.76 2.51
-10.23 -0.96 2.48
-10.23 -1.17 2.48
-10.24 -1.38 2.48
-10.24 -1.59 2.48
-10.24 -1.80 2.48
-10.23 -2.01 2.48
-10.21 -2.22 2.48
-9.71 -2.32 2.36
-10.17 -2.65 2.47
-10.15 -2.86 2.47
-10.18 -3.09 2.49
-10.22 -3.33 2.51
-9.73 -3.38 2.39
-9.70 -3.59 2.39
-9.65 -3.80 2.39
-9.61 -4.00 2.39
-9.55 -4.21 2.39
-9.50 -4.41 2.39
-9.44 -4.62 2.39
-9.37 -4.82 2.39
-9.31 -5.02 2.39
-9.23 -5.22 2.39
-9.16 -5.43 2.39
-9.07 -5.63 2.39
-8.99 -5.82 2.39
-8.90 -6.02 2.39
-8.80 -6.22 2.39
-8.70 -6.41 2.39
-8.60 -6.61 2.39
-8.49 -6.80 2.39
-8.38 -6.99 2.39
-8.27 -7.18 2.39
-8.15 -7.36 2.39
-8.02 -7.55 2.39
-7.89 -7.73 2.39
-7.76 -7.91 2.39
-7.62 -8.09 2.39
-7.48 -8.26 2.39
-7.33 -8.43 2.39
-7.19 -8.60 2.39
-7.03 -8.77 2.39
-6.87 -8.93 2.39
-6.71 -9.09 2.39
-6.55 -9.25 2.39
-6.38 -9.40 2.39
-6.21 -9.55 2.39
-6.03 -9.70 2.39
-5.85 -9.84 2.39
-5.83 -10.27 2.46
-5.72 -10.56 2.50
-5.52 -10.69 2.50
-5.32 -10.83 2.50
-5.11 -10.96 2.50
-4.90 -11.08 2.50
-4.69 -11.20 2.50
-4.48 -11.32 2.50
-4.26 -11.43 2.50
-4.04 -11.53 2.50
-3.81 -11.64 2.50
-3.59 -11.73 2.50
-3.36 -11.82 2.50
-3.13 -11.91 2.50
-2.90 -11.99 2.50
-2.66 -12.07 2.50
-2.42 -12.14 2.50
-2.19 -12.20 2.50
-1.95 -12.26 2.50
-1.70 -12.32 2.50
-1.46 -12.37 2.50
-1.21 -12.41 2.50
-0.97 -12.45 2.50
-0.72 -12.48 2.50
-0.47 -12.50 2.50
-0.22 -12.52 2.50
0.03 -11.21 2.50
0.25 -11.22 2.50
0.47 -11.22 2.50
0.70 -11.22 2.50
0.92 -11.21 2.50
1.14 -11.19 2.50
1.37 -11.17 2.50
1.59 -11.15 2.50
1.81 -11.12 2.50
2.03 -11.08 2.50
2.21 -10.82 2.45
2.37 -10.54 2.39
2.58 -10.50 2.39
2.79 -10.44 2.39
3.00 -10.39 2.39
2.54 -8.19 1.90
3.41 -10.25 2.39
3.61 -10.18 2.39
3.81 -10.11 2.39
4.01 -10.02 2.39
4.21 -9.94 2.39
4.40 -9.85 2.39
4.59 -9.75 2.39
4.78 -9.65 2.39
4.97 -9.55 2.39
5.16 -9.44 2.39
5.34 -9.33 2.39
5.52 -9.21 2.39
5.70 -9.09 2.39
5.87 -8.97 2.39
6.04 -8.84 2.39
6.09 -8.54 2.35
6.10 -8.20 2.29
6.10 -7.88 2.24
6.11 -7.57 2.19
6.13 -7.29 2.14
6.14 -7.01 2.10
6.14 -6.74 2.06
6.15 -6.48 2.02
6.15 -6.24 1.98
6.16 -6.00 1.95
6.16 -5.77 1.92
6.17 -5.55 1.89
6.17 -5.33 1.86
6.18 -5.12 1.83
6.18 -4.92 1.81
6.18 -4.73 1.78
6.19 -4.53 1.76
6.19 -4.35 1.74
6.19 -4.17 1.72
6.19 -3.99 1.70
6.19 -3.82 1.69
6.20 -3.66 1.67
6.20 -3.49 1.66
6.20 -3.33 1.64
6.20 -3.17 1.63
6.20 -3.02 1.62
6.21 -2.87 1.61
6.21 -2.72 1.60
6.21 -2.58 1.59
6.21 -2.43 1.58
6.21 -2.29 1.57
6.22 -2.15 1.57
6.22 -2.02 1.56
6.22 -1.88 1.56
6.22 -1.74 1.55
6.22 -1.61 1.55
6.22 -1.48 1.54
6.23 -1.35 1.54
6.23 -1.22 1.54
6.23 -1.09 1.54
6.23 -0.96 1.54
6.23 -0.84 1.54
6.23 -0.71 1.54
6.24 -0.59 1.54
6.24 -0.46 1.54
6.24 -0.33 1.55
6.24 -0.21 1.55
6.24 -0.08 1.55
6.24 0.04 1.56
6.25 0.17 1.56
6.25 0.29 1.57
6.25 0.42 1.58
6.25 0.54 1.59
6.25 0.67 1.59
6.25 0.80 1.60
6.26 0.92 1.61
6.26 1.05 1.62
6.26 1.18 1.63
5.99 1.26 1.57
5.52 1.27 1.46
5.53 1.39 1.48
5.52 1.51 1.49
5.54 1.64 1.50
6.27 1.99 1.72
6.27 2.13 1.73
6.27 2.27 1.75
6.28 2.42 1.77
6.28 2.56 1.79
6.28 2.71 1.81
7.92 3.61 2.31
7.84 3.76 2.31
7.75 3.92 2.32
7.67 4.07 2.32
7.58 4.22 2.33
7.49 4.37 2.33
7.39 4.51 2.34
7.30 4.66 2.34
7.16 4.78 2.34
6.45 4.49 2.14
6.27 4.56 2.11
6.27 4.76 2.15
6.27 4.96 2.19
6.28 5.17 2.24
5.33 4.58 1.94
5.15 4.61 1.91
5.06 4.71 1.91
5.05 4.89 1.95
6.06 6.11 2.39
5.92 6.22 2.39
5.78 6.32 2.39
5.64 6.42 2.39
5.49 6.52 2.39
5.35 6.61 2.39
5.20 6.71 2.39
5.06 6.80 2.39
4.91 6.88 2.39
4.76 6.96 2.39
4.61 7.05 2.39
4.45 7.12 2.39
4.30 7.20 2.39
4.15 7.27 2.39
3.99 7.34 2.39
3.84 7.40 2.39
3.68 7.47 2.39
3.52 7.53 2.39
3.36 7.58 2.39
3.20 7.64 2.39
3.04 7.69 2.39
2.88 7.74 2.39
2.72 7.78 2.39
2.56 7.82 2.39
2.45 8.05 2.45
2.33 8.24 2.50
2.16 8.27 2.50
1.99 8.30 2.50
1.82 8.33 2.50
1.65 8.36 2.50
1.48 8.38 2.50
1.31 8.40 2.50
1.13 8.42 2.50
0.96 8.43 2.50
0.79 8.44 2.50
0.62 8.45 2.50
0.45 8.45 2.50
0.28 8.45 2.50
0.11 8.45 2.50
-0.07 8.44 2.50
-0.24 8.43 2.50
-0.41 8.42 2.50
-0.58 8.41 2.50
-0.75 8.39 2.50
-0.92 8.37 2.50
-1.09 8.35 2.50
-1.25 8.32 2.50
-1.42 8.29 2.50
-1.59 8.26 2.50
-1.76 8.22 2.50
-1.92 8.19 2.50
-2.09 8.15 2.50
-2.25 8.10 2.50
-2.42 8.05 2.50
-2.58 8.00 2.50
-2.74 7.95 2.50
-2.90 7.90 2.50
-3.06 7.84 2.50
-3.22 7.78 2.50
-3.38 7.71 2.50
-3.54 7.65 2.50
-3.69 7.58 2.50
-3.85 7.50 2.50
-4.00 7.43 2.50
-4.16 7.35 2.50
-4.31 7.27 2.50
-4.46 7.19 2.50
-4.60 7.10 2.50
-4.75 7.01 2.50
-4.90 6.92 2.50
-5.04 6.83 2.50
-5.18 6.73 2.50
-5.32 6.63 2.50
-5.46 6.53 2.50
-5.60 6.42 2.50
-5.62 6.18 2.45
-5.63 5.95 2.40
-5.75 5.84 2.39
-5.88 5.73 2.39
-5.98 5.60 2.39
-5.98 5.38 2.34
-5.99 5.17 2.30
-6.04 5.00 2.27
-6.37 5.06 2.36
-6.48 4.94 2.36
-6.57 4.80 2.35
-6.58 4.61 2.31
-6.59 4.42 2.28
-6.66 4.28 2.27
-7.12 4.37 2.39
-7.22 4.23 2.39
-7.32 4.09 2.39
-7.42 3.95 2.39
-7.51 3.81 2.39
-7.60 3.67 2.39
-7.69 3.52 2.39
-7.78 3.37 2.39
-7.86 3.22 2.39
-7.94 3.06 2.39
-8.02 2.91 2.39
-8.09 2.76 2.39
-8.17 2.60 2.39
-8.24 2.44 2.39
-8.30 2.28 2.39
-8.37 2.11 2.39
-8.43 1.95 2.39
-8.49 1.78 2.39
-8.54 1.62 2.39
-8.60 1.45 2.39
-8.64 1.28 2.39
-8.69 1.11 2.39
-8.73 0.93 2.39
-8.77 0.76 2.39
-8.81 0.58 2.39
-8.84 0.41 2.39
-8.87 0.23 2.39
-8.90 0.05 2.39
-8.93 -0.13 2.39
-8.95 -0.31 2.39
-8.96 -0.49 2.39
-8.98 -0.67 2.39
-8.99 -0.85 2.39
-8.99 -1.04 2.39
-9.00 -1.22 2.39
-9.00 -1.40 2.39
-8.99 -1.59 2.39
-8.98 -1.77 2.39
-8.97 -1.96 2.39
-8.96 -2.15 2.39
-8.94 -2.33 2.39
-8.92 -2.52 2.39
-8.89 -2.70 2.39
-8.86 -2.89 2.39
-8.83 -3.08 2.39
-8.79 -3.26 2.39
-8.75 -3.45 2.39
-8.70 -3.63 2.39
-8.65 -3.82 2.39
-8.60 -4.00 2.39
-8.54 -4.19 2.39
-8.48 -4.37 2.39
-8.42 -4.55 2.39
-8.35 -4.73 2.39
-8.28 -4.91 2.39
-8.20 -5.09 2.39
-8.12 -5.27 2.39
-8.04 -5.45 2.39
-7.95 -5.62 2.39
-7.86 -5.80 2.39
-7.76 -5.97 2.39
-7.66 -6.14 2.39
-7.56 -6.31 2.39
-7.45 -6.48 2.39
-7.34 -6.65 2.39
-7.23 -6.81 2.39
-7.11 -6.97 2.39
-6.99 -7.13 2.39
-6.86 -7.29 2.39
-6.73 -7.45 2.39
-6.60 -7.60 2.39
-6.46 -7.75 2.39
-6.32 -7.90 2.39
-6.18 -8.04 2.39
-6.03 -8.18 2.39
-5.88 -8.32 2.39
-5.81 -8.58 2.43
-5.81 -8.96 2.50
-5.65 -9.10 2.50
-5.48 -9.23 2.50
-5.30 -9.36 2.50
-5.13 -9.48 2.50
-4.95 -9.60 2.50
-4.77 -9.72 2.50
-4.58 -9.84 2.50
-4.39 -9.95 2.50
-4.20 -10.05 2.50
-4.01 -10.15 2.50
-3.81 -10.25 2.50
-3.62 -10.34 2.50
-3.41 -10.43 2.50
-3.21 -10.52 2.50
-3.01 -10.60 2.50
-2.80 -10.67 2.50
-2.59 -10.74 2.50
-2.38 -10.81 2.50
-2.17 -10.87 2.50
-1.95 -10.93 2.50
-1.74 -10.98 2.50
-1.52 -11.03 2.50
-1.30 -11.07 2.50
-1.08 -11.10 2.50
-0.86 -11.14 2.50
-0.64 -11.16 2.50
-0.42 -11.19 2.50
-0.20 -11.20 2.50
0.03 -10.13 2.50
0.23 -10.14 2.50
0.43 -10.14 2.50
0.63 -10.13 2.50
0.83 -10.13 2.50
1.03 -10.11 2.50
1.24 -10.09 2.50
1.44 -10.07 2.50
1.64 -10.04 2.50
1.84 -10.01 2.50
2.04 -9.98 2.50
2.22 -9.87 2.48
2.33 -9.48 2.39
2.52 -9.43 2.39
2.71 -9.38 2.39
2.54 -8.19 2.10
3.08 -9.26 2.39
3.26 -9.20 2.39
3.44 -9.13 2.39
3.62 -9.05 2.39
3.80 -8.98 2.39
3.97 -8.90 2.39
4.15 -8.81 2.39
4.32 -8.72 2.39
4.49 -8.63 2.39
4.66 -8.53 2.39
4.82 -8.43 2.39
4.99 -8.33 2.39
5.15 -8.22 2.39
5.30 -8.11 2.39
5.46 -7.99 2.39
5.61 -7.87 2.39
5.76 -7.75 2.39
5.91 -7.63 2.39
6.05 -7.50 2.39
6.13 -7.30 2.37
6.14 -7.02 2.32
6.14 -6.75 2.28
6.15 -6.49 2.23
6.15 -6.24 2.19
6.16 -6.00 2.16
6.16 -5.77 2.12
6.17 -5.55 2.09
6.17 -5.34 2.06
6.18 -5.13 2.03
6.18 -4.93 2.00
6.18 -4.73 1.97
6.19 -4.54 1.95
6.19 -4.35 1.92
6.19 -4.17 1.90
6.19 -4.00 1.88
6.19 -3.83 1.86
6.20 -3.66 1.84
6.20 -3.50 1.83
6.20 -3.34 1.81
6.20 -3.18 1.80
6.20 -3.03 1.78
6.21 -2.88 1.77
6.21 -2.73 1.76
6.21 -2.58 1.75
6.21 -2.44 1.74
6.21 -2.30 1.73
6.22 -2.16 1.72
6.22 -2.02 1.72
6.22 -1.88 1.71
6.22 -1.75 1.71
6.22 -1.62 1.70
6.22 -1.49 1.70
6.23 -1.35 1.69
6.23 -1.23 1.69
6.23 -1.10 1.69
6.23 -0.97 1.69
6.23 -0.84 1.69
6.23 -0.72 1.69
6.24 -0.59 1.69
6.24 -0.46 1.69
6.24 -0.34 1.70
6.24 -0.21 1.70
6.24 -0.09 1.70
6.24 0.04 1.71
6.25 0.16 1.71
6.25 0.29 1.72
6.25 0.41 1.73
6.25 0.54 1.74
6.25 0.66 1.74
6.25 0.79 1.75
6.26 0.92 1.76
6.26 1.05 1.77
6.26 1.18 1.79
6.26 1.31 1.80
5.53 1.27 1.60
5.54 1.39 1.61
5.53 1.51 1.63
5.55 1.63 1.64
6.27 1.98 1.87
6.27 2.12 1.89
6.27 2.26 1.91
6.28 2.41 1.93
6.28 2.56 1.95
6.28 2.70 1.98
7.35 3.34 2.34
7.28 3.49 2.34
7.20 3.63 2.35
7.13 3.77 2.35
7.04 3.91 2.36
6.96 4.05 2.36
6.88 4.19 2.37
6.79 4.33 2.37
6.70 4.46 2.38
6.46 4.49 2.33
6.27 4.55 2.30
6.27 4.75 2.34
6.30 4.97 2.39
6.18 5.08 2.39
5.34 4.58 2.11
5.13 4.58 2.07
5.04 4.69 2.08
5.05 4.88 2.12
5.57 5.61 2.39
5.45 5.71 2.39
5.32 5.81 2.39
5.19 5.90 2.39
5.06 5.99 2.39
4.93 6.08 2.39
4.79 6.17 2.39
4.66 6.25 2.39
4.52 6.33 2.39
4.38 6.41 2.39
4.25 6.48 2.39
4.11 6.56 2.39
3.97 6.63 2.39
3.82 6.69 2.39
3.68 6.76 2.39
3.54 6.82 2.39
3.39 6.88 2.39
3.25 6.93 2.39
3.10 6.99 2.39
2.96 7.04 2.39
2.81 7.08 2.39
2.66 7.13 2.39
2.51 7.17 2.39
2.45 7.46 2.48
2.31 7.56 2.50
2.15 7.60 2.50
2.00 7.63 2.50
1.84 7.66 2.50
1.68 7.69 2.50
1.52 7.71 2.50
1.37 7.73 2.50
1.21 7.75 2.50
1.05 7.76 2.50
0.89 7.78 2.50
0.73 7.79 2.50
0.57 7.79 2.50
0.42 7.80 2.50
0.26 7.80 2.50
0.10 7.80 2.50
-0.06 7.79 2.50
-0.22 7.79 2.50
-0.37 7.78 2.50
-0.53 7.76 2.50
-0.69 7.75 2.50
-0.85 7.73 2.50
-1.00 7.71 2.50
-1.16 7.68 2.50
-1.31 7.66 2.50
-1.47 7.63 2.50
-1.62 7.59 2.50
-1.78 7.56 2.50
-1.93 7.52 2.50
-2.08 7.48 2.50
-2.23 7.44 2.50
-2.38 7.39 2.50
-2.53 7.34 2.50
-2.68 7.29 2.50
-2.83 7.24 2.50
-2.98 7.18 2.50
-3.12 7.12 2.50
-3.27 7.06 2.50
-3.41 6.99 2.50
-3.55 6.93 2.50
-3.70 6.86 2.50
-3.84 6.78 2.50
-3.98 6.71 2.50
-4.11 6.63 2.50
-4.25 6.55 2.50
-4.39 6.47 2.50
-4.52 6.38 2.50
-4.65 6.30 2.50
-4.78 6.21 2.50
-4.91 6.11 2.50
-5.04 6.02 2.50
-5.17 5.92 2.50
-5.29 5.82 2.50
-5.42 5.72 2.50
-5.54 5.62 2.50
-5.63 5.48 2.48
-5.63 5.27 2.43
-5.65 5.07 2.39
-5.76 4.96 2.39
-5.87 4.85 2.39
-5.97 4.74 2.39
-5.99 4.56 2.36
-6.00 4.38 2.32
-6.00 4.20 2.29
-6.05 4.05 2.27
-6.36 4.08 2.36
-6.46 3.96 2.36
-6.55 3.83 2.36
-6.59 3.68 2.34
-6.60 3.51 2.31
-6.60 3.34 2.28
-6.64 3.20 2.27
-6.72 3.07 2.27
-7.16 3.10 2.39
-7.23 2.96 2.39
-7.31 2.82 2.39
-7.37 2.67 2.39
-7.44 2.53 2.39
-7.51 2.38 2.39
-7.57 2.24 2.39
-7.64 2.09 2.39
-7.69 1.94 2.39
-7.75 1.79 2.39
-7.80 1.63 2.39
-7.85 1.48 2.39
-7.90 1.32 2.39
-7.94 1.17 2.39
-7.98 1.01 2.39
-8.02 0.85 2.39
-8.05 0.69 2.39
-8.09 0.53 2.39
-8.12 0.37 2.39
-8.14 0.21 2.39
-8.16 0.04 2.39
-8.18 -0.12 2.39
-8.20 -0.29 2.39
-8.22 -0.45 2.39
-8.23 -0.62 2.39
-8.23 -0.79 2.39
-8.24 -0.96 2.39
-8.24 -1.12 2.39
-8.24 -1.29 2.39
-8.23 -1.46 2.39
-8.22 -1.63 2.39
-8.21 -1.80 2.39
-8.19 -1.97 2.39
-8.17 -2.14 2.39
-8.15 -2.31 2.39
-8.13 -2.48 2.39
-8.10 -2.65 2.39
-8.06 -2.82 2.39
-8.03 -2.99 2.39
-7.99 -3.16 2.39
-7.94 -3.33 2.39
-7.90 -3.49 2.39
-7.85 -3.66 2.39
-7.79 -3.83 2.39
-7.74 -3.99 2.39
-7.68 -4.16 2.39
-7.61 -4.32 2.39
-7.54 -4.49 2.39
-7.47 -4.65 2.39
-7.40 -4.81 2.39
-7.32 -4.97 2.39
-7.24 -5.13 2.39
-7.15 -5.29 2.39
-7.06 -5.44 2.39
-6.97 -5.60 2.39
-6.88 -5.75 2.39
-6.78 -5.90 2.39
-6.68 -6.05 2.39
-6.57 -6.20 2.39
-6.46 -6.35 2.39
-6.35 -6.49 2.39
-6.23 -6.63 2.39
-6.11 -6.77 2.39
-5.99 -6.91 2.39
-5.87 -7.04 2.39
-5.80 -7.25 2.42
-5.80 -7.55 2.47
-5.71 -7.75 2.50
-5.57 -7.88 2.50
-5.42 -8.01 2.50
-5.27 -8.13 2.50
-5.12 -8.26 2.50
-4.96 -8.37 2.50
-4.81 -8.49 2.50
-4.64 -8.60 2.50
-4.48 -8.71 2.50
-4.32 -8.81 2.50
-4.15 -8.92 2.50
-3.98 -9.01 2.50
-3.80 -9.11 2.50
-3.63 -9.20 2.50
-3.45 -9.28 2.50
-3.27 -9.37 2.50
-3.09 -9.45 2.50
-2.90 -9.52 2.50
-2.72 -9.59 2.50
-2.53 -9.66 2.50
-2.34 -9.72 2.50
-2.15 -9.78 2.50
-1.96 -9.83 2.50
-1.76 -9.88 2.50
-1.57 -9.93 2.50
-1.37 -9.97 2.50
-1.17 -10.01 2.50
-0.98 -10.04 2.50
-0.78 -10.07 2.50
-0.58 -10.09 2.50
-0.38 -10.11 2.50
-0.18 -10.12 2.50
0.03 -9.23 2.50
0.21 -9.24 2.50
0.39 -9.24 2.50
0.58 -9.23 2.50
0.76 -9.22 2.50
0.94 -9.21 2.50
1.13 -9.19 2.50
1.31 -9.17 2.50
1.49 -9.15 2.50
1.67 -9.12 2.50
1.86 -9.09 2.50
2.04 -9.05 2.50
2.22 -9.01 2.50
2.30 -8.59 2.39
2.47 -8.54 2.39
2.54 -8.18 2.31
2.80 -8.44 2.39
2.97 -8.38 2.39
3.13 -8.31 2.39
3.30 -8.25 2.39
3.46 -8.18 2.39
3.62 -8.10 2.39
3.78 -8.03 2.39
3.93 -7.95 2.39
4.09 -7.86 2.39
4.24 -7.77 2.39
4.39 -7.68 2.39
4.54 -7.59 2.39
4.69 -7.49 2.39
4.83 -7.39 2.39
4.97 -7.28 2.39
5.11 -7.18 2.39
5.25 -7.07 2.39
5.38 -6.95 2.39
5.51 -6.84 2.39
5.64 -6.72 2.39
5.77 -6.60 2.39
5.89 -6.47 2.39
6.01 -6.35 2.39
6.13 -6.22 2.39
6.16 -6.01 2.36
6.16 -5.78 2.32
6.17 -5.56 2.29
6.17 -5.34 2.25
6.18 -5.13 2.22
6.18 -4.93 2.19
6.18 -4.74 2.16
6.19 -4.54 2.13
6.19 -4.36 2.11
6.19 -4.18 2.08
6.19 -4.00 2.06
6.19 -3.83 2.04
6.20 -3.67 2.02
6.20 -3.50 2.00
6.20 -3.34 1.98
6.20 -3.18 1.97
6.20 -3.03 1.95
6.21 -2.88 1.94
6.21 -2.73 1.92
6.21 -2.59 1.91
6.21 -2.44 1.90
6.21 -2.30 1.89
6.22 -2.16 1.88
6.22 -2.02 1.88
6.22 -1.89 1.87
6.22 -1.75 1.86
6.22 -1.62 1.86
6.22 -1.49 1.85
6.23 -1.36 1.85
6.23 -1.23 1.85
6.23 -1.10 1.84
6.23 -0.97 1.84
6.23 -0.85 1.84
6.23 -0.72 1.84
6.24 -0.60 1.84
6.24 -0.47 1.85
6.24 -0.34 1.85
6.24 -0.22 1.85
6.24 -0.09 1.86
6.24 0.03 1.86
6.25 0.16 1.87
6.25 0.28 1.87
6.25 0.41 1.88
6.25 0.53 1.89
6.25 0.66 1.90
6.25 0.79 1.91
6.26 0.91 1.92
6.26 1.04 1.93
6.26 1.17 1.94
6.26 1.30 1.96
5.55 1.27 1.74
5.54 1.39 1.76
5.54 1.50 1.77
5.55 1.63 1.79
6.27 1.98 2.04
6.27 2.12 2.05
6.27 2.26 2.07
6.28 2.40 2.10
6.28 2.55 2.12
6.28 2.70 2.14
6.87 3.12 2.37
5.50 2.63 1.92
5.50 2.77 1.95
5.33 2.82 1.91
6.58 3.65 2.39
6.50 3.78 2.39
6.42 3.90 2.39
6.32 4.02 2.39
6.22 4.14 2.39
6.13 4.25 2.39
6.03 4.37 2.39
5.92 4.48 2.39
5.82 4.59 2.39
5.71 4.69 2.39
5.38 4.60 2.30
5.14 4.58 2.24
5.05 4.69 2.25
5.08 4.90 2.31
5.16 5.19 2.39
5.04 5.28 2.39
4.92 5.37 2.39
4.80 5.46 2.39
4.68 5.54 2.39
4.56 5.62 2.39
4.44 5.70 2.39
4.31 5.78 2.39
4.19 5.86 2.39
4.06 5.93 2.39
3.93 6.00 2.39
3.80 6.07 2.39
3.67 6.13 2.39
3.54 6.19 2.39
3.41 6.25 2.39
3.28 6.31 2.39
3.15 6.37 2.39
3.01 6.42 2.39
2.88 6.47 2.39
2.74 6.52 2.39
2.61 6.56 2.39
2.47 6.61 2.39
2.43 6.93 2.50
2.29 6.97 2.50
2.14 7.01 2.50
2.00 7.04 2.50
1.85 7.07 2.50
1.71 7.10 2.50
1.56 7.12 2.50
1.42 7.15 2.50
1.27 7.17 2.50
1.12 7.19 2.50
0.98 7.20 2.50
0.83 7.21 2.50
0.68 7.22 2.50
0.53 7.23 2.50
0.39 7.23 2.50
0.24 7.23 2.50
0.09 7.23 2.50
-0.05 7.23 2.50
-0.20 7.22 2.50
-0.35 7.21 2.50
-0.49 7.20 2.50
-0.64 7.19 2.50
-0.78 7.17 2.50
-0.93 7.15 2.50
-1.07 7.13 2.50
-1.22 7.10 2.50
-1.36 7.08 2.50
-1.50 7.05 2.50
-1.65 7.01 2.50
-1.79 6.98 2.50
-1.93 6.94 2.50
-2.07 6.90 2.50
-2.21 6.86 2.50
-2.35 6.81 2.50
-2.49 6.76 2.50
-2.63 6.71 2.50
-2.76 6.66 2.50
-2.90 6.61 2.50
-3.03 6.55 2.50
-3.17 6.49 2.50
-3.30 6.42 2.50
-3.43 6.36 2.50
-3.56 6.29 2.50
-3.69 6.22 2.50
-3.82 6.15 2.50
-3.94 6.08 2.50
-4.07 6.00 2.50
-4.19 5.92 2.50
-4.32 5.84 2.50
-4.44 5.75 2.50
-4.56 5.67 2.50
-4.68 5.58 2.50
-4.79 5.49 2.50
-4.91 5.40 2.50
-5.02 5.30 2.50
-5.14 5.21 2.50
-5.25 5.11 2.50
-5.36 5.00 2.50
-5.46 4.90 2.50
-5.57 4.80 2.50
-5.64 4.66 2.48
-5.64 4.47 2.44
-5.65 4.30 2.40
-5.72 4.17 2.39
-5.84 4.08 2.40
-5.91 3.95 2.39
-5.99 3.84 2.39
-6.01 3.67 2.37
-6.01 3.51 2.33
-6.01 3.35 2.30
-6.02 3.20 2.28
-6.08 3.07 2.27
-6.15 2.96 2.27
-6.32 2.88 2.31
-6.63 2.86 2.39
-6.69 2.73 2.39
-6.76 2.60 2.39
-6.83 2.47 2.39
-6.89 2.33 2.39
-6.95 2.20 2.39
-7.00 2.06 2.39
-7.06 1.92 2.39
-7.11 1.79 2.39
-7.16 1.65 2.39
-7.21 1.50 2.39
-7.25 1.36 2.39
-7.29 1.22 2.39
-7.33 1.07 2.39
-7.37 0.93 2.39
-7.40 0.78 2.39
-7.44 0.63 2.39
-7.46 0.48 2.39
-7.49 0.33 2.39
-7.51 0.18 2.39
-7.53 0.03 2.39
-7.55 -0.12 2.39
-7.56 -0.27 2.39
-7.58 -0.43 2.39
-7.58 -0.58 2.39
-7.59 -0.73 2.39
-7.59 -0.89 2.39
-7.59 -1.04 2.39
-7.59 -1.20 2.39
-7.58 -1.35 2.39
-7.57 -1.51 2.39
-7.56 -1.66 2.39
-7.54 -1.82 2.39
-7.52 -1.98 2.39
-7.50 -2.13 2.39
-7.47 -2.29 2.39
-7.45 -2.44 2.39
-7.41 -2.60 2.39
-7.38 -2.75 2.39
-7.34 -2.91 2.39
-7.30 -3.06 2.39
-7.26 -3.22 2.39
-7.21 -3.37 2.39
-6.79 -3.34 2.27
-6.74 -3.49 2.27
-6.70 -3.64 2.28
-6.69 -3.81 2.29
-6.69 -3.99 2.31
-6.51 -4.06 2.27
-6.44 -4.20 2.27
-6.71 -4.57 2.39
-6.64 -4.71 2.39
-6.56 -4.85 2.39
-6.47 -5.00 2.39
-6.39 -5.14 2.39
-6.30 -5.28 2.39
-6.21 -5.41 2.39
-6.11 -5.55 2.39
-6.01 -5.69 2.39
-5.91 -5.82 2.39
-5.81 -5.95 2.39
-5.78 -6.16 2.43
-5.78 -6.41 2.47
-5.72 -6.60 2.50
-5.60 -6.73 2.50
-5.47 -6.85 2.50
-5.35 -6.98 2.50
-5.22 -7.10 2.50
-5.09 -7.21 2.50
-4.95 -7.33 2.50
-4.81 -7.44 2.50
-4.67 -7.55 2.50
-4.53 -7.66 2.50
-4.39 -7.76 2.50
-4.24 -7.86 2.50
-4.09 -7.96 2.50
-3.94 -8.05 2.50
-3.78 -8.14 2.50
-3.63 -8.23 2.50
-3.47 -8.32 2.50
-3.31 -8.40 2.50
-3.14 -8.48 2.50
-2.98 -8.55 2.50
-2.81 -8.62 2.50
-2.64 -8.69 2.50
-2.48 -8.75 2.50
-2.30 -8.81 2.50
-2.13 -8.87 2.50
-1.96 -8.92 2.50
-1.78 -8.97 2.50
-1.60 -9.01 2.50
-1.43 -9.05 2.50
-1.25 -9.09 2.50
-1.07 -9.12 2.50
-0.89 -9.15 2.50
-0.71 -9.18 2.50
-0.52 -9.20 2.50
-0.34 -9.21 2.50
-0.16 -9.22 2.50
0.03 -8.47 2.50
0.19 -8.47 2.50
0.36 -8.47 2.50
0.53 -8.47 2.50
0.70 -8.46 2.50
0.87 -8.45 2.50
1.04 -8.43 2.50
1.20 -8.41 2.50
1.37 -8.39 2.50
1.54 -8.36 2.50
1.70 -8.33 2.50
1.87 -8.30 2.50
2.03 -8.26 2.50
2.20 -8.22 2.50
2.26 -7.84 2.39
2.42 -7.79 2.39
2.57 -7.74 2.39
2.72 -7.68 2.39
2.87 -7.63 2.39
3.02 -7.57 2.39
3.17 -7.50 2.39
3.32 -7.43 2.39
3.46 -7.36 2.39
3.61 -7.29 2.39
3.75 -7.21 2.39
3.89 -7.13 2.39
4.03 -7.05 2.39
4.17 -6.96 2.39
4.30 -6.87 2.39
4.43 -6.78 2.39
4.56 -6.69 2.39
4.69 -6.59 2.39
4.81 -6.49 2.39
4.94 -6.39 2.39
5.06 -6.28 2.39
5.18 -6.17 2.39
5.29 -6.06 2.39
5.41 -5.95 2.39
5.52 -5.83 2.39
5.62 -5.71 2.39
5.73 -5.59 2.39
5.83 -5.47 2.39
5.93 -5.35 2.39
6.03 -5.22 2.39
6.12 -5.09 2.39
6.18 -4.94 2.38
6.18 -4.74 2.35
6.19 -4.55 2.32
6.19 -4.36 2.29
6.19 -4.18 2.27
6.19 -4.01 2.24
6.19 -3.84 2.22
6.20 -3.67 2.19
6.20 -3.51 2.17
6.20 -3.35 2.16
6.20 -3.19 2.14
6.20 -3.04 2.12
6.21 -2.89 2.11
6.21 -2.74 2.09
6.21 -2.59 2.08
6.21 -2.45 2.07
6.21 -2.31 2.06
6.22 -2.17 2.05
6.22 -2.03 2.04
6.22 -1.89 2.03
6.22 -1.76 2.02
6.22 -1.63 2.02
6.22 -1.50 2.01
6.23 -1.37 2.01
6.23 -1.24 2.00
6.23 -1.11 2.00
6.23 -0.98 2.00
6.23 -0.85 2.00
6.23 -0.73 2.00
6.24 -0.60 2.00
6.24 -0.48 2.00
6.24 -0.35 2.00
6.24 -0.22 2.01
6.24 -0.10 2.01
6.24 0.02 2.02
6.25 0.15 2.02
6.25 0.28 2.03
6.25 0.40 2.04
6.25 0.53 2.04
6.25 0.65 2.05
6.25 0.78 2.06
6.26 0.91 2.07
6.26 1.04 2.09
6.26 1.17 2.10
6.26 1.30 2.11
5.58 1.27 1.89
5.55 1.38 1.90
5.55 1.50 1.91
5.56 1.62 1.93
6.27 1.97 2.20
6.27 2.11 2.22
6.27 2.25 2.24
6.28 2.40 2.26
6.28 2.54 2.29
5.40 2.32 1.99
5.15 2.33 1.92
5.49 2.62 2.07
5.03 2.52 1.92
5.02 2.65 1.94
5.02 2.78 1.96
6.04 3.50 2.39
5.95 3.62 2.39
5.87 3.73 2.39
5.78 3.83 2.39
5.69 3.94 2.39
5.59 4.05 2.39
5.50 4.15 2.39
5.40 4.25 2.39
5.31 4.35 2.39
5.21 4.45 2.39
5.10 4.54 2.39
5.00 4.63 2.39
4.90 4.73 2.39
4.79 4.81 2.39
4.68 4.90 2.39
4.58 4.98 2.39
4.47 5.07 2.39
4.35 5.15 2.39
4.24 5.22 2.39
4.13 5.30 2.39
4.01 5.37 2.39
3.90 5.44 2.39
3.78 5.51 2.39
3.66 5.58 2.39
3.54 5.64 2.39
3.42 5.70 2.39
3.30 5.76 2.39
3.18 5.82 2.39
3.05 5.87 2.39
2.93 5.92 2.39
2.81 5.97 2.39
2.68 6.02 2.39
2.55 6.06 2.39
2.44 6.13 2.41
2.40 6.41 2.50
2.27 6.45 2.50
2.13 6.49 2.50
2.00 6.52 2.50
1.86 6.55 2.50
1.73 6.58 2.50
1.59 6.61 2.50
1.46 6.63 2.50
1.32 6.65 2.50
1.18 6.67 2.50
1.05 6.69 2.50
0.91 6.70 2.50
0.77 6.72 2.50
0.64 6.73 2.50
0.50 6.73 2.50
0.36 6.74 2.50
0.23 6.74 2.50
0.09 6.74 2.50
-0.05 6.73 2.50
-0.18 6.73 2.50
-0.32 6.72 2.50
-0.46 6.71 2.50
-0.59 6.69 2.50
-0.73 6.68 2.50
-0.86 6.66 2.50
-1.00 6.64 2.50
-1.13 6.62 2.50
-1.27 6.59 2.50
-1.40 6.56 2.50
-1.53 6.53 2.50
-1.67 6.50 2.50
-1.80 6.47 2.50
-1.93 6.43 2.50
-2.06 6.39 2.50
-2.19 6.35 2.50
-2.32 6.30 2.50
-2.45 6.25 2.50
-2.57 6.20 2.50
-2.70 6.15 2.50
-2.83 6.10 2.50
-2.95 6.04 2.50
-3.07 5.98 2.50
-3.20 5.92 2.50
-3.32 5.86 2.50
-3.44 5.79 2.50
-3.56 5.73 2.50
-3.68 5.66 2.50
-3.79 5.59 2.50
-3.91 5.51 2.50
-4.02 5.44 2.50
-4.14 5.36 2.50
-4.25 5.28 2.50
-4.36 5.19 2.50
-4.47 5.11 2.50
-4.57 5.02 2.50
-4.68 4.93 2.50
-4.78 4.84 2.50
-4.89 4.75 2.50
-4.99 4.66 2.50
-5.09 4.56 2.50
-5.18 4.46 2.50
-5.28 4.36 2.50
-5.37 4.26 2.50
-5.47 4.15 2.50
-5.56 4.05 2.50
-5.65 3.94 2.50
-5.65 3.77 2.46
-5.65 3.61 2.43
-5.66 3.46 2.40
-5.74 3.35 2.39
-5.81 3.24 2.39
-5.89 3.12 2.39
-5.96 3.01 2.39
-6.03 2.89 2.39
-6.09 2.77 2.39
-6.16 2.65 2.39
-6.22 2.53 2.39
-6.28 2.41 2.39
-6.34 2.29 2.39
-6.40 2.16 2.39
-6.46 2.04 2.39
-6.51 1.91 2.39
-6.56 1.78 2.39
-6.61 1.65 2.39
-6.65 1.52 2.39
-6.69 1.39 2.39
-6.73 1.26 2.39
-6.77 1.12 2.39
-6.81 0.99 2.39
-6.84 0.85 2.39
-6.52 0.68 2.27
-6.55 0.55 2.27
-6.64 0.42 2.29
-6.64 0.29 2.29
-6.64 0.16 2.28
-6.65 0.02 2.28
-6.65 -0.11 2.28
-6.66 -0.25 2.27
-6.66 -0.38 2.27
-6.67 -0.52 2.27
-6.67 -0.65 2.27
-6.67 -0.79 2.27
-6.67 -0.92 2.27
-6.67 -1.06 2.27
-6.67 -1.20 2.27
-6.66 -1.33 2.28
-6.66 -1.47 2.28
-6.66 -1.61 2.29
-6.66 -1.76 2.29
-6.67 -1.90 2.30
-6.67 -2.05 2.31
-6.67 -2.20 2.32
-6.67 -2.35 2.33
-6.67 -2.50 2.34
-6.67 -2.65 2.35
-6.64 -2.79 2.36
-6.59 -2.93 2.36
-6.55 -3.07 2.36
-6.50 -3.21 2.36
-6.23 -3.23 2.27
-6.17 -3.36 2.27
-6.12 -3.49 2.27
-6.10 -3.64 2.29
-6.10 -3.81 2.31
-6.11 -3.98 2.34
-6.11 -4.16 2.36
-6.12 -4.35 2.39
-6.05 -4.48 2.39
-5.97 -4.61 2.39
-5.89 -4.74 2.39
-5.81 -4.87 2.39
-5.77 -5.04 2.42
-5.77 -5.24 2.45
-5.77 -5.46 2.49
-5.68 -5.60 2.50
-5.58 -5.72 2.50
-5.48 -5.84 2.50
-5.37 -5.96 2.50
-5.26 -6.08 2.50
-5.15 -6.20 2.50
-5.04 -6.31 2.50
-4.92 -6.43 2.50
-4.80 -6.54 2.50
-4.68 -6.64 2.50
-4.55 -6.75 2.50
-4.43 -6.85 2.50
-4.30 -6.95 2.50
-4.16 -7.05 2.50
-4.03 -7.14 2.50
-3.89 -7.23 2.50
-3.76 -7.32 2.50
-3.62 -7.41 2.50
-3.47 -7.49 2.50
-3.33 -7.57 2.50
-3.18 -7.65 2.50
-3.03 -7.72 2.50
-2.89 -7.79 2.50
-2.73 -7.86 2.50
-2.58 -7.92 2.50
-2.43 -7.98 2.50
-2.27 -8.04 2.50
-2.11 -8.09 2.50
-1.95 -8.14 2.50
-1.79 -8.19 2.50
-1.63 -8.23 2.50
-1.47 -8.27 2.50
-1.31 -8.31 2.50
-1.14 -8.34 2.50
-0.98 -8.37 2.50
-0.81 -8.40 2.50
-0.65 -8.42 2.50
-0.48 -8.44 2.50
-0.31 -8.45 2.50
-0.14 -8.46 2.50
0.02 -7.82 2.50
0.18 -7.82 2.50
0.34 -7.82 2.50
0.49 -7.82 2.50
0.65 -7.81 2.50
0.80 -7.80 2.50
0.96 -7.78 2.50
1.11 -7.76 2.50
1.26 -7.74 2.50
1.42 -7.72 2.50
1.57 -7.69 2.50
1.72 -7.66 2.50
1.88 -7.62 2.50
2.03 -7.58 2.50
2.18 -7.54 2.50
2.26 -7.28 2.43
2.37 -7.14 2.39
2.51 -7.09 2.39
2.65 -7.04 2.39
2.79 -6.98 2.39
2.93 -6.92 2.39
3.06 -6.86 2.39
3.20 -6.80 2.39
3.33 -6.73 2.39
3.46 -6.66 2.39
3.59 -6.58 2.39
3.72 -6.51 2.39
3.84 -6.43 2.39
3.97 -6.35 2.39
4.09 -6.26 2.39
4.21 -6.17 2.39
4.33 -6.08 2.39
4.44 -5.99 2.39
4.56 -5.90 2.39
4.67 -5.80 2.39
4.78 -5.70 2.39
4.88 -5.60 2.39
4.99 -5.49 2.39
5.09 -5.39 2.39
5.19 -5.28 2.39
5.29 -5.17 2.39
5.38 -5.06 2.39
5.48 -4.94 2.39
5.57 -4.83 2.39
5.65 -4.71 2.39
5.74 -4.59 2.39
5.82 -4.47 2.39
5.90 -4.34 2.39
5.97 -4.22 2.39
6.05 -4.09 2.39
6.12 -3.97 2.39
6.18 -3.84 2.39
6.20 -3.68 2.37
6.20 -3.51 2.35
6.20 -3.35 2.33
6.20 -3.19 2.31
6.20 -3.04 2.29
6.21 -2.89 2.28
6.21 -2.74 2.26
6.21 -2.60 2.25
6.21 -2.45 2.23
6.21 -2.31 2.22
6.22 -2.17 2.21
6.22 -2.04 2.20
6.22 -1.90 2.19
6.22 -1.76 2.18
6.22 -1.63 2.18
6.22 -1.50 2.17
6.23 -1.37 2.17
6.23 -1.24 2.16
6.23 -1.11 2.16
6.23 -0.98 2.16
6.23 -0.86 2.16
6.23 -0.73 2.15
6.24 -0.61 2.16
6.24 -0.48 2.16
6.24 -0.36 2.16
6.24 -0.23 2.16
6.24 -0.11 2.17
6.24 0.02 2.17
6.25 0.14 2.18
6.25 0.27 2.18
6.25 0.40 2.19
6.25 0.52 2.20
6.25 0.65 2.21
6.25 0.77 2.22
6.26 0.90 2.23
6.26 1.03 2.25
6.26 1.16 2.26
6.26 1.29 2.27
5.63 1.28 2.06
5.55 1.38 2.04
5.55 1.50 2.06
5.56 1.62 2.08
6.27 1.96 2.36
6.27 2.10 2.38
6.24 2.23 2.39
6.18 2.35 2.39
6.12 2.47 2.39
5.42 2.32 2.14
5.14 2.32 2.05
5.01 2.39 2.03
5.02 2.51 2.05
5.02 2.64 2.08
5.02 2.77 2.11
5.63 3.26 2.39
5.55 3.36 2.39
5.47 3.47 2.39
5.38 3.57 2.39
5.30 3.67 2.39
5.21 3.77 2.39
5.13 3.86 2.39
5.04 3.96 2.39
4.95 4.05 2.39
4.86 4.14 2.39
4.76 4.23 2.39
4.67 4.32 2.39
4.57 4.40 2.39
4.47 4.49 2.39
4.37 4.57 2.39
4.27 4.65 2.39
4.17 4.72 2.39
4.07 4.80 2.39
3.96 4.87 2.39
3.85 4.94 2.39
3.75 5.01 2.39
3.64 5.08 2.39
3.53 5.14 2.39
3.42 5.20 2.39
3.31 5.26 2.39
3.20 5.32 2.39
3.08 5.37 2.39
2.97 5.43 2.39
2.86 5.48 2.39
2.74 5.53 2.39
2.63 5.60 2.40
2.51 5.62 2.39
2.43 5.75 2.43
2.37 5.95 2.50
2.25 5.99 2.50
2.12 6.02 2.50
2.00 6.06 2.50
1.87 6.09 2.50
1.74 6.12 2.50
1.62 6.15 2.50
1.49 6.17 2.50
1.36 6.20 2.50
1.24 6.22 2.50
1.11 6.24 2.50
0.98 6.25 2.50
0.85 6.27 2.50
0.73 6.28 2.50
0.60 6.29 2.50
0.47 6.29 2.50
0.34 6.30 2.50
0.21 6.30 2.50
0.08 6.30 2.50
-0.04 6.29 2.50
-0.17 6.29 2.50
-0.30 6.28 2.50
-0.43 6.27 2.50
-0.55 6.26 2.50
-0.68 6.24 2.50
-0.81 6.23 2.50
-0.93 6.21 2.50
-1.06 6.19 2.50
-1.19 6.16 2.50
-1.31 6.14 2.50
-1.43 6.11 2.50
-1.56 6.08 2.50
-1.68 6.05 2.50
-1.80 6.01 2.50
-1.93 5.97 2.50
-2.05 5.93 2.50
-2.17 5.89 2.50
-2.29 5.85 2.50
-2.41 5.80 2.50
-2.53 5.75 2.50
-2.64 5.70 2.50
-2.76 5.65 2.50
-2.88 5.59 2.50
-2.99 5.54 2.50
-3.10 5.48 2.50
-3.22 5.42 2.50
-3.33 5.35 2.50
-3.44 5.29 2.50
-3.55 5.22 2.50
-3.65 5.15 2.50
-3.76 5.08 2.50
-3.87 5.01 2.50
-3.97 4.93 2.50
-4.07 4.85 2.50
-4.18 4.77 2.50
-4.28 4.69 2.50
-4.37 4.61 2.50
-4.47 4.52 2.50
-4.57 4.44 2.50
-4.66 4.35 2.50
-4.75 4.26 2.50
-4.84 4.16 2.50
-4.93 4.07 2.50
-5.02 3.97 2.50
-5.11 3.88 2.50
-5.19 3.78 2.50
-5.28 3.68 2.50
-5.36 3.57 2.50
-5.43 3.47 2.50
-5.51 3.36 2.50
-5.59 3.26 2.50
-5.66 3.14 2.50
-5.66 3.00 2.47
-5.66 2.85 2.44
-5.67 2.71 2.41
-5.69 2.58 2.39
-5.75 2.47 2.39
-5.81 2.36 2.39
-5.86 2.25 2.39
-5.92 2.13 2.39
-5.97 2.01 2.39
-6.02 1.90 2.39
-6.07 1.78 2.39
-6.12 1.66 2.39
-6.16 1.54 2.39
-6.20 1.41 2.39
-6.24 1.29 2.39
-6.28 1.17 2.39
-6.31 1.04 2.39
-6.34 0.92 2.39
-6.37 0.79 2.39
-6.08 0.63 2.27
-6.10 0.51 2.27
-6.12 0.39 2.27
-6.14 0.26 2.27
-6.16 0.14 2.27
-6.17 0.02 2.27
-6.19 -0.11 2.27
-6.42 -0.24 2.36
-6.43 -0.37 2.36
-6.43 -0.50 2.36
-6.43 -0.63 2.36
-6.43 -0.76 2.36
-6.43 -0.89 2.36
-6.20 -0.99 2.27
-6.19 -1.12 2.27
-6.18 -1.24 2.27
-6.17 -1.37 2.27
-6.16 -1.50 2.27
-6.14 -1.62 2.27
-6.12 -1.75 2.27
-6.10 -1.88 2.27
-6.09 -2.01 2.28
-6.08 -2.14 2.29
-6.08 -2.28 2.30
-6.09 -2.42 2.31
-6.09 -2.57 2.33
-6.09 -2.71 2.34
-6.09 -2.86 2.36
-6.09 -3.01 2.38
-6.09 -3.16 2.39
-6.03 -3.29 2.39
-5.98 -3.42 2.39
-5.94 -3.55 2.40
-5.87 -3.67 2.39
-5.80 -3.79 2.39
-5.76 -3.93 2.40
-5.75 -4.10 2.43
-5.75 -4.27 2.46
-5.75 -4.46 2.49
-5.69 -4.59 2.50
-5.61 -4.71 2.50
-5.53 -4.83 2.50
-5.44 -4.95 2.50
-5.35 -5.07 2.50
-5.26 -5.19 2.50
-5.16 -5.30 2.50
-5.07 -5.42 2.50
-4.97 -5.53 2.50
-4.87 -5.64 2.50
-4.76 -5.74 2.50
-4.66 -5.85 2.50
-4.55 -5.95 2.50
-4.44 -6.05 2.50
-4.32 -6.15 2.50
-4.21 -6.25 2.50
-4.09 -6.34 2.50
-3.97 -6.43 2.50
-3.85 -6.52 2.50
-3.72 -6.61 2.50
-3.60 -6.69 2.50
-3.47 -6.77 2.50
-3.34 -6.85 2.50
-3.21 -6.92 2.50
-3.07 -7.00 2.50
-2.94 -7.07 2.50
-2.80 -7.14 2.50
-2.66 -7.20 2.50
-2.52 -7.26 2.50
-2.38 -7.32 2.50
-2.24 -7.37 2.50
-2.09 -7.43 2.50
-1.95 -7.48 2.50
-1.80 -7.52 2.50
-1.65 -7.56 2.50
-1.50 -7.60 2.50
-1.35 -7.64 2.50
-1.20 -7.67 2.50
-1.05 -7.70 2.50
-0.90 -7.73 2.50
-0.75 -7.75 2.50
-0.59 -7.77 2.50
-0.44 -7.79 2.50
-0.28 -7.80 2.50
-0.13 -7.81 2.50
0.02 -7.25 2.50
0.17 -7.25 2.50
0.31 -7.25 2.50
0.46 -7.25 2.50
0.60 -7.24 2.50
0.74 -7.23 2.50
0.89 -7.22 2.50
1.03 -7.20 2.50
1.17 -7.18 2.50
1.32 -7.16 2.50
1.46 -7.13 2.50
1.60 -7.10 2.50
1.74 -7.07 2.50
1.88 -7.03 2.50
2.02 -6.99 2.50
2.16 -6.95 2.50
2.26 -6.81 2.46
2.33 -6.57 2.39
2.47 -6.57 2.41
2.59 -6.47 2.39
2.71 -6.42 2.39
2.84 -6.36 2.39
2.96 -6.30 2.39
3.09 -6.24 2.39
3.21 -6.17 2.39
3.33 -6.11 2.39
3.45 -6.04 2.39
3.56 -5.96 2.39
3.68 -5.89 2.39
3.79 -5.81 2.39
3.90 -5.73 2.39
4.01 -5.64 2.39
4.12 -5.56 2.39
4.23 -5.47 2.39
4.33 -5.38 2.39
4.43 -5.29 2.39
4.53 -5.20 2.39
4.63 -5.10 2.39
4.72 -5.00 2.39
4.82 -4.90 2.39
4.91 -4.80 2.39
5.00 -4.70 2.39
5.08 -4.59 2.39
5.16 -4.48 2.39
5.25 -4.37 2.39
5.32 -4.26 2.39
5.40 -4.15 2.39
5.47 -4.04 2.39
5.55 -3.92 2.39
5.61 -3.80 2.39
5.68 -3.69 2.39
5.74 -3.57 2.39
5.80 -3.45 2.39
5.86 -3.33 2.39
5.92 -3.20 2.39
5.97 -3.08 2.39
6.02 -2.96 2.39
6.07 -2.83 2.39
6.11 -2.70 2.39
6.15 -2.58 2.39
6.19 -2.45 2.39
6.21 -2.32 2.39
6.22 -2.18 2.38
6.22 -2.04 2.37
6.22 -1.90 2.36
6.22 -1.77 2.35
6.22 -1.64 2.34
6.22 -1.51 2.33
6.23 -1.38 2.33
6.23 -1.25 2.32
6.23 -1.12 2.32
6.23 -0.99 2.32
6.23 -0.86 2.31
6.23 -0.74 2.31
6.24 -0.61 2.31
6.24 -0.49 2.32
6.24 -0.36 2.32
6.24 -0.24 2.32
6.24 -0.11 2.33
6.24 0.01 2.33
6.25 0.14 2.34
6.25 0.26 2.34
6.25 0.39 2.35
6.25 0.52 2.36
6.25 0.64 2.37
6.25 0.77 2.38
6.26 0.90 2.39
6.22 1.02 2.39
6.19 1.14 2.39
6.15 1.26 2.39
5.69 1.29 2.23
5.56 1.38 2.19
5.56 1.50 2.21
5.57 1.62 2.23
5.93 1.85 2.39
5.88 1.97 2.39
