ply
format ascii 1.0
element vertex 2859
property float32 x
property float32 y
property float32 z
end_header
-12.34 10.35 1.30
-12.41 9.99 1.29
-12.49 9.65 1.28
-12.56 9.31 1.27
-12.64 8.97 1.25
-12.72 8.65 1.25
-12.80 8.34 1.24
-12.88 8.02 1.23
-12.95 7.71 1.22
-6.19 3.52 0.58
-13.09 7.10 1.21
-13.20 6.82 1.21
-13.31 6.54 1.21
-13.42 6.26 1.20
-13.53 5.99 1.20
-13.60 5.69 1.20
-13.62 5.38 1.19
-13.64 5.08 1.19
-13.68 4.78 1.18
-13.71 4.49 1.18
-13.75 4.19 1.17
-13.78 3.90 1.17
-13.80 3.61 1.16
-13.82 3.32 1.16
-13.84 3.03 1.15
-13.85 2.75 1.15
-13.87 2.46 1.15
-13.88 2.18 1.14
-13.90 1.89 1.14
-13.94 1.61 1.14
-13.98 1.34 1.14
-14.02 1.06 1.14
-14.07 0.78 1.15
-14.12 0.49 1.15
-14.17 0.21 1.15
-14.18 -0.07 1.15
-14.18 -0.36 1.15
-14.19 -0.64 1.15
-14.19 -0.93 1.15
-14.21 -1.22 1.15
-14.22 -1.51 1.16
-14.23 -1.80 1.16
-14.22 -2.09 1.16
-14.21 -2.38 1.16
-14.19 -2.67 1.16
-14.17 -2.96 1.17
-14.11 -3.25 1.17
-14.02 -3.52 1.16
-13.94 -3.80 1.16
-13.85 -4.08 1.16
-13.77 -4.36 1.16
-13.69 -4.64 1.16
-13.63 -4.92 1.16
-13.58 -5.22 1.16
-13.55 -5.52 1.17
-13.52 -5.82 1.17
-13.48 -6.13 1.18
-13.45 -6.45 1.19
-13.42 -6.77 1.19
-13.39 -7.09 1.20
-13.39 -7.44 1.21
-13.39 -7.80 1.22
-13.39 -8.17 1.24
-13.40 -8.54 1.25
-13.40 -8.93 1.27
-13.40 -9.32 1.28
-13.40 -9.73 1.30
-13.40 -10.14 1.32
-13.39 -10.57 1.33
-13.39 -11.01 1.35
-13.40 -11.47 1.37
-13.42 -11.97 1.40
-13.44 -12.48 1.42
-13.47 -13.02 1.45
-13.45 -13.54 1.48
-13.42 -14.05 1.50
-13.35 -14.55 1.52
-13.27 -15.07 1.54
-13.21 -15.62 1.57
-13.22 -16.29 1.61
-13.23 -16.98 1.65
-13.18 -17.63 1.68
-13.16 -18.36 1.72
-13.14 -19.14 1.77
-13.07 -19.88 1.80
-13.72 -21.81 1.95
-13.71 -22.80 2.01
-13.59 -23.66 2.06
-13.34 -24.34 2.09
-13.08 -25.05 2.12
-13.11 -26.38 2.21
-13.08 -27.70 2.29
-13.24 -29.58 2.42
-13.01 -30.70 2.48
-12.72 -31.78 2.54
-12.50 -33.12 2.62
-10.80 -30.48 2.39
-10.21 -30.75 2.39
-9.61 -31.02 2.39
-9.01 -31.28 2.39
-8.40 -31.52 2.39
-7.78 -31.76 2.39
-7.16 -31.98 2.39
-6.81 -33.58 2.49
-6.15 -33.78 2.49
-5.48 -33.97 2.49
-4.81 -34.15 2.49
-4.13 -34.32 2.49
-3.45 -34.47 2.49
-2.76 -34.61 2.49
-2.07 -34.74 2.49
-1.38 -34.85 2.49
-0.68 -34.95 2.49
0.02 -26.57 2.49
0.55 -26.61 2.49
1.09 -26.64 2.49
1.56 -25.55 2.39
2.08 -25.56 2.39
1.88 -18.57 1.74
3.11 -25.54 2.39
3.63 -25.51 2.39
4.15 -25.48 2.39
4.66 -25.43 2.39
5.18 -25.37 2.39
5.70 -25.33 2.39
6.22 -25.25 2.39
6.74 -25.16 2.39
7.25 -25.06 2.39
7.76 -24.95 2.39
8.28 -24.82 2.39
8.79 -24.69 2.39
9.29 -24.54 2.39
9.80 -24.39 2.39
10.30 -24.22 2.39
10.80 -24.04 2.39
11.29 -23.85 2.39
11.79 -23.65 2.39
12.28 -23.44 2.39
12.76 -23.22 2.39
12.56 -21.80 2.27
12.94 -21.47 2.26
13.56 -21.51 2.29
14.65 -22.24 2.39
12.64 -18.37 2.00
13.01 -18.12 2.00
13.58 -18.14 2.03
16.47 -21.09 2.39
16.90 -20.78 2.39
17.34 -20.46 2.39
17.76 -20.12 2.39
18.18 -19.78 2.39
18.59 -19.43 2.39
18.99 -19.07 2.39
19.39 -18.71 2.39
19.78 -18.33 2.39
20.16 -17.94 2.39
20.53 -17.55 2.39
20.90 -17.15 2.39
21.25 -16.74 2.39
21.60 -16.32 2.39
21.94 -15.89 2.39
22.27 -15.46 2.39
22.58 -15.02 2.39
22.75 -14.48 2.38
22.77 -13.86 2.35
22.79 -13.25 2.32
11.79 -6.54 1.19
11.80 -6.24 1.17
11.81 -5.95 1.16
11.81 -5.66 1.15
11.82 -5.37 1.14
11.83 -5.09 1.13
11.84 -4.82 1.12
11.85 -4.55 1.12
11.86 -4.28 1.11
11.87 -4.01 1.10
11.88 -3.75 1.09
11.88 -3.50 1.09
10.43 -2.84 0.95
11.90 -2.99 1.08
11.85 -2.72 1.07
11.85 -2.47 1.06
11.82 -2.22 1.06
11.83 -1.98 1.05
11.84 -1.74 1.05
11.84 -1.50 1.05
11.87 -1.26 1.05
11.93 -1.02 1.05
10.49 -0.69 0.93
11.98 -0.54 1.06
11.99 -0.30 1.06
12.00 -0.06 1.06
12.00 0.18 1.06
12.01 0.42 1.06
12.02 0.66 1.06
12.03 0.90 1.06
12.03 1.15 1.07
12.04 1.39 1.07
12.05 1.64 1.08
12.06 1.89 1.08
12.07 2.14 1.09
12.07 2.39 1.09
12.08 2.64 1.10
12.09 2.90 1.10
11.46 3.00 1.05
11.13 3.15 1.03
10.89 3.32 1.01
10.72 3.50 1.01
10.59 3.70 1.00
10.49 3.90 1.00
10.43 4.12 1.00
10.40 4.35 1.01
10.41 4.60 1.02
10.47 4.88 1.04
10.64 5.22 1.06
11.92 6.15 1.21
11.93 6.46 1.22
11.64 6.61 1.21
11.14 6.63 1.17
10.67 6.64 1.14
10.26 6.67 1.11
11.28 7.66 1.24
11.29 8.00 1.26
11.02 8.15 1.25
10.59 8.16 1.22
10.22 8.21 1.20
10.21 8.54 1.22
11.17 9.74 1.36
10.88 9.88 1.35
10.47 9.89 1.32
10.15 9.99 1.31
11.07 11.34 1.46
10.83 11.55 1.46
10.65 11.82 1.47
10.77 12.45 1.52
10.94 13.17 1.59
11.61 14.55 1.73
11.64 15.21 1.78
13.40 18.26 2.11
13.43 19.09 2.18
13.45 19.97 2.25
13.87 21.51 2.39
13.42 21.75 2.39
12.96 21.98 2.39
12.49 22.19 2.39
12.02 22.40 2.39
11.55 22.60 2.39
11.08 22.79 2.39
10.60 22.97 2.39
10.12 23.14 2.39
9.64 23.29 2.39
9.15 23.44 2.39
8.66 23.58 2.39
8.17 23.71 2.39
7.68 23.83 2.39
7.19 23.94 2.39
6.69 24.01 2.39
6.20 24.09 2.39
5.70 24.17 2.39
5.21 24.24 2.39
4.71 24.30 2.39
4.21 24.35 2.39
3.72 24.39 2.39
3.22 24.41 2.39
2.85 25.49 2.49
2.33 25.50 2.49
1.81 25.50 2.49
1.30 25.49 2.49
0.79 25.47 2.49
0.27 25.44 2.49
-0.24 25.39 2.49
-0.74 25.34 2.49
-1.25 25.28 2.49
-1.76 25.21 2.49
-2.26 25.13 2.49
-2.76 25.04 2.49
-3.26 24.95 2.49
-3.75 24.84 2.49
-4.24 24.72 2.49
-4.73 24.59 2.49
-5.08 23.80 2.43
-5.46 23.31 2.39
-5.92 23.16 2.39
-6.37 23.00 2.39
-6.83 22.84 2.39
-7.27 22.67 2.39
-7.72 22.48 2.39
-8.15 22.30 2.39
-8.59 22.10 2.39
-9.02 21.89 2.39
-9.14 20.98 2.31
-9.18 19.96 2.22
-9.21 19.01 2.14
-9.24 18.13 2.06
-9.26 17.31 2.00
-9.29 16.55 1.93
-9.31 15.84 1.87
-9.33 15.17 1.82
-9.35 14.54 1.76
-9.37 13.94 1.72
-9.39 13.38 1.67
-9.41 12.85 1.63
-9.55 12.51 1.61
-9.72 12.21 1.60
-9.88 11.92 1.59
-10.04 11.63 1.58
-10.20 11.34 1.57
-10.37 11.07 1.56
-10.59 10.87 1.56
-10.84 10.68 1.57
-11.29 10.69 1.61
-11.76 10.69 1.64
-11.79 10.30 1.62
-11.87 9.95 1.60
-11.95 9.62 1.59
-12.02 9.29 1.57
-12.09 8.95 1.56
-12.12 8.61 1.54
-12.20 8.30 1.53
-12.29 8.00 1.52
-12.38 7.71 1.51
-12.47 7.43 1.51
-6.19 3.52 0.74
-12.65 6.86 1.50
-12.80 6.61 1.50
-12.91 6.35 1.50
-13.02 6.08 1.50
-13.13 5.81 1.49
-13.24 5.54 1.49
-13.27 5.25 1.49
-13.30 4.95 1.48
-13.34 4.66 1.47
-13.38 4.38 1.47
-13.41 4.09 1.46
-13.45 3.81 1.46
-13.47 3.53 1.45
-13.50 3.24 1.45
-13.51 2.96 1.44
-13.53 2.68 1.44
-13.54 2.40 1.43
-13.55 2.12 1.43
-13.56 1.85 1.43
-13.58 1.57 1.42
-13.62 1.30 1.42
-13.66 1.03 1.43
-13.71 0.76 1.43
-13.76 0.48 1.43
-13.80 0.20 1.43
-13.85 -0.07 1.44
-13.87 -0.35 1.44
-13.87 -0.63 1.44
-13.87 -0.91 1.44
-13.88 -1.19 1.44
-13.90 -1.47 1.45
-13.91 -1.76 1.45
-13.92 -2.05 1.46
-13.92 -2.33 1.46
-13.90 -2.62 1.46
-13.88 -2.90 1.47
-13.84 -3.19 1.47
-13.75 -3.46 1.46
-13.67 -3.73 1.46
-13.59 -4.00 1.46
-13.50 -4.27 1.46
-13.42 -4.54 1.46
-13.33 -4.82 1.46
-13.25 -5.09 1.46
-13.22 -5.39 1.46
-13.19 -5.68 1.47
-13.15 -5.99 1.48
-13.10 -6.28 1.48
-13.04 -6.58 1.49
-12.99 -6.88 1.50
-12.93 -7.19 1.51
-12.89 -7.51 1.52
-12.89 -7.86 1.53
-12.88 -8.21 1.55
-12.87 -8.58 1.57
-12.86 -8.95 1.59
-12.86 -9.33 1.61
-12.86 -9.74 1.63
-12.84 -10.14 1.65
-12.82 -10.54 1.67
-12.80 -10.96 1.70
-12.77 -11.39 1.72
-12.74 -11.84 1.75
-12.76 -12.33 1.78
-12.77 -12.85 1.81
-12.76 -13.37 1.85
-12.70 -13.85 1.87
-12.62 -14.33 1.90
-12.53 -14.82 1.93
-12.45 -15.33 1.96
-12.37 -15.88 2.00
-12.28 -16.44 2.03
-12.25 -17.11 2.08
-12.17 -17.73 2.12
-12.04 -18.32 2.16
-11.91 -18.94 2.20
-11.81 -19.65 2.25
-11.68 -20.35 2.30
-11.49 -20.97 2.34
-11.18 -21.42 2.36
-10.91 -21.97 2.39
-10.47 -22.19 2.39
-10.04 -22.43 2.39
-9.60 -22.67 2.39
-9.16 -22.90 2.39
-8.71 -23.11 2.39
-8.26 -23.32 2.39
-7.81 -23.52 2.39
-7.34 -23.72 2.39
-6.88 -23.90 2.39
-6.67 -25.06 2.49
-6.19 -25.29 2.49
-5.69 -25.45 2.49
-5.19 -25.60 2.49
-4.68 -25.74 2.49
-4.17 -25.88 2.49
-3.66 -26.00 2.49
-3.14 -26.11 2.49
-2.62 -26.22 2.49
-2.10 -26.31 2.49
-1.57 -26.39 2.49
-1.04 -26.46 2.49
-0.51 -26.52 2.49
0.02 -21.38 2.49
0.45 -21.41 2.49
0.88 -21.42 2.49
1.31 -21.43 2.49
1.67 -20.54 2.39
1.90 -18.65 2.17
2.50 -20.51 2.39
2.92 -20.49 2.39
3.33 -20.45 2.39
3.75 -20.41 2.39
4.16 -20.35 2.39
4.57 -20.29 2.39
4.42 -17.95 2.12
5.40 -20.14 2.39
5.81 -20.08 2.39
6.22 -19.98 2.39
6.63 -19.88 2.39
7.04 -19.76 2.39
7.44 -19.64 2.39
7.84 -19.51 2.39
8.24 -19.37 2.39
8.64 -19.22 2.39
9.03 -19.07 2.39
9.42 -18.90 2.39
9.81 -18.73 2.39
10.20 -18.55 2.39
10.58 -18.36 2.39
10.95 -18.16 2.39
11.33 -17.96 2.39
11.70 -17.74 2.39
12.06 -17.52 2.39
12.42 -17.29 2.39
12.78 -17.06 2.39
13.13 -16.81 2.39
13.48 -16.56 2.39
13.82 -16.30 2.39
12.88 -14.59 2.18
13.43 -14.61 2.22
14.81 -15.48 2.39
15.13 -15.19 2.39
15.44 -14.89 2.39
15.75 -14.59 2.39
16.05 -14.28 2.39
13.22 -11.30 1.94
13.31 -10.92 1.92
13.88 -10.93 1.97
17.18 -12.98 2.39
17.45 -12.64 2.39
17.71 -12.29 2.39
17.96 -11.94 2.39
18.20 -11.58 2.39
18.44 -11.22 2.39
18.67 -10.85 2.39
11.79 -6.54 1.49
11.80 -6.24 1.48
11.81 -5.95 1.46
11.90 -5.70 1.46
11.91 -5.41 1.45
11.92 -5.13 1.44
11.93 -4.85 1.42
11.94 -4.58 1.41
11.95 -4.31 1.40
11.87 -4.01 1.39
11.88 -3.75 1.38
11.88 -3.50 1.37
10.43 -2.84 1.19
11.90 -2.99 1.36
11.85 -2.72 1.34
11.85 -2.47 1.34
11.82 -2.22 1.33
11.83 -1.98 1.33
11.84 -1.74 1.32
11.84 -1.50 1.32
11.87 -1.26 1.32
11.92 -1.02 1.33
10.49 -0.69 1.16
11.98 -0.54 1.33
11.99 -0.30 1.33
12.00 -0.06 1.33
12.00 0.18 1.33
12.01 0.42 1.33
12.02 0.66 1.34
12.03 0.90 1.34
12.03 1.15 1.34
12.04 1.39 1.35
12.14 1.65 1.36
12.15 1.90 1.37
12.07 2.14 1.36
12.07 2.39 1.37
12.08 2.64 1.38
12.09 2.90 1.39
11.47 2.99 1.32
11.06 3.13 1.28
10.83 3.30 1.27
10.66 3.48 1.26
10.59 3.69 1.26
10.49 3.90 1.25
10.38 4.10 1.25
10.35 4.33 1.26
10.35 4.57 1.27
10.41 4.85 1.29
10.64 5.22 1.33
11.34 5.85 1.44
11.93 6.46 1.53
11.64 6.61 1.51
11.15 6.63 1.47
10.68 6.64 1.42
10.24 6.66 1.38
9.98 6.78 1.37
10.93 7.75 1.52
10.94 8.09 1.55
10.59 8.16 1.52
10.18 8.17 1.49
9.92 8.30 1.48
9.74 8.49 1.48
10.81 9.81 1.67
10.47 9.89 1.65
10.07 9.90 1.62
9.68 9.91 1.59
9.47 10.09 1.59
10.66 11.82 1.83
10.77 12.45 1.90
10.94 13.17 1.98
11.61 14.55 2.15
11.56 15.10 2.20
12.23 16.66 2.39
11.88 16.88 2.39
11.52 17.09 2.39
11.16 17.30 2.39
10.80 17.49 2.39
10.43 17.68 2.39
10.06 17.86 2.39
9.68 18.04 2.39
9.31 18.20 2.39
8.93 18.36 2.39
8.55 18.51 2.39
8.16 18.65 2.39
7.77 18.79 2.39
7.39 18.91 2.39
7.00 19.03 2.39
6.59 19.12 2.39
6.20 19.22 2.39
5.81 19.31 2.39
5.41 19.40 2.39
5.01 19.48 2.39
4.61 19.55 2.39
4.21 19.61 2.39
3.82 19.66 2.39
3.41 19.71 2.39
3.02 19.80 2.40
2.73 20.63 2.49
2.31 20.65 2.49
1.89 20.66 2.49
1.47 20.67 2.49
1.06 20.67 2.49
0.64 20.66 2.49
0.23 20.64 2.49
-0.19 20.61 2.49
-0.60 20.58 2.49
-1.01 20.53 2.49
-1.42 20.48 2.49
-1.83 20.42 2.49
-2.24 20.36 2.49
-2.64 20.28 2.49
-3.05 20.20 2.49
-3.45 20.11 2.49
-3.85 20.01 2.49
-4.24 19.91 2.49
-4.63 19.79 2.49
-5.03 19.67 2.49
-5.25 18.97 2.42
-5.56 18.61 2.39
-5.92 18.47 2.39
-6.29 18.33 2.39
-6.65 18.18 2.39
-7.00 18.02 2.39
-7.36 17.86 2.39
-7.70 17.69 2.39
-8.05 17.51 2.39
-8.39 17.33 2.39
-8.73 17.14 2.39
-9.06 16.95 2.39
-9.29 16.55 2.36
-9.31 15.84 2.29
-9.33 15.17 2.22
-9.35 14.54 2.16
-9.37 13.95 2.10
-9.39 13.39 2.05
-9.41 12.85 1.99
-9.55 12.51 1.97
-9.71 12.21 1.96
-9.88 11.92 1.94
-10.04 11.64 1.93
-10.20 11.35 1.92
-10.36 11.07 1.91
-10.52 10.80 1.90
-10.84 10.69 1.92
-11.29 10.69 1.96
-11.33 10.30 1.93
-11.36 9.93 1.90
-11.43 9.59 1.88
-11.51 9.27 1.87
-11.58 8.94 1.85
-11.61 8.61 1.83
-11.65 8.28 1.81
-11.70 7.96 1.79
-11.79 7.68 1.78
-11.88 7.41 1.77
-11.97 7.13 1.77
-6.19 3.52 0.90
-12.09 6.56 1.74
-12.19 6.30 1.74
-12.37 6.08 1.75
-12.55 5.86 1.76
-12.73 5.63 1.77
-12.85 5.38 1.77
-12.94 5.12 1.77
-12.98 4.83 1.76
-13.02 4.55 1.75
-13.05 4.27 1.74
-13.09 3.99 1.74
-13.12 3.72 1.73
-13.16 3.44 1.73
-13.18 3.17 1.72
-13.20 2.89 1.72
-13.22 2.62 1.71
-13.23 2.35 1.71
-13.24 2.08 1.70
-13.25 1.80 1.70
-13.26 1.54 1.69
-13.28 1.27 1.69
-13.32 1.00 1.69
-13.36 0.74 1.70
-13.41 0.47 1.70
-13.45 0.20 1.71
-13.50 -0.07 1.71
-13.54 -0.34 1.72
-13.56 -0.62 1.72
-13.57 -0.89 1.72
-13.57 -1.17 1.72
-13.59 -1.44 1.73
-13.60 -1.72 1.73
-13.61 -2.00 1.74
-13.62 -2.28 1.74
-13.62 -2.57 1.75
-13.61 -2.85 1.75
-13.58 -3.13 1.76
-13.49 -3.39 1.75
-13.41 -3.66 1.75
-13.33 -3.93 1.75
-13.24 -4.19 1.75
-13.16 -4.46 1.75
-13.05 -4.72 1.74
-12.90 -4.96 1.73
-12.78 -5.21 1.73
-12.76 -5.50 1.74
-12.71 -5.78 1.75
-12.65 -6.07 1.75
-12.59 -6.36 1.76
-12.54 -6.65 1.77
-12.48 -6.94 1.78
-12.42 -7.24 1.79
-12.38 -7.55 1.80
-12.34 -7.87 1.82
-12.30 -8.20 1.84
-12.28 -8.55 1.86
-12.26 -8.90 1.88
-12.24 -9.27 1.90
-12.25 -9.67 1.93
-12.26 -10.08 1.96
-12.24 -10.49 1.99
-12.21 -10.89 2.02
-12.18 -11.31 2.05
-12.14 -11.74 2.08
-12.10 -12.18 2.11
-12.06 -12.64 2.14
-12.05 -13.15 2.19
-11.99 -13.63 2.22
-11.91 -14.10 2.26
-11.83 -14.58 2.29
-11.74 -15.08 2.33
-11.64 -15.59 2.37
-11.55 -16.13 2.41
-11.42 -16.65 2.45
-11.15 -16.98 2.47
-10.88 -17.31 2.48
-10.17 -16.93 2.39
-9.85 -17.16 2.39
-9.51 -17.37 2.39
-9.17 -17.58 2.39
-8.83 -17.79 2.39
-8.48 -17.99 2.39
-8.13 -18.18 2.39
-7.77 -18.36 2.39
-7.41 -18.54 2.39
-7.05 -18.71 2.39
-6.68 -18.88 2.39
-6.49 -19.58 2.46
-6.19 -20.01 2.49
-5.80 -20.16 2.49
-5.40 -20.30 2.49
-5.00 -20.43 2.49
-4.59 -20.55 2.49
-4.19 -20.67 2.49
-3.77 -20.78 2.49
-3.36 -20.88 2.49
-2.95 -20.97 2.49
-2.53 -21.06 2.49
-2.11 -21.13 2.49
-1.69 -21.20 2.49
-1.26 -21.26 2.49
-0.84 -21.31 2.49
-0.41 -21.35 2.49
0.02 -17.88 2.49
0.38 -17.89 2.49
0.74 -17.90 2.49
1.10 -17.90 2.49
1.46 -17.90 2.49
1.75 -17.15 2.39
2.09 -17.13 2.39
2.44 -17.10 2.39
2.78 -17.07 2.39
3.13 -17.03 2.39
3.47 -16.98 2.39
3.82 -16.92 2.39
4.16 -16.86 2.39
4.50 -16.79 2.39
4.84 -16.72 2.39
5.18 -16.63 2.39
4.51 -13.52 1.95
4.75 -13.34 1.94
6.20 -16.36 2.39
6.53 -16.25 2.39
6.86 -16.13 2.39
7.19 -16.00 2.39
7.52 -15.87 2.39
7.84 -15.73 2.39
8.16 -15.58 2.39
8.48 -15.43 2.39
8.80 -15.27 2.39
7.45 -12.34 1.96
9.42 -14.93 2.39
9.72 -14.75 2.39
10.03 -14.56 2.39
10.32 -14.37 2.39
10.62 -14.17 2.39
10.91 -13.97 2.39
11.19 -13.75 2.39
11.48 -13.54 2.39
11.75 -13.31 2.39
12.03 -13.08 2.39
12.29 -12.85 2.39
12.56 -12.61 2.39
12.82 -12.36 2.39
13.07 -12.11 2.39
13.32 -11.85 2.39
12.90 -11.03 2.28
13.33 -10.94 2.31
14.03 -11.04 2.39
14.25 -10.77 2.39
14.47 -10.48 2.39
14.68 -10.19 2.39
14.89 -9.90 2.39
15.09 -9.60 2.39
15.29 -9.30 2.39
15.48 -9.00 2.39
11.79 -6.54 1.80
11.80 -6.24 1.78
11.81 -5.94 1.77
11.90 -5.70 1.76
11.91 -5.41 1.75
11.92 -5.13 1.73
11.93 -4.85 1.72
11.94 -4.58 1.71
11.95 -4.31 1.69
11.87 -4.01 1.67
11.88 -3.75 1.66
11.88 -3.50 1.65
10.43 -2.84 1.44
11.90 -2.99 1.64
11.85 -2.72 1.62
11.85 -2.47 1.62
11.82 -2.22 1.61
11.83 -1.98 1.60
11.84 -1.74 1.60
11.84 -1.50 1.59
11.87 -1.26 1.59
11.92 -1.02 1.60
10.49 -0.69 1.41
11.98 -0.54 1.60
11.99 -0.30 1.60
12.00 -0.06 1.60
12.00 0.18 1.61
12.01 0.42 1.61
12.11 0.66 1.62
12.12 0.91 1.63
12.12 1.15 1.63
12.13 1.40 1.64
12.14 1.65 1.64
12.15 1.90 1.65
12.07 2.14 1.64
12.07 2.39 1.65
12.08 2.64 1.66
12.09 2.90 1.67
11.47 2.99 1.59
11.25 3.18 1.57
11.02 3.35 1.55
10.66 3.48 1.51
10.59 3.69 1.51
10.49 3.90 1.51
10.38 4.09 1.51
10.51 4.39 1.54
10.52 4.65 1.56
10.41 4.85 1.55
10.63 5.22 1.60
11.34 5.85 1.73
11.93 6.46 1.84
11.65 6.61 1.82
11.15 6.63 1.76
10.68 6.64 1.71
10.24 6.66 1.66
9.77 6.63 1.61
9.51 6.74 1.59
9.37 6.92 1.59
10.57 8.14 1.82
10.18 8.17 1.79
9.79 8.19 1.75
9.42 8.21 1.71
9.44 8.56 1.75
10.43 9.85 1.97
10.07 9.90 1.94
9.69 9.92 1.91
9.49 10.11 1.91
10.66 11.82 2.20
10.59 12.24 2.24
11.07 13.31 2.39
10.79 13.52 2.39
10.50 13.72 2.39
10.21 13.91 2.39
9.92 14.10 2.39
9.63 14.28 2.39
9.33 14.45 2.39
9.03 14.62 2.39
8.72 14.78 2.39
8.41 14.93 2.39
8.10 15.08 2.39
7.79 15.22 2.39
7.47 15.36 2.39
7.15 15.49 2.39
6.83 15.61 2.39
6.50 15.71 2.39
6.18 15.82 2.39
5.86 15.92 2.39
5.53 16.02 2.39
5.20 16.10 2.39
4.83 16.07 2.37
4.51 16.15 2.37
4.21 16.33 2.39
3.87 16.39 2.39
3.54 16.45 2.39
3.20 16.50 2.39
2.87 16.54 2.39
2.64 17.29 2.49
2.29 17.32 2.49
1.94 17.34 2.49
1.59 17.36 2.49
1.24 17.36 2.49
0.89 17.37 2.49
0.54 17.36 2.49
0.19 17.35 2.49
-0.15 17.33 2.49
-0.50 17.30 2.49
-0.85 17.27 2.49
-1.19 17.23 2.49
-1.54 17.19 2.49
-1.88 17.13 2.49
-2.22 17.07 2.49
-2.56 17.01 2.49
-2.90 16.94 2.49
-3.24 16.86 2.49
-3.57 16.77 2.49
-3.90 16.68 2.49
-4.23 16.58 2.49
-4.56 16.48 2.49
-4.89 16.37 2.49
-5.21 16.25 2.49
-5.36 15.64 2.42
-5.60 15.33 2.39
-5.90 15.20 2.39
-6.20 15.07 2.39
-6.50 14.93 2.39
-6.79 14.78 2.39
-7.08 14.63 2.39
-7.37 14.47 2.39
-7.65 14.31 2.39
-7.93 14.14 2.39
-8.21 13.97 2.39
-8.48 13.79 2.39
-8.75 13.61 2.39
-9.01 13.42 2.39
-9.27 13.22 2.39
-9.41 12.86 2.36
-9.55 12.51 2.33
-9.71 12.22 2.32
-9.88 11.92 2.30
-10.04 11.64 2.28
-10.20 11.35 2.27
-10.36 11.07 2.26
-10.52 10.80 2.24
-10.84 10.69 2.27
-10.88 10.31 2.23
-10.92 9.94 2.20
-10.96 9.58 2.17
-11.02 9.25 2.15
-11.09 8.93 2.13
-11.13 8.60 2.10
-11.18 8.28 2.08
-11.22 7.97 2.06
-11.25 7.66 2.04
-11.33 7.38 2.02
-11.42 7.12 2.01
-11.49 6.85 2.00
-6.19 3.52 1.07
-11.60 6.29 1.98
-11.65 6.02 1.96
-11.77 5.79 1.97
-11.94 5.57 1.97
-12.11 5.36 1.98
-12.27 5.14 1.99
-12.39 4.90 2.00
-12.44 4.63 1.99
-12.52 4.38 1.99
-12.61 4.12 1.99
-12.69 3.87 1.99
-12.76 3.62 1.99
-12.84 3.36 1.99
-12.88 3.10 1.99
-12.90 2.83 1.98
-12.91 2.56 1.97
-12.93 2.29 1.97
-12.94 2.03 1.96
-12.95 1.76 1.96
-12.97 1.50 1.96
-12.98 1.24 1.95
-12.99 0.98 1.95
-13.03 0.72 1.96
-13.08 0.46 1.96
-13.12 0.19 1.96
-13.16 -0.07 1.97
-13.20 -0.34 1.98
-13.24 -0.60 1.98
-13.27 -0.87 1.99
-13.28 -1.14 1.99
-13.29 -1.41 2.00
-13.30 -1.68 2.00
-13.31 -1.96 2.01
-13.32 -2.23 2.01
-13.33 -2.51 2.02
-13.34 -2.79 2.03
-13.32 -3.07 2.04
-13.24 -3.33 2.03
-13.16 -3.59 2.03
-13.08 -3.85 2.03
-12.93 -4.10 2.02
-12.79 -4.34 2.01
-12.65 -4.57 2.00
-12.50 -4.81 1.99
-12.36 -5.04 1.98
-12.27 -5.29 1.98
-12.24 -5.58 1.99
-12.21 -5.86 2.00
-12.17 -6.15 2.02
-12.12 -6.43 2.03
-12.06 -6.71 2.04
-12.00 -6.99 2.05
-11.94 -7.28 2.06
-11.89 -7.59 2.08
-11.84 -7.90 2.09
-11.79 -8.21 2.11
-11.74 -8.53 2.13
-11.70 -8.86 2.15
-11.67 -9.21 2.18
-11.66 -9.60 2.21
-11.66 -9.99 2.25
-11.65 -10.40 2.28
-11.64 -10.82 2.32
-11.61 -11.23 2.36
-11.56 -11.64 2.39
-11.51 -12.07 2.43
-11.46 -12.50 2.47
-11.40 -12.96 2.51
-11.31 -13.38 2.54
-11.11 -13.70 2.56
-10.14 -13.02 2.39
-9.88 -13.24 2.39
-9.62 -13.45 2.39
-9.36 -13.65 2.39
-9.10 -13.85 2.39
-8.83 -14.05 2.39
-8.55 -14.24 2.39
-8.27 -14.42 2.39
-7.99 -14.60 2.39
-7.71 -14.78 2.39
-7.42 -14.95 2.39
-7.12 -15.11 2.39
-6.83 -15.27 2.39
-6.52 -15.42 2.39
-6.38 -15.95 2.45
-6.17 -16.38 2.49
-5.85 -16.52 2.49
-5.52 -16.66 2.49
-5.19 -16.78 2.49
-4.86 -16.90 2.49
-4.52 -17.02 2.49
-4.19 -17.12 2.49
-3.85 -17.22 2.49
-3.50 -17.32 2.49
-3.16 -17.41 2.49
-2.81 -17.49 2.49
-2.46 -17.56 2.49
-2.11 -17.63 2.49
-1.76 -17.69 2.49
-1.41 -17.74 2.49
-1.05 -17.78 2.49
-0.70 -17.82 2.49
-0.34 -17.85 2.49
0.02 -15.34 2.49
0.33 -15.36 2.49
0.64 -15.36 2.49
0.95 -15.36 2.49
1.25 -15.35 2.49
1.56 -15.34 2.49
1.80 -14.69 2.39
2.09 -14.66 2.39
2.39 -14.63 2.39
2.68 -14.59 2.39
2.98 -14.55 2.39
3.27 -14.50 2.39
3.57 -14.44 2.39
3.86 -14.38 2.39
4.15 -14.32 2.39
4.44 -14.24 2.39
4.73 -14.16 2.39
5.02 -14.08 2.39
5.30 -13.99 2.39
5.59 -13.89 2.39
5.88 -13.80 2.39
6.16 -13.69 2.39
6.43 -13.58 2.39
6.71 -13.45 2.39
6.98 -13.33 2.39
7.26 -13.19 2.39
7.53 -13.06 2.39
7.45 -12.34 2.29
8.05 -12.76 2.39
8.31 -12.61 2.39
8.57 -12.45 2.39
8.83 -12.28 2.39
9.08 -12.11 2.39
9.32 -11.93 2.39
9.57 -11.75 2.39
9.81 -11.56 2.39
10.04 -11.37 2.39
10.27 -11.17 2.39
10.50 -10.97 2.39
10.72 -10.76 2.39
10.94 -10.55 2.39
11.16 -10.34 2.39
11.37 -10.12 2.39
11.58 -9.89 2.39
11.78 -9.66 2.39
11.97 -9.43 2.39
12.16 -9.19 2.39
12.35 -8.95 2.39
12.53 -8.70 2.39
12.71 -8.45 2.39
12.88 -8.20 2.39
13.05 -7.94 2.39
13.21 -7.68 2.39
11.79 -6.54 2.11
11.80 -6.24 2.09
11.81 -5.94 2.07
11.84 -5.67 2.05
11.91 -5.41 2.05
11.92 -5.13 2.03
11.93 -4.85 2.02
11.94 -4.58 2.00
11.95 -4.31 1.99
11.87 -4.01 1.96
11.88 -3.75 1.95
11.88 -3.50 1.94
10.43 -2.84 1.69
11.90 -2.99 1.92
11.85 -2.72 1.90
11.85 -2.47 1.89
11.82 -2.22 1.88
11.83 -1.98 1.88
11.84 -1.74 1.87
11.84 -1.50 1.87
11.87 -1.26 1.87
11.92 -1.02 1.87
10.49 -0.69 1.65
11.98 -0.54 1.88
11.99 -0.30 1.88
12.00 -0.06 1.88
12.00 0.18 1.88
12.01 0.42 1.88
12.11 0.66 1.90
12.12 0.91 1.91
12.12 1.15 1.91
12.13 1.40 1.92
12.14 1.65 1.92
12.15 1.90 1.93
12.07 2.13 1.93
12.07 2.39 1.94
12.08 2.64 1.95
12.09 2.90 1.96
11.47 2.99 1.87
11.25 3.18 1.84
11.02 3.35 1.82
10.67 3.48 1.77
10.59 3.69 1.77
10.49 3.90 1.77
10.38 4.09 1.76
10.51 4.39 1.80
10.52 4.64 1.82
10.41 4.85 1.82
10.63 5.21 1.88
11.34 5.85 2.02
11.93 6.45 2.15
11.65 6.61 2.13
11.15 6.62 2.06
10.68 6.64 2.00
10.24 6.66 1.94
9.83 6.67 1.89
9.44 6.68 1.84
10.20 7.54 2.02
10.19 7.85 2.05
10.18 8.17 2.09
9.79 8.19 2.04
9.44 8.22 2.00
9.45 8.57 2.04
10.06 9.49 2.22
10.07 9.89 2.27
9.69 9.92 2.23
9.51 10.13 2.23
9.96 11.04 2.39
9.73 11.23 2.39
9.49 11.41 2.39
9.25 11.59 2.39
9.01 11.76 2.39
8.76 11.93 2.39
8.51 12.09 2.39
8.26 12.25 2.39
8.01 12.40 2.39
7.75 12.54 2.39
7.49 12.68 2.39
7.22 12.82 2.39
6.96 12.95 2.39
6.69 13.07 2.39
6.41 13.18 2.39
6.14 13.29 2.39
5.87 13.40 2.39
5.59 13.50 2.39
5.31 13.59 2.39
5.04 13.68 2.39
4.75 13.77 2.39
4.47 13.85 2.39
4.19 13.92 2.39
3.91 13.99 2.39
3.62 14.05 2.39
3.33 14.10 2.39
3.05 14.15 2.39
2.76 14.20 2.39
2.58 14.85 2.49
2.28 14.88 2.49
1.98 14.91 2.49
1.68 14.93 2.49
1.37 14.95 2.49
1.07 14.96 2.49
0.77 14.96 2.49
0.47 14.96 2.49
0.17 14.95 2.49
-0.13 14.94 2.49
-0.43 14.92 2.49
-0.73 14.89 2.49
-1.03 14.86 2.49
-1.32 14.82 2.49
-1.62 14.78 2.49
-1.91 14.73 2.49
-2.21 14.67 2.49
-2.50 14.61 2.49
-2.79 14.55 2.49
-3.08 14.48 2.49
-3.37 14.40 2.49
-3.65 14.31 2.49
-3.93 14.23 2.49
-4.22 14.13 2.49
-4.50 14.03 2.49
-4.77 13.93 2.49
-5.05 13.82 2.49
-5.32 13.70 2.49
-5.44 13.22 2.43
-5.61 12.90 2.39
-5.87 12.78 2.39
-6.12 12.65 2.39
-6.37 12.51 2.39
-6.61 12.37 2.39
-6.85 12.23 2.39
-7.09 12.08 2.39
-7.33 11.93 2.39
-7.56 11.77 2.39
-7.79 11.61 2.39
-8.02 11.44 2.39
-8.24 11.27 2.39
-8.46 11.10 2.39
-8.68 10.92 2.39
-8.89 10.73 2.39
-9.10 10.55 2.39
-9.31 10.36 2.39
-9.51 10.16 2.39
-10.14 10.42 2.50
-10.24 10.10 2.47
-10.34 9.80 2.45
-10.43 9.49 2.43
-10.52 9.19 2.41
-10.60 8.90 2.38
-10.67 8.60 2.36
-10.72 8.29 2.34
-10.77 7.98 2.31
-10.81 7.68 2.29
-10.85 7.39 2.27
-10.91 7.11 2.25
-10.98 6.84 2.23
-11.03 6.57 2.22
-6.19 3.52 1.23
-11.14 6.05 2.19
-11.20 5.79 2.18
-11.25 5.53 2.17
-11.38 5.31 2.17
-11.54 5.11 2.18
-11.65 4.88 2.19
-11.70 4.63 2.18
-11.75 4.37 2.17
-11.80 4.12 2.16
-11.86 3.88 2.16
-11.93 3.64 2.16
-12.00 3.40 2.16
-12.08 3.16 2.16
-12.14 2.92 2.16
-12.18 2.67 2.16
-12.23 2.42 2.16
-12.26 2.17 2.15
-12.28 1.92 2.15
-12.30 1.67 2.15
-12.31 1.42 2.14
-12.33 1.18 2.14
-12.34 0.93 2.14
-12.38 0.68 2.14
-12.42 0.43 2.15
-12.52 0.18 2.16
-12.62 -0.07 2.18
-12.71 -0.32 2.20
-12.81 -0.58 2.21
-12.90 -0.85 2.23
-12.97 -1.12 2.25
-12.99 -1.38 2.25
-13.00 -1.65 2.26
-13.01 -1.91 2.27
-13.02 -2.18 2.27
-13.02 -2.45 2.28
-13.02 -2.73 2.29
-13.02 -3.00 2.30
-12.95 -3.26 2.30
-12.81 -3.50 2.28
-12.67 -3.74 2.27
-12.54 -3.97 2.26
-12.40 -4.20 2.25
-12.26 -4.44 2.24
-12.12 -4.66 2.23
-11.99 -4.89 2.22
-11.85 -5.11 2.21
-11.79 -5.37 2.22
-11.76 -5.64 2.23
-11.72 -5.92 2.24
-11.68 -6.20 2.26
-11.64 -6.48 2.27
-11.60 -6.76 2.29
-11.54 -7.04 2.30
-11.48 -7.33 2.32
-11.43 -7.62 2.34
-11.37 -7.92 2.36
-11.32 -8.23 2.38
-11.26 -8.54 2.40
-11.19 -8.84 2.42
-11.03 -9.07 2.42
-10.86 -9.31 2.42
-10.77 -9.61 2.44
-10.67 -9.92 2.46
-10.17 -9.84 2.39
-9.98 -10.05 2.39
-9.78 -10.26 2.39
-9.58 -10.46 2.39
-9.38 -10.66 2.39
-9.17 -10.86 2.39
-8.96 -11.05 2.39
-8.74 -11.24 2.39
-8.52 -11.42 2.39
-8.30 -11.60 2.39
-8.07 -11.77 2.39
-7.84 -11.95 2.39
-7.61 -12.11 2.39
-7.37 -12.27 2.39
-7.13 -12.43 2.39
-6.88 -12.58 2.39
-6.64 -12.73 2.39
-6.39 -12.88 2.39
-6.29 -13.36 2.45
-6.13 -13.72 2.49
-5.86 -13.85 2.49
-5.58 -13.98 2.49
-5.31 -14.10 2.49
-5.03 -14.22 2.49
-4.75 -14.33 2.49
-4.46 -14.44 2.49
-4.18 -14.54 2.49
-3.89 -14.64 2.49
-3.60 -14.73 2.49
-3.30 -14.81 2.49
-3.01 -14.89 2.49
-2.71 -14.96 2.49
-2.41 -15.03 2.49
-2.11 -15.09 2.49
-1.81 -15.14 2.49
-1.51 -15.19 2.49
-1.21 -15.23 2.49
-0.90 -15.27 2.49
-0.59 -15.30 2.49
-0.29 -15.33 2.49
0.02 -13.43 2.49
0.29 -13.44 2.49
0.56 -13.44 2.49
0.83 -13.44 2.49
1.10 -13.43 2.49
1.37 -13.42 2.49
1.64 -13.40 2.49
1.83 -12.82 2.39
2.09 -12.79 2.39
2.35 -12.76 2.39
2.61 -12.72 2.39
2.86 -12.67 2.39
3.12 -12.62 2.39
3.37 -12.57 2.39
3.63 -12.51 2.39
3.88 -12.44 2.39
4.13 -12.37 2.39
4.38 -12.29 2.39
4.63 -12.21 2.39
4.88 -12.13 2.39
5.13 -12.04 2.39
5.37 -11.94 2.39
5.61 -11.84 2.39
5.86 -11.74 2.39
6.10 -11.63 2.39
6.33 -11.51 2.39
6.57 -11.39 2.39
6.80 -11.27 2.39
7.03 -11.13 2.39
7.26 -11.00 2.39
7.48 -10.86 2.39
7.70 -10.71 2.39
7.92 -10.56 2.39
8.13 -10.41 2.39
8.34 -10.25 2.39
8.55 -10.08 2.39
8.76 -9.91 2.39
8.96 -9.74 2.39
9.16 -9.56 2.39
9.35 -9.38 2.39
9.54 -9.20 2.39
9.73 -9.01 2.39
9.91 -8.82 2.39
10.09 -8.62 2.39
10.26 -8.42 2.39
10.44 -8.21 2.39
10.60 -8.01 2.39
10.76 -7.79 2.39
10.92 -7.58 2.39
11.07 -7.36 2.39
11.22 -7.14 2.39
11.37 -6.92 2.39
11.51 -6.69 2.39
11.64 -6.46 2.39
11.77 -6.22 2.39
11.81 -5.94 2.38
11.81 -5.65 2.35
11.82 -5.37 2.33
11.83 -5.09 2.31
11.84 -4.82 2.30
11.85 -4.54 2.28
11.86 -4.28 2.26
11.87 -4.01 2.25
11.88 -3.75 2.24
11.88 -3.49 2.22
10.43 -2.84 1.94
11.64 -2.92 2.15
11.69 -2.69 2.15
11.74 -2.45 2.15
11.79 -2.22 2.15
11.83 -1.98 2.15
11.84 -1.74 2.15
11.84 -1.50 2.14
11.87 -1.26 2.15
11.92 -1.02 2.15
10.49 -0.69 1.89
11.98 -0.55 2.16
11.99 -0.30 2.16
12.00 -0.06 2.16
12.00 0.18 2.16
12.01 0.42 2.16
12.02 0.66 2.17
12.03 0.90 2.17
12.03 1.14 2.18
12.04 1.39 2.18
12.05 1.64 2.19
12.06 1.88 2.20
12.07 2.13 2.21
12.07 2.39 2.22
12.08 2.64 2.23
12.09 2.90 2.25
11.47 2.99 2.14
11.25 3.18 2.11
11.02 3.35 2.08
10.67 3.48 2.03
10.59 3.69 2.03
10.49 3.90 2.03
10.38 4.09 2.02
10.51 4.39 2.07
10.52 4.64 2.09
10.41 4.84 2.08
10.63 5.21 2.15
10.95 5.64 2.24
11.58 6.26 2.39
11.44 6.49 2.39
11.15 6.62 2.36
10.69 6.64 2.29
10.25 6.66 2.23
9.83 6.67 2.17
9.44 6.68 2.11
9.99 7.38 2.27
9.98 7.69 2.30
9.84 7.89 2.31
9.79 8.19 2.34
9.45 8.23 2.30
9.47 8.58 2.34
9.48 8.95 2.39
9.29 9.13 2.39
9.10 9.31 2.39
8.91 9.48 2.39
8.71 9.65 2.39
8.50 9.82 2.39
8.30 9.98 2.39
8.09 10.13 2.39
7.88 10.28 2.39
7.66 10.43 2.39
7.45 10.57 2.39
7.23 10.71 2.39
7.01 10.84 2.39
6.78 10.97 2.39
6.55 11.09 2.39
6.32 11.20 2.39
6.09 11.32 2.39
5.85 11.43 2.39
5.62 11.53 2.39
5.38 11.63 2.39
5.14 11.73 2.39
4.90 11.82 2.39
4.66 11.90 2.39
4.41 11.99 2.39
4.17 12.06 2.39
3.92 12.13 2.39
3.67 12.20 2.39
3.43 12.26 2.39
3.18 12.31 2.39
2.93 12.36 2.39
2.67 12.41 2.39
2.53 12.98 2.49
2.26 13.02 2.49
2.00 13.05 2.49
1.74 13.08 2.49
1.47 13.10 2.49
1.21 13.11 2.49
0.94 13.12 2.49
0.68 13.13 2.49
0.41 13.13 2.49
0.15 13.12 2.49
-0.11 13.11 2.49
-0.38 13.10 2.49
-0.64 13.07 2.49
-0.90 13.05 2.49
-1.16 13.02 2.49
-1.42 12.98 2.49
-1.68 12.94 2.49
-1.94 12.89 2.49
-2.19 12.84 2.49
-2.45 12.78 2.49
-2.70 12.72 2.49
-2.96 12.65 2.49
-3.21 12.58 2.49
-3.46 12.51 2.49
-3.70 12.42 2.49
-3.95 12.34 2.49
-4.19 12.25 2.49
-4.44 12.15 2.49
-4.68 12.05 2.49
-4.91 11.95 2.49
-5.15 11.84 2.49
-5.38 11.72 2.49
-5.49 11.36 2.44
-5.60 11.01 2.39
-5.82 10.89 2.39
-6.03 10.76 2.39
-6.24 10.63 2.39
-6.45 10.50 2.39
-6.66 10.36 2.39
-6.86 10.22 2.39
-7.06 10.07 2.39
-7.26 9.92 2.39
-7.45 9.77 2.39
-7.64 9.61 2.39
-7.83 9.45 2.39
-8.01 9.29 2.39
-8.19 9.12 2.39
-8.37 8.95 2.39
-8.55 8.78 2.39
-8.72 8.60 2.39
-8.88 8.42 2.39
-9.05 8.24 2.39
-9.21 8.05 2.39
-9.36 7.86 2.39
-9.52 7.67 2.39
-9.86 7.62 2.44
-9.96 7.38 2.43
-10.05 7.14 2.41
-10.14 6.91 2.40
-10.24 6.67 2.39
-10.35 6.45 2.39
-10.47 6.24 2.39
-6.17 3.51 1.39
-10.70 5.80 2.39
-10.77 5.57 2.38
-10.82 5.32 2.37
-10.87 5.08 2.35
-10.98 4.86 2.36
-11.03 4.62 2.35
-11.08 4.38 2.34
-11.13 4.14 2.33
-11.18 3.91 2.32
-11.22 3.67 2.32
-11.26 3.44 2.31
-11.33 3.21 2.31
-11.39 2.98 2.31
-11.44 2.75 2.31
-11.48 2.52 2.31
-11.52 2.28 2.31
-11.56 2.05 2.31
-11.60 1.82 2.30
-11.63 1.58 2.30
-11.64 1.35 2.30
-11.66 1.11 2.30
-11.68 0.88 2.30
-11.72 0.64 2.30
-11.75 0.41 2.31
-11.79 0.17 2.31
-11.82 -0.06 2.32
-11.88 -0.30 2.33
-11.96 -0.55 2.35
-12.04 -0.79 2.36
-12.12 -1.04 2.38
-12.12 -1.29 2.39
-12.10 -1.53 2.39
-12.08 -1.78 2.39
-12.05 -2.02 2.39
-12.04 -2.27 2.40
-12.04 -2.52 2.40
-12.03 -2.77 2.41
-12.03 -3.03 2.42
-12.00 -3.28 2.43
-11.97 -3.53 2.44
-11.94 -3.79 2.44
-11.90 -4.04 2.45
-11.86 -4.29 2.46
-11.77 -4.53 2.46
-11.63 -4.75 2.45
-11.50 -4.96 2.44
-11.37 -5.18 2.43
-11.33 -5.44 2.44
-11.29 -5.71 2.46
-11.25 -5.97 2.47
-11.21 -6.24 2.49
-11.17 -6.51 2.51
-11.08 -6.77 2.52
-10.92 -6.98 2.51
-10.77 -7.18 2.50
-10.63 -7.40 2.50
-10.01 -7.28 2.39
-9.87 -7.48 2.39
-9.72 -7.68 2.39
-9.57 -7.88 2.39
-9.42 -8.08 2.39
-9.26 -8.27 2.39
-9.10 -8.46 2.39
-8.94 -8.65 2.39
-8.77 -8.83 2.39
-8.59 -9.02 2.39
-8.42 -9.19 2.39
-8.24 -9.37 2.39
-8.05 -9.54 2.39
-7.87 -9.71 2.39
-7.68 -9.87 2.39
-7.48 -10.03 2.39
-7.29 -10.19 2.39
-7.09 -10.34 2.39
-6.88 -10.49 2.39
-6.68 -10.63 2.39
-6.47 -10.78 2.39
-6.25 -10.91 2.39
-6.23 -11.39 2.47
-6.07 -11.66 2.49
-5.84 -11.79 2.49
-5.61 -11.91 2.49
-5.37 -12.03 2.49
-5.14 -12.15 2.49
-4.90 -12.26 2.49
-4.65 -12.37 2.49
-4.41 -12.47 2.49
-4.16 -12.57 2.49
-3.91 -12.66 2.49
-3.66 -12.75 2.49
-3.40 -12.83 2.49
-3.15 -12.91 2.49
-2.89 -12.98 2.49
-2.63 -13.04 2.49
-2.37 -13.11 2.49
-2.11 -13.16 2.49
-1.85 -13.22 2.49
-1.58 -13.26 2.49
-1.32 -13.30 2.49
-1.05 -13.34 2.49
-0.79 -13.37 2.49
-0.52 -13.39 2.49
-0.25 -13.41 2.49
0.02 -11.92 2.49
0.26 -11.93 2.49
0.50 -11.93 2.49
0.74 -11.93 2.49
0.98 -11.92 2.49
1.22 -11.91 2.49
1.46 -11.89 2.49
1.70 -11.87 2.49
1.86 -11.35 2.39
2.09 -11.32 2.39
2.31 -11.28 2.39
2.54 -11.24 2.39
2.77 -11.20 2.39
2.99 -11.15 2.39
3.22 -11.09 2.39
3.44 -11.04 2.39
3.67 -10.97 2.39
3.89 -10.90 2.39
4.11 -10.83 2.39
4.33 -10.75 2.39
4.55 -10.67 2.39
4.76 -10.58 2.39
4.98 -10.49 2.39
5.19 -10.40 2.39
5.40 -10.30 2.39
5.61 -10.19 2.39
5.82 -10.08 2.39
6.03 -9.98 2.39
6.23 -9.87 2.39
6.43 -9.74 2.39
6.63 -9.62 2.39
6.82 -9.49 2.39
7.02 -9.36 2.39
7.20 -9.22 2.39
7.39 -9.08 2.39
7.58 -8.93 2.39
7.76 -8.78 2.39
7.93 -8.63 2.39
8.11 -8.47 2.39
8.28 -8.31 2.39
8.45 -8.14 2.39
8.61 -7.98 2.39
8.78 -7.81 2.39
8.93 -7.63 2.39
9.09 -7.45 2.39
9.24 -7.27 2.39
9.39 -7.09 2.39
9.53 -6.90 2.39
9.67 -6.71 2.39
9.80 -6.52 2.39
9.93 -6.32 2.39
10.06 -6.12 2.39
10.18 -5.92 2.39
10.30 -5.72 2.39
10.42 -5.51 2.39
10.53 -5.30 2.39
10.63 -5.09 2.39
10.73 -4.88 2.39
10.83 -4.66 2.39
10.92 -4.44 2.39
11.01 -4.22 2.39
11.10 -4.00 2.39
11.17 -3.78 2.39
11.25 -3.55 2.39
10.21 -3.00 2.16
10.24 -2.79 2.15
10.30 -2.59 2.15
10.35 -2.38 2.15
10.39 -2.17 2.15
10.43 -1.96 2.15
10.47 -1.75 2.15
10.50 -1.54 2.15
10.53 -1.33 2.15
10.55 -1.12 2.15
10.57 -0.91 2.15
10.42 -0.68 2.12
11.77 -0.54 2.39
11.78 -0.30 2.39
11.78 -0.06 2.39
11.78 0.17 2.39
11.77 0.41 2.39
11.75 0.64 2.39
11.74 0.88 2.39
11.71 1.11 2.39
11.68 1.35 2.39
11.65 1.58 2.39
11.61 1.81 2.39
11.57 2.05 2.39
11.52 2.28 2.39
11.47 2.51 2.39
11.41 2.73 2.39
11.35 2.96 2.39
11.14 3.14 2.36
10.84 3.30 2.31
10.67 3.48 2.29
10.59 3.69 2.29
10.50 3.89 2.29
10.38 4.09 2.28
10.35 4.32 2.30
10.35 4.57 2.32
10.46 4.87 2.36
10.48 5.14 2.39
10.37 5.34 2.39
10.26 5.55 2.39
10.14 5.75 2.39
10.02 5.95 2.39
9.89 6.14 2.39
9.76 6.34 2.39
9.62 6.53 2.39
9.44 6.68 2.38
9.34 6.90 2.39
9.20 7.08 2.39
9.05 7.26 2.39
8.89 7.43 2.39
8.74 7.60 2.39
8.58 7.77 2.39
8.41 7.94 2.39
8.25 8.10 2.39
8.08 8.26 2.39
7.90 8.41 2.39
7.73 8.56 2.39
7.55 8.71 2.39
7.37 8.85 2.39
7.18 8.99 2.39
7.00 9.13 2.39
6.81 9.26 2.39
6.61 9.39 2.39
6.41 9.50 2.39
6.22 9.62 2.39
6.02 9.73 2.39
5.82 9.84 2.39
5.61 9.95 2.39
5.41 10.05 2.39
5.20 10.15 2.39
4.99 10.25 2.39
4.78 10.34 2.39
4.57 10.42 2.39
4.36 10.50 2.39
4.14 10.58 2.39
3.92 10.65 2.39
3.71 10.72 2.39
3.49 10.78 2.39
3.27 10.84 2.39
3.05 10.90 2.39
2.83 10.95 2.39
2.60 10.99 2.39
2.48 11.51 2.49
2.25 11.55 2.49
2.02 11.58 2.49
1.78 11.61 2.49
1.55 11.64 2.49
1.31 11.65 2.49
1.08 11.67 2.49
0.84 11.68 2.49
0.61 11.69 2.49
0.37 11.69 2.49
0.14 11.68 2.49
-0.10 11.67 2.49
-0.33 11.66 2.49
-0.57 11.64 2.49
-0.80 11.62 2.49
-1.03 11.59 2.49
-1.26 11.56 2.49
-1.49 11.52 2.49
-1.72 11.48 2.49
-1.95 11.44 2.49
-2.18 11.39 2.49
-2.41 11.34 2.49
-2.63 11.28 2.49
-2.86 11.21 2.49
-3.08 11.15 2.49
-3.30 11.07 2.49
-3.52 11.00 2.49
-3.74 10.92 2.49
-3.95 10.83 2.49
-4.17 10.75 2.49
-4.38 10.65 2.49
-4.59 10.56 2.49
-4.80 10.46 2.49
-5.00 10.35 2.49
-5.21 10.24 2.49
-5.41 10.13 2.49
-5.54 9.89 2.46
-5.57 9.49 2.39
-5.77 9.39 2.40
-5.94 9.24 2.39
-6.12 9.12 2.39
-6.30 8.99 2.39
-6.47 8.85 2.39
-6.65 8.72 2.39
-6.82 8.58 2.39
-6.98 8.44 2.39
-7.15 8.29 2.39
-7.31 8.14 2.39
-7.47 7.99 2.39
-7.63 7.83 2.39
-7.78 7.68 2.39
-7.93 7.52 2.39
-8.08 7.35 2.39
-8.22 7.19 2.39
-8.36 7.02 2.39
-8.50 6.85 2.39
-8.63 6.67 2.39
-8.76 6.49 2.39
-8.89 6.32 2.39
-9.01 6.13 2.39
-9.13 5.95 2.39
-9.24 5.76 2.39
-9.36 5.58 2.39
-6.17 3.51 1.56
-9.57 5.19 2.39
-9.67 5.00 2.39
-10.02 4.93 2.45
-10.10 4.72 2.45
-10.18 4.51 2.45
-10.26 4.30 2.44
-10.34 4.09 2.44
-10.41 3.88 2.44
-10.48 3.66 2.44
-10.55 3.45 2.44
-10.61 3.24 2.44
-10.67 3.02 2.44
-10.74 2.81 2.44
-10.80 2.59 2.44
-10.85 2.38 2.44
-10.89 2.16 2.44
-10.93 1.94 2.44
-10.96 1.72 2.44
-11.00 1.50 2.44
-11.03 1.28 2.44
-11.05 1.05 2.44
-11.07 0.83 2.44
-11.11 0.61 2.44
-11.14 0.39 2.45
-11.18 0.16 2.45
-11.21 -0.06 2.46
-11.24 -0.29 2.47
-11.26 -0.52 2.47
-11.29 -0.74 2.48
-11.35 -0.98 2.50
-11.38 -1.21 2.51
-11.36 -1.44 2.51
-11.34 -1.67 2.51
-11.31 -1.90 2.51
-11.29 -2.13 2.52
-11.26 -2.36 2.52
-11.22 -2.59 2.52
-11.19 -2.82 2.52
-11.15 -3.05 2.53
-11.13 -3.28 2.54
-11.10 -3.52 2.54
-11.06 -3.75 2.55
-11.00 -3.98 2.55
-10.94 -4.21 2.56
-10.87 -4.44 2.56
-10.80 -4.66 2.56
-9.98 -4.55 2.39
-9.90 -4.75 2.39
-9.80 -4.95 2.39
-9.71 -5.15 2.39
-9.61 -5.35 2.39
-9.50 -5.54 2.39
-9.39 -5.74 2.39
-9.28 -5.93 2.39
-9.17 -6.12 2.39
-9.05 -6.30 2.39
-8.92 -6.49 2.39
-8.80 -6.67 2.39
-8.67 -6.85 2.39
-8.53 -7.03 2.39
-8.40 -7.20 2.39
-8.25 -7.37 2.39
-8.11 -7.54 2.39
-7.96 -7.71 2.39
-7.81 -7.87 2.39
-7.66 -8.04 2.39
-7.50 -8.19 2.39
-7.34 -8.35 2.39
-7.17 -8.50 2.39
-7.01 -8.65 2.39
-6.84 -8.79 2.39
-6.66 -8.94 2.39
-6.49 -9.07 2.39
-6.31 -9.21 2.39
-6.17 -9.41 2.41
-6.18 -9.85 2.49
-6.00 -10.01 2.49
-5.81 -10.14 2.49
-5.61 -10.26 2.49
-5.40 -10.38 2.49
-5.20 -10.49 2.49
-4.99 -10.60 2.49
-4.78 -10.71 2.49
-4.57 -10.81 2.49
-4.35 -10.91 2.49
-4.14 -11.00 2.49
-3.92 -11.09 2.49
-3.70 -11.18 2.49
-3.48 -11.26 2.49
-3.25 -11.34 2.49
-3.03 -11.41 2.49
-2.80 -11.48 2.49
-2.57 -11.54 2.49
-2.34 -11.60 2.49
-2.11 -11.65 2.49
-1.87 -11.70 2.49
-1.64 -11.74 2.49
-1.41 -11.78 2.49
-1.17 -11.82 2.49
-0.93 -11.85 2.49
-0.70 -11.88 2.49
-0.46 -11.90 2.49
-0.22 -11.91 2.49
0.02 -10.71 2.49
0.23 -10.72 2.49
0.45 -10.72 2.49
0.67 -10.72 2.49
0.88 -10.71 2.49
1.10 -10.70 2.49
1.31 -10.68 2.49
1.53 -10.66 2.49
1.74 -10.63 2.49
1.87 -10.16 2.39
2.08 -10.13 2.39
2.28 -10.09 2.39
2.49 -10.05 2.39
2.69 -10.01 2.39
2.89 -9.96 2.39
3.09 -9.90 2.39
3.29 -9.85 2.39
3.49 -9.78 2.39
3.69 -9.72 2.39
3.89 -9.65 2.39
4.08 -9.57 2.39
4.28 -9.50 2.39
4.47 -9.41 2.39
4.66 -9.33 2.39
4.85 -9.24 2.39
5.03 -9.14 2.39
5.22 -9.05 2.39
5.40 -8.94 2.39
5.58 -8.84 2.39
5.76 -8.73 2.39
5.94 -8.63 2.39
6.12 -8.51 2.39
6.29 -8.39 2.39
6.46 -8.26 2.39
6.63 -8.14 2.39
6.79 -8.01 2.39
6.96 -7.87 2.39
7.11 -7.73 2.39
7.27 -7.59 2.39
7.42 -7.45 2.39
7.58 -7.30 2.39
7.72 -7.15 2.39
7.87 -7.00 2.39
8.01 -6.84 2.39
8.15 -6.68 2.39
8.28 -6.52 2.39
8.41 -6.35 2.39
8.54 -6.18 2.39
8.66 -6.01 2.39
8.79 -5.84 2.39
8.90 -5.66 2.39
9.02 -5.48 2.39
9.13 -5.30 2.39
9.23 -5.12 2.39
9.33 -4.94 2.39
9.43 -4.75 2.39
9.53 -4.56 2.39
9.62 -4.37 2.39
9.71 -4.17 2.39
9.79 -3.98 2.39
9.87 -3.78 2.39
9.94 -3.59 2.39
10.01 -3.39 2.39
10.08 -3.18 2.39
10.14 -2.98 2.39
10.20 -2.78 2.39
10.23 -2.57 2.39
10.23 -2.35 2.38
10.24 -2.14 2.37
10.25 -1.93 2.36
10.25 -1.72 2.36
10.26 -1.51 2.35
10.27 -1.30 2.34
10.27 -1.09 2.34
10.28 -0.88 2.34
10.29 -0.68 2.34
10.55 -0.48 2.39
10.55 -0.27 2.39
10.56 -0.06 2.39
10.55 0.15 2.39
10.55 0.36 2.39
10.53 0.58 2.39
10.52 0.79 2.39
10.50 1.00 2.39
10.47 1.21 2.39
10.44 1.42 2.39
10.41 1.62 2.39
10.37 1.83 2.39
10.33 2.04 2.39
10.28 2.24 2.39
10.23 2.45 2.39
10.18 2.65 2.39
10.12 2.86 2.39
10.05 3.06 2.39
9.99 3.26 2.39
9.92 3.45 2.39
9.84 3.65 2.39
9.76 3.85 2.39
9.68 4.04 2.39
9.59 4.23 2.39
9.50 4.42 2.39
9.40 4.61 2.39
9.31 4.79 2.39
9.20 4.97 2.39
9.10 5.16 2.39
8.99 5.33 2.39
8.87 5.51 2.39
8.76 5.68 2.39
8.64 5.85 2.39
8.51 6.02 2.39
8.38 6.19 2.39
8.25 6.35 2.39
8.12 6.51 2.39
7.98 6.67 2.39
7.84 6.82 2.39
7.70 6.98 2.39
7.55 7.12 2.39
7.40 7.27 2.39
7.25 7.41 2.39
7.10 7.55 2.39
6.94 7.69 2.39
6.78 7.82 2.39
6.62 7.95 2.39
6.44 8.06 2.39
6.28 8.19 2.39
6.11 8.31 2.39
5.94 8.42 2.39
5.76 8.53 2.39
5.59 8.64 2.39
5.41 8.74 2.39
5.23 8.84 2.39
5.04 8.94 2.39
4.86 9.03 2.39
4.68 9.12 2.39
4.49 9.21 2.39
4.30 9.29 2.39
4.11 9.37 2.39
3.92 9.44 2.39
3.72 9.51 2.39
3.53 9.58 2.39
3.34 9.64 2.39
3.14 9.70 2.39
2.94 9.75 2.39
2.74 9.80 2.39
2.54 9.85 2.39
2.45 10.31 2.49
2.24 10.35 2.49
2.03 10.39 2.49
1.82 10.42 2.49
1.61 10.45 2.49
1.39 10.47 2.49
1.18 10.49 2.49
0.97 10.50 2.49
0.76 10.51 2.49
0.55 10.52 2.49
0.34 10.52 2.49
0.12 10.52 2.49
-0.09 10.51 2.49
-0.30 10.50 2.49
-0.51 10.48 2.49
-0.72 10.46 2.49
-0.93 10.44 2.49
-1.14 10.41 2.49
-1.34 10.38 2.49
-1.55 10.34 2.49
-1.76 10.30 2.49
-1.96 10.26 2.49
-2.17 10.21 2.49
-2.37 10.16 2.49
-2.57 10.10 2.49
-2.77 10.04 2.49
-2.97 9.98 2.49
-3.17 9.91 2.49
-3.37 9.84 2.49
-3.56 9.77 2.49
-3.75 9.69 2.49
-3.95 9.60 2.49
-4.14 9.52 2.49
-4.32 9.43 2.49
-4.51 9.33 2.49
-4.69 9.23 2.49
-4.88 9.13 2.49
-5.06 9.03 2.49
-5.23 8.92 2.49
-5.41 8.81 2.49
-5.58 8.69 2.49
-5.60 8.34 2.43
-5.68 8.11 2.39
-5.84 7.99 2.39
-5.99 7.86 2.39
-6.15 7.74 2.39
-6.30 7.61 2.39
-6.45 7.48 2.39
-6.60 7.35 2.39
-6.74 7.21 2.39
-6.88 7.07 2.39
-7.02 6.93 2.39
-7.15 6.78 2.39
-7.29 6.63 2.39
-7.42 6.48 2.39
-7.54 6.33 2.39
-7.67 6.18 2.39
-7.79 6.02 2.39
-7.90 5.86 2.39
-8.02 5.70 2.39
-8.13 5.54 2.39
-8.24 5.37 2.39
-8.34 5.20 2.39
-8.44 5.03 2.39
-6.17 3.51 1.73
-8.64 4.69 2.39
-8.73 4.51 2.39
-8.81 4.33 2.39
-8.90 4.16 2.39
-8.98 3.98 2.39
-9.06 3.79 2.39
-9.13 3.61 2.39
-9.20 3.43 2.39
-9.27 3.24 2.39
-9.33 3.05 2.39
-9.39 2.86 2.39
-9.44 2.68 2.39
-9.50 2.48 2.39
-9.54 2.29 2.39
-9.59 2.10 2.39
-9.63 1.91 2.39
-9.67 1.71 2.39
-9.70 1.52 2.39
-9.73 1.32 2.39
-9.75 1.13 2.39
-9.78 0.93 2.39
-9.79 0.74 2.39
-9.81 0.54 2.39
-9.82 0.34 2.39
-9.83 0.14 2.39
-9.83 -0.05 2.39
-9.83 -0.25 2.39
-9.82 -0.45 2.39
-9.81 -0.65 2.39
-9.80 -0.84 2.39
-9.78 -1.04 2.39
-9.76 -1.24 2.39
-9.74 -1.44 2.39
-9.71 -1.63 2.39
-9.68 -1.83 2.39
-9.64 -2.02 2.39
-9.60 -2.22 2.39
-9.56 -2.41 2.39
-9.51 -2.60 2.39
-9.46 -2.79 2.39
-9.41 -2.98 2.39
-9.35 -3.17 2.39
-9.29 -3.36 2.39
-9.22 -3.55 2.39
-9.15 -3.74 2.39
-9.08 -3.92 2.39
-9.00 -4.11 2.39
-8.92 -4.29 2.39
-8.84 -4.47 2.39
-8.75 -4.65 2.39
-8.66 -4.82 2.39
-8.57 -5.00 2.39
-8.47 -5.17 2.39
-8.37 -5.35 2.39
-8.26 -5.52 2.39
-8.16 -5.68 2.39
-8.04 -5.85 2.39
-7.93 -6.01 2.39
-7.81 -6.18 2.39
-7.69 -6.34 2.39
-7.57 -6.49 2.39
-7.44 -6.65 2.39
-7.31 -6.80 2.39
-7.17 -6.95 2.39
-7.04 -7.10 2.39
-6.90 -7.24 2.39
-6.75 -7.38 2.39
-6.61 -7.52 2.39
-6.46 -7.66 2.39
-6.33 -7.81 2.40
-6.16 -7.92 2.39
-6.13 -8.22 2.44
-6.09 -8.53 2.49
-5.92 -8.65 2.49
-5.75 -8.78 2.49
-5.58 -8.90 2.49
-5.40 -9.01 2.49
-5.23 -9.13 2.49
-5.04 -9.23 2.49
-4.86 -9.34 2.49
-4.68 -9.44 2.49
-4.49 -9.54 2.49
-4.30 -9.64 2.49
-4.11 -9.73 2.49
-3.92 -9.82 2.49
-3.72 -9.90 2.49
-3.52 -9.98 2.49
-3.32 -10.06 2.49
-3.12 -10.13 2.49
-2.92 -10.20 2.49
-2.72 -10.26 2.49
-2.51 -10.32 2.49
-2.31 -10.38 2.49
-2.10 -10.43 2.49
-1.89 -10.48 2.49
-1.68 -10.52 2.49
-1.47 -10.56 2.49
-1.26 -10.59 2.49
-1.05 -10.62 2.49
-0.84 -10.65 2.49
-0.62 -10.67 2.49
-0.41 -10.69 2.49
-0.20 -10.71 2.49
0.02 -9.72 2.49
0.21 -9.72 2.49
0.41 -9.72 2.49
0.61 -9.72 2.49
0.80 -9.71 2.49
1.00 -9.70 2.49
1.19 -9.68 2.49
1.39 -9.66 2.49
1.58 -9.64 2.49
1.77 -9.61 2.49
1.90 -9.24 2.41
2.08 -9.20 2.40
2.26 -9.11 2.39
2.44 -9.07 2.39
2.62 -9.02 2.39
2.80 -8.98 2.39
2.99 -8.92 2.39
3.17 -8.87 2.39
3.34 -8.81 2.39
3.52 -8.74 2.39
3.70 -8.67 2.39
3.87 -8.60 2.39
4.05 -8.53 2.39
4.22 -8.45 2.39
4.39 -8.37 2.39
4.56 -8.28 2.39
4.73 -8.19 2.39
4.89 -8.10 2.39
5.06 -8.00 2.39
5.22 -7.90 2.39
5.38 -7.80 2.39
5.54 -7.70 2.39
5.69 -7.59 2.39
5.85 -7.47 2.39
6.00 -7.37 2.39
6.15 -7.25 2.39
6.30 -7.13 2.39
6.44 -7.00 2.39
6.58 -6.87 2.39
6.72 -6.74 2.39
6.86 -6.61 2.39
6.99 -6.47 2.39
7.12 -6.33 2.39
7.25 -6.19 2.39
7.37 -6.05 2.39
7.50 -5.90 2.39
7.61 -5.75 2.39
7.73 -5.60 2.39
7.84 -5.44 2.39
7.95 -5.28 2.39
8.06 -5.12 2.39
8.16 -4.96 2.39
8.26 -4.80 2.39
8.36 -4.63 2.39
8.45 -4.47 2.39
8.54 -4.30 2.39
8.62 -4.13 2.39
8.70 -3.95 2.39
8.78 -3.78 2.39
8.86 -3.60 2.39
8.93 -3.42 2.39
9.00 -3.24 2.39
9.06 -3.06 2.39
9.12 -2.88 2.39
9.18 -2.70 2.39
9.23 -2.51 2.39
9.28 -2.33 2.39
9.32 -2.14 2.39
9.36 -1.96 2.39
9.40 -1.77 2.39
9.43 -1.58 2.39
9.46 -1.39 2.39
9.49 -1.20 2.39
9.51 -1.01 2.39
9.52 -0.82 2.39
9.54 -0.63 2.39
9.55 -0.44 2.39
9.55 -0.24 2.39
9.55 -0.05 2.39
9.55 0.14 2.39
9.54 0.33 2.39
9.53 0.52 2.39
9.52 0.71 2.39
9.50 0.90 2.39
9.48 1.09 2.39
9.45 1.28 2.39
9.42 1.47 2.39
9.39 1.66 2.39
9.35 1.84 2.39
9.31 2.03 2.39
9.26 2.22 2.39
9.21 2.40 2.39
9.16 2.58 2.39
9.10 2.77 2.39
9.04 2.95 2.39
8.98 3.13 2.39
8.91 3.30 2.39
8.84 3.48 2.39
8.76 3.66 2.39
8.68 3.83 2.39
8.60 4.00 2.39
8.52 4.17 2.39
8.43 4.34 2.39
8.34 4.50 2.39
8.24 4.67 2.39
8.14 4.83 2.39
8.04 4.99 2.39
7.93 5.15 2.39
7.82 5.30 2.39
7.71 5.46 2.39
7.60 5.61 2.39
7.48 5.75 2.39
7.36 5.90 2.39
7.23 6.04 2.39
7.11 6.18 2.39
6.98 6.32 2.39
6.85 6.46 2.39
6.71 6.59 2.39
6.57 6.72 2.39
6.43 6.84 2.39
6.28 6.96 2.39
6.14 7.08 2.39
5.99 7.20 2.39
5.84 7.31 2.39
5.69 7.42 2.39
5.54 7.53 2.39
5.38 7.63 2.39
5.23 7.74 2.39
5.07 7.83 2.39
4.91 7.93 2.39
4.74 8.02 2.39
4.58 8.11 2.39
4.41 8.19 2.39
4.24 8.28 2.39
4.07 8.35 2.39
3.90 8.43 2.39
3.73 8.50 2.39
3.56 8.57 2.39
3.38 8.63 2.39
3.21 8.69 2.39
3.03 8.75 2.39
2.85 8.80 2.39
2.67 8.85 2.39
2.49 8.90 2.39
2.41 9.32 2.49
2.22 9.36 2.49
2.03 9.40 2.49
1.84 9.43 2.49
1.65 9.46 2.49
1.46 9.49 2.49
1.27 9.51 2.49
1.08 9.52 2.49
0.88 9.54 2.49
0.69 9.55 2.49
0.50 9.55 2.49
0.31 9.55 2.49
0.12 9.55 2.49
-0.08 9.55 2.49
-0.27 9.54 2.49
-0.46 9.52 2.49
-0.65 9.51 2.49
-0.84 9.49 2.49
-1.03 9.46 2.49
-1.22 9.43 2.49
-1.41 9.40 2.49
-1.60 9.37 2.49
-1.78 9.33 2.49
-1.97 9.28 2.49
-2.15 9.24 2.49
-2.34 9.19 2.49
-2.52 9.13 2.49
-2.70 9.07 2.49
-2.88 9.01 2.49
-3.06 8.95 2.49
-3.24 8.88 2.49
-3.41 8.81 2.49
-3.59 8.73 2.49
-3.76 8.65 2.49
-3.93 8.57 2.49
-4.10 8.49 2.49
-4.27 8.40 2.49
-4.43 8.31 2.49
-4.60 8.21 2.49
-4.76 8.12 2.49
-4.92 8.01 2.49
-5.08 7.91 2.49
-5.23 7.80 2.49
-5.39 7.69 2.49
-5.54 7.58 2.49
-5.62 7.38 2.47
-5.64 7.10 2.41
-5.73 6.93 2.39
-5.87 6.81 2.39
-6.00 6.68 2.39
-6.13 6.56 2.39
-6.26 6.43 2.39
-6.39 6.30 2.39
-6.51 6.17 2.39
-6.63 6.04 2.39
-6.75 5.90 2.39
-6.86 5.76 2.39
-6.98 5.62 2.39
-7.09 5.48 2.39
-7.19 5.33 2.39
-7.30 5.19 2.39
-7.40 5.04 2.39
-7.50 4.89 2.39
-7.59 4.74 2.39
-7.68 4.58 2.39
-6.17 3.51 1.90
-7.86 4.27 2.39
-7.94 4.11 2.39
-8.02 3.95 2.39
-8.10 3.78 2.39
-8.17 3.62 2.39
-8.24 3.45 2.39
-8.31 3.29 2.39
-8.37 3.12 2.39
-8.44 2.95 2.39
-8.49 2.78 2.39
-8.55 2.61 2.39
-8.60 2.44 2.39
-8.64 2.26 2.39
-8.69 2.09 2.39
-8.73 1.91 2.39
-8.77 1.74 2.39
-8.80 1.56 2.39
-8.83 1.38 2.39
-8.86 1.20 2.39
-8.88 1.03 2.39
-8.90 0.85 2.39
-8.92 0.67 2.39
-8.93 0.49 2.39
-8.94 0.31 2.39
-8.94 0.13 2.39
-8.95 -0.05 2.39
-8.94 -0.23 2.39
-8.94 -0.41 2.39
-8.93 -0.59 2.39
-8.92 -0.77 2.39
-8.90 -0.95 2.39
-8.89 -1.13 2.39
-8.86 -1.31 2.39
-8.84 -1.49 2.39
-8.81 -1.66 2.39
-8.78 -1.84 2.39
-8.74 -2.02 2.39
-8.70 -2.19 2.39
-8.66 -2.37 2.39
-8.61 -2.54 2.39
-8.56 -2.72 2.39
-8.51 -2.89 2.39
-8.45 -3.06 2.39
-8.39 -3.23 2.39
-8.33 -3.40 2.39
-8.26 -3.57 2.39
-8.19 -3.74 2.39
-8.12 -3.90 2.39
-8.04 -4.07 2.39
-7.96 -4.23 2.39
-7.88 -4.39 2.39
-7.79 -4.55 2.39
-7.70 -4.71 2.39
-7.61 -4.86 2.39
-7.51 -5.02 2.39
-7.42 -5.17 2.39
-7.31 -5.32 2.39
-7.21 -5.47 2.39
-7.10 -5.62 2.39
-6.99 -5.76 2.39
-6.88 -5.90 2.39
-6.76 -6.04 2.39
-6.64 -6.18 2.39
-6.52 -6.32 2.39
-6.40 -6.45 2.39
-6.29 -6.60 2.40
-6.14 -6.71 2.39
-6.09 -6.93 2.42
-6.09 -7.23 2.48
-5.98 -7.39 2.49
-5.83 -7.51 2.49
-5.69 -7.63 2.49
-5.54 -7.75 2.49
-5.38 -7.86 2.49
-5.23 -7.97 2.49
-5.07 -8.08 2.49
-4.91 -8.19 2.49
-4.75 -8.29 2.49
-4.58 -8.39 2.49
-4.41 -8.49 2.49
-4.25 -8.58 2.49
-4.08 -8.67 2.49
-3.90 -8.75 2.49
-3.73 -8.84 2.49
-3.55 -8.91 2.49
-3.38 -8.99 2.49
-3.20 -9.06 2.49
-3.02 -9.13 2.49
-2.83 -9.19 2.49
-2.65 -9.26 2.49
-2.47 -9.31 2.49
-2.28 -9.37 2.49
-2.09 -9.42 2.49
-1.91 -9.46 2.49
-1.72 -9.51 2.49
-1.53 -9.55 2.49
-1.33 -9.58 2.49
-1.14 -9.61 2.49
-0.95 -9.64 2.49
-0.76 -9.66 2.49
-0.56 -9.68 2.49
-0.37 -9.70 2.49
-0.18 -9.71 2.49
0.02 -8.88 2.49
0.20 -8.89 2.49
0.38 -8.89 2.49
0.55 -8.88 2.49
0.73 -8.87 2.49
0.91 -8.86 2.49
1.09 -8.85 2.49
1.27 -8.83 2.49
1.45 -8.81 2.49
1.62 -8.78 2.49
1.80 -8.75 2.49
1.92 -8.47 2.42
2.06 -8.32 2.39
2.23 -8.28 2.39
2.40 -8.24 2.39
2.56 -8.20 2.39
2.73 -8.15 2.39
2.89 -8.10 2.39
3.06 -8.04 2.39
3.22 -7.98 2.39
3.38 -7.92 2.39
3.54 -7.85 2.39
3.70 -7.79 2.39
3.85 -7.71 2.39
4.01 -7.64 2.39
4.16 -7.56 2.39
4.32 -7.48 2.39
4.47 -7.39 2.39
4.62 -7.31 2.39
4.76 -7.22 2.39
4.91 -7.12 2.39
5.05 -7.02 2.39
5.20 -6.92 2.39
5.34 -6.82 2.39
5.47 -6.72 2.39
5.61 -6.61 2.39
5.74 -6.50 2.39
5.87 -6.38 2.39
6.00 -6.26 2.39
6.14 -6.15 2.39
6.26 -6.03 2.39
6.38 -5.90 2.39
6.50 -5.78 2.39
6.62 -5.65 2.39
6.73 -5.52 2.39
6.84 -5.38 2.39
6.95 -5.24 2.39
7.05 -5.11 2.39
7.16 -4.96 2.39
7.26 -4.82 2.39
7.35 -4.68 2.39
7.45 -4.53 2.39
7.54 -4.38 2.39
7.62 -4.23 2.39
7.71 -4.07 2.39
7.79 -3.92 2.39
7.87 -3.76 2.39
7.94 -3.61 2.39
8.01 -3.45 2.39
8.08 -3.29 2.39
8.15 -3.12 2.39
8.21 -2.96 2.39
8.26 -2.79 2.39
8.32 -2.63 2.39
8.37 -2.46 2.39
8.42 -2.29 2.39
8.46 -2.12 2.39
8.50 -1.95 2.39
8.54 -1.78 2.39
8.57 -1.61 2.39
8.60 -1.44 2.39
8.63 -1.27 2.39
8.65 -1.09 2.39
8.67 -0.92 2.39
8.69 -0.75 2.39
8.70 -0.57 2.39
8.71 -0.40 2.39
8.71 -0.22 2.39
8.72 -0.05 2.39
8.71 0.13 2.39
8.71 0.30 2.39
8.70 0.47 2.39
8.69 0.65 2.39
8.67 0.82 2.39
8.65 1.00 2.39
8.62 1.17 2.39
8.60 1.34 2.39
8.57 1.51 2.39
8.53 1.68 2.39
8.49 1.85 2.39
8.45 2.02 2.39
8.41 2.19 2.39
8.36 2.36 2.39
8.31 2.52 2.39
8.25 2.69 2.39
8.19 2.85 2.39
8.13 3.01 2.39
8.07 3.18 2.39
8.00 3.34 2.39
7.93 3.49 2.39
7.85 3.65 2.39
7.78 3.81 2.39
7.69 3.96 2.39
7.61 4.11 2.39
7.52 4.26 2.39
7.43 4.41 2.39
7.34 4.55 2.39
7.24 4.70 2.39
7.14 4.84 2.39
7.04 4.98 2.39
6.94 5.12 2.39
6.83 5.25 2.39
6.72 5.39 2.39
6.61 5.52 2.39
6.49 5.65 2.39
6.37 5.77 2.39
6.25 5.89 2.39
6.12 6.01 2.39
6.00 6.13 2.39
5.87 6.24 2.39
5.74 6.36 2.39
5.61 6.47 2.39
5.48 6.57 2.39
5.34 6.68 2.39
5.20 6.78 2.39
5.06 6.88 2.39
4.92 6.98 2.39
4.78 7.07 2.39
4.63 7.16 2.39
4.48 7.25 2.39
4.34 7.33 2.39
4.19 7.41 2.39
4.03 7.49 2.39
3.88 7.56 2.39
3.73 7.64 2.39
3.57 7.70 2.39
3.41 7.77 2.39
3.25 7.83 2.39
3.09 7.89 2.39
2.93 7.95 2.39
2.77 8.00 2.39
2.61 8.05 2.39
2.46 8.14 2.41
2.38 8.49 2.49
2.21 8.53 2.49
2.03 8.56 2.49
1.86 8.60 2.49
1.69 8.63 2.49
1.51 8.65 2.49
1.34 8.68 2.49
1.16 8.70 2.49
0.99 8.71 2.49
0.81 8.73 2.49
0.63 8.74 2.49
0.46 8.74 2.49
0.28 8.74 2.49
0.11 8.74 2.49
-0.07 8.74 2.49
-0.24 8.73 2.49
-0.42 8.72 2.49
-0.59 8.70 2.49
-0.77 8.68 2.49
-0.94 8.66 2.49
-1.11 8.64 2.49
-1.29 8.61 2.49
-1.46 8.57 2.49
-1.63 8.54 2.49
-1.80 8.50 2.49
-1.97 8.46 2.49
-2.14 8.41 2.49
-2.31 8.36 2.49
-2.47 8.31 2.49
-2.64 8.25 2.49
-2.80 8.20 2.49
-2.96 8.13 2.49
-3.12 8.07 2.49
-3.28 8.00 2.49
-3.44 7.93 2.49
-3.60 7.85 2.49
-3.76 7.78 2.49
-3.91 7.70 2.49
-4.06 7.61 2.49
-4.21 7.53 2.49
-4.36 7.44 2.49
-4.51 7.34 2.49
-4.65 7.25 2.49
-4.79 7.15 2.49
-4.94 7.05 2.49
-5.07 6.95 2.49
-5.21 6.84 2.49
-5.35 6.73 2.49
-5.48 6.62 2.49
-5.61 6.51 2.49
-5.66 6.30 2.46
-5.67 6.07 2.41
-5.74 5.90 2.39
-5.85 5.78 2.39
-5.97 5.66 2.39
-6.08 5.53 2.39
-6.19 5.41 2.39
-6.29 5.28 2.39
-6.39 5.15 2.39
-6.50 5.02 2.39
-6.59 4.89 2.39
-6.69 4.76 2.39
-6.78 4.62 2.39
-6.87 4.48 2.39
-6.96 4.34 2.39
-7.04 4.20 2.39
-6.17 3.51 2.07
-7.21 3.91 2.39
-7.28 3.77 2.39
-7.36 3.62 2.39
-7.43 3.47 2.39
-7.49 3.32 2.39
-7.56 3.17 2.39
-7.62 3.01 2.39
-7.68 2.86 2.39
-7.73 2.70 2.39
-7.79 2.55 2.39
-7.84 2.39 2.39
-7.88 2.23 2.39
-7.93 2.07 2.39
-7.97 1.91 2.39
-8.00 1.75 2.39
-8.04 1.59 2.39
-8.07 1.43 2.39
-8.10 1.27 2.39
-8.12 1.10 2.39
-8.14 0.94 2.39
-8.16 0.78 2.39
-8.17 0.61 2.39
-8.19 0.45 2.39
-8.19 0.28 2.39
-8.20 0.12 2.39
-8.20 -0.05 2.39
-8.20 -0.21 2.39
-8.20 -0.38 2.39
-8.19 -0.54 2.39
-8.18 -0.71 2.39
-8.16 -0.87 2.39
-8.15 -1.03 2.39
