ply
format ascii 1.0
element vertex 2953
property float32 x
property float32 y
property float32 z
end_header
13.16 -2.22 2.27
13.21 -1.95 2.27
13.26 -1.69 2.27
13.30 -1.42 2.28
13.33 -1.16 2.28
13.36 -0.89 2.28
13.38 -0.62 2.29
13.38 -0.35 2.29
13.38 -0.08 2.29
13.33 0.19 2.28
13.28 0.45 2.27
13.22 0.72 2.27
13.16 0.98 2.26
13.09 1.24 2.26
13.03 1.50 2.25
12.99 1.76 2.25
12.94 2.02 2.25
12.89 2.28 2.25
12.84 2.53 2.25
12.78 2.79 2.25
12.71 3.04 2.25
12.65 3.30 2.25
12.57 3.55 2.25
12.49 3.80 2.25
12.41 4.05 2.25
12.20 4.25 2.23
12.10 4.50 2.23
12.00 4.74 2.23
11.90 4.97 2.23
11.79 5.21 2.23
11.68 5.44 2.23
11.56 5.67 2.23
11.44 5.90 2.23
11.31 6.13 2.23
11.29 6.41 2.25
11.23 6.68 2.27
11.09 6.90 2.27
10.95 7.12 2.27
10.81 7.35 2.27
10.66 7.56 2.27
10.51 7.78 2.27
10.35 7.99 2.27
10.19 8.20 2.27
10.03 8.40 2.27
9.85 8.60 2.27
9.66 8.77 2.27
9.46 8.95 2.26
9.25 9.11 2.26
5.69 5.84 1.42
5.53 5.90 1.41
5.23 5.81 1.36
5.05 5.85 1.34
4.98 6.00 1.36
4.88 6.13 1.36
5.56 7.27 1.59
5.56 7.59 1.64
5.57 7.93 1.68
5.56 8.26 1.73
5.54 8.61 1.78
5.52 8.97 1.83
5.53 9.40 1.89
6.64 11.83 2.35
6.37 11.90 2.34
6.17 12.11 2.36
5.98 12.33 2.38
5.77 12.54 2.39
5.52 12.65 2.39
5.26 12.77 2.39
5.01 12.87 2.39
4.75 12.98 2.39
4.49 13.08 2.39
4.23 13.17 2.39
1.93 6.45 1.16
3.70 13.34 2.39
3.43 13.42 2.39
3.16 13.49 2.39
2.89 13.56 2.39
2.62 13.62 2.39
2.35 13.68 2.39
2.07 13.73 2.39
1.86 14.23 2.47
1.59 14.42 2.49
1.30 14.46 2.49
1.01 14.49 2.49
0.72 14.52 2.49
0.42 14.54 2.49
0.13 14.55 2.49
-0.16 14.57 2.49
-0.45 14.57 2.49
-0.75 14.57 2.49
-1.04 14.56 2.49
-1.33 14.55 2.49
-1.63 14.53 2.49
-1.92 14.51 2.49
-2.21 14.48 2.49
-2.51 14.44 2.49
-2.80 14.40 2.49
-3.09 14.36 2.49
-3.38 14.30 2.49
-3.67 14.25 2.49
-3.96 14.18 2.49
-4.25 14.11 2.49
-4.53 14.04 2.49
-4.82 13.96 2.49
-5.10 13.87 2.49
-5.39 13.78 2.49
-5.67 13.68 2.49
-5.95 13.58 2.49
-6.21 13.43 2.49
-6.23 12.80 2.39
-6.49 12.69 2.39
-6.59 12.25 2.33
-6.66 11.81 2.27
-7.15 12.11 2.35
-7.19 11.63 2.28
-7.77 12.03 2.39
-8.02 11.89 2.39
-8.27 11.74 2.39
-8.51 11.58 2.39
-8.75 11.42 2.39
-8.99 11.26 2.39
-9.22 11.08 2.39
-9.45 10.91 2.39
-9.68 10.73 2.39
-9.91 10.54 2.39
-10.13 10.35 2.39
-11.17 10.97 2.58
-11.30 10.66 2.56
-11.43 10.36 2.54
-10.34 9.00 2.25
-13.89 11.61 2.97
-10.33 8.29 2.17
-14.60 11.24 3.02
-14.97 11.05 3.05
-15.33 10.85 3.07
-15.63 10.60 3.08
-10.36 6.73 2.02
-16.10 10.00 3.09
-16.32 9.69 3.09
-10.40 5.89 1.94
-16.74 9.05 3.09
-16.95 8.72 3.09
-16.93 8.29 3.06
-16.64 7.74 2.97
-10.41 4.59 1.84
-16.54 6.90 2.90
-16.71 6.58 2.90
-16.88 6.26 2.90
-10.42 3.63 1.78
-16.87 5.50 2.86
-16.75 5.09 2.81
-16.67 4.70 2.78
-16.64 4.33 2.76
-16.60 3.97 2.74
-16.76 3.65 2.75
-16.94 3.34 2.76
-10.46 1.84 1.70
-17.29 2.69 2.79
-10.47 1.42 1.69
-17.63 2.02 2.83
-17.26 1.63 2.76
-16.84 1.25 2.69
-16.61 0.90 2.64
-16.66 0.57 2.65
-10.50 0.15 1.67
-16.76 -0.10 2.66
-10.50 -0.27 1.66
-17.50 -0.81 2.77
-18.13 -1.20 2.87
-10.53 -2.21 1.69
-10.55 -2.66 1.71
-23.83 -9.16 4.00
-23.15 -9.43 3.91
-8.60 -3.71 1.47
-8.16 -3.72 1.40
-7.68 -3.68 1.33
-8.87 -4.47 1.55
-8.87 -4.70 1.57
-8.87 -4.93 1.59
-8.85 -5.15 1.60
-8.88 -5.41 1.62
-8.89 -5.66 1.64
-8.89 -5.92 1.67
-8.90 -6.19 1.69
-8.90 -6.46 1.71
-8.88 -6.72 1.74
-8.71 -6.87 1.73
-8.37 -6.88 1.69
-8.04 -6.88 1.65
-15.34 -13.66 3.20
-10.68 -9.91 2.27
-14.23 -13.74 3.08
-11.84 -11.90 2.61
-10.61 -11.10 2.39
-10.39 -11.31 2.39
-10.16 -11.52 2.39
-9.93 -11.72 2.39
-9.69 -11.92 2.39
-9.45 -12.11 2.39
-9.20 -12.29 2.39
-8.95 -12.47 2.39
-8.70 -12.65 2.39
-6.99 -10.61 1.98
-8.18 -12.98 2.39
-7.68 -12.75 2.32
-7.34 -12.76 2.30
-7.06 -12.85 2.29
-7.07 -13.51 2.38
-6.83 -13.71 2.39
-6.73 -14.21 2.46
-6.54 -14.57 2.49
-6.25 -14.69 2.49
-5.95 -14.81 2.49
-5.65 -14.92 2.49
-5.34 -15.02 2.49
-5.04 -15.12 2.49
-4.73 -15.21 2.49
-4.43 -15.29 2.49
-4.12 -15.37 2.49
-3.80 -15.44 2.49
-3.49 -15.51 2.49
-3.18 -15.56 2.49
-2.86 -15.61 2.49
-2.55 -15.66 2.49
-2.23 -15.70 2.49
-1.92 -15.73 2.49
-1.60 -15.75 2.49
-1.28 -15.77 2.49
-0.97 -15.78 2.49
-0.65 -15.79 2.49
-0.33 -15.78 2.49
-0.02 -13.76 2.49
0.26 -13.75 2.49
0.54 -13.73 2.49
0.81 -13.71 2.49
1.08 -13.68 2.49
1.33 -13.41 2.45
1.56 -13.04 2.39
1.82 -12.99 2.39
2.08 -12.95 2.39
2.34 -12.89 2.39
2.59 -12.83 2.39
2.85 -12.77 2.39
3.10 -12.70 2.39
3.35 -12.62 2.39
3.60 -12.54 2.39
3.85 -12.45 2.39
4.09 -12.36 2.39
4.34 -12.27 2.39
4.58 -12.17 2.39
4.82 -12.06 2.39
5.05 -11.95 2.39
4.31 -9.65 1.95
4.47 -9.49 1.94
4.44 -8.95 1.85
4.61 -8.85 1.85
4.88 -8.93 1.88
6.18 -10.78 2.30
6.34 -10.57 2.29
6.54 -10.41 2.28
6.76 -10.31 2.29
6.98 -10.20 2.30
7.20 -10.08 2.31
7.42 -9.95 2.31
7.64 -9.83 2.32
7.86 -9.70 2.33
8.07 -9.57 2.34
8.29 -9.43 2.35
8.50 -9.29 2.36
8.68 -9.11 2.36
8.86 -8.94 2.36
9.04 -8.76 2.36
9.18 -8.54 2.36
9.30 -8.31 2.35
9.42 -8.08 2.34
9.06 -7.46 2.21
9.19 -7.27 2.21
9.32 -7.07 2.21
9.45 -6.88 2.21
9.58 -6.68 2.21
9.70 -6.48 2.21
9.81 -6.27 2.21
9.93 -6.07 2.21
10.04 -5.86 2.21
10.14 -5.65 2.21
10.25 -5.44 2.21
10.34 -5.23 2.21
10.53 -5.06 2.23
10.81 -4.94 2.27
10.91 -4.72 2.27
11.00 -4.49 2.27
11.08 -4.27 2.27
11.16 -4.05 2.27
11.23 -3.82 2.27
11.29 -3.59 2.27
11.36 -3.36 2.27
11.41 -3.13 2.27
11.47 -2.90 2.28
11.52 -2.66 2.28
11.58 -2.43 2.28
11.63 -2.20 2.28
11.68 -1.97 2.29
11.72 -1.74 2.29
11.75 -1.50 2.29
11.77 -1.26 2.29
11.78 -1.02 2.29
11.78 -0.79 2.29
11.77 -0.55 2.28
11.74 -0.31 2.28
11.71 -0.07 2.27
11.67 0.16 2.27
11.64 0.40 2.26
11.63 0.63 2.27
11.61 0.86 2.27
11.59 1.10 2.27
11.57 1.33 2.27
11.54 1.56 2.27
11.50 1.79 2.27
11.46 2.02 2.27
11.41 2.25 2.27
11.35 2.48 2.27
11.29 2.70 2.27
11.23 2.93 2.27
11.16 3.15 2.27
11.09 3.37 2.27
10.90 3.56 2.25
10.82 3.77 2.25
10.74 3.99 2.25
10.65 4.20 2.25
10.56 4.41 2.25
10.46 4.62 2.25
10.37 4.83 2.25
10.26 5.03 2.25
10.16 5.24 2.25
10.05 5.44 2.25
10.18 5.78 2.30
10.08 5.99 2.31
9.97 6.20 2.31
9.86 6.41 2.32
9.73 6.61 2.32
9.58 6.80 2.31
9.43 6.98 2.31
2.49 1.92 0.62
2.41 1.94 0.61
2.39 2.00 0.61
8.80 7.68 2.30
8.65 7.86 2.30
8.50 8.04 2.31
8.35 8.22 2.31
5.69 5.84 1.61
5.53 5.90 1.59
5.24 5.82 1.54
5.03 5.82 1.52
4.83 5.82 1.49
4.80 6.03 1.52
5.56 7.27 1.80
5.56 7.59 1.85
5.57 7.93 1.91
5.56 8.26 1.96
5.54 8.61 2.02
5.52 8.97 2.07
5.53 9.40 2.15
5.99 10.67 2.41
5.73 10.72 2.39
5.52 10.83 2.39
5.30 10.94 2.39
5.08 11.05 2.39
4.86 11.15 2.39
4.64 11.25 2.39
4.41 11.35 2.39
4.18 11.44 2.39
3.95 11.52 2.39
3.72 11.61 2.39
1.93 6.45 1.32
1.81 6.54 1.33
3.02 11.82 2.39
2.78 11.89 2.39
2.55 11.95 2.39
2.31 12.00 2.39
2.07 12.05 2.39
1.83 12.12 2.40
1.65 12.66 2.49
1.40 12.70 2.49
1.14 12.73 2.49
0.88 12.76 2.49
0.63 12.78 2.49
0.37 12.80 2.49
0.11 12.81 2.49
-0.14 12.82 2.49
-0.40 12.83 2.49
-0.66 12.82 2.49
-0.92 12.82 2.49
-1.18 12.80 2.49
-1.43 12.79 2.49
-1.69 12.77 2.49
-1.95 12.74 2.49
-2.21 12.71 2.49
-2.46 12.67 2.49
-2.72 12.63 2.49
-2.97 12.58 2.49
-3.23 12.53 2.49
-3.48 12.47 2.49
-3.74 12.41 2.49
-3.99 12.34 2.49
-4.24 12.27 2.49
-4.49 12.19 2.49
-4.74 12.11 2.49
-4.98 12.02 2.49
-5.23 11.93 2.49
-5.47 11.83 2.49
-5.71 11.73 2.49
-5.95 11.62 2.49
-6.19 11.51 2.49
-6.25 11.09 2.43
-6.38 10.81 2.39
-6.61 10.69 2.39
-6.83 10.56 2.39
-7.04 10.43 2.39
-7.26 10.30 2.39
-7.47 10.16 2.39
-7.68 10.02 2.39
-7.89 9.87 2.39
-8.09 9.72 2.39
-8.29 9.57 2.39
-8.49 9.41 2.39
-8.69 9.24 2.39
-8.88 9.08 2.39
-9.07 8.90 2.39
-9.25 8.73 2.39
-9.44 8.55 2.39
-9.62 8.37 2.39
-9.79 8.18 2.39
-9.96 7.99 2.39
-10.13 7.80 2.39
-10.30 7.60 2.39
-11.29 7.99 2.58
-11.40 7.73 2.57
-10.36 6.72 2.30
-10.38 6.44 2.27
-13.82 8.19 2.99
-14.00 7.93 2.99
-14.19 7.67 2.99
-14.39 7.40 3.00
-14.58 7.13 3.01
-14.76 6.86 3.01
-14.94 6.58 3.02
-15.09 6.29 3.02
-15.23 5.99 3.02
-15.24 5.65 3.00
-10.42 3.63 2.03
-15.19 4.94 2.94
-15.15 4.60 2.91
-10.44 2.94 1.99
-10.45 2.72 1.98
-10.45 2.50 1.97
-15.02 3.27 2.82
-14.92 2.94 2.79
-10.46 1.84 1.94
-14.88 2.31 2.75
-14.90 2.01 2.75
-14.93 1.71 2.74
-14.97 1.41 2.74
-15.01 1.11 2.74
-15.05 0.81 2.74
-15.08 0.51 2.75
-15.12 0.21 2.75
-15.15 -0.09 2.75
-10.50 -0.28 1.91
-15.38 -0.71 2.79
-15.50 -1.03 2.82
-15.62 -1.35 2.84
-10.52 -1.12 1.92
-15.98 -2.03 2.92
-16.23 -2.39 2.97
-16.45 -2.77 3.01
-16.63 -3.14 3.06
-10.53 -2.21 1.94
-16.92 -3.90 3.13
-17.07 -4.30 3.17
-17.24 -4.71 3.22
-17.40 -5.13 3.27
-17.55 -5.56 3.32
-17.69 -6.00 3.36
-17.90 -6.47 3.42
-18.10 -6.96 3.49
-18.29 -7.46 3.55
-8.60 -3.71 1.68
-8.16 -3.72 1.61
-7.68 -3.68 1.53
-8.81 -4.44 1.77
-8.81 -4.67 1.79
-8.83 -4.91 1.81
-10.61 -6.18 2.20
-15.90 -9.69 3.34
-10.62 -6.77 2.26
-15.18 -10.11 3.27
-14.90 -10.36 3.25
-8.84 -6.42 1.96
-8.72 -6.59 1.96
-8.69 -6.85 1.98
-8.37 -6.88 1.94
-8.04 -6.88 1.89
-9.98 -8.89 2.39
-9.80 -9.09 2.39
-9.62 -9.29 2.39
-9.43 -9.48 2.39
-9.24 -9.67 2.39
-9.04 -9.85 2.39
-8.84 -10.03 2.39
-8.64 -10.20 2.39
-8.43 -10.37 2.39
-8.22 -10.54 2.39
-8.01 -10.70 2.39
-7.79 -10.86 2.39
-7.57 -11.01 2.39
-6.99 -10.61 2.27
-7.12 -11.30 2.39
-6.89 -11.44 2.39
-6.69 -11.62 2.40
-6.69 -12.18 2.49
-6.46 -12.33 2.49
-6.21 -12.46 2.49
-5.95 -12.58 2.49
-5.70 -12.69 2.49
-5.44 -12.80 2.49
-5.18 -12.90 2.49
-4.92 -12.99 2.49
-4.66 -13.08 2.49
-4.39 -13.17 2.49
-4.13 -13.25 2.49
-3.86 -13.32 2.49
-3.59 -13.39 2.49
-3.32 -13.45 2.49
-3.04 -13.51 2.49
-2.77 -13.56 2.49
-2.50 -13.61 2.49
-2.22 -13.65 2.49
-1.95 -13.68 2.49
-1.67 -13.71 2.49
-1.40 -13.73 2.49
-1.12 -13.75 2.49
-0.84 -13.76 2.49
-0.57 -13.77 2.49
-0.29 -13.77 2.49
-0.02 -12.19 2.49
0.23 -12.18 2.49
0.47 -12.16 2.49
0.72 -12.14 2.49
0.96 -12.12 2.49
1.20 -12.09 2.49
1.38 -11.56 2.39
1.61 -11.52 2.39
1.84 -11.48 2.39
2.07 -11.43 2.39
2.30 -11.38 2.39
2.52 -11.32 2.39
2.75 -11.26 2.39
2.97 -11.19 2.39
3.19 -11.12 2.39
3.41 -11.05 2.39
3.63 -10.97 2.39
3.85 -10.89 2.39
4.06 -10.80 2.39
4.27 -10.71 2.39
4.48 -10.61 2.39
4.32 -9.68 2.20
4.47 -9.50 2.18
4.45 -8.98 2.09
4.61 -8.86 2.08
4.89 -8.95 2.13
5.78 -10.09 2.43
5.94 -9.90 2.41
6.10 -9.72 2.40
6.25 -9.54 2.39
6.41 -9.35 2.37
6.59 -9.22 2.37
6.79 -9.11 2.38
6.99 -8.99 2.39
7.19 -8.88 2.40
7.38 -8.75 2.41
7.53 -8.58 2.40
7.66 -8.37 2.39
7.33 -7.70 2.24
7.46 -7.53 2.24
7.59 -7.36 2.23
7.72 -7.18 2.23
7.84 -7.01 2.22
7.96 -6.83 2.22
8.08 -6.66 2.22
8.20 -6.48 2.22
8.31 -6.31 2.22
8.43 -6.13 2.21
8.54 -5.96 2.21
8.64 -5.78 2.21
8.75 -5.59 2.21
8.85 -5.41 2.21
8.95 -5.23 2.21
9.15 -5.10 2.24
9.39 -4.99 2.27
9.47 -4.79 2.27
9.56 -4.60 2.27
9.64 -4.40 2.27
9.73 -4.21 2.27
9.81 -4.01 2.27
9.88 -3.81 2.28
9.95 -3.61 2.28
10.02 -3.41 2.28
10.09 -3.21 2.28
10.17 -3.01 2.28
10.24 -2.81 2.29
10.31 -2.60 2.29
10.34 -2.39 2.29
10.37 -2.18 2.29
10.40 -1.97 2.29
10.42 -1.76 2.29
10.44 -1.55 2.29
10.46 -1.34 2.29
10.47 -1.12 2.28
10.48 -0.91 2.28
10.48 -0.70 2.28
10.49 -0.49 2.28
10.49 -0.28 2.28
10.50 -0.07 2.28
10.49 0.14 2.29
10.49 0.35 2.29
10.48 0.57 2.29
10.46 0.78 2.29
10.45 0.99 2.29
10.44 1.20 2.29
10.45 1.41 2.30
10.42 1.62 2.30
10.38 1.83 2.31
10.35 2.04 2.31
10.31 2.25 2.31
10.27 2.46 2.31
10.23 2.66 2.32
10.18 2.87 2.32
9.88 3.00 2.27
9.81 3.20 2.27
9.74 3.40 2.27
9.67 3.59 2.27
9.60 3.78 2.27
9.52 3.98 2.27
9.44 4.17 2.27
9.35 4.36 2.27
9.26 4.54 2.27
9.17 4.73 2.27
9.08 4.91 2.27
8.98 5.10 2.27
9.17 5.45 2.35
9.07 5.65 2.35
8.96 5.83 2.35
8.83 6.00 2.35
2.50 1.77 0.68
2.40 1.78 0.66
2.34 1.81 0.65
2.30 1.85 0.65
2.27 1.90 0.65
2.24 1.96 0.66
2.25 2.04 0.67
7.77 7.35 2.36
7.64 7.52 2.36
5.69 5.84 1.80
5.53 5.90 1.78
5.24 5.83 1.73
5.03 5.83 1.70
4.83 5.83 1.67
4.81 6.04 1.70
5.56 7.27 2.02
5.56 7.59 2.08
5.57 7.93 2.14
5.56 8.26 2.20
5.54 8.61 2.26
5.52 8.97 2.32
5.50 9.36 2.39
5.31 9.47 2.39
5.12 9.57 2.39
4.93 9.68 2.39
4.74 9.78 2.39
4.54 9.87 2.39
4.34 9.96 2.39
4.14 10.05 2.39
3.94 10.14 2.39
3.74 10.22 2.39
3.53 10.29 2.39
3.32 10.37 2.39
1.92 6.42 1.47
1.79 6.47 1.47
2.70 10.56 2.39
2.48 10.62 2.39
2.27 10.67 2.39
2.06 10.72 2.39
1.84 10.76 2.39
1.70 11.27 2.49
1.47 11.30 2.49
1.24 11.34 2.49
1.02 11.37 2.49
0.79 11.39 2.49
0.56 11.41 2.49
0.33 11.42 2.49
0.10 11.44 2.49
-0.13 11.44 2.49
-0.36 11.44 2.49
-0.59 11.44 2.49
-0.82 11.43 2.49
-1.05 11.42 2.49
-1.28 11.41 2.49
-1.51 11.39 2.49
-1.74 11.36 2.49
-1.97 11.33 2.49
-2.20 11.30 2.49
-2.43 11.26 2.49
-2.65 11.21 2.49
-2.88 11.17 2.49
-3.11 11.12 2.49
-3.33 11.06 2.49
-3.56 11.00 2.49
-3.78 10.93 2.49
-4.00 10.86 2.49
-4.22 10.79 2.49
-4.44 10.71 2.49
-4.66 10.63 2.49
-4.88 10.54 2.49
-5.09 10.45 2.49
-5.30 10.35 2.49
-5.51 10.25 2.49
-5.72 10.15 2.49
-5.93 10.04 2.49
-6.14 9.92 2.49
-6.28 9.71 2.47
-6.29 9.32 2.40
-6.48 9.19 2.40
-6.65 9.04 2.39
-6.84 8.91 2.39
-6.67 8.34 2.27
-6.84 8.22 2.27
-7.12 8.21 2.31
-7.25 8.03 2.30
-7.34 7.80 2.27
-7.90 8.07 2.39
-8.07 7.92 2.39
-8.23 7.76 2.39
-8.39 7.60 2.39
-8.55 7.44 2.39
-8.71 7.27 2.39
-8.86 7.10 2.39
-9.01 6.93 2.39
-9.15 6.75 2.39
-9.29 6.57 2.39
-9.43 6.39 2.39
-9.57 6.20 2.39
-9.70 6.02 2.39
-9.82 5.82 2.39
-9.95 5.63 2.39
-10.07 5.44 2.39
-10.18 5.24 2.39
-10.29 5.04 2.39
-11.34 5.27 2.61
-11.43 5.03 2.60
-11.51 4.80 2.60
-11.71 4.61 2.62
-12.14 4.50 2.69
-10.42 3.62 2.29
-10.43 3.39 2.28
-10.44 3.17 2.26
-13.64 3.84 2.94
-13.68 3.56 2.93
-13.72 3.27 2.92
-13.75 2.99 2.91
-13.79 2.71 2.90
-10.46 1.84 2.19
-13.84 2.15 2.89
-13.86 1.87 2.88
-13.90 1.59 2.88
-13.95 1.31 2.88
-13.99 1.04 2.88
-14.03 0.76 2.89
-14.07 0.48 2.89
-14.10 0.19 2.89
-14.13 -0.09 2.90
-10.50 -0.28 2.15
-10.51 -0.49 2.15
-14.41 -0.96 2.96
-14.48 -1.26 2.97
-14.54 -1.56 2.99
-14.60 -1.86 3.01
-14.66 -2.17 3.03
-14.71 -2.48 3.05
-10.54 -1.99 2.19
-10.53 -2.21 2.19
-14.80 -3.42 3.10
-14.75 -3.72 3.10
-14.69 -4.02 3.10
-14.66 -4.33 3.11
-10.57 -3.35 2.25
-10.56 -3.58 2.27
-14.64 -5.29 3.16
-14.48 -5.57 3.15
-14.31 -5.83 3.14
-8.51 -3.67 1.88
-8.16 -3.72 1.82
-7.68 -3.68 1.73
-10.53 -5.31 2.39
-10.42 -5.53 2.39
-8.45 -4.70 1.96
-8.46 -4.93 1.98
-10.08 -6.15 2.39
-9.96 -6.35 2.39
-9.83 -6.55 2.39
-9.70 -6.75 2.39
-9.57 -6.94 2.39
-9.43 -7.13 2.39
-8.69 -6.85 2.24
-9.14 -7.51 2.39
-8.04 -6.88 2.14
-8.83 -7.87 2.39
-8.67 -8.04 2.39
-8.51 -8.22 2.39
-8.34 -8.38 2.39
-8.17 -8.55 2.39
-8.00 -8.71 2.39
-7.82 -8.87 2.39
-7.64 -9.03 2.39
-7.46 -9.18 2.39
-7.27 -9.32 2.39
-7.09 -9.47 2.39
-6.89 -9.61 2.39
-6.70 -9.74 2.39
-6.65 -10.10 2.45
-6.57 -10.43 2.49
-6.36 -10.56 2.49
-6.15 -10.68 2.49
-5.93 -10.80 2.49
-5.71 -10.91 2.49
-5.49 -11.02 2.49
-5.27 -11.13 2.49
-5.04 -11.23 2.49
-4.82 -11.32 2.49
-4.59 -11.41 2.49
-4.35 -11.50 2.49
-4.12 -11.58 2.49
-3.89 -11.66 2.49
-3.65 -11.73 2.49
-3.42 -11.79 2.49
-3.18 -11.85 2.49
-2.94 -11.91 2.49
-2.70 -11.96 2.49
-2.46 -12.01 2.49
-2.21 -12.05 2.49
-1.97 -12.08 2.49
-1.73 -12.11 2.49
-1.48 -12.14 2.49
-1.24 -12.16 2.49
-0.99 -12.18 2.49
-0.75 -12.19 2.49
-0.50 -12.19 2.49
-0.26 -12.19 2.49
-0.02 -10.93 2.49
0.20 -10.92 2.49
0.42 -10.91 2.49
0.64 -10.89 2.49
0.86 -10.87 2.49
1.08 -10.84 2.49
1.29 -10.81 2.49
1.44 -10.33 2.39
1.65 -10.30 2.39
1.86 -10.25 2.39
2.06 -10.21 2.39
2.26 -10.16 2.39
2.46 -10.10 2.39
2.66 -10.05 2.39
2.86 -9.98 2.39
3.06 -9.92 2.39
3.26 -9.85 2.39
3.45 -9.77 2.39
3.64 -9.69 2.39
3.83 -9.61 2.39
4.02 -9.53 2.39
4.21 -9.44 2.39
4.40 -9.34 2.39
4.46 -9.01 2.33
4.62 -8.87 2.32
4.94 -9.04 2.39
5.11 -8.93 2.39
5.29 -8.82 2.39
5.57 -8.88 2.44
5.70 -8.69 2.42
5.86 -8.56 2.42
6.03 -8.44 2.42
6.19 -8.31 2.42
6.35 -8.18 2.42
6.21 -7.67 2.31
6.33 -7.51 2.30
6.45 -7.35 2.29
6.57 -7.19 2.28
6.69 -7.03 2.27
6.80 -6.86 2.27
6.91 -6.70 2.26
7.02 -6.54 2.25
7.12 -6.37 2.25
7.22 -6.20 2.24
7.33 -6.04 2.24
7.43 -5.88 2.23
7.52 -5.71 2.23
7.61 -5.54 2.22
7.71 -5.38 2.22
7.94 -5.31 2.26
8.18 -5.23 2.30
8.25 -5.05 2.29
8.32 -4.86 2.29
8.39 -4.68 2.28
8.48 -4.51 2.28
8.57 -4.34 2.28
8.66 -4.17 2.29
8.75 -4.00 2.29
8.84 -3.83 2.29
8.93 -3.65 2.30
9.01 -3.48 2.30
9.09 -3.30 2.31
9.17 -3.12 2.31
9.24 -2.94 2.32
9.32 -2.76 2.32
9.37 -2.57 2.33
9.41 -2.38 2.32
9.44 -2.19 2.32
9.47 -1.99 2.32
9.50 -1.80 2.32
9.52 -1.61 2.32
9.54 -1.41 2.32
9.55 -1.22 2.32
9.57 -1.03 2.31
9.57 -0.83 2.31
9.58 -0.64 2.31
9.59 -0.45 2.31
9.59 -0.26 2.31
9.59 -0.06 2.32
9.59 0.13 2.32
9.59 0.32 2.32
9.61 0.52 2.33
9.62 0.71 2.33
9.63 0.91 2.34
9.64 1.10 2.35
9.64 1.30 2.36
9.63 1.50 2.36
9.60 1.69 2.36
9.57 1.89 2.37
9.53 2.08 2.37
9.49 2.27 2.37
9.44 2.46 2.37
9.39 2.65 2.37
9.12 2.77 2.32
8.94 2.91 2.29
8.88 3.09 2.29
8.81 3.27 2.29
8.75 3.45 2.29
8.68 3.62 2.29
8.61 3.80 2.29
8.53 3.97 2.29
8.46 4.15 2.30
8.38 4.32 2.30
8.29 4.49 2.30
8.21 4.66 2.30
8.12 4.83 2.30
8.02 4.99 2.31
8.18 5.32 2.38
2.51 1.70 0.74
2.41 1.71 0.72
2.34 1.73 0.71
2.28 1.76 0.70
2.24 1.80 0.70
2.21 1.85 0.70
2.18 1.91 0.71
2.17 1.97 0.72
2.18 2.06 0.73
6.99 6.88 2.40
5.69 5.84 1.99
5.53 5.90 1.98
5.25 5.84 1.92
5.04 5.84 1.88
4.84 5.84 1.85
4.82 6.05 1.89
5.56 7.27 2.24
5.56 7.59 2.30
5.57 7.93 2.37
5.46 8.13 2.39
5.30 8.24 2.39
5.13 8.34 2.39
4.97 8.45 2.39
4.80 8.55 2.39
4.62 8.64 2.39
4.45 8.73 2.39
4.27 8.82 2.39
4.10 8.91 2.39
3.92 8.99 2.39
3.74 9.07 2.39
3.55 9.15 2.39
3.37 9.22 2.39
3.19 9.29 2.39
3.00 9.36 2.39
1.92 6.41 1.63
1.79 6.47 1.63
2.43 9.53 2.39
2.24 9.58 2.39
2.05 9.63 2.39
1.86 9.67 2.39
1.73 10.13 2.49
1.53 10.17 2.49
1.33 10.20 2.49
1.12 10.23 2.49
0.92 10.25 2.49
0.71 10.27 2.49
0.50 10.29 2.49
0.30 10.31 2.49
0.09 10.31 2.49
-0.12 10.32 2.49
-0.33 10.32 2.49
-0.53 10.32 2.49
-0.74 10.31 2.49
-0.95 10.30 2.49
-1.16 10.28 2.49
-1.36 10.27 2.49
-1.57 10.24 2.49
-1.78 10.21 2.49
-1.98 10.18 2.49
-2.19 10.15 2.49
-2.39 10.11 2.49
-2.60 10.06 2.49
-2.80 10.02 2.49
-3.00 9.97 2.49
-3.21 9.91 2.49
-3.41 9.85 2.49
-3.61 9.79 2.49
-3.81 9.72 2.49
-4.00 9.65 2.49
-4.20 9.57 2.49
-4.39 9.49 2.49
-4.59 9.41 2.49
-4.78 9.32 2.49
-4.97 9.23 2.49
-5.16 9.14 2.49
-5.34 9.04 2.49
-5.53 8.93 2.49
-5.71 8.83 2.49
-5.89 8.72 2.49
-6.07 8.61 2.49
-6.25 8.49 2.49
-6.31 8.22 2.45
-6.32 7.91 2.39
-6.48 7.78 2.39
-6.64 7.65 2.39
-6.68 7.39 2.35
-6.68 7.10 2.30
-6.75 6.89 2.27
-7.14 7.00 2.35
-7.27 6.85 2.35
-7.28 6.59 2.31
-7.30 6.35 2.27
-7.83 6.54 2.39
-7.97 6.38 2.39
-8.10 6.23 2.39
-8.23 6.07 2.39
-8.36 5.91 2.39
-8.48 5.74 2.39
-8.60 5.57 2.39
-8.72 5.40 2.39
-8.83 5.23 2.39
-8.94 5.06 2.39
-9.05 4.88 2.39
-9.15 4.70 2.39
-9.25 4.52 2.39
-9.34 4.34 2.39
-9.44 4.15 2.39
-9.53 3.97 2.39
-9.61 3.78 2.39
-9.69 3.59 2.39
-9.77 3.39 2.39
-9.84 3.20 2.39
-9.91 3.00 2.39
-9.98 2.81 2.39
-10.04 2.61 2.39
-10.10 2.41 2.39
-10.15 2.21 2.39
-10.20 2.00 2.39
-10.24 1.80 2.39
-10.28 1.60 2.39
-10.32 1.39 2.39
-10.35 1.18 2.39
-10.38 0.98 2.39
-10.41 0.77 2.39
-10.43 0.56 2.39
-10.44 0.35 2.39
-10.45 0.14 2.39
-10.46 -0.07 2.39
-10.46 -0.28 2.39
-10.46 -0.49 2.39
-10.45 -0.70 2.39
-10.44 -0.91 2.39
-10.43 -1.12 2.39
-10.41 -1.33 2.39
-10.39 -1.54 2.39
-10.36 -1.74 2.39
-10.33 -1.95 2.39
-10.29 -2.16 2.39
-10.25 -2.37 2.39
-10.21 -2.57 2.39
-10.16 -2.78 2.39
-10.10 -2.98 2.39
-10.05 -3.19 2.39
-9.98 -3.39 2.39
-9.92 -3.59 2.39
-9.85 -3.79 2.39
-9.77 -3.99 2.39
-9.69 -4.18 2.39
-9.61 -4.38 2.39
-7.68 -3.68 1.93
-9.43 -4.76 2.39
-9.34 -4.95 2.39
-9.24 -5.14 2.39
-9.14 -5.32 2.39
-9.03 -5.51 2.39
-8.92 -5.69 2.39
-8.81 -5.87 2.39
-8.69 -6.04 2.39
-8.57 -6.22 2.39
-8.44 -6.39 2.39
-8.31 -6.56 2.39
-8.18 -6.72 2.39
-8.05 -6.89 2.39
-7.91 -7.05 2.39
-7.77 -7.20 2.39
-7.62 -7.36 2.39
-7.47 -7.51 2.39
-7.32 -7.66 2.39
-7.16 -7.80 2.39
-7.01 -7.95 2.39
-6.85 -8.08 2.39
-6.68 -8.22 2.39
-6.62 -8.49 2.43
-6.62 -8.84 2.49
-6.44 -8.97 2.49
-6.26 -9.10 2.49
-6.08 -9.22 2.49
-5.89 -9.34 2.49
-5.70 -9.46 2.49
-5.51 -9.57 2.49
-5.31 -9.67 2.49
-5.12 -9.78 2.49
-4.92 -9.87 2.49
-4.72 -9.97 2.49
-4.52 -10.06 2.49
-4.31 -10.14 2.49
-4.11 -10.22 2.49
-3.90 -10.30 2.49
-3.69 -10.37 2.49
-3.48 -10.44 2.49
-3.27 -10.51 2.49
-3.06 -10.57 2.49
-2.85 -10.62 2.49
-2.63 -10.67 2.49
-2.42 -10.72 2.49
-2.20 -10.76 2.49
-1.98 -10.80 2.49
-1.77 -10.83 2.49
-1.55 -10.86 2.49
-1.33 -10.88 2.49
-1.11 -10.90 2.49
-0.89 -10.92 2.49
-0.67 -10.93 2.49
-0.45 -10.93 2.49
-0.23 -10.93 2.49
-0.02 -9.90 2.49
0.18 -9.89 2.49
0.38 -9.88 2.49
0.58 -9.86 2.49
0.78 -9.85 2.49
0.97 -9.82 2.49
1.17 -9.80 2.49
1.36 -9.76 2.49
1.49 -9.33 2.39
1.68 -9.29 2.39
1.86 -9.25 2.39
2.05 -9.20 2.39
2.23 -9.16 2.39
2.41 -9.10 2.39
2.59 -9.05 2.39
2.77 -8.99 2.39
2.95 -8.92 2.39
3.13 -8.86 2.39
3.30 -8.79 2.39
3.47 -8.71 2.39
3.65 -8.64 2.39
3.82 -8.56 2.39
3.98 -8.47 2.39
4.15 -8.38 2.39
4.31 -8.29 2.39
4.48 -8.20 2.39
4.64 -8.10 2.39
4.79 -8.00 2.39
4.95 -7.90 2.39
5.10 -7.79 2.39
5.26 -7.68 2.39
5.38 -7.54 2.38
5.50 -7.39 2.37
5.62 -7.24 2.36
5.74 -7.10 2.35
5.86 -6.95 2.34
5.97 -6.80 2.33
6.08 -6.65 2.33
6.18 -6.50 2.32
6.28 -6.34 2.31
6.38 -6.19 2.30
6.48 -6.04 2.29
6.57 -5.88 2.29
6.66 -5.73 2.28
6.75 -5.57 2.27
6.87 -5.44 2.28
7.15 -5.43 2.33
7.31 -5.33 2.35
7.39 -5.16 2.35
7.46 -4.99 2.34
7.53 -4.82 2.33
7.60 -4.65 2.32
7.69 -4.50 2.33
7.78 -4.34 2.33
7.86 -4.19 2.33
7.95 -4.03 2.33
8.03 -3.87 2.33
8.11 -3.71 2.34
8.19 -3.55 2.34
8.26 -3.38 2.34
8.33 -3.22 2.34
8.40 -3.05 2.35
8.47 -2.88 2.35
8.53 -2.72 2.35
8.58 -2.54 2.35
8.61 -2.37 2.35
8.65 -2.19 2.35
8.68 -2.01 2.35
8.71 -1.84 2.35
8.73 -1.66 2.35
8.75 -1.48 2.34
8.77 -1.30 2.34
8.79 -1.12 2.34
8.80 -0.95 2.34
8.81 -0.77 2.34
8.81 -0.59 2.34
8.82 -0.41 2.34
8.85 -0.24 2.35
8.87 -0.06 2.35
8.89 0.12 2.36
8.91 0.30 2.37
8.92 0.48 2.37
8.93 0.66 2.38
8.94 0.84 2.39
8.94 1.02 2.40
8.95 1.21 2.40
8.95 1.39 2.41
8.92 1.57 2.41
8.89 1.75 2.41
8.85 1.93 2.41
8.80 2.10 2.41
8.76 2.28 2.42
8.71 2.45 2.42
8.64 2.63 2.41
8.21 2.68 2.31
8.16 2.84 2.31
8.10 3.00 2.31
8.04 3.17 2.31
7.98 3.33 2.31
7.91 3.49 2.31
7.84 3.65 2.31
7.77 3.81 2.32
7.70 3.97 2.32
7.62 4.12 2.32
7.54 4.28 2.32
7.46 4.43 2.32
7.37 4.59 2.33
7.28 4.74 2.33
2.44 1.66 0.79
2.36 1.67 0.77
2.29 1.70 0.77
2.25 1.73 0.76
2.20 1.77 0.76
2.17 1.82 0.76
2.15 1.87 0.76
2.13 1.93 0.77
2.13 2.01 0.78
2.16 2.12 0.81
5.69 5.84 2.19
5.53 5.90 2.17
5.26 5.85 2.11
5.05 5.84 2.07
4.85 5.85 2.04
4.83 6.06 2.08
5.41 7.08 2.39
5.27 7.19 2.39
5.12 7.30 2.39
4.97 7.40 2.39
4.83 7.50 2.39
4.67 7.60 2.39
4.52 7.69 2.39
4.37 7.78 2.39
4.21 7.87 2.39
4.05 7.95 2.39
3.89 8.03 2.39
3.73 8.11 2.39
3.57 8.19 2.39
3.40 8.26 2.39
3.24 8.33 2.39
3.07 8.39 2.39
2.90 8.46 2.39
2.73 8.52 2.39
1.91 6.41 1.79
1.79 6.47 1.79
2.21 8.67 2.39
2.04 8.72 2.39
1.86 8.76 2.39
1.76 9.18 2.49
1.58 9.22 2.49
1.39 9.25 2.49
1.21 9.28 2.49
1.02 9.31 2.49
0.83 9.33 2.49
0.64 9.35 2.49
0.46 9.36 2.49
0.27 9.38 2.49
0.08 9.38 2.49
-0.11 9.39 2.49
-0.30 9.39 2.49
-0.49 9.39 2.49
-0.68 9.38 2.49
-0.86 9.37 2.49
-1.05 9.35 2.49
-1.24 9.34 2.49
-1.43 9.31 2.49
-1.62 9.29 2.49
-1.81 9.26 2.49
-1.99 9.23 2.49
-2.18 9.19 2.49
-2.36 9.15 2.49
-2.55 9.11 2.49
-2.73 9.06 2.49
-2.92 9.01 2.49
-3.10 8.95 2.49
-3.28 8.90 2.49
-3.46 8.83 2.49
-3.64 8.77 2.49
-3.82 8.70 2.49
-3.99 8.63 2.49
-4.17 8.55 2.49
-4.34 8.47 2.49
-4.52 8.39 2.49
-4.69 8.30 2.49
-4.86 8.21 2.49
-5.02 8.12 2.49
-5.19 8.02 2.49
-5.35 7.92 2.49
-5.51 7.82 2.49
-5.67 7.71 2.49
-5.83 7.60 2.49
-5.99 7.48 2.49
-6.14 7.37 2.49
-6.29 7.25 2.49
-6.33 7.00 2.45
-6.34 6.74 2.40
-6.45 6.59 2.39
-6.59 6.46 2.39
-6.70 6.31 2.38
-6.70 6.06 2.34
-6.71 5.83 2.30
-6.75 5.63 2.27
-7.11 5.69 2.35
-7.23 5.56 2.35
-7.30 5.38 2.34
-7.31 5.16 2.31
-7.32 4.95 2.27
-7.40 4.80 2.27
-7.91 4.90 2.39
-8.01 4.74 2.39
-8.11 4.59 2.39
-8.21 4.43 2.39
-8.30 4.26 2.39
-8.39 4.10 2.39
-8.47 3.93 2.39
-8.56 3.76 2.39
-8.64 3.59 2.39
-8.71 3.42 2.39
-8.79 3.25 2.39
-8.86 3.08 2.39
-8.92 2.90 2.39
-8.98 2.72 2.39
-9.04 2.54 2.39
-9.10 2.36 2.39
-9.15 2.18 2.39
-9.20 2.00 2.39
-9.24 1.81 2.39
-9.28 1.63 2.39
-9.32 1.44 2.39
-9.35 1.26 2.39
-9.38 1.07 2.39
-9.40 0.88 2.39
-9.43 0.69 2.39
-9.44 0.51 2.39
-9.46 0.32 2.39
-9.47 0.13 2.39
-9.47 -0.06 2.39
-9.47 -0.25 2.39
-9.47 -0.44 2.39
-9.47 -0.63 2.39
-9.46 -0.82 2.39
-9.44 -1.01 2.39
-9.43 -1.20 2.39
-9.40 -1.39 2.39
-9.38 -1.58 2.39
-9.35 -1.77 2.39
-9.32 -1.96 2.39
-9.28 -2.14 2.39
-9.24 -2.33 2.39
-9.19 -2.52 2.39
-9.14 -2.70 2.39
-9.09 -2.88 2.39
-9.04 -3.07 2.39
-8.97 -3.25 2.39
-8.91 -3.43 2.39
-8.84 -3.61 2.39
-8.77 -3.79 2.39
-8.70 -3.96 2.39
-8.62 -4.14 2.39
-8.54 -4.31 2.39
-8.45 -4.48 2.39
-8.36 -4.65 2.39
-8.27 -4.82 2.39
-8.17 -4.98 2.39
-8.07 -5.15 2.39
-7.97 -5.31 2.39
-7.86 -5.47 2.39
-7.75 -5.62 2.39
-7.64 -5.78 2.39
-7.52 -5.93 2.39
-7.40 -6.08 2.39
-7.28 -6.23 2.39
-7.15 -6.37 2.39
-7.03 -6.52 2.39
-6.89 -6.66 2.39
-6.78 -6.81 2.40
-6.62 -6.93 2.39
-6.60 -7.19 2.43
-6.60 -7.48 2.49
-6.46 -7.63 2.49
-6.31 -7.76 2.49
-6.15 -7.88 2.49
-5.99 -8.00 2.49
-5.83 -8.12 2.49
-5.66 -8.23 2.49
-5.50 -8.34 2.49
-5.33 -8.45 2.49
-5.16 -8.55 2.49
-4.98 -8.65 2.49
-4.81 -8.75 2.49
-4.63 -8.84 2.49
-4.45 -8.93 2.49
-4.27 -9.02 2.49
-4.09 -9.10 2.49
-3.90 -9.18 2.49
-3.72 -9.25 2.49
-3.53 -9.32 2.49
-3.34 -9.39 2.49
-3.15 -9.45 2.49
-2.96 -9.51 2.49
-2.77 -9.56 2.49
-2.58 -9.61 2.49
-2.38 -9.66 2.49
-2.19 -9.70 2.49
-1.99 -9.74 2.49
-1.80 -9.77 2.49
-1.60 -9.80 2.49
-1.40 -9.83 2.49
-1.21 -9.85 2.49
-1.01 -9.87 2.49
-0.81 -9.88 2.49
-0.61 -9.89 2.49
-0.41 -9.90 2.49
-0.21 -9.90 2.49
-0.02 -9.03 2.49
0.17 -9.03 2.49
0.35 -9.02 2.49
0.53 -9.01 2.49
0.71 -8.99 2.49
0.89 -8.97 2.49
1.07 -8.94 2.49
1.24 -8.92 2.49
1.42 -8.88 2.49
1.53 -8.48 2.39
1.70 -8.45 2.39
1.87 -8.41 2.39
2.04 -8.36 2.39
2.20 -8.31 2.39
2.37 -8.26 2.39
2.53 -8.21 2.39
2.69 -8.15 2.39
2.85 -8.09 2.39
3.01 -8.03 2.39
3.17 -7.96 2.39
3.33 -7.89 2.39
3.48 -7.82 2.39
3.64 -7.74 2.39
3.79 -7.66 2.39
3.94 -7.58 2.39
4.09 -7.49 2.39
4.24 -7.41 2.39
4.38 -7.31 2.39
4.52 -7.22 2.39
4.66 -7.12 2.39
4.80 -7.02 2.39
4.94 -6.92 2.39
5.07 -6.82 2.39
5.21 -6.71 2.39
5.33 -6.59 2.39
5.44 -6.46 2.38
5.54 -6.32 2.37
5.65 -6.18 2.36
5.75 -6.04 2.36
5.85 -5.91 2.35
5.94 -5.77 2.34
6.03 -5.62 2.34
6.12 -5.48 2.33
6.30 -5.42 2.36
6.52 -5.38 2.40
6.60 -5.23 2.39
6.68 -5.08 2.38
6.76 -4.93 2.38
6.83 -4.77 2.37
6.90 -4.62 2.36
6.99 -4.48 2.37
7.08 -4.34 2.37
7.17 -4.19 2.37
7.25 -4.05 2.37
7.33 -3.90 2.37
7.40 -3.75 2.37
7.47 -3.60 2.37
7.54 -3.45 2.37
7.60 -3.29 2.37
7.66 -3.14 2.37
7.72 -2.98 2.37
7.78 -2.83 2.37
7.83 -2.67 2.37
7.87 -2.51 2.37
7.91 -2.35 2.37
7.95 -2.18 2.37
7.98 -2.02 2.37
8.01 -1.86 2.37
8.04 -1.70 2.37
8.06 -1.53 2.36
8.08 -1.37 2.36
8.10 -1.20 2.36
8.12 -1.04 2.36
8.13 -0.88 2.36
8.15 -0.71 2.36
8.16 -0.55 2.37
8.19 -0.39 2.37
8.21 -0.22 2.38
8.24 -0.06 2.38
8.25 0.11 2.39
8.27 0.28 2.40
8.28 0.44 2.40
8.29 0.61 2.41
8.30 0.78 2.42
8.30 0.95 2.43
8.29 1.12 2.43
8.26 1.28 2.43
8.23 1.45 2.43
8.19 1.61 2.43
8.14 1.77 2.42
8.09 1.93 2.42
8.04 2.09 2.42
7.98 2.25 2.42
7.93 2.41 2.41
7.86 2.56 2.41
7.53 2.62 2.33
7.48 2.77 2.33
7.42 2.93 2.33
7.37 3.07 2.33
7.31 3.22 2.33
7.24 3.37 2.33
7.18 3.52 2.33
7.11 3.66 2.34
7.04 3.81 2.34
6.96 3.95 2.34
6.89 4.09 2.34
6.81 4.23 2.34
2.50 1.62 0.87
2.40 1.63 0.85
2.33 1.65 0.83
2.27 1.68 0.82
2.22 1.71 0.82
2.18 1.75 0.82
2.15 1.80 0.82
2.12 1.85 0.82
2.10 1.91 0.83
2.10 1.98 0.84
2.11 2.08 0.87
5.69 5.84 2.39
5.53 5.90 2.37
5.23 5.81 2.29
5.06 5.85 2.26
4.86 5.85 2.23
4.84 6.08 2.27
4.96 6.50 2.39
4.83 6.60 2.39
4.70 6.69 2.39
4.56 6.79 2.39
4.42 6.88 2.39
4.29 6.97 2.39
4.15 7.05 2.39
4.00 7.13 2.39
3.86 7.21 2.39
3.71 7.29 2.39
3.57 7.37 2.39
3.42 7.44 2.39
3.27 7.51 2.39
3.12 7.57 2.39
2.97 7.64 2.39
2.81 7.70 2.39
2.66 7.75 2.39
2.50 7.81 2.39
1.91 6.41 1.95
1.79 6.47 1.96
2.03 7.95 2.39
1.87 7.99 2.39
1.74 8.19 2.44
1.61 8.42 2.49
1.44 8.45 2.49
1.27 8.48 2.49
1.10 8.51 2.49
0.93 8.53 2.49
0.76 8.55 2.49
0.59 8.57 2.49
0.42 8.58 2.49
0.24 8.59 2.49
0.07 8.60 2.49
-0.10 8.60 2.49
-0.27 8.60 2.49
-0.45 8.60 2.49
-0.62 8.59 2.49
-0.79 8.58 2.49
-0.97 8.57 2.49
-1.14 8.55 2.49
-1.31 8.53 2.49
-1.48 8.51 2.49
-1.66 8.48 2.49
-1.83 8.45 2.49
-2.00 8.42 2.49
-2.17 8.38 2.49
-2.34 8.34 2.49
-2.50 8.30 2.49
-2.67 8.25 2.49
-2.84 8.20 2.49
-3.01 8.14 2.49
-3.17 8.09 2.49
-3.33 8.03 2.49
-3.50 7.96 2.49
-3.66 7.90 2.49
-3.82 7.83 2.49
-3.98 7.75 2.49
-4.14 7.68 2.49
-4.29 7.60 2.49
-4.45 7.51 2.49
-4.60 7.43 2.49
-4.75 7.34 2.49
-4.90 7.25 2.49
-5.05 7.15 2.49
-5.19 7.05 2.49
-5.34 6.95 2.49
-5.48 6.85 2.49
-5.62 6.74 2.49
-5.76 6.63 2.49
-5.89 6.52 2.49
-6.03 6.40 2.49
-6.16 6.28 2.49
-6.29 6.16 2.49
-6.35 5.98 2.47
-6.36 5.75 2.42
-6.39 5.55 2.39
-6.50 5.42 2.39
-6.61 5.29 2.39
-6.72 5.16 2.39
-6.72 4.95 2.35
-6.73 4.75 2.32
-6.73 4.55 2.29
-6.77 4.38 2.27
-6.86 4.25 2.27
-7.20 4.26 2.35
-7.29 4.12 2.35
-7.33 3.95 2.34
-7.20 3.70 2.27
-7.28 3.55 2.27
-7.75 3.59 2.39
-7.82 3.44 2.39
-7.89 3.28 2.39
-7.96 3.13 2.39
-8.03 2.97 2.39
-8.09 2.81 2.39
-8.15 2.65 2.39
-8.21 2.48 2.39
-8.26 2.32 2.39
-8.31 2.16 2.39
-8.36 1.99 2.39
-8.40 1.82 2.39
-8.44 1.66 2.39
-8.48 1.49 2.39
-8.51 1.32 2.39
-8.54 1.15 2.39
-8.56 0.98 2.39
-8.59 0.80 2.39
-8.61 0.63 2.39
-8.62 0.46 2.39
-8.63 0.29 2.39
-8.64 0.11 2.39
-8.65 -0.06 2.39
-8.65 -0.23 2.39
-8.65 -0.41 2.39
-8.64 -0.58 2.39
-8.63 -0.75 2.39
-8.62 -0.93 2.39
-8.60 -1.10 2.39
-8.58 -1.27 2.39
-8.56 -1.44 2.39
-8.53 -1.62 2.39
-8.50 -1.79 2.39
-8.47 -1.96 2.39
-8.43 -2.13 2.39
-8.39 -2.30 2.39
-8.34 -2.46 2.39
-8.29 -2.63 2.39
-8.24 -2.80 2.39
-8.19 -2.96 2.39
-8.13 -3.13 2.39
-8.07 -3.29 2.39
-8.00 -3.45 2.39
-7.93 -3.61 2.39
-7.86 -3.77 2.39
-7.79 -3.93 2.39
-7.71 -4.09 2.39
-7.63 -4.24 2.39
-7.54 -4.39 2.39
-7.45 -4.55 2.39
-7.36 -4.69 2.39
-7.27 -4.84 2.39
-7.17 -4.99 2.39
-7.07 -5.13 2.39
-6.97 -5.27 2.39
-6.86 -5.41 2.39
-6.76 -5.55 2.39
-6.64 -5.68 2.39
-6.58 -5.86 2.41
-6.58 -6.10 2.45
-6.56 -6.33 2.49
-6.43 -6.46 2.49
-6.30 -6.59 2.49
-6.17 -6.72 2.49
-6.03 -6.84 2.49
-5.89 -6.96 2.49
-5.75 -7.07 2.49
-5.61 -7.19 2.49
-5.46 -7.30 2.49
-5.32 -7.40 2.49
-5.17 -7.51 2.49
-5.01 -7.61 2.49
-4.86 -7.71 2.49
-4.70 -7.80 2.49
-4.55 -7.89 2.49
-4.39 -7.98 2.49
-4.22 -8.07 2.49
-4.06 -8.15 2.49
-3.90 -8.23 2.49
-3.73 -8.30 2.49
-3.56 -8.37 2.49
-3.39 -8.44 2.49
-3.22 -8.50 2.49
-3.05 -8.56 2.49
-2.88 -8.62 2.49
-2.70 -8.67 2.49
-2.53 -8.72 2.49
-2.35 -8.77 2.49
-2.18 -8.81 2.49
-2.00 -8.85 2.49
-1.82 -8.89 2.49
-1.64 -8.92 2.49
-1.46 -8.95 2.49
-1.28 -8.97 2.49
-1.10 -8.99 2.49
-0.92 -9.01 2.49
-0.74 -9.02 2.49
-0.56 -9.03 2.49
-0.38 -9.03 2.49
-0.20 -9.04 2.49
-0.02 -8.30 2.49
0.15 -8.30 2.49
0.32 -8.29 2.49
0.48 -8.28 2.49
0.65 -8.26 2.49
0.81 -8.24 2.49
0.98 -8.22 2.49
1.14 -8.19 2.49
1.30 -8.17 2.49
1.44 -7.96 2.44
1.56 -7.76 2.39
1.72 -7.73 2.39
1.87 -7.69 2.39
2.02 -7.64 2.39
2.17 -7.60 2.39
2.32 -7.55 2.39
2.47 -7.50 2.39
2.62 -7.44 2.39
2.77 -7.38 2.39
2.92 -7.32 2.39
3.06 -7.26 2.39
3.20 -7.19 2.39
3.34 -7.12 2.39
3.48 -7.05 2.39
3.62 -6.97 2.39
3.76 -6.89 2.39
3.89 -6.81 2.39
4.03 -6.73 2.39
4.16 -6.64 2.39
4.29 -6.55 2.39
4.42 -6.46 2.39
4.54 -6.37 2.39
4.67 -6.27 2.39
4.79 -6.17 2.39
4.91 -6.07 2.39
5.03 -5.97 2.39
5.14 -5.86 2.39
5.26 -5.76 2.39
5.36 -5.64 2.39
5.45 -5.51 2.38
5.55 -5.38 2.38
5.71 -5.33 2.40
5.81 -5.20 2.40
5.90 -5.08 2.40
5.99 -4.95 2.40
6.08 -4.82 2.39
6.17 -4.69 2.39
6.25 -4.56 2.39
6.34 -4.43 2.39
6.42 -4.30 2.39
6.51 -4.17 2.39
6.58 -4.03 2.39
6.66 -3.90 2.39
6.73 -3.76 2.39
6.80 -3.62 2.39
6.87 -3.48 2.39
6.93 -3.34 2.39
6.99 -3.20 2.39
7.05 -3.06 2.39
7.11 -2.91 2.39
7.16 -2.77 2.39
7.22 -2.62 2.39
7.26 -2.48 2.39
7.30 -2.33 2.39
7.33 -2.18 2.39
7.37 -2.03 2.38
7.40 -1.88 2.38
7.43 -1.73 2.38
7.46 -1.58 2.38
7.49 -1.42 2.38
7.51 -1.27 2.38
7.53 -1.12 2.38
7.55 -0.97 2.38
7.57 -0.82 2.39
7.58 -0.66 2.39
7.60 -0.51 2.39
7.62 -0.36 2.39
7.64 -0.21 2.40
7.66 -0.05 2.41
7.68 0.10 2.41
7.69 0.26 2.42
7.70 0.41 2.42
7.69 0.57 2.43
7.68 0.72 2.43
7.66 0.87 2.43
7.63 1.03 2.43
7.61 1.18 2.43
7.58 1.33 2.43
7.55 1.48 2.43
7.51 1.63 2.42
7.46 1.78 2.42
7.41 1.93 2.42
7.36 2.07 2.42
7.31 2.22 2.41
7.26 2.37 2.41
7.21 2.51 2.41
6.95 2.58 2.34
6.89 2.71 2.34
6.84 2.85 2.34
6.78 2.99 2.34
6.72 3.13 2.35
6.66 3.26 2.35
6.60 3.40 2.35
6.53 3.53 2.35
6.46 3.67 2.35
6.39 3.80 2.36
6.32 3.93 2.36
2.46 1.60 0.93
2.38 1.62 0.91
2.31 1.64 0.90
2.25 1.67 0.89
2.20 1.70 0.88
2.16 1.74 0.88
2.13 1.78 0.88
2.11 1.84 0.89
2.09 1.90 0.89
2.08 1.97 0.91
2.10 2.06 0.93
5.26 5.40 2.39
5.15 5.50 2.39
5.04 5.60 2.39
4.93 5.70 2.39
4.81 5.80 2.39
4.70 5.90 2.39
4.58 5.99 2.39
4.45 6.08 2.39
4.33 6.17 2.39
4.21 6.26 2.39
4.08 6.34 2.39
3.95 6.42 2.39
3.82 6.50 2.39
3.69 6.58 2.39
3.56 6.65 2.39
3.43 6.73 2.39
3.29 6.79 2.39
3.15 6.86 2.39
3.01 6.92 2.39
2.88 6.99 2.39
2.73 7.04 2.39
2.59 7.10 2.39
2.45 7.15 2.39
2.31 7.20 2.39
1.91 6.41 2.12
1.79 6.47 2.12
1.87 7.33 2.39
1.74 7.43 2.41
1.64 7.73 2.49
1.49 7.76 2.49
1.33 7.79 2.49
1.17 7.82 2.49
1.02 7.84 2.49
0.86 7.87 2.49
0.70 7.88 2.49
0.54 7.90 2.49
0.38 7.91 2.49
0.22 7.92 2.49
0.07 7.93 2.49
-0.09 7.93 2.49
-0.25 7.93 2.49
-0.41 7.93 2.49
-0.57 7.92 2.49
-0.73 7.91 2.49
-0.89 7.90 2.49
-1.05 7.88 2.49
-1.21 7.86 2.49
-1.37 7.84 2.49
-1.53 7.82 2.49
-1.68 7.79 2.49
-1.84 7.76 2.49
-2.00 7.72 2.49
-2.15 7.68 2.49
-2.31 7.64 2.49
-2.46 7.60 2.49
-2.62 7.55 2.49
-2.77 7.50 2.49
-2.92 7.45 2.49
-3.07 7.39 2.49
-3.22 7.34 2.49
-3.37 7.27 2.49
-3.52 7.21 2.49
-3.67 7.14 2.49
-3.81 7.07 2.49
-3.95 7.00 2.49
-4.10 6.92 2.49
-4.24 6.84 2.49
-4.38 6.76 2.49
-4.51 6.67 2.49
-4.65 6.58 2.49
-4.78 6.49 2.49
-4.92 6.40 2.49
-5.05 6.30 2.49
-5.18 6.20 2.49
-5.30 6.10 2.49
-5.43 6.00 2.49
-5.55 5.89 2.49
-5.67 5.78 2.49
-5.79 5.67 2.49
-5.91 5.56 2.49
-6.02 5.44 2.49
-6.13 5.32 2.49
-6.24 5.20 2.49
-6.35 5.08 2.49
-6.37 4.89 2.46
-6.38 4.69 2.43
-6.39 4.51 2.39
-6.47 4.38 2.39
-6.57 4.25 2.39
-6.65 4.12 2.39
-6.74 3.99 2.39
-6.75 3.81 2.37
-6.75 3.64 2.34
-6.78 3.48 2.32
-7.05 3.44 2.39
-7.12 3.30 2.39
-7.19 3.16 2.39
-7.26 3.02 2.39
-7.32 2.87 2.39
-7.38 2.73 2.39
-7.44 2.58 2.39
-7.50 2.43 2.39
-7.55 2.28 2.39
-7.60 2.13 2.39
-7.64 1.98 2.39
-7.68 1.83 2.39
-7.72 1.67 2.39
-7.76 1.52 2.39
-7.79 1.37 2.39
-7.82 1.21 2.39
-7.85 1.05 2.39
-7.87 0.90 2.39
-7.89 0.74 2.39
-7.91 0.58 2.39
-7.92 0.42 2.39
-7.93 0.26 2.39
-7.94 0.10 2.39
-7.95 -0.06 2.39
-7.95 -0.21 2.39
-7.95 -0.37 2.39
-7.94 -0.53 2.39
-7.93 -0.69 2.39
-7.92 -0.85 2.39
-7.90 -1.01 2.39
-7.88 -1.17 2.39
-7.86 -1.33 2.39
-7.84 -1.48 2.39
-7.81 -1.64 2.39
-7.78 -1.80 2.39
-7.74 -1.96 2.39
-7.70 -2.11 2.39
-7.66 -2.27 2.39
-7.62 -2.42 2.39
-7.57 -2.57 2.39
-7.52 -2.72 2.39
-7.47 -2.87 2.39
-7.41 -3.02 2.39
-7.35 -3.17 2.39
-7.29 -3.32 2.39
-7.22 -3.47 2.39
-7.15 -3.61 2.39
-7.08 -3.75 2.39
-7.00 -3.90 2.39
-6.93 -4.04 2.39
-6.84 -4.17 2.39
-6.76 -4.31 2.39
-6.67 -4.45 2.39
-6.58 -4.58 2.39
-6.56 -4.76 2.42
-6.55 -4.96 2.45
-6.56 -5.17 2.49
-6.47 -5.31 2.49
-6.36 -5.44 2.49
-6.25 -5.57 2.49
-6.14 -5.69 2.49
-6.02 -5.82 2.49
-5.90 -5.94 2.49
-5.78 -6.05 2.49
-5.66 -6.17 2.49
-5.54 -6.28 2.49
-5.41 -6.39 2.49
-5.28 -6.50 2.49
-5.15 -6.60 2.49
-5.02 -6.70 2.49
-4.88 -6.80 2.49
-4.74 -6.89 2.49
-4.60 -6.99 2.49
-4.46 -7.08 2.49
-4.32 -7.16 2.49
-4.18 -7.25 2.49
-4.03 -7.33 2.49
-3.88 -7.41 2.49
-3.73 -7.48 2.49
-3.58 -7.55 2.49
-3.43 -7.62 2.49
-3.27 -7.69 2.49
-3.12 -7.75 2.49
-2.96 -7.81 2.49
-2.80 -7.87 2.49
-2.64 -7.92 2.49
-2.48 -7.97 2.49
-2.32 -8.01 2.49
-2.16 -8.06 2.49
-2.00 -8.09 2.49
-1.84 -8.13 2.49
-1.67 -8.16 2.49
-1.51 -8.19 2.49
-1.34 -8.22 2.49
-1.18 -8.24 2.49
-1.01 -8.26 2.49
-0.85 -8.27 2.49
-0.68 -8.29 2.49
-0.51 -8.30 2.49
-0.35 -8.30 2.49
-0.18 -8.30 2.49
-0.02 -7.67 2.49
0.14 -7.67 2.49
0.29 -7.66 2.49
0.44 -7.65 2.49
0.60 -7.63 2.49
0.75 -7.62 2.49
0.90 -7.60 2.49
1.05 -7.57 2.49
1.20 -7.55 2.49
1.35 -7.52 2.49
1.46 -7.25 2.42
1.59 -7.14 2.39
1.73 -7.10 2.39
1.87 -7.07 2.39
2.01 -7.02 2.39
2.15 -6.98 2.39
2.29 -6.93 2.39
2.42 -6.88 2.39
2.56 -6.83 2.39
2.69 -6.77 2.39
2.83 -6.71 2.39
2.96 -6.65 2.39
3.09 -6.58 2.39
3.22 -6.52 2.39
3.35 -6.45 2.39
3.48 -6.38 2.39
3.60 -6.30 2.39
3.72 -6.22 2.39
3.85 -6.14 2.39
3.97 -6.06 2.39
4.08 -5.98 2.39
4.20 -5.89 2.39
4.32 -5.80 2.39
4.43 -5.71 2.39
4.54 -5.62 2.39
4.65 -5.52 2.39
4.76 -5.43 2.39
4.86 -5.33 2.39
4.96 -5.22 2.39
5.07 -5.12 2.39
5.16 -5.01 2.39
5.26 -4.91 2.39
5.08 -4.55 2.27
5.45 -4.69 2.39
5.56 -4.59 2.40
5.64 -4.47 2.40
5.73 -4.36 2.40
5.81 -4.24 2.40
5.89 -4.12 2.40
5.97 -4.00 2.40
6.05 -3.88 2.40
6.12 -3.75 2.40
6.19 -3.63 2.40
6.26 -3.50 2.40
6.33 -3.37 2.40
6.39 -3.24 2.40
6.46 -3.11 2.40
6.51 -2.98 2.40
6.57 -2.85 2.40
6.63 -2.72 2.41
6.67 -2.58 2.41
6.72 -2.44 2.40
6.76 -2.31 2.40
6.80 -2.17 2.40
6.84 -2.03 2.40
6.87 -1.89 2.40
6.91 -1.75 2.40
6.94 -1.61 2.40
6.97 -1.47 2.40
6.99 -1.33 2.40
7.01 -1.19 2.40
7.03 -1.05 2.40
7.05 -0.91 2.40
7.07 -0.76 2.40
7.08 -0.62 2.41
7.10 -0.48 2.41
7.12 -0.34 2.41
7.14 -0.20 2.42
7.15 -0.05 2.43
7.15 0.09 2.43
7.14 0.24 2.43
7.13 0.38 2.43
7.12 0.52 2.43
7.11 0.67 2.42
7.09 0.81 2.42
7.07 0.95 2.42
7.05 1.09 2.42
7.02 1.23 2.42
6.99 1.37 2.42
6.96 1.51 2.42
6.92 1.65 2.42
6.87 1.79 2.42
6.83 1.92 2.42
6.79 2.06 2.42
6.74 2.19 2.42
6.69 2.33 2.42
6.64 2.46 2.42
6.51 2.56 2.39
6.37 2.66 2.36
6.32 2.79 2.36
6.26 2.91 2.36
6.21 3.04 2.36
6.15 3.17 2.36
6.08 3.29 2.36
6.02 3.42 2.37
5.95 3.54 2.37
5.89 3.66 2.37
2.47 1.61 1.01
2.38 1.62 0.98
2.31 1.63 0.97
2.25 1.66 0.96
2.20 1.70 0.95
2.16 1.73 0.95
2.13 1.78 0.95
2.10 1.83 0.95
2.08 1.89 0.96
2.08 1.96 0.98
2.09 2.06 1.01
4.88 5.00 2.39
4.78 5.10 2.39
4.67 5.20 2.39
4.57 5.29 2.39
4.46 5.38 2.39
4.35 5.47 2.39
4.24 5.56 2.39
4.13 5.64 2.39
4.02 5.72 2.39
3.90 5.80 2.39
3.78 5.88 2.39
3.66 5.96 2.39
3.54 6.03 2.39
3.42 6.10 2.39
3.30 6.17 2.39
3.17 6.23 2.39
3.05 6.30 2.39
2.92 6.36 2.39
2.79 6.42 2.39
2.66 6.47 2.39
2.53 6.53 2.39
2.40 6.58 2.39
2.27 6.63 2.39
2.14 6.67 2.39
1.91 6.41 2.28
1.79 6.47 2.29
1.73 6.80 2.39
1.66 7.13 2.49
1.52 7.16 2.49
1.38 7.19 2.49
1.23 7.22 2.49
1.09 7.25 2.49
0.94 7.27 2.49
0.80 7.29 2.49
0.65 7.31 2.49
0.50 7.32 2.49
0.35 7.33 2.49
0.21 7.34 2.49
0.06 7.35 2.49
-0.09 7.35 2.49
-0.24 7.35 2.49
-0.38 7.34 2.49
-0.53 7.34 2.49
-0.68 7.33 2.49
-0.83 7.32 2.49
-0.98 7.30 2.49
-1.12 7.29 2.49
-1.27 7.26 2.49
-1.42 7.24 2.49
-1.56 7.21 2.49
-1.71 7.18 2.49
-1.85 7.15 2.49
-2.00 7.12 2.49
-2.14 7.08 2.49
-2.28 7.04 2.49
-2.43 6.99 2.49
-2.57 6.95 2.49
-2.71 6.90 2.49
-2.85 6.85 2.49
-2.99 6.79 2.49
-3.12 6.73 2.49
-3.26 6.67 2.49
-3.40 6.61 2.49
-3.53 6.54 2.49
-3.66 6.48 2.49
-3.79 6.40 2.49
-3.92 6.33 2.49
-4.05 6.25 2.49
-4.18 6.17 2.49
-4.31 6.09 2.49
-4.43 6.01 2.49
-4.55 5.92 2.49
-4.67 5.83 2.49
-4.79 5.74 2.49
-4.91 5.65 2.49
-5.02 5.55 2.49
-5.14 5.45 2.49
-5.25 5.35 2.49
-5.36 5.25 2.49
-5.47 5.14 2.49
-5.57 5.03 2.49
-5.67 4.92 2.49
-5.78 4.81 2.49
-5.87 4.70 2.49
-5.97 4.58 2.49
-6.07 4.46 2.49
-6.16 4.34 2.49
-6.25 4.22 2.49
-6.33 4.10 2.49
-6.39 3.95 2.48
-6.39 3.78 2.45
-6.40 3.61 2.42
-6.40 3.45 2.40
-6.45 3.31 2.39
-6.52 3.18 2.39
-6.60 3.06 2.39
-6.65 2.92 2.39
-6.71 2.79 2.39
-6.77 2.66 2.39
-6.83 2.52 2.39
-6.88 2.38 2.39
-6.93 2.25 2.39
-6.98 2.11 2.39
-7.02 1.97 2.39
-7.06 1.83 2.39
-7.10 1.69 2.39
-7.14 1.55 2.39
-7.17 1.40 2.39
-7.20 1.26 2.39
-7.23 1.12 2.39
-7.25 0.97 2.39
-7.28 0.83 2.39
-7.29 0.68 2.39
-7.31 0.53 2.39
-7.32 0.39 2.39
-7.33 0.24 2.39
-7.34 0.09 2.39
-7.34 -0.05 2.39
-7.34 -0.20 2.39
-7.34 -0.35 2.39
-7.34 -0.49 2.39
-7.33 -0.64 2.39
-7.32 -0.79 2.39
-7.30 -0.93 2.39
-7.28 -1.08 2.39
-7.26 -1.23 2.39
-7.24 -1.37 2.39
-7.21 -1.52 2.39
-7.18 -1.66 2.39
-7.15 -1.81 2.39
-7.12 -1.95 2.39
-7.08 -2.09 2.39
-7.04 -2.24 2.39
-6.99 -2.38 2.39
-6.95 -2.52 2.39
-6.90 -2.66 2.39
-6.84 -2.79 2.39
-6.79 -2.93 2.39
-6.73 -3.07 2.39
-6.67 -3.20 2.39
-6.60 -3.34 2.39
-6.54 -3.47 2.39
-6.53 -3.64 2.42
-6.53 -3.81 2.44
-6.54 -3.99 2.47
-6.51 -4.15 2.49
-6.43 -4.28 2.49
-6.34 -4.41 2.49
-6.25 -4.54 2.49
-6.16 -4.66 2.49
-6.07 -4.79 2.49
-5.97 -4.91 2.49
-5.87 -5.03 2.49
-5.77 -5.14 2.49
-5.67 -5.26 2.49
-5.56 -5.37 2.49
-5.45 -5.48 2.49
-5.34 -5.59 2.49
-5.23 -5.70 2.49
-5.11 -5.80 2.49
-5.00 -5.90 2.49
-4.88 -6.00 2.49
-4.76 -6.09 2.49
-4.63 -6.19 2.49
-4.51 -6.28 2.49
-4.38 -6.37 2.49
-4.25 -6.45 2.49
-4.12 -6.54 2.49
-3.99 -6.62 2.49
-3.86 -6.69 2.49
-3.72 -6.77 2.49
-3.58 -6.84 2.49
-3.45 -6.91 2.49
-3.31 -6.98 2.49
-3.17 -7.04 2.49
-3.02 -7.10 2.49
-2.88 -7.16 2.49
-2.74 -7.21 2.49
-2.59 -7.26 2.49
-2.44 -7.31 2.49
-2.30 -7.36 2.49
-2.15 -7.40 2.49
-2.00 -7.44 2.49
-1.85 -7.48 2.49
-1.70 -7.51 2.49
-1.55 -7.54 2.49
-1.39 -7.57 2.49
-1.24 -7.59 2.49
-1.09 -7.61 2.49
-0.94 -7.63 2.49
-0.78 -7.64 2.49
-0.63 -7.66 2.49
-0.48 -7.66 2.49
-0.32 -7.67 2.49
-0.17 -7.67 2.49
-0.02 -7.12 2.49
0.13 -7.12 2.49
0.27 -7.11 2.49
0.41 -7.10 2.49
0.55 -7.09 2.49
0.70 -7.07 2.49
0.84 -7.05 2.49
0.98 -7.03 2.49
1.12 -7.01 2.49
1.26 -6.98 2.49
1.40 -6.95 2.49
1.47 -6.64 2.40
1.60 -6.60 2.39
1.73 -6.56 2.39
1.86 -6.52 2.39
1.99 -6.48 2.39
2.12 -6.44 2.39
2.25 -6.39 2.39
2.38 -6.34 2.39
2.50 -6.29 2.39
2.63 -6.23 2.39
2.75 -6.18 2.39
2.87 -6.12 2.39
2.99 -6.05 2.39
3.11 -5.99 2.39
3.23 -5.92 2.39
3.34 -5.85 2.39
3.46 -5.78 2.39
3.57 -5.71 2.39
3.68 -5.63 2.39
3.79 -5.56 2.39
3.90 -5.48 2.39
4.01 -5.39 2.39
4.11 -5.31 2.39
4.22 -5.22 2.39
4.32 -5.13 2.39
4.42 -5.04 2.39
4.52 -4.95 2.39
4.61 -4.86 2.39
4.47 -4.52 2.27
4.55 -4.43 2.27
4.68 -4.37 2.29
4.88 -4.37 2.34
4.97 -4.28 2.35
4.98 -4.11 2.31
4.98 -3.95 2.28
5.04 -3.83 2.27
5.11 -3.73 2.27
5.46 -3.82 2.39
5.53 -3.71 2.39
5.64 -3.62 2.41
5.71 -3.50 2.41
5.78 -3.39 2.41
5.84 -3.27 2.41
5.91 -3.15 2.41
5.96 -3.03 2.41
6.02 -2.91 2.41
6.08 -2.78 2.41
6.13 -2.66 2.41
6.18 -2.53 2.41
6.22 -2.41 2.41
6.27 -2.28 2.41
6.31 -2.16 2.41
6.35 -2.03 2.41
6.39 -1.90 2.41
6.43 -1.77 2.42
6.46 -1.64 2.42
6.49 -1.51 2.42
6.52 -1.38 2.42
6.55 -1.25 2.42
6.57 -1.12 2.42
6.59 -0.98 2.42
6.61 -0.85 2.42
6.62 -0.72 2.42
6.63 -0.58 2.42
6.64 -0.45 2.42
6.65 -0.32 2.42
6.65 -0.18 2.42
6.65 -0.05 2.42
6.65 0.08 2.42
6.64 0.22 2.42
6.63 0.35 2.42
6.62 0.49 2.42
6.61 0.62 2.42
6.59 0.75 2.42
6.57 0.88 2.42
6.55 1.01 2.42
6.53 1.15 2.42
6.50 1.28 2.42
6.47 1.41 2.42
6.44 1.54 2.42
6.40 1.66 2.42
6.36 1.79 2.42
6.32 1.92 2.42
6.28 2.04 2.42
6.23 2.17 2.42
6.18 2.29 2.42
6.13 2.41 2.42
6.08 2.54 2.42
5.91 2.61 2.37
5.86 2.73 2.37
5.81 2.84 2.37
5.75 2.96 2.37
5.69 3.08 2.37
5.63 3.19 2.38
5.57 3.31 2.38
5.50 3.42 2.38
2.50 1.62 1.09
2.38 1.62 1.06
2.31 1.63 1.04
2.25 1.66 1.03
2.20 1.70 1.02
2.16 1.73 1.02
2.13 1.78 1.02
2.10 1.83 1.02
2.08 1.89 1.03
2.08 1.96 1.05
2.09 2.06 1.08
4.54 4.66 2.39
4.45 4.75 2.39
4.35 4.84 2.39
4.25 4.92 2.39
4.15 5.01 2.39
4.05 5.09 2.39
3.95 5.17 2.39
3.84 5.25 2.39
3.74 5.33 2.39
3.63 5.40 2.39
3.52 5.47 2.39
3.41 5.55 2.39
3.30 5.61 2.39
3.19 5.68 2.39
3.07 5.74 2.39
2.95 5.80 2.39
2.84 5.86 2.39
2.72 5.92 2.39
2.60 5.98 2.39
2.48 6.03 2.39
2.36 6.08 2.39
2.24 6.13 2.39
2.11 6.17 2.39
1.99 6.21 2.39
1.86 6.25 2.39
1.74 6.29 2.39
1.68 6.60 2.49
1.55 6.63 2.49
1.41 6.67 2.49
1.28 6.69 2.49
1.15 6.72 2.49
1.01 6.74 2.49
0.88 6.77 2.49
0.74 6.78 2.49
0.60 6.80 2.49
0.47 6.81 2.49
0.33 6.82 2.49
0.19 6.83 2.49
0.05 6.84 2.49
-0.08 6.84 2.49
-0.22 6.84 2.49
-0.36 6.83 2.49
-0.50 6.83 2.49
-0.63 6.82 2.49
-0.77 6.81 2.49
-0.91 6.80 2.49
-1.05 6.78 2.49
-1.18 6.76 2.49
-1.32 6.74 2.49
-1.45 6.71 2.49
-1.59 6.68 2.49
-1.72 6.65 2.49
-1.86 6.62 2.49
-1.99 6.59 2.49
-2.13 6.55 2.49
-2.26 6.51 2.49
-2.39 6.46 2.49
-2.52 6.42 2.49
-2.65 6.37 2.49
-2.78 6.32 2.49
-2.91 6.26 2.49
-3.03 6.21 2.49
-3.16 6.15 2.49
-3.28 6.09 2.49
-3.41 6.02 2.49
-3.53 5.96 2.49
-3.65 5.89 2.49
-3.77 5.81 2.49
-3.89 5.74 2.49
-4.00 5.66 2.49
-4.12 5.59 2.49
-4.23 5.51 2.49
-4.35 5.42 2.49
-4.46 5.34 2.49
-4.56 5.25 2.49
-4.67 5.16 2.49
-4.78 5.07 2.49
-4.88 4.97 2.49
-4.98 4.88 2.49
-5.08 4.78 2.49
-5.18 4.68 2.49
-5.28 4.58 2.49
-5.37 4.47 2.49
-5.46 4.37 2.49
-5.55 4.26 2.49
-5.64 4.15 2.49
-5.72 4.04 2.49
-5.81 3.92 2.49
-5.89 3.81 2.49
-5.97 3.69 2.49
-6.04 3.57 2.49
-6.12 3.45 2.49
-6.19 3.33 2.49
-6.26 3.21 2.49
-6.32 3.08 2.49
-6.39 2.96 2.49
-6.41 2.81 2.48
-6.41 2.66 2.46
-6.41 2.51 2.44
-6.42 2.37 2.42
-6.43 2.23 2.40
-6.44 2.09 2.39
-6.48 1.96 2.39
-6.52 1.83 2.39
-6.56 1.70 2.39
-6.60 1.57 2.39
-6.63 1.44 2.39
-6.66 1.30 2.39
-6.69 1.17 2.39
-6.71 1.04 2.39
-6.74 0.90 2.39
-6.76 0.77 2.39
-6.77 0.63 2.39
-6.79 0.50 2.39
-6.80 0.36 2.39
-6.81 0.22 2.39
-6.81 0.09 2.39
-6.82 -0.05 2.39
-6.82 -0.19 2.39
-6.82 -0.32 2.39
-6.81 -0.46 2.39
-6.80 -0.60 2.39
-6.79 -0.73 2.39
-6.78 -0.87 2.39
-6.76 -1.00 2.39
-6.74 -1.14 2.39
-6.72 -1.28 2.39
-6.70 -1.41 2.39
-6.68 -1.55 2.40
-6.64 -1.68 2.39
-6.61 -1.81 2.39
-6.57 -1.94 2.39
-6.53 -2.08 2.39
-6.51 -2.21 2.40
-6.51 -2.36 2.42
-6.51 -2.51 2.43
-6.51 -2.66 2.45
-6.51 -2.81 2.47
-6.51 -2.97 2.49
-6.45 -3.10 2.49
-6.39 -3.23 2.49
-6.33 -3.36 2.49
-6.26 -3.48 2.49
-6.19 -3.61 2.49
-6.12 -3.73 2.49
-6.04 -3.86 2.49
-5.97 -3.98 2.49
-5.89 -4.10 2.49
-5.80 -4.21 2.49
-5.72 -4.33 2.49
-5.63 -4.44 2.49
-5.54 -4.55 2.49
-5.45 -4.66 2.49
-5.36 -4.77 2.49
-5.26 -4.88 2.49
-5.16 -4.98 2.49
-5.06 -5.09 2.49
-4.96 -5.19 2.49
-4.85 -5.28 2.49
-4.75 -5.38 2.49
-4.64 -5.47 2.49
-4.53 -5.57 2.49
-4.41 -5.66 2.49
-4.30 -5.74 2.49
-4.18 -5.83 2.49
-4.07 -5.91 2.49
-3.95 -5.99 2.49
-3.83 -6.07 2.49
-3.70 -6.14 2.49
-3.58 -6.21 2.49
-3.45 -6.28 2.49
-3.33 -6.35 2.49
-3.20 -6.41 2.49
-3.07 -6.47 2.49
-2.94 -6.53 2.49
-2.81 -6.59 2.49
-2.67 -6.64 2.49
-2.54 -6.69 2.49
-2.40 -6.74 2.49
-2.27 -6.79 2.49
-2.13 -6.83 2.49
-1.99 -6.87 2.49
-1.86 -6.91 2.49
-1.72 -6.94 2.49
-1.58 -6.97 2.49
-1.44 -7.00 2.49
-1.30 -7.02 2.49
-1.15 -7.05 2.49
-1.01 -7.07 2.49
-0.87 -7.08 2.49
-0.73 -7.10 2.49
-0.59 -7.11 2.49
-0.44 -7.11 2.49
-0.30 -7.12 2.49
-0.16 -7.12 2.49
-0.02 -6.64 2.49
0.12 -6.63 2.49
0.25 -6.63 2.49
0.38 -6.62 2.49
0.52 -6.61 2.49
0.65 -6.59 2.49
0.78 -6.58 2.49
0.91 -6.56 2.49
1.04 -6.53 2.49
1.17 -6.51 2.49
1.30 -6.48 2.49
1.43 -6.45 2.49
1.49 -6.15 2.39
1.62 -6.12 2.39
1.74 -6.08 2.39
1.86 -6.04 2.39
1.98 -6.00 2.39
2.10 -5.96 2.39
2.21 -5.91 2.39
2.33 -5.86 2.39
2.45 -5.81 2.39
2.56 -5.76 2.39
2.68 -5.71 2.39
2.79 -5.65 2.39
2.90 -5.59 2.39
3.01 -5.53 2.39
3.12 -5.46 2.39
3.23 -5.40 2.39
3.33 -5.33 2.39
3.44 -5.26 2.39
3.54 -5.18 2.39
3.64 -5.11 2.39
3.74 -5.03 2.39
3.84 -4.95 2.39
3.93 -4.87 2.39
4.03 -4.79 2.39
4.12 -4.71 2.39
4.21 -4.62 2.39
4.30 -4.53 2.39
4.39 -4.44 2.39
4.39 -4.27 2.34
4.39 -4.10 2.30
4.41 -3.95 2.27
4.48 -3.86 2.27
4.72 -3.91 2.35
4.80 -3.81 2.35
4.87 -3.71 2.35
4.94 -3.61 2.35
4.99 -3.49 2.34
4.99 -3.35 2.31
5.00 -3.20 2.29
5.02 -3.08 2.27
5.08 -2.98 2.27
5.14 -2.87 2.27
5.47 -2.92 2.39
5.52 -2.81 2.39
5.63 -2.72 2.41
5.68 -2.60 2.41
5.73 -2.49 2.41
5.78 -2.37 2.42
5.82 -2.25 2.42
5.86 -2.14 2.42
5.90 -2.02 2.42
5.94 -1.90 2.42
5.98 -1.78 2.42
6.01 -1.66 2.42
6.04 -1.54 2.42
6.07 -1.41 2.42
6.10 -1.29 2.42
6.12 -1.17 2.42
6.14 -1.04 2.42
6.16 -0.92 2.42
6.18 -0.80 2.42
6.19 -0.67 2.42
6.20 -0.55 2.42
6.21 -0.42 2.42
6.21 -0.30 2.42
6.21 -0.17 2.42
6.21 -0.05 2.42
6.21 0.08 2.42
6.20 0.20 2.42
6.20 0.33 2.42
6.19 0.45 2.42
6.17 0.58 2.42
6.16 0.70 2.42
6.14 0.82 2.42
6.12 0.95 2.42
6.10 1.07 2.42
6.07 1.19 2.42
6.05 1.31 2.42
6.02 1.43 2.42
5.99 1.55 2.42
5.95 1.67 2.42
5.91 1.79 2.42
5.87 1.91 2.42
5.83 2.03 2.42
5.78 2.14 2.42
5.73 2.26 2.42
5.62 2.35 2.39
5.58 2.46 2.39
5.52 2.57 2.39
5.47 2.68 2.39
5.41 2.79 2.39
5.36 2.90 2.39
5.30 3.00 2.39
5.23 3.11 2.39
5.17 3.21 2.39
2.50 1.63 1.17
2.38 1.62 1.13
2.31 1.63 1.11
2.25 1.66 1.10
2.20 1.70 1.09
2.16 1.73 1.09
2.13 1.78 1.09
2.10 1.83 1.10
2.08 1.89 1.11
2.08 1.96 1.12
2.09 2.06 1.16
4.25 4.35 2.39
4.16 4.44 2.39
4.07 4.52 2.39
3.97 4.60 2.39
3.88 4.68 2.39
3.79 4.76 2.39
3.69 4.83 2.39
3.59 4.91 2.39
3.49 4.98 2.39
3.39 5.05 2.39
3.29 5.12 2.39
3.19 5.18 2.39
3.08 5.25 2.39
2.98 5.31 2.39
2.87 5.37 2.39
2.76 5.42 2.39
2.65 5.48 2.39
2.54 5.53 2.39
2.43 5.58 2.39
2.32 5.63 2.39
2.20 5.68 2.39
2.09 5.72 2.39
1.97 5.77 2.39
1.86 5.81 2.39
1.74 5.84 2.39
1.69 6.13 2.49
1.57 6.17 2.49
1.45 6.20 2.49
1.32 6.23 2.49
1.20 6.25 2.49
1.07 6.28 2.49
0.94 6.30 2.49
0.82 6.32 2.49
0.69 6.34 2.49
0.56 6.35 2.49
0.43 6.36 2.49
0.31 6.37 2.49
0.18 6.38 2.49
0.05 6.39 2.49
-0.08 6.39 2.49
-0.21 6.39 2.49
-0.34 6.38 2.49
-0.46 6.38 2.49
-0.59 6.37 2.49
-0.72 6.36 2.49
-0.85 6.35 2.49
-0.98 6.33 2.49
-1.11 6.31 2.49
-1.23 6.29 2.49
-1.36 6.27 2.49
-1.49 6.24 2.49
-1.61 6.21 2.49
-1.74 6.18 2.49
-1.86 6.15 2.49
-1.99 6.11 2.49
-2.11 6.08 2.49
-2.23 6.03 2.49
-2.35 5.99 2.49
-2.48 5.95 2.49
-2.60 5.90 2.49
-2.71 5.85 2.49
-2.83 5.79 2.49
-2.95 5.74 2.49
-3.07 5.68 2.49
-3.18 5.62 2.49
-3.30 5.56 2.49
-3.41 5.49 2.49
-3.52 5.43 2.49
-3.63 5.36 2.49
-3.74 5.29 2.49
-3.85 5.21 2.49
-3.95 5.14 2.49
-4.06 5.06 2.49
-4.16 4.98 2.49
-4.26 4.90 2.49
-4.36 4.81 2.49
-4.46 4.73 2.49
-4.56 4.64 2.49
-4.65 4.55 2.49
-4.74 4.46 2.49
-4.83 4.36 2.49
-4.92 4.27 2.49
-5.01 4.17 2.49
-5.10 4.07 2.49
-5.18 3.97 2.49
-5.26 3.87 2.49
-5.34 3.76 2.49
-5.42 3.66 2.49
-5.49 3.55 2.49
-5.57 3.44 2.49
-5.64 3.33 2.49
-5.71 3.22 2.49
-5.77 3.11 2.49
-5.84 2.99 2.49
-5.90 2.87 2.49
-5.96 2.76 2.49
-6.01 2.64 2.49
-6.07 2.52 2.49
-6.12 2.40 2.49
-6.17 2.28 2.49
