ply
format ascii 1.0
element vertex 2832
property float32 x
property float32 y
property float32 z
end_header
-9.62 1.31 -0.50
-9.63 1.12 -0.50
-9.63 0.92 -0.50
-9.63 0.73 -0.50
-9.63 0.53 -0.50
-9.63 0.34 -0.50
-9.63 0.15 -0.50
-9.63 -0.05 -0.50
-9.56 -0.24 -0.50
-9.64 -0.43 -0.50
-9.64 -0.63 -0.50
-9.64 -0.82 -0.51
-9.64 -1.02 -0.51
-9.64 -1.21 -0.51
-9.64 -1.41 -0.51
-9.65 -1.61 -0.51
-9.65 -1.81 -0.52
-9.65 -2.01 -0.52
-9.65 -2.21 -0.52
-9.65 -2.42 -0.53
-9.65 -2.63 -0.53
-9.65 -2.84 -0.53
-9.66 -3.05 -0.54
-9.66 -3.26 -0.54
-9.66 -3.48 -0.55
-9.66 -3.70 -0.55
-9.66 -3.93 -0.56
-9.65 -4.15 -0.56
-9.67 -4.39 -0.57
-9.67 -4.63 -0.58
-9.67 -4.87 -0.59
-9.67 -5.11 -0.59
-9.67 -5.37 -0.60
-9.68 -5.62 -0.61
-9.68 -5.89 -0.62
-9.66 -6.15 -0.63
-9.65 -6.41 -0.64
-9.63 -6.69 -0.65
-9.63 -6.98 -0.66
-9.63 -7.28 -0.67
-9.63 -7.59 -0.68
-9.64 -7.91 -0.69
-9.63 -8.23 -0.71
-9.68 -8.61 -0.73
10.60 -14.18 -0.83
10.61 -13.61 -0.81
10.61 -13.06 -0.80
10.62 -12.54 -0.78
10.62 -12.05 -0.76
10.62 -11.58 -0.75
10.63 -11.12 -0.73
10.63 -10.69 -0.72
10.63 -10.27 -0.71
10.71 -9.94 -0.70
11.16 -9.94 -0.72
11.62 -9.95 -0.74
12.11 -9.95 -0.76
12.62 -9.95 -0.78
13.16 -9.96 -0.80
13.78 -10.00 -0.83
14.37 -9.99 -0.85
14.98 -9.97 -0.88
15.66 -9.98 -0.91
16.38 -9.98 -0.94
17.16 -9.99 -0.97
17.44 -9.68 -0.98
17.44 -9.23 -0.97
17.44 -8.79 -0.96
17.80 -8.53 -0.97
18.78 -8.54 -1.02
19.99 -8.61 -1.07
20.96 -8.53 -1.12
22.48 -8.63 -1.19
23.93 -8.64 -1.26
25.42 -8.60 -1.33
33.24 -10.51 -1.73
33.25 -9.78 -1.72
33.25 -9.06 -1.71
33.26 -8.35 -1.70
33.26 -7.64 -1.69
33.27 -6.94 -1.68
33.27 -6.25 -1.68
33.28 -5.56 -1.67
33.28 -4.88 -1.67
33.29 -4.20 -1.66
33.29 -3.52 -1.66
33.30 -2.85 -1.65
33.30 -2.17 -1.65
33.31 -1.50 -1.65
40.69 -1.02 -2.01
42.01 6.60 -2.08
34.78 6.18 -1.72
33.23 6.59 -1.65
33.23 7.29 -1.66
17.59 4.23 -0.88
16.20 4.24 -0.81
15.00 4.25 -0.75
13.95 4.26 -0.70
13.53 4.43 -0.69
13.54 4.73 -0.69
13.46 5.02 -0.69
13.18 5.21 -0.68
13.18 5.52 -0.68
13.19 5.84 -0.69
13.19 6.16 -0.69
13.19 6.49 -0.70
13.19 6.82 -0.70
13.20 7.16 -0.71
13.20 7.51 -0.71
6.62 3.94 -0.36
6.41 3.99 -0.35
6.33 4.13 -0.35
6.25 4.26 -0.35
6.17 4.38 -0.35
6.09 4.51 -0.35
5.99 4.63 -0.35
4.95 3.99 -0.29
5.26 4.41 -0.31
5.17 4.52 -0.31
5.04 4.59 -0.31
4.90 4.64 -0.30
5.34 5.26 -0.34
12.26 12.58 -0.79
12.26 13.10 -0.80
12.27 13.64 -0.82
11.50 13.31 -0.78
11.36 13.71 -0.79
12.00 15.08 -0.85
11.74 15.38 -0.85
11.48 15.68 -0.85
11.38 16.22 -0.86
11.39 16.94 -0.88
11.39 17.71 -0.91
11.40 18.53 -0.93
11.41 19.40 -0.96
11.20 19.95 -0.97
19.81 45.45 -2.06
18.00 43.67 -1.95
16.81 43.23 -1.91
15.97 43.62 -1.90
15.29 44.52 -1.92
14.60 45.47 -1.93
13.84 46.25 -1.94
13.05 47.05 -1.96
12.25 47.86 -1.97
2.75 20.99 -0.82
-9.46 19.49 -0.72
-9.44 18.49 -0.69
-9.45 17.62 -0.66
-9.48 16.85 -0.63
-9.51 16.15 -0.61
-9.52 15.44 -0.59
-9.52 14.78 -0.57
-9.53 14.15 -0.55
-9.53 13.57 -0.53
-9.54 13.01 -0.51
-9.54 12.48 -0.50
-9.54 11.98 -0.48
-9.55 11.50 -0.47
-9.55 11.05 -0.46
-9.55 10.61 -0.45
-9.56 10.20 -0.44
-9.56 9.80 -0.43
-9.56 9.42 -0.42
-9.57 9.05 -0.41
-9.57 8.69 -0.40
-9.57 8.35 -0.39
-9.57 8.02 -0.38
-9.55 7.68 -0.37
-9.58 7.39 -0.37
-9.58 7.09 -0.36
-9.58 6.80 -0.35
-9.58 6.52 -0.35
-9.59 6.24 -0.34
-9.59 5.97 -0.34
-9.59 5.71 -0.33
-6.47 3.68 -0.22
-9.59 5.20 -0.32
-9.60 4.96 -0.32
-9.60 4.71 -0.32
-9.60 4.48 -0.31
-9.60 4.25 -0.31
-9.60 4.02 -0.31
-9.53 3.77 -0.30
-9.61 3.58 -0.30
-9.61 3.36 -0.30
-9.61 3.14 -0.30
-9.61 2.93 -0.30
-9.61 2.72 -0.29
-9.61 2.52 -0.29
-9.62 2.31 -0.29
-9.62 2.11 -0.29
-9.62 1.91 -0.29
-9.62 1.71 -0.29
-9.62 1.51 -0.29
-9.62 1.31 -0.29
-9.63 1.12 -0.28
-9.63 0.92 -0.28
-9.63 0.73 -0.28
-9.63 0.53 -0.28
-9.63 0.34 -0.28
-9.63 0.15 -0.28
-9.63 -0.05 -0.28
-9.56 -0.24 -0.28
-9.64 -0.43 -0.29
-9.64 -0.63 -0.29
-9.64 -0.82 -0.29
-9.64 -1.02 -0.29
-9.64 -1.22 -0.29
-9.64 -1.41 -0.29
-9.65 -1.61 -0.29
-9.65 -1.81 -0.30
-9.65 -2.01 -0.30
-9.65 -2.22 -0.30
-9.65 -2.42 -0.30
-9.65 -2.63 -0.30
-9.65 -2.84 -0.31
-9.66 -3.05 -0.31
-9.66 -3.27 -0.31
-9.66 -3.48 -0.32
-9.66 -3.70 -0.32
-9.66 -3.93 -0.32
-9.65 -4.15 -0.33
-9.67 -4.39 -0.33
-9.67 -4.63 -0.34
-9.67 -4.87 -0.34
-9.67 -5.12 -0.35
-9.67 -5.37 -0.35
-9.68 -5.63 -0.36
-9.68 -5.89 -0.36
-9.68 -6.16 -0.37
-9.68 -6.44 -0.38
-9.68 -6.73 -0.38
-9.69 -7.02 -0.39
-9.69 -7.32 -0.40
-9.69 -7.63 -0.41
-9.69 -7.96 -0.42
-9.62 -8.23 -0.42
-9.70 -8.63 -0.43
-9.70 -8.99 -0.44
-9.70 -9.36 -0.46
-9.71 -9.75 -0.47
-9.71 -10.15 -0.48
-9.71 -10.57 -0.49
-9.72 -11.01 -0.51
-9.72 -11.47 -0.52
-9.72 -11.95 -0.54
-9.73 -12.46 -0.55
-9.73 -13.00 -0.57
-9.74 -13.56 -0.59
-9.74 -14.16 -0.61
-9.72 -14.75 -0.63
-9.69 -15.38 -0.65
-9.70 -16.09 -0.68
-9.71 -16.87 -0.71
-6.76 -41.64 -1.68
11.39 -46.42 -1.02
12.39 -46.43 -1.03
13.40 -46.43 -1.04
14.41 -46.44 -1.06
15.45 -46.48 -1.08
16.52 -46.52 -1.09
17.59 -46.57 -1.11
10.60 -14.17 -0.43
10.61 -13.60 -0.42
10.61 -13.06 -0.42
10.62 -12.54 -0.41
10.62 -12.05 -0.40
10.62 -11.57 -0.39
10.63 -11.12 -0.39
10.63 -10.68 -0.38
10.63 -10.27 -0.38
10.71 -9.94 -0.37
11.16 -9.94 -0.38
11.63 -9.95 -0.39
12.15 -9.98 -0.41
12.67 -9.99 -0.42
13.17 -9.96 -0.43
13.78 -10.00 -0.44
14.39 -10.00 -0.46
14.98 -9.97 -0.47
15.71 -10.01 -0.49
16.39 -9.98 -0.51
17.16 -9.99 -0.53
17.44 -9.68 -0.53
17.44 -9.23 -0.52
17.44 -8.79 -0.52
17.81 -8.53 -0.53
18.78 -8.54 -0.55
19.05 -8.20 -0.56
20.30 -8.26 -0.59
21.69 -8.32 -0.62
23.27 -8.40 -0.67
25.07 -8.48 -0.71
33.60 -10.62 -0.95
33.61 -9.89 -0.94
33.68 -9.17 -0.94
33.68 -8.45 -0.94
33.69 -7.74 -0.93
33.63 -7.02 -0.93
33.70 -6.33 -0.93
33.70 -5.63 -0.92
33.71 -4.94 -0.92
33.71 -4.25 -0.92
33.72 -3.57 -0.91
33.66 -2.88 -0.91
33.67 -2.20 -0.91
33.67 -1.52 -0.91
39.77 6.24 -1.06
35.33 6.27 -0.94
33.23 6.59 -0.89
33.23 7.29 -0.89
17.60 4.23 -0.47
16.20 4.24 -0.43
15.00 4.25 -0.40
13.96 4.26 -0.38
13.53 4.43 -0.37
13.54 4.73 -0.37
13.54 5.04 -0.37
13.27 5.25 -0.36
13.67 5.73 -0.37
13.68 6.05 -0.38
13.68 6.39 -0.38
13.68 6.72 -0.38
13.68 7.07 -0.38
6.71 3.64 -0.19
6.44 3.66 -0.18
6.93 4.13 -0.20
6.88 4.28 -0.20
6.77 4.41 -0.19
6.34 4.31 -0.18
6.26 4.44 -0.18
6.17 4.57 -0.18
5.48 4.23 -0.16
5.56 4.47 -0.17
5.45 4.57 -0.16
5.35 4.67 -0.16
5.24 4.77 -0.16
5.96 5.65 -0.19
5.98 5.89 -0.19
5.35 5.49 -0.17
12.36 13.20 -0.40
12.27 13.64 -0.40
12.27 14.21 -0.41
12.28 14.80 -0.42
12.40 15.58 -0.43
12.41 16.24 -0.43
12.29 16.78 -0.44
12.30 17.52 -0.45
12.30 18.30 -0.46
11.57 17.98 -0.44
12.32 20.00 -0.48
19.84 45.47 -0.94
11.20 27.14 -0.55
16.82 43.22 -0.86
16.00 43.69 -0.85
15.30 44.52 -0.85
14.54 45.25 -0.85
13.33 44.52 -0.82
12.53 45.14 -0.82
12.26 47.86 -0.86
11.43 48.65 -0.86
2.75 20.99 -0.34
3.13 44.63 -0.69
-9.22 47.71 -0.63
-9.31 43.47 -0.57
-9.33 39.67 -0.51
-9.36 36.49 -0.47
-9.38 33.75 -0.43
-5.91 19.71 -0.25
-9.41 29.26 -0.37
-9.43 27.40 -0.34
-9.44 25.75 -0.32
-9.45 24.26 -0.30
-9.46 22.92 -0.28
-9.47 21.69 -0.26
-9.48 20.58 -0.25
-9.49 19.55 -0.23
-9.49 18.60 -0.22
-9.50 17.73 -0.21
-9.51 16.92 -0.20
-9.51 16.16 -0.19
-9.52 15.45 -0.18
-9.52 14.78 -0.17
-9.53 14.16 -0.16
-9.53 13.57 -0.16
-9.54 13.01 -0.15
-9.54 12.48 -0.15
-9.54 11.98 -0.14
-9.55 11.51 -0.13
-9.55 11.05 -0.13
-9.55 10.62 -0.12
-9.56 10.20 -0.12
-9.56 9.80 -0.12
-9.56 9.42 -0.11
-9.57 9.05 -0.11
-9.57 8.70 -0.11
-9.57 8.35 -0.10
-9.57 8.02 -0.10
-9.55 7.68 -0.10
-9.58 7.39 -0.09
-9.58 7.09 -0.09
-9.58 6.80 -0.09
-9.58 6.52 -0.09
-9.59 6.24 -0.09
-9.59 5.97 -0.08
-9.59 5.71 -0.08
-6.47 3.68 -0.05
-9.59 5.20 -0.08
-9.60 4.96 -0.08
-9.60 4.72 -0.08
-9.60 4.48 -0.07
-9.60 4.25 -0.07
-9.60 4.02 -0.07
-9.53 3.77 -0.07
-9.61 3.58 -0.07
-9.61 3.36 -0.07
-9.61 3.14 -0.07
-9.61 2.93 -0.07
-9.61 2.72 -0.07
-9.61 2.52 -0.07
-9.62 2.31 -0.07
-9.62 2.11 -0.07
-9.62 1.91 -0.07
-9.62 1.71 -0.07
-9.62 1.51 -0.07
-9.62 1.31 -0.07
-9.63 1.12 -0.07
-9.63 0.92 -0.07
-9.63 0.73 -0.07
-9.63 0.53 -0.07
-9.63 0.34 -0.07
-9.63 0.15 -0.07
-9.63 -0.05 -0.07
-9.56 -0.24 -0.07
-9.64 -0.44 -0.07
-9.64 -0.63 -0.07
-9.64 -0.82 -0.07
-9.64 -1.02 -0.07
-9.64 -1.22 -0.07
-9.64 -1.41 -0.07
-9.65 -1.61 -0.07
-9.65 -1.81 -0.07
-9.65 -2.01 -0.08
-9.65 -2.22 -0.08
-9.65 -2.42 -0.08
-9.65 -2.63 -0.08
-9.65 -2.84 -0.08
-9.66 -3.05 -0.08
-9.66 -3.27 -0.08
-9.66 -3.48 -0.09
-9.66 -3.71 -0.09
-9.66 -3.93 -0.09
-9.65 -4.15 -0.09
-9.67 -4.39 -0.09
-9.67 -4.63 -0.10
-9.67 -4.87 -0.10
-9.67 -5.12 -0.10
-9.67 -5.37 -0.10
-9.68 -5.63 -0.11
-9.68 -5.89 -0.11
-9.68 -6.16 -0.11
-9.68 -6.44 -0.11
-9.68 -6.73 -0.12
-9.69 -7.02 -0.12
-9.69 -7.32 -0.12
-9.69 -7.64 -0.13
-9.69 -7.96 -0.13
-9.62 -8.23 -0.14
-9.70 -8.64 -0.14
-9.70 -9.00 -0.15
-9.70 -9.37 -0.15
-9.71 -9.75 -0.16
-9.71 -10.16 -0.16
-9.71 -10.58 -0.17
-9.72 -11.02 -0.17
-9.72 -11.48 -0.18
-9.72 -11.96 -0.19
-9.73 -12.47 -0.20
-9.73 -13.00 -0.21
-9.74 -13.57 -0.21
-9.74 -14.17 -0.22
-9.74 -14.80 -0.23
-9.75 -15.47 -0.24
-9.73 -16.16 -0.26
-9.76 -16.97 -0.27
-9.77 -17.79 -0.28
-9.77 -18.69 -0.30
-9.78 -19.65 -0.31
-9.79 -20.70 -0.33
-9.80 -21.84 -0.35
-9.81 -23.09 -0.37
-9.82 -24.47 -0.40
-9.83 -25.99 -0.43
-9.84 -27.70 -0.46
-9.86 -29.61 -0.49
-9.87 -31.77 -0.53
-9.89 -34.24 -0.58
-9.89 -37.02 -0.63
-9.88 -40.18 -0.68
-9.92 -44.17 -0.76
-6.75 -41.61 -0.73
-6.44 -45.50 -0.81
11.67 -47.49 0.06
12.64 -47.34 0.05
13.72 -47.52 0.04
14.76 -47.52 0.04
10.60 -14.17 -0.03
10.61 -13.60 -0.04
10.61 -13.05 -0.04
10.62 -12.54 -0.04
10.62 -12.04 -0.04
10.62 -11.57 -0.04
10.63 -11.12 -0.04
10.63 -10.68 -0.04
10.63 -10.26 -0.04
10.72 -9.94 -0.04
11.16 -9.94 -0.05
11.63 -9.95 -0.05
12.16 -9.98 -0.05
12.67 -9.99 -0.05
13.17 -9.96 -0.06
13.79 -10.00 -0.06
14.39 -10.00 -0.06
14.98 -9.97 -0.07
15.72 -10.01 -0.07
16.39 -9.98 -0.07
17.17 -9.99 -0.08
17.44 -9.68 -0.08
17.44 -9.23 -0.08
17.44 -8.79 -0.08
17.81 -8.53 -0.08
18.78 -8.54 -0.09
18.95 -8.16 -0.09
18.95 -7.71 -0.09
19.56 -7.51 -0.09
20.85 -7.52 -0.10
22.30 -7.55 -0.10
23.95 -7.57 -0.11
33.61 -9.88 -0.16
32.64 -8.89 -0.15
32.64 -8.19 -0.15
32.65 -7.50 -0.15
32.65 -6.81 -0.15
32.66 -6.13 -0.15
32.66 -5.46 -0.15
32.66 -4.79 -0.15
32.67 -4.12 -0.15
32.67 -3.46 -0.14
33.66 -2.88 -0.15
33.67 -2.20 -0.15
33.67 -1.52 -0.15
41.06 5.60 -0.16
35.73 5.60 -0.14
34.73 6.16 -0.13
33.23 6.59 -0.12
33.23 7.29 -0.12
17.61 4.23 -0.06
16.21 4.24 -0.06
15.01 4.25 -0.05
13.96 4.26 -0.05
13.53 4.43 -0.04
13.54 4.73 -0.04
13.54 5.04 -0.04
13.27 5.24 -0.04
13.67 5.72 -0.04
13.68 6.05 -0.04
13.68 6.38 -0.04
13.68 6.72 -0.04
13.68 7.07 -0.03
7.17 3.89 -0.02
7.19 4.09 -0.02
5.88 3.50 -0.01
5.90 3.67 -0.01
5.89 3.83 -0.01
13.70 9.32 -0.02
13.70 9.73 -0.02
13.58 10.05 -0.02
13.30 10.27 -0.02
13.58 10.93 -0.01
5.70 4.78 -0.00
6.43 5.61 -0.00
5.73 5.21 -0.00
5.55 5.25 -0.00
11.44 11.27 0.00
5.15 5.28 0.00
5.18 5.53 0.00
12.27 13.63 0.01
12.27 14.20 0.01
12.28 14.80 0.02
12.40 15.57 0.02
12.41 16.24 0.03
12.29 16.78 0.03
12.30 17.51 0.04
12.30 18.29 0.04
11.57 17.97 0.04
12.32 20.00 0.05
19.86 45.49 0.18
11.20 27.14 0.11
16.83 43.21 0.18
16.11 43.95 0.20
15.37 44.69 0.21
14.62 45.46 0.22
13.82 46.12 0.23
13.07 47.03 0.24
12.27 47.85 0.26
2.76 20.99 0.14
3.14 44.63 0.31
-9.21 47.73 0.46
-9.31 43.52 0.43
-9.32 39.67 0.40
-9.36 36.52 0.38
-9.38 33.77 0.36
-5.91 19.73 0.22
-9.41 29.28 0.33
-9.43 27.42 0.31
-9.44 25.76 0.30
-9.45 24.27 0.29
-9.46 22.93 0.28
-9.47 21.70 0.27
-9.48 20.59 0.26
-9.49 19.56 0.26
-9.49 18.61 0.25
-9.50 17.74 0.24
-9.51 16.92 0.24
-9.51 16.16 0.23
-9.52 15.46 0.23
-9.52 14.79 0.22
-9.53 14.16 0.22
-9.53 13.57 0.22
-9.54 13.02 0.21
-9.54 12.49 0.21
-9.54 11.99 0.21
-9.55 11.51 0.20
-9.55 11.05 0.20
-9.55 10.62 0.20
-9.56 10.20 0.19
-9.56 9.80 0.19
-9.56 9.42 0.19
-9.57 9.05 0.19
-9.57 8.70 0.19
-9.57 8.36 0.18
-9.57 8.02 0.18
-9.55 7.68 0.18
-9.58 7.39 0.18
-9.58 7.09 0.18
-9.58 6.80 0.17
-9.58 6.52 0.17
-9.59 6.24 0.17
-9.59 5.97 0.17
-9.59 5.71 0.17
-6.47 3.68 0.11
-9.59 5.20 0.17
-9.60 4.96 0.17
-9.60 4.72 0.16
-9.60 4.48 0.16
-9.60 4.25 0.16
-9.60 4.02 0.16
-9.53 3.77 0.16
-9.61 3.58 0.16
-9.61 3.36 0.16
-9.61 3.14 0.16
-9.61 2.93 0.16
-9.61 2.72 0.16
-9.61 2.52 0.16
-9.62 2.31 0.16
-9.62 2.11 0.15
-9.62 1.91 0.15
-9.62 1.71 0.15
-9.62 1.51 0.15
-9.62 1.31 0.15
-9.63 1.12 0.15
-9.63 0.92 0.15
-9.63 0.73 0.15
-9.63 0.53 0.15
-9.63 0.34 0.15
-9.63 0.14 0.15
-9.63 -0.05 0.15
-9.56 -0.24 0.15
-9.64 -0.44 0.15
-9.64 -0.63 0.15
-9.64 -0.82 0.15
-9.64 -1.02 0.15
-9.64 -1.22 0.15
-9.64 -1.41 0.15
-9.65 -1.61 0.15
-9.65 -1.81 0.15
-9.65 -2.01 0.15
-9.65 -2.22 0.15
-9.65 -2.42 0.15
-9.65 -2.63 0.15
-9.65 -2.84 0.15
-9.66 -3.05 0.15
-9.66 -3.27 0.15
-9.66 -3.49 0.15
-9.66 -3.71 0.15
-9.66 -3.93 0.15
-9.65 -4.15 0.15
-9.67 -4.39 0.15
-9.67 -4.63 0.15
-9.67 -4.87 0.15
-9.67 -5.12 0.15
-9.67 -5.37 0.15
-9.68 -5.63 0.15
-9.68 -5.89 0.15
-9.68 -6.17 0.15
-9.68 -6.44 0.15
-9.68 -6.73 0.15
-9.69 -7.02 0.15
-9.69 -7.33 0.15
-9.69 -7.64 0.15
-9.69 -7.96 0.15
-9.62 -8.23 0.15
-9.70 -8.64 0.15
-9.70 -9.00 0.15
-9.70 -9.37 0.15
-9.71 -9.76 0.15
-9.71 -10.16 0.15
-9.71 -10.58 0.15
-9.72 -11.02 0.16
-9.72 -11.48 0.16
-9.72 -11.96 0.16
-9.73 -12.47 0.16
-9.73 -13.01 0.16
-9.74 -13.57 0.16
-9.74 -14.17 0.16
-9.74 -14.81 0.17
-9.75 -15.48 0.17
-9.73 -16.16 0.17
-9.76 -16.97 0.17
-9.77 -17.80 0.17
-9.77 -18.70 0.18
-9.78 -19.66 0.18
-9.79 -20.71 0.18
-9.80 -21.85 0.19
-9.81 -23.10 0.19
-9.82 -24.48 0.19
-9.83 -26.01 0.20
-9.84 -27.72 0.21
-9.86 -29.63 0.21
-9.87 -31.80 0.22
-9.89 -34.27 0.23
-9.91 -37.13 0.24
-9.87 -40.20 0.25
-9.91 -44.17 0.26
-6.73 -41.59 0.22
-6.43 -45.48 0.23
7.02 -38.39 0.95
5.86 -23.81 0.58
6.30 -23.58 0.58
7.16 -24.76 0.60
6.77 -21.79 0.53
8.85 -24.90 0.61
9.35 -24.72 0.60
9.90 -24.67 0.60
11.27 -25.12 0.61
11.69 -24.71 0.60
12.27 -24.64 0.60
10.60 -14.17 0.36
10.61 -13.59 0.35
10.61 -13.05 0.34
10.62 -12.53 0.33
10.62 -12.04 0.32
10.62 -11.57 0.31
10.63 -11.11 0.31
10.63 -10.68 0.30
10.63 -10.26 0.29
10.72 -9.94 0.29
11.16 -9.94 0.29
11.63 -9.95 0.30
12.16 -9.98 0.30
12.67 -9.99 0.31
13.17 -9.96 0.31
13.79 -10.00 0.32
14.39 -10.00 0.33
14.99 -9.97 0.34
15.72 -10.01 0.35
16.39 -9.98 0.36
17.17 -9.99 0.37
17.44 -9.68 0.37
17.44 -9.23 0.36
17.44 -8.79 0.36
17.81 -8.53 0.36
18.78 -8.54 0.38
19.85 -8.54 0.39
21.02 -8.55 0.41
22.32 -8.56 0.43
23.76 -8.57 0.46
25.38 -8.59 0.49
27.54 -8.70 0.52
26.76 -7.87 0.50
26.69 -7.27 0.50
27.16 -6.82 0.51
26.69 -6.13 0.49
26.66 -5.57 0.49
33.64 -6.32 0.62
26.87 -4.49 0.49
26.49 -3.88 0.48
26.25 -3.31 0.48
26.29 -2.78 0.48
26.41 -2.26 0.48
23.94 -1.56 0.44
23.82 -1.08 0.43
25.51 -0.64 0.47
26.25 -0.13 0.48
26.63 0.40 0.49
26.70 0.94 0.49
26.22 1.45 0.48
26.17 1.97 0.48
26.31 2.51 0.49
26.35 3.05 0.49
26.13 3.56 0.49
26.34 4.13 0.50
26.28 4.66 0.50
26.21 5.19 0.50
26.17 5.73 0.51
17.61 4.23 0.34
16.22 4.24 0.32
15.01 4.25 0.30
13.97 4.26 0.28
13.53 4.43 0.28
13.54 4.73 0.28
13.54 5.04 0.28
13.27 5.24 0.28
13.67 5.72 0.29
13.68 6.05 0.30
13.68 6.38 0.30
13.68 6.72 0.31
13.68 7.07 0.31
13.69 7.42 0.32
13.69 7.78 0.32
5.76 3.43 0.14
5.75 3.58 0.14
5.73 3.73 0.14
5.76 3.92 0.15
5.83 4.14 0.15
6.37 4.72 0.17
13.30 10.27 0.36
13.58 10.92 0.38
6.05 5.07 0.17
12.68 11.07 0.37
12.30 11.17 0.37
12.25 11.59 0.38
11.43 11.26 0.36
5.03 5.16 0.16
5.06 5.40 0.17
5.09 5.65 0.18
12.27 14.20 0.44
12.28 14.79 0.45
12.40 15.57 0.47
12.41 16.23 0.49
12.29 16.77 0.50
12.30 17.50 0.52
12.30 18.28 0.54
11.57 17.96 0.52
12.32 19.99 0.58
13.43 22.80 0.66
13.35 23.75 0.68
21.28 39.70 1.14
11.57 22.67 0.65
7.29 15.02 0.43
6.97 15.12 0.43
6.93 15.87 0.45
6.95 16.82 0.48
6.85 17.57 0.50
6.90 18.80 0.53
6.75 19.60 0.56
7.01 21.78 0.62
13.83 46.11 1.31
13.06 46.95 1.34
12.28 47.84 1.37
2.76 20.99 0.61
3.15 44.63 1.32
-6.73 44.43 1.42
-9.20 47.75 1.56
-9.31 43.56 1.44
-9.31 39.67 1.32
-9.36 36.55 1.23
-9.38 33.80 1.15
-9.40 31.40 1.08
-9.41 29.30 1.02
-9.43 27.44 0.97
-9.44 25.78 0.92
-7.61 19.55 0.71
-9.46 22.94 0.84
-9.47 21.72 0.81
-9.48 20.60 0.77
-9.49 19.57 0.75
-9.49 18.62 0.72
-9.50 17.74 0.70
-9.51 16.93 0.68
-9.51 16.17 0.66
-9.52 15.46 0.64
-9.52 14.80 0.62
-9.53 14.17 0.60
-9.53 13.58 0.59
-9.54 13.02 0.58
-9.54 12.49 0.56
-9.54 11.99 0.55
-9.55 11.51 0.54
-9.55 11.06 0.53
-9.55 10.62 0.52
-9.56 10.21 0.51
-9.56 9.81 0.50
-9.56 9.42 0.49
-9.57 9.05 0.48
-9.57 8.70 0.48
-9.57 8.36 0.47
-9.57 8.03 0.46
-9.54 7.68 0.46
-9.58 7.40 0.45
-9.58 7.10 0.45
-9.58 6.80 0.44
-9.58 6.52 0.43
-9.59 6.24 0.43
-9.59 5.97 0.43
-9.59 5.71 0.42
-6.47 3.68 0.28
-9.59 5.20 0.41
-9.60 4.96 0.41
-9.60 4.72 0.41
-9.60 4.48 0.40
-9.60 4.25 0.40
-9.60 4.02 0.40
-9.53 3.77 0.39
-9.61 3.58 0.39
-9.61 3.36 0.39
-9.61 3.14 0.39
-9.61 2.93 0.38
-9.61 2.72 0.38
-9.61 2.52 0.38
-9.62 2.31 0.38
-9.62 2.11 0.38
-9.62 1.91 0.38
-9.62 1.71 0.37
-9.62 1.51 0.37
-9.62 1.31 0.37
-9.63 1.12 0.37
-9.63 0.92 0.37
-9.63 0.73 0.37
-9.63 0.53 0.37
-9.63 0.34 0.37
-9.63 0.14 0.37
-9.63 -0.05 0.37
-9.56 -0.24 0.36
-9.64 -0.44 0.37
-9.64 -0.63 0.37
-9.64 -0.83 0.37
-9.64 -1.02 0.37
-9.64 -1.22 0.37
-9.64 -1.41 0.37
-9.65 -1.61 0.37
-9.65 -1.81 0.37
-9.65 -2.02 0.37
-9.65 -2.22 0.37
-9.65 -2.42 0.37
-9.65 -2.63 0.37
-9.65 -2.84 0.37
-9.66 -3.05 0.37
-9.66 -3.27 0.38
-9.66 -3.49 0.38
-9.66 -3.71 0.38
-9.66 -3.93 0.38
-9.64 -4.15 0.38
-9.67 -4.40 0.39
-9.67 -4.63 0.39
-9.67 -4.87 0.39
-9.67 -5.12 0.39
-9.67 -5.37 0.40
-9.68 -5.63 0.40
-9.68 -5.90 0.40
-9.68 -6.17 0.41
-9.68 -6.45 0.41
-9.68 -6.73 0.41
-9.69 -7.03 0.42
-9.69 -7.33 0.42
-9.69 -7.64 0.43
-9.69 -7.96 0.43
-9.62 -8.24 0.43
-9.70 -8.64 0.44
-9.70 -9.00 0.45
-9.70 -9.37 0.46
-9.71 -9.76 0.46
-9.71 -10.16 0.47
-9.71 -10.58 0.48
-9.72 -11.02 0.49
-9.72 -11.49 0.50
-9.72 -11.97 0.51
-9.73 -12.48 0.52
-9.73 -13.01 0.53
-9.74 -13.58 0.54
-9.74 -14.18 0.55
-9.74 -14.81 0.56
-9.75 -15.49 0.58
-9.72 -16.16 0.59
-9.76 -16.98 0.61
-9.77 -17.81 0.63
-9.77 -18.71 0.65
-9.78 -19.67 0.67
-9.79 -20.72 0.70
-9.80 -21.87 0.73
-9.81 -23.12 0.76
-9.82 -24.50 0.79
-9.83 -26.03 0.83
-9.84 -27.74 0.87
-9.86 -29.65 0.92
-9.87 -31.82 0.97
-9.89 -34.30 1.03
-9.91 -37.16 1.10
-9.87 -40.22 1.18
-9.91 -44.19 1.28
-6.72 -41.59 1.17
-6.42 -45.47 1.26
2.02 -49.76 2.40
2.95 -48.49 2.33
3.98 -49.14 2.36
7.02 -38.33 1.83
5.81 -23.62 1.13
5.45 -20.37 0.97
5.31 -18.38 0.88
5.66 -18.19 0.87
5.44 -16.32 0.78
5.70 -16.03 0.77
6.05 -15.99 0.77
5.78 -14.39 0.70
5.97 -14.05 0.69
5.65 -12.59 0.62
5.83 -12.31 0.61
6.07 -12.19 0.61
6.35 -12.13 0.61
6.67 -12.15 0.61
6.57 -10.42 0.54
6.70 -10.17 0.53
10.60 -14.16 0.76
10.61 -13.59 0.74
10.61 -13.05 0.72
10.62 -12.53 0.70
10.62 -12.04 0.68
10.62 -11.56 0.67
10.63 -11.11 0.65
10.63 -10.68 0.64
10.63 -10.26 0.62
10.72 -9.94 0.61
11.17 -9.94 0.63
11.63 -9.95 0.64
12.16 -9.98 0.66
12.68 -9.99 0.67
13.18 -9.96 0.69
13.79 -10.00 0.71
14.40 -10.00 0.73
14.99 -9.97 0.74
15.72 -10.01 0.77
16.40 -9.98 0.79
17.17 -9.99 0.82
17.44 -9.68 0.82
17.44 -9.23 0.81
17.44 -8.79 0.80
17.81 -8.53 0.81
18.79 -8.54 0.84
19.85 -8.54 0.88
21.03 -8.55 0.93
22.32 -8.56 0.97
23.77 -8.57 1.03
25.38 -8.59 1.09
27.44 -8.67 1.17
26.71 -7.85 1.13
26.65 -7.26 1.12
26.96 -6.76 1.13
26.65 -6.12 1.11
9.68 -2.02 0.40
11.72 -2.20 0.48
11.19 -1.87 0.46
10.72 -1.57 0.44
11.30 -1.43 0.46
12.04 -1.27 0.49
13.97 -1.19 0.57
18.14 -1.19 0.74
19.31 -0.87 0.79
22.32 -0.56 0.91
26.20 -0.13 1.07
26.33 0.39 1.08
26.20 0.92 1.07
26.13 1.44 1.07
26.11 1.97 1.07
26.27 2.51 1.08
26.18 3.03 1.08
26.13 3.56 1.09
26.10 4.09 1.09
26.28 4.66 1.10
26.16 5.18 1.10
26.13 5.72 1.11
17.62 4.23 0.75
16.22 4.24 0.70
15.02 4.25 0.65
13.97 4.26 0.61
13.53 4.42 0.60
13.54 4.73 0.60
13.54 5.04 0.61
13.26 5.24 0.60
13.67 5.72 0.63
13.68 6.05 0.64
13.68 6.38 0.64
13.68 6.72 0.65
13.68 7.06 0.66
13.69 7.42 0.67
13.69 7.78 0.68
13.69 8.15 0.69
13.70 8.52 0.70
13.70 8.91 0.71
13.70 9.31 0.72
13.70 9.72 0.74
13.58 10.04 0.74
13.30 10.26 0.74
5.88 4.73 0.33
13.21 11.06 0.77
12.69 11.07 0.75
12.30 11.17 0.74
12.25 11.59 0.76
11.43 11.25 0.72
12.34 12.65 0.80
4.98 5.31 0.33
5.00 5.55 0.34
5.02 5.81 0.35
12.28 14.79 0.88
12.40 15.56 0.92
12.41 16.22 0.95
12.29 16.76 0.97
12.30 17.49 1.00
7.44 11.04 0.62
7.13 11.06 0.62
6.90 11.19 0.62
6.95 11.80 0.65
7.29 12.96 0.71
6.98 13.01 0.71
6.89 13.49 0.73
7.27 14.97 0.80
6.97 15.11 0.81
6.91 15.80 0.84
6.93 16.76 0.89
6.73 17.25 0.91
6.89 18.76 0.98
6.72 19.50 1.02
6.96 21.62 1.13
13.03 43.42 2.26
12.09 43.43 2.26
11.13 43.32 2.25
10.21 43.34 2.25
9.61 44.81 2.32
8.99 46.46 2.41
8.03 46.44 2.41
7.06 46.41 2.41
2.77 21.00 1.09
5.12 45.98 2.39
4.18 45.90 2.39
3.16 44.63 2.33
2.42 47.65 2.49
1.45 47.50 2.49
0.50 47.34 2.49
-0.45 47.16 2.49
-1.39 46.97 2.49
-2.33 46.76 2.49
-3.25 46.53 2.49
-4.17 46.29 2.49
-5.08 46.03 2.49
-5.73 43.86 2.39
-5.59 36.94 2.03
-5.62 32.70 1.81
-8.28 42.99 2.39
-9.11 42.67 2.39
-9.31 39.68 2.24
-9.36 36.58 2.08
-9.38 33.82 1.94
-9.40 31.42 1.82
-9.41 29.32 1.72
-9.43 27.46 1.62
-7.25 19.80 1.18
-7.56 19.44 1.17
-9.46 22.95 1.40
-9.47 21.73 1.34
-9.48 20.61 1.29
-9.49 19.58 1.24
-9.49 18.63 1.19
-9.50 17.75 1.15
-9.51 16.94 1.11
-9.51 16.18 1.08
-9.52 15.47 1.05
-9.52 14.80 1.02
-9.53 14.17 0.99
-9.53 13.58 0.96
-9.54 13.02 0.94
-9.54 12.50 0.92
-9.54 11.99 0.90
-9.55 11.52 0.88
-9.55 11.06 0.86
-9.55 10.62 0.84
-9.56 10.21 0.83
-9.56 9.81 0.81
-9.56 9.43 0.80
-9.57 9.06 0.78
-9.57 8.70 0.77
-9.57 8.36 0.76
-9.57 8.03 0.75
-9.54 7.68 0.73
-9.58 7.40 0.72
-9.58 7.10 0.71
-9.58 6.80 0.71
-9.58 6.52 0.70
-9.59 6.24 0.69
-9.59 5.97 0.68
-9.59 5.71 0.67
-6.47 3.68 0.45
-9.59 5.20 0.66
-9.60 4.96 0.65
-9.60 4.72 0.65
-9.60 4.48 0.64
-9.60 4.25 0.64
-9.60 4.02 0.63
-9.53 3.77 0.62
-9.61 3.58 0.62
-9.61 3.36 0.62
-9.61 3.14 0.61
-9.61 2.93 0.61
-9.61 2.72 0.61
-9.61 2.52 0.60
-9.62 2.31 0.60
-9.62 2.11 0.60
-9.62 1.91 0.60
-9.62 1.71 0.59
-9.62 1.51 0.59
-9.62 1.31 0.59
-9.63 1.12 0.59
-9.63 0.92 0.59
-9.63 0.73 0.59
-9.63 0.53 0.59
-9.63 0.34 0.58
-9.63 0.14 0.58
-9.63 -0.05 0.58
-9.56 -0.24 0.58
-9.64 -0.44 0.58
-9.64 -0.63 0.58
-9.64 -0.83 0.58
-9.64 -1.02 0.59
-9.64 -1.22 0.59
-9.64 -1.42 0.59
-9.65 -1.61 0.59
-9.65 -1.81 0.59
-9.65 -2.02 0.59
-9.65 -2.22 0.59
-9.65 -2.43 0.60
-9.65 -2.63 0.60
-9.65 -2.84 0.60
-9.66 -3.06 0.60
-9.66 -3.27 0.61
-9.66 -3.49 0.61
-9.66 -3.71 0.61
-9.66 -3.94 0.62
-9.64 -4.16 0.62
-9.67 -4.40 0.63
-9.67 -4.63 0.63
-9.67 -4.88 0.63
-9.67 -5.12 0.64
-9.67 -5.38 0.65
-9.68 -5.63 0.65
-9.68 -5.90 0.66
-9.68 -6.17 0.67
-9.68 -6.45 0.67
-9.68 -6.73 0.68
-9.69 -7.03 0.69
-9.69 -7.33 0.70
-9.69 -7.64 0.71
-9.69 -7.97 0.72
-9.62 -8.24 0.72
-9.70 -8.65 0.74
-9.70 -9.01 0.75
-9.70 -9.38 0.76
-9.71 -9.76 0.77
-9.71 -10.17 0.79
-9.71 -10.59 0.80
-9.72 -11.03 0.82
-9.72 -11.49 0.84
-9.72 -11.97 0.85
-9.73 -12.48 0.87
-9.73 -13.02 0.89
-9.74 -13.59 0.92
-9.74 -14.18 0.94
-9.74 -14.82 0.97
-9.75 -15.50 0.99
-9.72 -16.16 1.02
-9.76 -16.99 1.06
-9.77 -17.82 1.09
-9.77 -18.72 1.13
-9.78 -19.68 1.17
-9.79 -20.73 1.22
-9.80 -21.88 1.27
-9.81 -23.13 1.32
-9.82 -24.52 1.39
-9.83 -26.05 1.46
-9.84 -27.76 1.53
-9.86 -29.68 1.62
-9.87 -31.85 1.72
-9.89 -34.33 1.84
-9.91 -37.20 1.97
-9.86 -40.24 2.12
-9.90 -44.21 2.30
-9.39 -46.26 2.39
-6.37 -34.98 1.79
-6.17 -38.24 1.95
-6.41 -45.46 2.30
0.03 -35.01 2.49
0.73 -35.10 2.49
1.44 -35.18 2.49
2.15 -35.24 2.49
2.86 -35.29 2.49
3.58 -35.32 2.49
4.30 -35.34 2.49
5.02 -35.34 2.49
4.40 -27.05 1.91
4.98 -27.17 1.92
7.20 -35.26 2.49
7.93 -35.20 2.49
5.81 -23.60 1.68
5.45 -20.34 1.45
5.31 -18.34 1.31
5.65 -18.14 1.30
5.37 -16.10 1.16
5.70 -16.00 1.16
6.05 -15.97 1.16
5.66 -14.08 1.03
5.40 -12.71 0.93
5.54 -12.33 0.91
5.76 -12.17 0.91
6.05 -12.14 0.91
6.34 -12.11 0.91
5.67 -10.33 0.79
5.87 -10.20 0.78
6.13 -10.17 0.79
6.38 -10.12 0.79
5.68 -8.62 0.68
5.71 -8.30 0.66
5.95 -8.29 0.67
6.14 -8.19 0.67
5.30 -6.78 0.56
5.41 -6.65 0.56
5.53 -6.53 0.56
6.06 -6.86 0.60
6.12 -6.66 0.59
6.07 -6.35 0.57
6.34 -6.37 0.58
6.62 -6.38 0.60
10.73 -9.94 0.95
11.17 -9.94 0.97
11.64 -9.95 0.99
12.16 -9.98 1.01
12.68 -9.99 1.04
13.18 -9.96 1.06
13.79 -10.00 1.09
14.32 -9.95 1.12
14.99 -9.97 1.15
15.67 -9.98 1.19
16.40 -9.98 1.22
17.18 -9.99 1.27
17.44 -9.68 1.27
17.44 -9.23 1.25
17.44 -8.78 1.24
17.82 -8.53 1.25
18.79 -8.54 1.31
19.86 -8.54 1.37
21.03 -8.55 1.44
22.32 -8.56 1.51
23.77 -8.57 1.60
25.39 -8.59 1.70
6.29 -1.99 0.42
6.33 -1.86 0.42
6.99 -1.90 0.46
6.98 -1.75 0.45
6.91 -1.59 0.45
7.16 -1.49 0.46
7.72 -1.45 0.50
9.09 -1.52 0.58
9.27 -1.36 0.59
10.91 -1.38 0.70
11.77 -1.25 0.75
14.52 -1.24 0.92
17.94 -1.17 1.14
19.04 -0.86 1.21
23.94 -0.60 1.52
26.21 -0.13 1.66
26.30 0.39 1.67
26.17 0.92 1.66
26.12 1.44 1.66
26.12 1.97 1.67
26.27 2.51 1.68
26.15 3.03 1.68
26.12 3.56 1.68
26.19 4.10 1.69
26.27 4.65 1.70
26.13 5.17 1.70
26.13 5.72 1.71
17.63 4.23 1.16
16.23 4.24 1.08
15.03 4.25 1.00
13.98 4.26 0.94
13.53 4.42 0.92
13.54 4.73 0.93
13.54 5.03 0.94
13.26 5.24 0.92
13.67 5.72 0.96
13.68 6.04 0.97
13.68 6.38 0.98
13.68 6.71 1.00
13.68 7.06 1.01
13.69 7.41 1.02
11.24 6.38 0.85
10.81 6.43 0.83
10.40 6.47 0.81
10.23 6.66 0.81
10.22 6.94 0.82
10.24 7.26 0.83
10.26 7.59 0.85
6.13 4.73 0.52
5.99 4.82 0.51
13.22 11.06 1.16
12.69 11.07 1.13
12.30 11.17 1.12
12.25 11.58 1.14
11.33 11.15 1.08
12.26 12.56 1.19
12.26 13.08 1.22
4.95 5.49 0.50
11.56 13.36 1.21
11.39 13.72 1.22
12.40 15.55 1.37
12.41 16.22 1.41
12.29 16.75 1.44
7.73 11.00 0.93
7.41 10.99 0.92
7.05 10.93 0.91
6.87 11.14 0.91
6.81 11.55 0.94
6.88 12.23 0.99
4.60 8.57 0.69
4.45 8.70 0.69
6.90 14.20 1.12
6.94 15.04 1.18
6.85 15.67 1.22
6.93 16.76 1.30
6.74 17.27 1.33
6.85 18.66 1.43
6.72 19.51 1.49
6.99 21.69 1.65
9.90 32.97 2.49
9.21 33.07 2.49
8.52 33.15 2.49
7.83 33.22 2.49
5.41 25.19 1.89
4.85 25.03 1.87
5.77 33.36 2.49
5.09 33.37 2.49
2.77 20.97 1.57
3.72 33.37 2.49
3.04 33.35 2.49
2.37 33.31 2.49
1.69 33.26 2.49
1.02 33.20 2.49
0.36 33.12 2.49
-0.31 33.04 2.49
-0.97 32.94 2.49
-1.63 32.83 2.49
-2.28 32.70 2.49
-2.93 32.57 2.49
-3.57 32.42 2.49
-4.21 32.26 2.49
-4.84 32.09 2.49
-5.47 31.90 2.49
-5.81 30.23 2.38
-6.44 30.20 2.39
-5.71 24.35 1.94
-5.70 22.28 1.79
-8.19 29.55 2.39
-8.76 29.31 2.39
-9.33 29.06 2.39
-7.25 19.81 1.66
-7.56 19.45 1.65
-9.46 22.96 1.96
-9.47 21.74 1.88
-9.48 20.62 1.80
-9.49 19.59 1.73
-9.49 18.64 1.67
-9.50 17.76 1.61
-9.51 16.94 1.55
-9.51 16.18 1.50
-9.52 15.47 1.46
-9.52 14.81 1.42
-9.53 14.18 1.38
-9.53 13.59 1.34
-9.54 13.03 1.31
-9.54 12.50 1.27
-9.54 12.00 1.24
-9.55 11.52 1.22
-9.55 11.06 1.19
-9.55 10.63 1.16
-9.56 10.21 1.14
-9.56 9.81 1.12
-9.56 9.43 1.10
-9.57 9.06 1.08
-9.57 8.70 1.06
-9.57 8.36 1.04
-9.57 8.03 1.03
-9.54 7.68 1.01
-9.58 7.40 1.00
-9.58 7.10 0.98
-9.58 6.81 0.97
-9.58 6.52 0.96
-9.59 6.25 0.95
-9.59 5.98 0.94
-9.59 5.71 0.93
-6.47 3.68 0.62
-9.59 5.20 0.91
-9.60 4.96 0.90
-9.60 4.72 0.89
-9.60 4.48 0.88
-9.60 4.25 0.87
-9.60 4.02 0.87
-9.53 3.77 0.85
-9.61 3.58 0.85
-9.61 3.36 0.85
-9.61 3.14 0.84
-9.61 2.93 0.84
-9.61 2.72 0.83
-9.61 2.52 0.83
-9.62 2.31 0.83
-9.62 2.11 0.82
-9.62 1.91 0.82
-9.62 1.71 0.82
-9.62 1.51 0.81
-9.62 1.31 0.81
-9.63 1.12 0.81
-9.63 0.92 0.81
-9.63 0.73 0.81
-9.63 0.53 0.80
-9.63 0.34 0.80
-9.63 0.14 0.80
-9.63 -0.05 0.80
-9.56 -0.24 0.80
-9.64 -0.44 0.80
-9.64 -0.63 0.80
-9.64 -0.83 0.80
-9.64 -1.02 0.80
-9.64 -1.22 0.81
-9.64 -1.42 0.81
-9.65 -1.62 0.81
-9.65 -1.82 0.81
-9.65 -2.02 0.81
-9.65 -2.22 0.82
-9.65 -2.43 0.82
-9.65 -2.63 0.82
-9.65 -2.84 0.83
-9.66 -3.06 0.83
-9.66 -3.27 0.84
-9.66 -3.49 0.84
-9.66 -3.71 0.85
-9.66 -3.94 0.85
-9.64 -4.16 0.86
-9.67 -4.40 0.87
-9.67 -4.64 0.87
-9.67 -4.88 0.88
-9.67 -5.13 0.89
-9.67 -5.38 0.90
-9.68 -5.64 0.91
-9.68 -5.90 0.92
-9.68 -6.17 0.93
-9.68 -6.45 0.94
-9.68 -6.74 0.95
-9.69 -7.03 0.96
-9.69 -7.33 0.97
-9.69 -7.65 0.99
-9.69 -7.97 1.00
-9.62 -8.24 1.01
-9.70 -8.65 1.03
-9.70 -9.01 1.05
-9.70 -9.38 1.07
-9.71 -9.77 1.09
-9.71 -10.17 1.11
-9.71 -10.59 1.13
-9.72 -11.03 1.15
-9.72 -11.50 1.18
-9.72 -11.98 1.20
-9.73 -12.49 1.23
-9.73 -13.02 1.26
-9.74 -13.59 1.29
-9.74 -14.19 1.33
-9.74 -14.83 1.37
-9.75 -15.50 1.41
-9.72 -16.16 1.45
-9.76 -17.00 1.50
-9.77 -17.83 1.55
-9.77 -18.73 1.61
-9.78 -19.69 1.67
-9.79 -20.75 1.74
-9.80 -21.89 1.81
-9.81 -23.15 1.89
-9.82 -24.53 1.98
-9.83 -26.07 2.09
-9.78 -27.61 2.19
-9.52 -30.75 2.39
-8.93 -31.02 2.39
-8.33 -31.28 2.39
-6.36 -25.97 1.97
-6.07 -27.12 2.04
-6.48 -31.99 2.39
-6.07 -33.39 2.48
-5.45 -33.80 2.49
-4.78 -34.00 2.49
-4.11 -34.18 2.49
-3.43 -34.35 2.49
-2.75 -34.51 2.49
-2.06 -34.66 2.49
-1.37 -34.79 2.49
-0.68 -34.91 2.49
0.03 -26.56 2.49
0.56 -26.61 2.49
1.10 -26.65 2.49
1.63 -26.68 2.49
2.17 -26.70 2.49
2.61 -25.65 2.40
3.12 -25.59 2.39
3.64 -25.58 2.39
4.16 -25.55 2.39
4.68 -25.52 2.39
5.21 -25.47 2.39
5.73 -25.41 2.39
5.82 -23.59 2.23
5.44 -20.31 1.92
5.31 -18.33 1.74
5.65 -18.12 1.73
5.37 -16.09 1.54
5.69 -15.97 1.54
5.55 -14.64 1.42
5.64 -14.04 1.37
5.38 -12.65 1.24
5.48 -12.19 1.20
5.75 -12.14 1.21
6.04 -12.12 1.22
5.49 -10.49 1.06
5.61 -10.20 1.04
5.83 -10.12 1.04
6.11 -10.14 1.05
5.54 -8.78 0.92
5.58 -8.47 0.90
5.71 -8.29 0.89
5.95 -8.28 0.90
5.12 -6.83 0.75
5.17 -6.61 0.74
5.22 -6.41 0.73
5.44 -6.41 0.74
5.65 -6.40 0.75
5.88 -6.40 0.76
6.06 -6.34 0.77
6.33 -6.35 0.78
6.60 -6.36 0.80
10.54 -9.77 1.25
10.83 -9.64 1.26
11.64 -9.95 1.33
12.13 -9.95 1.36
12.64 -9.95 1.40
5.81 -4.39 0.63
5.84 -4.23 0.63
5.95 -4.13 0.63
5.97 -3.97 0.62
6.04 -3.84 0.62
6.21 -3.78 0.63
6.42 -3.73 0.64
6.55 -3.63 0.65
17.44 -9.22 1.70
17.44 -8.78 1.68
17.82 -8.53 1.70
18.79 -8.54 1.78
19.86 -8.54 1.86
21.03 -8.55 1.95
22.33 -8.56 2.06
6.30 -2.27 0.58
6.31 -2.13 0.57
6.29 -1.99 0.57
6.30 -1.85 0.56
6.36 -1.73 0.57
6.40 -1.61 0.57
6.56 -1.51 0.58
6.89 -1.44 0.60
7.71 -1.45 0.67
8.82 -1.48 0.77
9.28 -1.36 0.81
10.20 -1.29 0.88
11.90 -1.26 1.03
14.47 -1.24 1.25
18.11 -1.19 1.56
19.01 -0.86 1.64
23.54 -0.59 2.03
26.07 -0.14 2.24
26.05 0.39 2.24
26.03 0.91 2.24
25.99 1.43 2.24
25.95 1.95 2.24
25.91 2.47 2.25
25.86 2.99 2.25
25.80 3.51 2.25
25.71 4.02 2.25
25.60 4.54 2.25
25.48 5.04 2.25
25.35 5.55 2.25
17.64 4.23 1.57
16.24 4.24 1.46
15.03 4.25 1.36
13.98 4.26 1.27
13.53 4.42 1.24
13.54 4.72 1.25
13.54 5.03 1.26
13.26 5.23 1.25
13.67 5.72 1.30
13.68 6.04 1.31
13.68 6.37 1.33
13.68 6.71 1.34
13.68 7.06 1.36
11.32 6.13 1.14
10.92 6.20 1.11
10.50 6.24 1.08
10.12 6.30 1.06
10.09 6.56 1.07
10.11 6.86 1.09
10.12 7.17 1.10
10.12 7.48 1.12
6.07 4.68 0.69
5.92 4.75 0.68
10.00 8.37 1.17
10.17 8.87 1.21
12.30 11.16 1.50
12.25 11.58 1.52
11.37 11.19 1.44
12.26 12.55 1.59
12.25 13.06 1.62
11.96 13.28 1.62
11.56 13.36 1.61
11.39 13.71 1.63
11.40 14.29 1.67
11.29 14.75 1.70
11.30 15.39 1.75
11.29 16.05 1.81
7.39 10.97 1.22
7.05 10.93 1.20
6.87 11.13 1.21
6.82 11.56 1.24
4.77 8.46 0.90
4.54 8.46 0.89
4.39 8.58 0.90
6.90 14.18 1.47
6.94 15.03 1.55
6.87 15.70 1.61
6.89 16.65 1.70
6.73 17.24 1.75
6.93 18.86 1.90
6.76 19.59 1.96
6.33 19.61 1.96
6.23 20.73 2.06
6.74 24.16 2.39
6.24 24.24 2.39
5.74 24.30 2.39
5.24 24.36 2.39
4.74 24.41 2.39
4.24 24.45 2.39
3.74 24.48 2.39
2.77 20.97 2.05
2.86 25.56 2.49
2.34 25.56 2.49
1.82 25.55 2.49
1.31 25.53 2.49
0.79 25.50 2.49
0.28 25.45 2.49
-0.23 25.40 2.49
-0.74 25.34 2.49
-1.25 25.27 2.49
-1.75 25.19 2.49
-2.25 25.10 2.49
-2.75 25.00 2.49
-3.24 24.89 2.49
-3.74 24.77 2.49
-4.22 24.65 2.49
-4.71 24.51 2.49
-5.19 24.36 2.49
-5.65 24.13 2.49
-5.89 23.05 2.39
-5.89 21.29 2.22
-6.78 22.72 2.39
-7.23 22.54 2.39
-7.66 22.35 2.39
-8.10 22.15 2.39
-7.56 19.46 2.12
-8.95 21.73 2.39
-9.37 21.51 2.39
-9.47 19.55 2.22
-9.46 18.57 2.13
-9.50 17.77 2.07
-9.51 16.95 2.00
-9.51 16.19 1.93
-9.52 15.48 1.87
-9.52 14.81 1.82
-9.53 14.18 1.77
-9.53 13.59 1.72
-9.54 13.03 1.67
-9.54 12.50 1.63
-9.54 12.00 1.59
-9.55 11.52 1.56
-9.55 11.07 1.52
-9.55 10.63 1.49
-9.56 10.21 1.46
-9.56 9.81 1.43
-9.56 9.43 1.40
-9.57 9.06 1.38
-9.57 8.71 1.36
-9.57 8.36 1.33
-9.57 8.03 1.31
-9.54 7.68 1.29
-9.58 7.40 1.27
-9.58 7.10 1.26
-9.58 6.81 1.24
-9.58 6.52 1.22
-9.59 6.25 1.21
-9.59 5.98 1.19
-9.59 5.71 1.18
-6.47 3.68 0.79
-9.59 5.21 1.15
-9.60 4.96 1.14
-9.60 4.72 1.13
-9.60 4.48 1.12
-9.60 4.25 1.11
-9.60 4.02 1.10
-9.53 3.77 1.09
-9.61 3.58 1.09
-9.61 3.36 1.08
-9.61 3.14 1.07
-9.61 2.93 1.07
-9.61 2.72 1.06
-9.61 2.52 1.06
-9.62 2.31 1.05
-9.62 2.11 1.05
-9.62 1.91 1.04
-9.62 1.71 1.04
-9.62 1.51 1.03
-9.62 1.31 1.03
-9.63 1.11 1.03
-9.63 0.92 1.03
-9.63 0.72 1.02
-9.63 0.53 1.02
-9.63 0.34 1.02
-9.63 0.14 1.02
-9.63 -0.05 1.02
-9.56 -0.24 1.01
-9.64 -0.44 1.02
-9.64 -0.63 1.02
-9.64 -0.83 1.02
-9.64 -1.02 1.02
-9.64 -1.22 1.03
-9.64 -1.42 1.03
-9.65 -1.62 1.03
-9.65 -1.82 1.03
-9.65 -2.02 1.04
-9.65 -2.22 1.04
-9.65 -2.43 1.05
-9.65 -2.63 1.05
-9.65 -2.84 1.06
-9.66 -3.06 1.06
-9.66 -3.27 1.07
-9.66 -3.49 1.08
-9.66 -3.71 1.08
-9.66 -3.94 1.09
-9.64 -4.16 1.10
-9.67 -4.40 1.11
-9.67 -4.64 1.12
-9.67 -4.88 1.13
-9.67 -5.13 1.14
-9.67 -5.38 1.15
-9.68 -5.64 1.16
-9.68 -5.90 1.17
-9.68 -6.17 1.19
-9.68 -6.45 1.20
-9.68 -6.74 1.22
-9.69 -7.03 1.23
-9.69 -7.34 1.25
-9.69 -7.65 1.27
-9.69 -7.97 1.29
-9.62 -8.24 1.30
-9.70 -8.65 1.33
-9.70 -9.01 1.35
-9.70 -9.38 1.37
-9.71 -9.77 1.40
-9.71 -10.18 1.43
-9.71 -10.60 1.45
-9.72 -11.04 1.49
-9.72 -11.50 1.52
-9.72 -11.98 1.55
-9.73 -12.49 1.59
-9.73 -13.03 1.63
-9.74 -13.60 1.67
-9.74 -14.20 1.72
-9.74 -14.83 1.77
-9.75 -15.51 1.82
-9.71 -16.17 1.87
-9.76 -17.01 1.94
-9.77 -17.84 2.01
-8.85 -16.97 1.89
-8.72 -17.58 1.93
-9.94 -22.23 2.39
-9.52 -22.47 2.39
-9.08 -22.71 2.39
-8.64 -22.93 2.39
-8.20 -23.15 2.39
-7.75 -23.36 2.39
-7.29 -23.56 2.39
-6.83 -23.75 2.39
-6.37 -23.93 2.39
-6.02 -24.59 2.44
-5.66 -25.32 2.49
-5.16 -25.48 2.49
-4.66 -25.63 2.49
-4.15 -25.78 2.49
-3.64 -25.91 2.49
-3.13 -26.03 2.49
-2.61 -26.15 2.49
-2.09 -26.25 2.49
-1.56 -26.34 2.49
-1.04 -26.42 2.49
-0.51 -26.50 2.49
0.03 -21.38 2.49
0.45 -21.41 2.49
0.89 -21.43 2.49
1.32 -21.45 2.49
1.75 -21.45 2.49
2.09 -20.56 2.39
2.51 -20.55 2.39
2.93 -20.53 2.39
3.34 -20.50 2.39
3.76 -20.46 2.39
4.18 -20.42 2.39
4.59 -20.36 2.39
5.01 -20.30 2.39
5.42 -20.23 2.39
5.31 -18.34 2.18
5.25 -16.84 2.01
5.37 -16.09 1.93
5.70 -15.99 1.93
5.52 -14.55 1.76
5.58 -13.87 1.69
5.36 -12.59 1.55
5.47 -12.16 1.50
5.75 -12.14 1.51
5.45 -10.92 1.37
5.51 -10.51 1.33
5.60 -10.19 1.30
5.84 -10.14 1.31
6.10 -10.12 1.32
5.50 -8.72 1.15
5.56 -8.43 1.13
5.70 -8.28 1.12
4.95 -6.88 0.94
4.95 -6.60 0.92
5.11 -6.54 0.92
5.21 -6.40 0.92
5.41 -6.38 0.93
5.64 -6.39 0.94
5.84 -6.35 0.95
6.08 -6.36 0.97
6.32 -6.35 0.99
6.57 -6.34 1.01
6.83 -6.32 1.02
11.18 -9.94 1.64
11.64 -9.95 1.68
12.13 -9.95 1.72
12.64 -9.95 1.76
5.91 -4.47 0.81
5.79 -4.19 0.78
5.81 -4.03 0.77
5.80 -3.86 0.76
5.93 -3.77 0.77
6.21 -3.78 0.79
6.46 -3.76 0.82
6.74 -3.74 0.84
7.09 -3.75 0.87
17.44 -8.78 2.13
17.82 -8.53 2.15
18.77 -8.52 2.24
18.94 -8.15 2.24
18.98 -7.72 2.23
6.61 -2.54 0.77
6.29 -2.27 0.73
6.30 -2.13 0.72
6.27 -1.98 0.71
6.30 -1.85 0.71
6.31 -1.72 0.71
6.40 -1.61 0.72
6.64 -1.52 0.74
6.86 -1.43 0.76
7.33 -1.38 0.81
8.11 -1.36 0.89
9.30 -1.36 1.02
10.82 -1.37 1.18
11.67 -1.24 1.27
14.52 -1.24 1.58
18.21 -1.19 1.98
19.02 -0.86 2.07
18.90 -0.48 2.06
18.90 -0.10 2.06
18.89 0.28 2.06
18.88 0.66 2.06
18.85 1.04 2.06
18.82 1.41 2.06
18.78 1.79 2.06
18.73 2.16 2.06
18.67 2.54 2.06
18.61 2.91 2.06
18.53 3.28 2.06
18.45 3.65 2.06
19.86 4.34 2.22
17.64 4.23 1.99
16.24 4.24 1.84
15.04 4.25 1.71
13.99 4.26 1.61
13.53 4.42 1.56
13.54 4.72 1.58
13.54 5.03 1.59
13.22 5.21 1.57
13.67 5.71 1.64
13.68 6.04 1.65
13.68 6.37 1.67
13.68 6.71 1.69
13.68 7.06 1.71
11.25 6.09 1.42
10.78 6.12 1.38
10.36 6.15 1.34
9.97 6.20 1.31
9.95 6.46 1.32
9.96 6.76 1.35
9.98 7.07 1.37
10.00 7.39 1.39
6.05 4.66 0.86
5.92 4.75 0.85
10.05 8.41 1.47
10.07 8.77 1.50
10.09 9.15 1.54
11.73 11.08 1.82
11.38 11.18 1.80
11.38 11.65 1.84
11.38 12.13 1.89
11.39 12.63 1.93
11.39 13.15 1.98
11.39 13.71 2.03
11.06 13.86 2.02
11.07 14.45 2.08
10.96 14.92 2.12
10.96 15.58 2.19
7.41 10.99 1.52
7.05 10.92 1.50
6.86 11.10 1.50
6.87 11.65 1.56
4.77 8.46 1.12
4.54 8.46 1.11
4.39 8.57 1.12
6.98 14.35 1.86
6.95 15.04 1.93
6.87 15.70 2.00
6.40 15.46 1.96
6.18 15.81 1.99
6.20 16.85 2.11
6.21 17.98 2.23
6.21 19.24 2.38
5.84 19.42 2.39
5.44 19.50 2.39
5.04 19.57 2.39
4.64 19.63 2.39
4.24 19.69 2.39
3.83 19.73 2.39
3.43 19.77 2.39
3.03 19.80 2.39
2.63 19.83 2.39
2.32 20.70 2.49
1.90 20.70 2.49
1.48 20.70 2.49
1.06 20.69 2.49
0.65 20.68 2.49
0.23 20.65 2.49
-0.18 20.62 2.49
-0.60 20.57 2.49
-1.01 20.53 2.49
-1.42 20.47 2.49
-1.82 20.40 2.49
-2.23 20.33 2.49
-2.63 20.25 2.49
-3.03 20.16 2.49
-3.43 20.06 2.49
-3.83 19.96 2.49
-4.22 19.85 2.49
-4.61 19.73 2.49
-5.00 19.60 2.49
-5.39 19.47 2.49
-5.69 19.05 2.46
-5.90 18.41 2.39
-6.25 18.24 2.39
-6.61 18.08 2.39
-6.96 17.92 2.39
-7.31 17.75 2.39
-7.65 17.58 2.39
-7.99 17.40 2.39
-8.33 17.21 2.39
-8.66 17.02 2.39
-8.99 16.82 2.39
-9.32 16.62 2.39
-9.64 16.41 2.39
-9.48 14.76 2.21
-9.47 14.11 2.14
-9.53 13.60 2.10
-9.54 13.04 2.04
-9.54 12.51 1.99
-9.54 12.00 1.94
-9.55 11.53 1.90
-9.55 11.07 1.86
-9.55 10.63 1.82
-9.56 10.22 1.78
-9.56 9.82 1.74
-9.56 9.43 1.71
-9.57 9.06 1.68
-9.57 8.71 1.65
-9.57 8.36 1.62
-9.57 8.03 1.60
-9.54 7.68 1.57
-9.58 7.40 1.55
-9.58 7.10 1.53
-9.58 6.81 1.51
-9.58 6.52 1.49
-9.59 6.25 1.47
-9.59 5.98 1.45
-9.59 5.71 1.43
-6.47 3.68 0.96
-9.59 5.21 1.40
-9.60 4.96 1.39
-9.60 4.72 1.38
-9.60 4.48 1.36
-9.60 4.25 1.35
-9.60 4.02 1.34
-9.53 3.77 1.32
-9.61 3.58 1.32
-9.61 3.36 1.31
-9.61 3.15 1.30
-9.61 2.93 1.30
-9.61 2.72 1.29
-9.61 2.52 1.28
-9.62 2.31 1.28
-9.62 2.11 1.27
-9.62 1.91 1.27
-9.62 1.71 1.26
-9.62 1.51 1.26
-9.62 1.31 1.25
-9.63 1.11 1.25
-9.63 0.92 1.25
-9.63 0.72 1.24
-9.63 0.53 1.24
-9.63 0.34 1.24
-9.63 0.14 1.24
-9.63 -0.05 1.24
-9.56 -0.24 1.23
-9.64 -0.44 1.24
-9.64 -0.63 1.24
-9.64 -0.83 1.24
-9.64 -1.02 1.25
-9.64 -1.22 1.25
-9.64 -1.42 1.25
-9.65 -1.62 1.26
-9.65 -1.82 1.26
-9.65 -2.02 1.26
-9.65 -2.22 1.27
-9.65 -2.43 1.27
-9.65 -2.64 1.28
-9.66 -2.85 1.29
-9.66 -3.06 1.29
-9.66 -3.27 1.30
-9.66 -3.49 1.31
-9.66 -3.71 1.32
-9.66 -3.94 1.33
-9.64 -4.16 1.33
-9.67 -4.40 1.35
-9.67 -4.64 1.36
-9.67 -4.88 1.37
-9.67 -5.13 1.39
-9.67 -5.38 1.40
-9.68 -5.64 1.42
-9.68 -5.91 1.43
-9.68 -6.18 1.45
-9.68 -6.46 1.47
-9.68 -6.74 1.48
-9.69 -7.04 1.50
-9.69 -7.34 1.53
-9.69 -7.65 1.55
-9.69 -7.98 1.57
-9.62 -8.25 1.58
-9.70 -8.66 1.62
-9.70 -9.02 1.65
-9.70 -9.39 1.68
-9.71 -9.78 1.71
-9.71 -10.18 1.75
-9.71 -10.60 1.78
-9.72 -11.04 1.82
-9.72 -11.50 1.86
-9.72 -11.99 1.91
-9.73 -12.50 1.95
-9.14 -12.25 1.88
-8.91 -12.45 1.88
-8.70 -12.69 1.89
-9.69 -14.75 2.16
-8.91 -14.18 2.05
-8.73 -14.54 2.07
-8.83 -15.40 2.16
-9.43 -17.23 2.39
-8.97 -17.20 2.36
-8.76 -17.65 2.39
-8.41 -17.85 2.39
-8.07 -18.05 2.39
-7.72 -18.23 2.39
-7.36 -18.42 2.39
-7.00 -18.59 2.39
-6.64 -18.76 2.39
-6.27 -18.92 2.39
-5.97 -19.31 2.42
-5.76 -20.05 2.49
-5.37 -20.20 2.49
-4.97 -20.34 2.49
-4.57 -20.47 2.49
-4.16 -20.59 2.49
-3.76 -20.71 2.49
-3.35 -20.81 2.49
-2.93 -20.91 2.49
-2.52 -21.00 2.49
-2.10 -21.09 2.49
-1.68 -21.16 2.49
-1.25 -21.23 2.49
-0.83 -21.29 2.49
-0.40 -21.33 2.49
0.02 -17.87 2.49
0.38 -17.89 2.49
0.74 -17.91 2.49
1.10 -17.91 2.49
1.47 -17.91 2.49
1.83 -17.91 2.49
2.10 -17.15 2.39
2.45 -17.13 2.39
2.79 -17.10 2.39
3.14 -17.07 2.39
3.49 -17.02 2.39
3.83 -16.97 2.39
4.18 -16.91 2.39
4.52 -16.85 2.39
4.87 -16.78 2.39
5.21 -16.70 2.39
5.37 -16.07 2.31
5.70 -15.98 2.31
5.56 -14.65 2.13
5.64 -14.02 2.05
5.36 -12.59 1.86
5.49 -12.20 1.82
5.74 -12.11 1.82
5.47 -10.97 1.66
5.44 -10.37 1.58
5.59 -10.16 1.57
5.84 -10.13 1.58
5.48 -9.07 1.43
5.49 -8.70 1.38
5.57 -8.44 1.36
5.70 -8.27 1.35
4.90 -6.82 1.13
4.92 -6.57 1.10
5.02 -6.42 1.09
5.21 -6.40 1.10
5.39 -6.36 1.11
5.63 -6.37 1.13
5.84 -6.35 1.15
6.08 -6.35 1.17
6.32 -6.34 1.19
6.57 -6.33 1.21
6.94 -6.43 1.26
10.54 -9.38 1.87
11.64 -9.95 2.03
12.13 -9.95 2.08
5.61 -4.42 0.95
5.65 -4.27 0.94
5.69 -4.12 0.93
5.70 -3.96 0.92
5.75 -3.82 0.91
5.93 -3.77 0.93
6.20 -3.77 0.96
6.41 -3.73 0.98
6.74 -3.74 1.02
7.03 -3.72 1.05
15.21 -7.65 2.24
15.36 -7.35 2.24
15.51 -7.04 2.24
15.65 -6.73 2.24
15.79 -6.42 2.24
6.57 -2.52 0.93
6.27 -2.26 0.88
6.27 -2.12 0.87
6.27 -1.98 0.86
6.26 -1.84 0.86
6.24 -1.70 0.85
6.36 -1.60 0.86
6.58 -1.51 0.89
6.83 -1.42 0.92
7.32 -1.38 0.98
8.09 -1.35 1.08
9.26 -1.36 1.23
10.81 -1.36 1.43
11.85 -1.25 1.57
15.72 -1.35 2.07
17.05 -1.12 2.25
15.79 -0.72 2.08
15.79 -0.40 2.08
15.79 -0.08 2.08
15.79 0.23 2.08
15.77 0.55 2.08
15.76 0.87 2.08
15.73 1.18 2.08
15.70 1.50 2.08
15.66 1.81 2.08
15.62 2.12 2.08
15.57 2.43 2.08
15.51 2.74 2.08
15.45 3.05 2.08
15.38 3.36 2.08
15.31 3.67 2.08
16.25 4.24 2.23
15.04 4.25 2.07
13.99 4.26 1.94
13.53 4.42 1.89
13.54 4.72 1.90
13.54 5.03 1.92
13.21 5.21 1.89
13.67 5.71 1.97
13.68 6.04 1.99
13.68 6.37 2.01
13.68 6.71 2.04
13.68 7.05 2.06
11.08 5.99 1.69
10.60 6.01 1.63
10.19 6.05 1.59
9.93 6.17 1.57
9.91 6.44 1.59
9.95 6.75 1.62
9.96 7.05 1.64
9.97 7.37 1.67
6.04 4.65 1.03
5.91 4.74 1.02
5.93 4.96 1.05
10.05 8.75 1.81
10.20 9.25 1.87
11.73 11.08 2.19
11.38 11.18 2.17
11.33 11.59 2.21
10.97 11.68 2.18
10.70 11.86 2.18
10.52 12.14 2.20
10.32 12.40 2.21
10.11 12.67 2.22
9.90 12.93 2.24
9.74 13.26 2.26
9.58 13.60 2.29
7.44 11.03 1.83
7.12 11.03 1.81
6.84 11.08 1.80
6.06 10.26 1.65
4.77 8.46 1.35
4.55 8.46 1.33
4.39 8.57 1.34
6.16 12.65 1.96
6.17 13.35 2.05
6.18 14.10 2.15
6.18 14.92 2.26
6.19 15.83 2.38
5.89 16.01 2.39
5.56 16.10 2.39
5.23 16.18 2.39
4.90 16.26 2.39
4.56 16.33 2.39
4.23 16.39 2.39
3.89 16.45 2.39
3.56 16.50 2.39
3.22 16.55 2.39
2.88 16.58 2.39
2.54 16.61 2.39
2.30 17.36 2.49
1.95 17.37 2.49
1.60 17.38 2.49
1.25 17.39 2.49
0.90 17.38 2.49
0.55 17.37 2.49
0.20 17.36 2.49
-0.15 17.33 2.49
-0.50 17.30 2.49
-0.84 17.27 2.49
-1.19 17.22 2.49
-1.53 17.17 2.49
-1.87 17.11 2.49
-2.21 17.05 2.49
-2.55 16.98 2.49
-2.89 16.90 2.49
-3.22 16.82 2.49
-3.56 16.73 2.49
-3.89 16.63 2.49
-4.21 16.53 2.49
-4.54 16.42 2.49
-4.86 16.30 2.49
-5.18 16.18 2.49
-5.50 16.06 2.49
-5.71 15.63 2.45
-5.87 15.13 2.39
-6.17 14.99 2.39
-6.46 14.85 2.39
-6.75 14.70 2.39
-7.04 14.55 2.39
-7.32 14.39 2.39
-7.60 14.22 2.39
-7.87 14.05 2.39
-8.15 13.87 2.39
-8.41 13.69 2.39
-8.68 13.51 2.39
-8.94 13.32 2.39
-9.20 13.12 2.39
-9.45 12.92 2.39
-9.70 12.72 2.39
-9.49 11.01 2.18
-9.51 10.59 2.14
-9.56 10.22 2.10
-9.56 9.82 2.06
-9.56 9.43 2.02
-9.57 9.07 1.98
-9.57 8.71 1.95
-9.57 8.37 1.92
-9.57 8.04 1.88
-9.54 7.68 1.85
-9.58 7.40 1.83
-9.58 7.10 1.80
-9.58 6.81 1.78
-9.58 6.53 1.75
-9.59 6.25 1.73
-9.59 5.98 1.71
-9.59 5.72 1.69
-6.46 3.68 1.13
-9.59 5.21 1.65
-9.60 4.96 1.64
-9.60 4.72 1.62
-9.60 4.48 1.61
-9.60 4.25 1.59
-9.60 4.02 1.58
-9.53 3.77 1.56
-9.61 3.58 1.56
-9.61 3.36 1.55
-9.61 3.15 1.54
-9.61 2.93 1.53
-9.61 2.72 1.52
-9.61 2.52 1.51
-9.62 2.31 1.50
-9.62 2.11 1.50
-9.62 1.91 1.49
-9.62 1.71 1.49
-9.62 1.51 1.48
-9.62 1.31 1.48
-9.63 1.11 1.47
-9.63 0.92 1.47
-9.63 0.72 1.47
-9.63 0.53 1.46
-9.63 0.34 1.46
-9.63 0.14 1.46
-9.63 -0.05 1.46
-9.56 -0.24 1.45
-9.64 -0.44 1.46
-9.64 -0.63 1.46
-9.64 -0.83 1.47
-9.64 -1.02 1.47
-9.64 -1.22 1.47
-9.64 -1.42 1.48
-9.65 -1.62 1.48
-9.65 -1.82 1.48
-9.65 -2.02 1.49
-9.65 -2.22 1.50
-9.65 -2.43 1.50
-9.65 -2.64 1.51
-9.66 -2.85 1.52
-9.66 -3.06 1.53
-9.66 -3.28 1.54
-9.66 -3.49 1.55
-9.66 -3.72 1.56
-9.66 -3.94 1.57
-9.64 -4.16 1.58
-9.67 -4.40 1.59
-9.67 -4.64 1.61
-9.67 -4.88 1.62
-9.67 -5.13 1.64
-9.67 -5.38 1.65
-9.68 -5.64 1.67
-9.68 -5.91 1.69
-9.68 -6.18 1.71
-9.68 -6.46 1.73
-9.68 -6.74 1.76
-9.69 -7.04 1.78
-9.69 -7.34 1.80
-9.69 -7.66 1.83
-9.69 -7.98 1.86
-9.62 -8.25 1.88
-9.70 -8.66 1.92
-9.70 -9.02 1.96
-9.70 -9.39 1.99
-9.00 -9.07 1.88
-8.83 -9.26 1.88
-8.68 -9.48 1.89
-8.67 -9.85 1.93
-9.66 -11.44 2.20
-9.04 -11.62 2.15
-9.79 -13.12 2.39
-9.02 -12.60 2.26
-9.28 -13.54 2.39
-9.02 -13.74 2.39
-8.75 -13.94 2.39
-8.48 -14.13 2.39
-8.21 -14.32 2.39
-7.93 -14.50 2.39
-7.65 -14.68 2.39
-7.36 -14.85 2.39
-7.07 -15.01 2.39
-6.78 -15.17 2.39
-6.48 -15.33 2.39
-6.18 -15.48 2.39
-5.94 -15.79 2.42
-5.81 -16.44 2.49
-5.49 -16.57 2.49
-5.16 -16.70 2.49
-4.83 -16.83 2.49
-4.50 -16.95 2.49
-4.16 -17.06 2.49
-3.83 -17.16 2.49
-3.49 -17.26 2.49
-3.14 -17.35 2.49
-2.80 -17.44 2.49
-2.45 -17.52 2.49
-2.10 -17.59 2.49
-1.75 -17.65 2.49
-1.40 -17.71 2.49
-1.05 -17.76 2.49
-0.69 -17.80 2.49
-0.33 -17.84 2.49
0.02 -15.34 2.49
0.33 -15.35 2.49
0.64 -15.36 2.49
0.95 -15.37 2.49
1.26 -15.36 2.49
1.57 -15.35 2.49
1.88 -15.34 2.49
2.10 -14.71 2.40
2.40 -14.66 2.39
2.69 -14.62 2.39
2.99 -14.58 2.39
3.29 -14.54 2.39
3.58 -14.48 2.39
3.88 -14.43 2.39
4.17 -14.36 2.39
4.46 -14.29 2.39
4.75 -14.22 2.39
5.04 -14.13 2.39
5.33 -14.04 2.39
5.62 -13.95 2.39
5.34 -12.53 2.16
5.48 -12.17 2.12
5.76 -12.14 2.13
5.97 -11.96 2.12
5.48 -10.45 1.87
5.59 -10.16 1.83
5.84 -10.12 1.84
6.12 -10.14 1.87
5.49 -8.70 1.62
5.57 -8.43 1.59
4.88 -7.08 1.35
4.91 -6.83 1.32
4.92 -6.57 1.29
5.03 -6.44 1.28
5.21 -6.39 1.29
5.37 -6.33 1.30
5.61 -6.35 1.33
5.84 -6.35 1.35
6.08 -6.34 1.37
6.28 -6.30 1.39
6.58 -6.34 1.43
6.93 -6.42 1.47
10.55 -9.38 2.20
10.70 -9.14 2.19
10.88 -8.92 2.19
5.60 -4.41 1.11
5.61 -4.23 1.09
5.64 -4.09 1.08
5.68 -3.94 1.07
5.76 -3.83 1.07
5.92 -3.76 1.09
6.19 -3.77 1.12
6.41 -3.72 1.15
6.73 -3.73 1.19
7.23 -3.82 1.27
13.09 -6.59 2.27
13.22 -6.33 2.27
13.34 -6.06 2.27
13.45 -5.79 2.26
13.56 -5.51 2.26
6.57 -2.52 1.09
6.28 -2.26 1.03
6.27 -2.12 1.02
6.27 -1.98 1.02
6.26 -1.84 1.01
6.24 -1.70 1.00
6.32 -1.59 1.01
6.44 -1.48 1.02
6.85 -1.43 1.08
7.31 -1.37 1.15
8.73 -1.46 1.37
9.24 -1.35 1.44
10.81 -1.36 1.68
12.15 -1.29 1.89
13.89 -1.19 2.15
14.54 -0.95 2.25
13.59 -0.62 2.10
13.60 -0.35 2.10
13.60 -0.07 2.10
13.60 0.20 2.10
13.59 0.47 2.10
13.57 0.74 2.10
13.55 1.02 2.10
13.53 1.29 2.10
13.50 1.56 2.10
13.46 1.83 2.11
13.42 2.10 2.11
13.37 2.37 2.11
13.32 2.63 2.11
13.27 2.90 2.11
13.21 3.16 2.11
13.14 3.43 2.11
13.07 3.69 2.11
13.92 4.23 2.26
13.53 4.42 2.22
13.54 4.72 2.23
13.63 5.06 2.27
13.21 5.21 2.22
12.67 5.29 2.14
12.42 5.48 2.12
12.31 5.73 2.12
12.20 5.98 2.13
12.06 6.21 2.13
11.47 6.21 2.05
11.47 6.51 2.07
10.23 6.08 1.87
9.92 6.16 1.84
10.04 6.52 1.88
9.97 6.76 1.90
9.94 7.03 1.92
9.95 7.35 1.95
6.03 4.64 1.20
5.89 4.72 1.19
10.62 8.88 2.19
10.46 9.11 2.20
10.30 9.34 2.21
10.14 9.57 2.21
9.97 9.79 2.22
10.20 10.43 2.32
9.94 10.58 2.31
9.69 10.73 2.31
9.53 11.00 2.32
9.38 11.27 2.34
9.22 11.54 2.36
9.05 11.81 2.38
8.88 12.08 2.41
8.63 12.25 2.41
7.42 10.99 2.13
7.11 11.00 2.11
6.86 11.10 2.10
6.08 10.29 1.93
4.77 8.46 1.57
4.55 8.46 1.55
4.39 8.57 1.56
4.33 8.90 1.61
6.17 13.34 2.39
5.90 13.47 2.39
5.62 13.56 2.39
5.34 13.66 2.39
5.06 13.74 2.39
4.78 13.83 2.39
4.50 13.90 2.39
4.21 13.97 2.39
3.92 14.04 2.39
3.64 14.09 2.39
3.35 14.15 2.39
3.06 14.19 2.39
2.77 14.23 2.39
2.48 14.27 2.39
2.29 14.91 2.49
1.99 14.94 2.49
1.68 14.96 2.49
1.38 14.97 2.49
1.08 14.97 2.49
0.78 14.97 2.49
0.48 14.97 2.49
0.17 14.96 2.49
-0.13 14.94 2.49
-0.43 14.92 2.49
-0.72 14.89 2.49
-1.02 14.85 2.49
-1.32 14.81 2.49
-1.61 14.76 2.49
-1.91 14.71 2.49
-2.20 14.65 2.49
-2.49 14.59 2.49
-2.78 14.52 2.49
-3.07 14.44 2.49
-3.35 14.36 2.49
-3.64 14.28 2.49
-3.92 14.18 2.49
-4.20 14.09 2.49
-4.48 13.99 2.49
-4.75 13.88 2.49
-5.02 13.77 2.49
-5.29 13.65 2.49
-5.56 13.52 2.49
-5.72 13.17 2.45
-5.84 12.72 2.39
-6.08 12.58 2.39
-6.33 12.45 2.39
-6.57 12.31 2.39
-6.81 12.16 2.39
-7.05 12.01 2.39
-7.28 11.85 2.39
-7.51 11.70 2.39
-7.74 11.53 2.39
-7.96 11.37 2.39
-8.18 11.19 2.39
-8.40 11.02 2.39
-8.61 10.84 2.39
-8.82 10.65 2.39
-9.03 10.47 2.39
-9.23 10.28 2.39
-9.43 10.08 2.39
-9.62 9.88 2.39
-9.52 8.32 2.20
-9.52 7.99 2.16
-9.54 7.68 2.13
-9.58 7.41 2.11
-9.58 7.10 2.08
-9.58 6.81 2.05
-9.58 6.53 2.02
-9.59 6.25 2.00
-9.59 5.98 1.97
-9.59 5.72 1.95
-6.46 3.68 1.30
-9.59 5.21 1.91
-9.60 4.96 1.89
-9.60 4.72 1.87
-9.60 4.48 1.85
-9.60 4.25 1.84
-9.60 4.02 1.82
-9.53 3.77 1.79
-9.61 3.58 1.79
-9.61 3.36 1.78
-9.61 3.15 1.77
-9.61 2.93 1.76
-9.61 2.72 1.75
-9.61 2.52 1.74
-9.62 2.31 1.73
-9.62 2.11 1.72
-9.62 1.91 1.72
-9.62 1.71 1.71
-9.62 1.51 1.71
-9.62 1.31 1.70
-9.63 1.11 1.70
-9.63 0.92 1.69
-9.63 0.72 1.69
-9.63 0.53 1.69
-9.63 0.34 1.69
-9.63 0.14 1.69
-9.63 -0.05 1.68
-9.56 -0.24 1.67
-9.64 -0.44 1.69
-9.64 -0.63 1.69
-9.64 -0.83 1.69
-9.64 -1.03 1.69
-9.64 -1.22 1.70
-9.64 -1.42 1.70
-9.65 -1.62 1.71
-9.65 -1.82 1.71
-9.65 -2.02 1.72
-9.65 -2.22 1.72
-9.65 -2.43 1.73
-9.65 -2.64 1.74
-9.66 -2.85 1.75
-9.66 -3.06 1.76
-9.66 -3.28 1.77
-9.66 -3.50 1.78
-9.66 -3.72 1.80
-9.66 -3.94 1.81
-9.64 -4.16 1.82
-9.67 -4.41 1.84
-9.67 -4.64 1.86
-9.67 -4.89 1.87
-9.67 -5.13 1.89
-9.67 -5.39 1.91
-9.68 -5.64 1.93
-9.68 -5.91 1.95
-9.68 -6.18 1.98
-9.10 -6.07 1.88
-8.98 -6.26 1.88
-8.86 -6.44 1.88
-8.74 -6.63 1.88
-8.65 -6.84 1.89
-8.65 -7.12 1.92
-9.63 -8.26 2.17
-9.67 -8.64 2.22
-9.02 -8.73 2.14
-8.74 -8.81 2.12
-9.69 -10.17 2.39
-8.89 -9.72 2.24
-9.29 -10.57 2.39
-9.09 -10.77 2.39
-8.88 -10.96 2.39
-8.67 -11.15 2.39
-8.45 -11.33 2.39
-8.23 -11.51 2.39
-8.01 -11.69 2.39
