ply
format ascii 1.0
element vertex 2803
property float32 x
property float32 y
property float32 z
end_header
-13.98 -3.51 0.44
-14.13 -3.85 0.44
-14.28 -4.20 0.45
-14.43 -4.56 0.46
-14.76 -4.99 0.47
-42.92 -24.97 1.50
-40.89 -24.90 1.45
-39.00 -24.84 1.40
-21.75 -14.47 0.79
-35.57 -24.72 1.31
-34.02 -24.66 1.27
-32.55 -24.61 1.23
-31.17 -24.57 1.20
-14.07 -11.56 0.55
-28.62 -24.48 1.14
-27.43 -24.44 1.11
-26.31 -24.40 1.08
-25.23 -24.36 1.06
-24.20 -24.33 1.03
-23.22 -24.29 1.01
-22.27 -24.26 0.99
-21.36 -24.23 0.97
-20.49 -24.20 0.95
-7.11 -8.75 0.34
-18.83 -24.14 0.92
-18.04 -24.11 0.90
-17.28 -24.09 0.89
-16.54 -24.06 0.87
-13.52 -20.54 0.74
-15.12 -24.01 0.85
-14.44 -23.99 0.84
-13.78 -23.97 0.83
-13.14 -23.95 0.82
-12.51 -23.92 0.80
-11.87 -23.85 0.79
-11.29 -23.88 0.79
-10.70 -23.86 0.78
-10.12 -23.84 0.77
-9.55 -23.82 0.76
-8.99 -23.80 0.75
-8.45 -23.78 0.75
-7.91 -23.77 0.74
-7.37 -23.75 0.73
-6.85 -23.73 0.73
-6.33 -23.71 0.72
-5.82 -23.69 0.72
-5.31 -23.68 0.71
-4.81 -23.66 0.71
-4.32 -23.64 0.71
-3.81 -23.55 0.70
-3.34 -23.61 0.70
-2.85 -23.59 0.70
-2.37 -23.58 0.69
-1.89 -23.56 0.69
-1.42 -23.54 0.69
-0.94 -23.53 0.69
-0.47 -23.51 0.68
0.00 -23.49 1.21
0.47 -23.48 1.21
0.94 -23.46 1.21
1.42 -23.44 1.21
1.89 -23.43 1.21
2.36 -23.41 1.21
2.83 -23.40 1.21
3.31 -23.38 1.21
3.79 -23.36 1.21
4.26 -23.29 1.21
4.75 -23.33 1.22
5.24 -23.31 1.22
5.73 -23.30 1.23
6.22 -23.28 1.23
6.72 -23.26 1.24
7.22 -23.25 1.24
7.73 -23.23 1.25
8.22 -23.15 1.25
8.77 -23.19 1.26
9.30 -23.17 1.27
9.83 -23.16 1.28
10.38 -23.14 1.29
10.93 -23.12 1.30
11.50 -23.10 1.31
12.07 -23.08 1.32
5.28 -9.62 0.55
13.25 -23.04 1.34
13.86 -23.02 1.36
14.49 -22.99 1.37
15.13 -22.97 1.39
15.78 -22.95 1.40
16.45 -22.93 1.42
17.14 -22.90 1.44
17.85 -22.88 1.46
18.58 -22.85 1.48
19.33 -22.83 1.50
20.10 -22.79 1.52
20.91 -22.77 1.55
2.91 -3.04 0.21
2.82 -2.83 0.20
2.81 -2.72 0.20
2.89 -2.68 0.20
3.01 -2.68 0.20
18.76 -16.04 1.23
19.48 -15.99 1.25
20.28 -15.98 1.28
29.72 -22.47 1.85
30.94 -22.43 1.90
24.45 -16.99 1.48
24.43 -16.25 1.45
24.49 -15.59 1.44
25.55 -15.56 1.48
26.68 -15.52 1.53
28.03 -15.56 1.59
43.24 -21.78 2.39
43.69 -20.92 2.39
44.13 -20.05 2.39
44.56 -19.18 2.39
44.96 -18.29 2.39
46.54 -17.85 2.45
32.45 -8.84 1.65
21.98 -5.51 1.11
21.41 -4.92 1.08
22.29 -4.65 1.12
20.29 -3.81 1.01
20.58 -3.44 1.02
20.93 -3.07 1.04
21.19 -2.67 1.04
21.39 -2.26 1.05
20.54 -1.76 1.01
19.76 -1.29 0.97
19.21 -0.87 0.94
18.63 -0.47 0.91
18.12 -0.09 0.88
26.78 0.40 1.31
27.07 0.95 1.32
31.72 1.75 1.55
31.58 2.38 1.54
23.25 2.22 1.14
22.52 2.61 1.10
18.60 2.54 0.91
18.38 2.88 0.91
20.57 3.65 1.02
19.98 3.96 0.99
20.07 4.40 1.00
16.10 3.87 0.81
15.99 4.19 0.80
20.88 5.91 1.06
21.17 6.46 1.08
16.99 5.56 0.87
16.91 5.91 0.87
22.11 8.23 1.15
30.86 12.20 1.61
30.10 12.60 1.59
29.37 12.99 1.56
22.83 10.66 1.22
18.99 9.33 1.03
18.99 9.81 1.04
26.64 14.44 1.47
20.72 11.78 1.16
20.23 12.04 1.14
16.83 10.48 0.96
16.43 10.69 0.95
23.61 16.06 1.39
14.78 10.49 0.88
14.78 10.94 0.89
14.78 11.41 0.91
14.78 11.89 0.92
14.73 12.34 0.94
14.73 12.86 0.95
14.74 13.40 0.97
14.68 13.89 0.98
14.66 14.44 1.00
14.64 15.01 1.02
14.57 15.55 1.04
14.54 16.16 1.06
14.52 16.80 1.08
14.45 17.41 1.10
14.43 18.11 1.13
14.34 18.76 1.15
14.30 19.51 1.18
14.26 20.30 1.21
15.03 22.35 1.32
15.57 24.18 1.41
15.06 24.45 1.41
14.96 25.41 1.44
23.92 42.57 2.39
23.05 43.02 2.39
22.17 43.45 2.39
21.28 43.86 2.39
20.39 44.26 2.39
19.48 44.63 2.39
18.57 44.99 2.39
17.66 45.32 2.39
16.73 45.64 2.39
15.80 45.94 2.39
14.87 46.22 2.39
13.93 46.48 2.39
12.98 46.72 2.39
12.04 46.94 2.39
11.08 47.14 2.39
10.13 47.32 2.39
9.17 47.48 2.39
8.21 47.62 2.39
7.25 47.74 2.39
6.28 47.84 2.39
5.32 47.92 2.39
4.35 47.93 2.39
3.38 47.97 2.39
2.42 47.99 2.39
1.45 48.00 2.39
-2.50 49.87 2.49
-3.50 49.77 2.49
-4.49 49.65 2.49
-5.48 49.51 2.49
-6.47 49.35 2.49
-7.45 49.12 2.49
-8.08 46.94 2.39
-9.02 46.73 2.39
-9.95 46.51 2.39
-10.87 46.26 2.39
-13.11 47.22 2.47
-13.76 45.95 2.42
-14.03 43.64 2.31
-12.69 36.92 1.97
-12.17 33.21 1.79
-11.95 30.69 1.67
-11.84 28.68 1.57
-11.84 27.14 1.50
-11.88 25.81 1.44
-11.92 24.58 1.39
-11.98 23.49 1.34
-12.02 22.44 1.29
-12.08 21.51 1.26
-12.24 20.80 1.23
-12.37 20.10 1.20
-12.48 19.38 1.18
-12.56 18.67 1.15
-12.63 17.98 1.12
-12.67 17.30 1.10
-12.69 16.62 1.07
-12.71 15.97 1.05
-12.72 15.34 1.02
-12.73 14.73 1.00
-12.74 14.16 0.98
-12.75 13.62 0.96
-12.79 13.12 0.94
-12.83 12.64 0.93
-12.86 12.17 0.91
-12.89 11.72 0.90
-12.94 11.30 0.89
-13.04 10.94 0.88
-13.15 10.58 0.87
-13.27 10.25 0.87
-13.41 9.93 0.86
-13.49 9.58 0.86
-13.55 9.22 0.85
-13.62 8.87 0.84
-13.70 8.53 0.84
-13.77 8.20 0.83
-13.79 7.84 0.82
-13.80 7.48 0.82
-13.81 7.13 0.81
-13.82 6.79 0.80
-13.84 6.46 0.80
-13.84 6.13 0.79
-13.84 5.79 0.78
-13.83 5.47 0.78
-13.81 5.14 0.77
-13.79 4.82 0.76
-13.76 4.50 0.76
-13.74 4.19 0.75
-13.74 3.89 0.75
-13.75 3.60 0.74
-13.75 3.31 0.74
-13.72 3.01 0.74
-13.69 2.72 0.73
-13.66 2.43 0.73
-13.63 2.14 0.72
-13.60 1.85 0.72
-13.56 1.57 0.72
-13.52 1.29 0.71
-13.43 1.01 0.71
-13.35 0.74 0.70
-13.26 0.47 0.70
-13.18 0.20 0.69
-13.10 -0.07 0.69
-13.02 -0.33 0.69
-12.95 -0.58 0.68
-12.94 -0.84 0.68
-12.93 -1.11 0.68
-12.92 -1.37 0.68
-12.91 -1.63 0.69
-12.90 -1.89 0.69
-12.89 -2.15 0.69
-12.88 -2.42 0.69
-12.87 -2.69 0.69
-13.09 -3.01 0.71
-13.34 -3.35 0.73
-13.59 -3.70 0.74
-13.76 -4.05 0.76
-13.90 -4.39 0.77
-14.05 -4.75 0.78
-14.20 -5.13 0.80
-44.08 -16.91 2.49
-43.73 -17.79 2.49
-43.36 -18.67 2.49
-42.98 -19.53 2.49
-42.58 -20.39 2.49
-41.43 -20.88 2.45
-40.00 -21.17 2.39
-39.57 -21.97 2.39
-39.13 -22.76 2.39
-38.66 -23.55 2.39
-38.19 -24.32 2.39
-21.64 -14.40 1.37
-33.98 -24.63 2.22
-32.48 -24.56 2.15
-31.17 -24.57 2.09
-14.07 -11.56 0.96
-28.62 -24.48 1.99
-27.43 -24.44 1.94
-26.31 -24.40 1.89
-25.23 -24.36 1.85
-24.20 -24.33 1.81
-23.22 -24.29 1.77
-22.27 -24.26 1.73
-21.36 -24.23 1.70
-20.49 -24.20 1.67
-7.11 -8.75 0.59
-18.83 -24.14 1.61
-18.04 -24.11 1.58
-17.28 -24.09 1.56
-16.54 -24.06 1.53
-13.52 -20.53 1.29
-15.12 -24.01 1.49
-14.44 -23.99 1.47
-13.78 -23.97 1.45
-13.14 -23.95 1.43
-12.51 -23.92 1.41
-11.86 -23.85 1.39
-11.29 -23.88 1.38
-10.70 -23.86 1.37
-10.12 -23.84 1.35
-9.55 -23.82 1.34
-8.99 -23.80 1.33
-8.45 -23.78 1.32
-7.90 -23.77 1.31
-7.37 -23.75 1.30
-6.85 -23.73 1.29
-6.33 -23.71 1.28
-5.82 -23.69 1.27
-5.31 -23.68 1.26
-4.81 -23.66 1.25
-4.32 -23.64 1.25
-3.81 -23.55 1.24
-3.34 -23.61 1.24
-2.85 -23.59 1.23
-2.37 -23.58 1.23
-1.89 -23.56 1.22
-1.42 -23.54 1.22
-0.94 -23.53 1.22
-0.47 -23.51 1.21
0.00 -23.49 1.74
0.47 -23.48 1.74
0.95 -23.46 1.74
1.42 -23.44 1.74
1.89 -23.43 1.74
2.36 -23.41 1.74
2.84 -23.40 1.74
3.31 -23.38 1.75
3.79 -23.36 1.75
4.26 -23.29 1.75
4.75 -23.33 1.76
5.24 -23.31 1.76
5.73 -23.30 1.77
6.22 -23.28 1.78
6.72 -23.26 1.78
7.22 -23.24 1.79
7.73 -23.23 1.80
8.22 -23.15 1.81
8.77 -23.19 1.82
9.30 -23.17 1.83
9.83 -23.16 1.85
10.38 -23.14 1.86
10.93 -23.12 1.87
11.50 -23.10 1.89
12.07 -23.08 1.91
5.28 -9.61 0.80
13.25 -23.04 1.94
13.86 -23.02 1.96
14.49 -22.99 1.98
15.13 -22.97 2.01
15.78 -22.95 2.03
16.45 -22.93 2.06
17.14 -22.90 2.08
17.85 -22.88 2.11
18.55 -22.81 2.14
19.29 -22.77 2.17
20.07 -22.76 2.21
2.91 -3.04 0.31
2.82 -2.83 0.29
2.81 -2.72 0.28
2.93 -2.72 0.29
3.05 -2.72 0.30
18.57 -15.88 1.77
19.33 -15.87 1.81
20.12 -15.85 1.85
26.38 -19.94 2.39
23.14 -16.77 2.07
23.12 -16.06 2.03
23.56 -15.68 2.04
24.49 -15.59 2.10
25.55 -15.56 2.16
26.64 -15.50 2.22
30.26 -16.80 2.49
30.61 -16.19 2.49
30.94 -15.58 2.49
31.26 -14.97 2.49
31.57 -14.34 2.49
31.86 -13.71 2.49
32.15 -13.08 2.49
32.42 -12.43 2.49
32.67 -11.79 2.49
32.92 -11.13 2.49
31.77 -10.04 2.39
31.98 -9.40 2.39
32.18 -8.76 2.39
21.74 -5.46 1.61
20.91 -4.80 1.54
20.00 -4.17 1.46
20.02 -3.76 1.46
20.58 -3.44 1.49
20.88 -3.06 1.51
21.19 -2.67 1.53
21.39 -2.26 1.54
20.54 -1.76 1.47
19.76 -1.29 1.41
19.21 -0.87 1.37
18.63 -0.47 1.33
18.08 -0.09 1.29
17.57 0.27 1.25
17.11 0.60 1.22
16.87 0.93 1.21
16.64 1.26 1.19
16.42 1.57 1.18
16.20 1.88 1.16
15.99 2.18 1.15
15.78 2.48 1.14
15.65 2.78 1.13
15.55 3.08 1.13
15.45 3.39 1.13
15.36 3.69 1.13
15.26 3.99 1.12
15.16 4.29 1.12
15.08 4.60 1.12
15.08 4.93 1.13
15.08 5.27 1.14
15.08 5.61 1.15
15.08 5.96 1.15
15.08 6.31 1.16
15.01 6.64 1.17
15.00 7.00 1.18
14.99 7.36 1.19
14.98 7.74 1.20
14.97 8.12 1.21
14.89 8.47 1.22
14.89 8.86 1.23
14.88 9.27 1.25
14.87 9.68 1.26
14.86 10.10 1.28
14.78 10.49 1.29
14.78 10.94 1.31
14.78 11.41 1.33
14.78 11.89 1.35
14.73 12.34 1.37
14.73 12.86 1.39
14.74 13.39 1.42
14.68 13.89 1.44
14.66 14.44 1.47
14.64 15.01 1.50
14.57 15.55 1.52
14.54 16.16 1.55
14.52 16.80 1.59
14.45 17.41 1.62
14.43 18.11 1.65
14.34 18.76 1.69
14.30 19.51 1.73
14.26 20.30 1.77
15.03 22.34 1.93
15.57 24.17 2.06
15.06 24.45 2.06
14.95 25.40 2.11
16.37 29.14 2.39
15.78 29.45 2.39
15.18 29.75 2.39
14.57 30.03 2.39
13.96 30.31 2.39
13.35 30.57 2.39
12.72 30.82 2.39
12.10 31.06 2.39
11.47 31.28 2.39
10.83 31.49 2.39
10.19 31.69 2.39
9.55 31.87 2.39
8.91 32.04 2.39
8.26 32.20 2.39
7.61 32.35 2.39
6.95 32.48 2.39
6.30 32.59 2.39
5.64 32.70 2.39
4.97 32.75 2.39
4.31 32.83 2.39
3.65 32.89 2.39
2.99 32.94 2.39
2.33 32.98 2.39
1.66 33.00 2.39
1.04 34.43 2.49
0.35 34.43 2.49
-0.34 34.41 2.49
-1.03 34.38 2.49
-1.72 34.33 2.49
-2.41 34.27 2.49
-3.09 34.20 2.49
-3.78 34.11 2.49
-4.46 34.01 2.49
-5.14 33.89 2.49
-5.81 33.76 2.49
-6.49 33.62 2.49
-6.87 32.15 2.40
-7.50 31.92 2.39
-8.13 31.74 2.39
-8.76 31.55 2.39
-9.39 31.35 2.39
-10.01 31.14 2.39
-10.63 30.92 2.39
-10.67 29.12 2.27
-10.72 27.55 2.16
-10.79 26.16 2.07
-10.87 24.92 1.99
-10.99 23.88 1.93
-11.10 22.89 1.87
-11.21 21.97 1.81
-11.38 21.25 1.77
-11.62 20.69 1.74
-11.78 20.02 1.71
-11.89 19.32 1.67
-11.98 18.62 1.63
-12.07 17.94 1.59
-12.12 17.27 1.56
-12.16 16.60 1.52
-12.19 15.96 1.48
-12.21 15.34 1.45
-12.22 14.73 1.41
-12.24 14.17 1.38
-12.26 13.63 1.36
-12.31 13.14 1.33
-12.36 12.67 1.31
-12.40 12.22 1.29
-12.44 11.77 1.27
-12.49 11.36 1.25
-12.56 10.97 1.24
-12.66 10.61 1.23
-12.76 10.27 1.22
-12.87 9.93 1.21
-12.97 9.60 1.20
-13.02 9.25 1.19
-13.11 8.92 1.18
-13.19 8.59 1.17
-13.27 8.27 1.16
-13.34 7.94 1.16
-13.39 7.62 1.15
-13.41 7.27 1.14
-13.42 6.93 1.13
-13.44 6.60 1.12
-13.45 6.28 1.11
-13.47 5.96 1.10
-13.47 5.64 1.09
-13.46 5.32 1.08
-13.44 5.01 1.07
-13.42 4.69 1.06
-13.40 4.39 1.06
-13.38 4.08 1.05
-13.36 3.78 1.04
-13.37 3.50 1.04
-13.35 3.21 1.03
-13.33 2.92 1.02
-13.30 2.64 1.02
-13.27 2.36 1.01
-13.25 2.08 1.01
-13.22 1.80 1.00
-13.19 1.53 1.00
-13.14 1.26 0.99
-13.06 0.99 0.98
-12.98 0.72 0.98
-12.90 0.45 0.97
-12.82 0.19 0.96
-12.74 -0.06 0.96
-12.66 -0.32 0.95
-12.59 -0.57 0.95
-12.56 -0.82 0.95
-12.56 -1.07 0.95
-12.55 -1.33 0.95
-12.54 -1.58 0.95
-12.53 -1.84 0.95
-12.52 -2.09 0.96
-12.51 -2.35 0.96
-12.50 -2.61 0.96
-12.51 -2.87 0.97
-12.74 -3.20 0.99
-12.97 -3.53 1.01
-13.22 -3.89 1.04
-13.41 -4.24 1.06
-13.54 -4.58 1.08
-13.68 -4.94 1.10
-13.83 -5.31 1.12
-29.35 -11.94 2.39
-30.36 -13.07 2.49
-30.09 -13.68 2.49
-29.81 -14.28 2.49
-29.52 -14.88 2.49
-29.22 -15.47 2.49
-28.90 -16.05 2.49
-28.58 -16.63 2.49
-28.24 -17.20 2.49
-27.89 -17.76 2.49
-21.64 -14.40 1.96
-27.16 -18.87 2.49
-26.78 -19.42 2.49
-26.39 -19.95 2.49
-25.81 -20.34 2.48
-14.07 -11.56 1.37
-24.11 -20.62 2.39
-23.69 -21.11 2.39
-23.27 -21.58 2.39
-22.84 -22.05 2.39
-22.39 -22.51 2.39
-21.94 -22.96 2.39
-21.48 -23.40 2.39
-21.01 -23.83 2.39
-7.11 -8.75 0.85
-17.27 -24.08 2.23
-16.50 -24.01 2.19
-13.48 -20.49 1.84
-15.10 -23.98 2.13
-14.44 -23.99 2.10
-13.78 -23.97 2.07
-13.14 -23.95 2.05
-12.51 -23.92 2.02
-11.86 -23.85 2.00
-11.29 -23.88 1.98
-10.70 -23.86 1.96
-10.12 -23.84 1.94
-9.55 -23.82 1.92
-8.99 -23.80 1.90
-8.44 -23.78 1.89
-7.90 -23.77 1.87
-7.37 -23.75 1.86
-6.85 -23.73 1.84
-6.33 -23.71 1.83
-5.82 -23.69 1.82
-5.31 -23.68 1.81
-4.81 -23.66 1.80
-4.32 -23.64 1.79
-3.81 -23.55 1.78
-3.34 -23.61 1.78
-2.85 -23.59 1.77
-2.37 -23.58 1.76
-1.89 -23.56 1.76
-1.42 -23.54 1.75
-0.94 -23.53 1.75
-0.47 -23.51 1.75
0.00 -19.44 1.88
0.39 -19.43 1.88
0.78 -19.41 1.88
1.17 -19.40 1.88
1.56 -19.39 1.88
1.95 -19.37 1.88
2.35 -19.36 1.88
2.74 -19.35 1.89
3.14 -19.34 1.89
3.53 -19.33 1.90
3.93 -19.31 1.90
4.34 -19.30 1.91
4.74 -19.29 1.91
5.15 -19.27 1.92
5.56 -19.26 1.93
5.98 -19.24 1.94
6.40 -19.22 1.95
8.23 -23.15 2.36
9.27 -23.09 2.39
9.73 -22.91 2.39
10.19 -22.72 2.39
10.65 -22.52 2.39
11.11 -22.31 2.39
11.56 -22.09 2.39
5.28 -9.61 1.05
12.45 -21.63 2.39
12.88 -21.39 2.39
13.32 -21.13 2.39
13.74 -20.87 2.39
14.17 -20.60 2.39
14.58 -20.32 2.39
15.00 -20.03 2.39
15.40 -19.74 2.39
15.80 -19.43 2.39
16.19 -19.12 2.39
16.65 -18.87 2.40
17.30 -18.84 2.44
2.91 -3.04 0.40
18.47 -18.56 2.49
2.92 -2.82 0.39
11.57 -10.72 1.50
17.76 -15.81 2.26
19.93 -17.04 2.49
20.28 -16.65 2.49
20.62 -16.24 2.49
20.95 -15.83 2.49
21.27 -15.41 2.49
21.58 -14.99 2.49
21.89 -14.56 2.49
22.18 -14.12 2.49
22.47 -13.68 2.49
22.75 -13.23 2.49
23.02 -12.78 2.49
23.28 -12.32 2.49
23.53 -11.85 2.49
23.77 -11.38 2.49
23.01 -10.45 2.39
23.22 -9.99 2.39
23.42 -9.53 2.39
23.62 -9.06 2.39
23.80 -8.58 2.39
23.98 -8.11 2.39
24.14 -7.63 2.39
24.30 -7.14 2.39
24.44 -6.66 2.39
21.74 -5.45 2.11
20.91 -4.80 2.02
19.91 -4.15 1.92
19.93 -3.74 1.91
20.59 -3.44 1.97
20.64 -3.02 1.97
21.19 -2.67 2.01
19.92 -2.10 1.89
19.95 -1.70 1.88
19.76 -1.29 1.86
19.21 -0.87 1.81
18.63 -0.47 1.75
18.08 -0.09 1.70
17.56 0.27 1.65
17.11 0.60 1.61
16.87 0.93 1.59
16.64 1.26 1.57
16.42 1.57 1.55
16.20 1.88 1.53
15.99 2.18 1.52
15.78 2.48 1.50
15.65 2.78 1.49
15.55 3.08 1.49
15.45 3.39 1.49
15.36 3.69 1.48
15.26 3.99 1.48
15.16 4.29 1.48
15.08 4.60 1.48
15.08 4.93 1.49
15.08 5.27 1.50
15.08 5.61 1.51
15.08 5.96 1.52
15.08 6.31 1.54
15.01 6.64 1.54
15.00 7.00 1.55
14.99 7.36 1.57
14.98 7.74 1.58
14.97 8.12 1.60
14.89 8.47 1.61
14.89 8.86 1.63
14.88 9.27 1.65
14.87 9.68 1.67
14.86 10.10 1.69
14.78 10.49 1.70
14.78 10.94 1.73
14.78 11.41 1.75
14.78 11.89 1.78
14.73 12.34 1.81
14.73 12.86 1.84
14.74 13.39 1.87
14.68 13.89 1.90
14.66 14.44 1.93
14.64 15.01 1.97
14.57 15.55 2.00
14.54 16.16 2.05
14.52 16.80 2.09
14.45 17.41 2.13
14.43 18.11 2.18
14.34 18.76 2.22
14.30 19.51 2.28
14.26 20.29 2.34
14.19 21.09 2.39
13.76 21.36 2.39
13.32 21.63 2.39
12.88 21.88 2.39
12.44 22.13 2.39
11.99 22.37 2.39
11.53 22.60 2.39
11.08 22.82 2.39
10.61 23.03 2.39
10.14 23.23 2.39
9.67 23.43 2.39
9.20 23.61 2.39
8.72 23.78 2.39
8.24 23.94 2.39
7.75 24.10 2.39
7.27 24.24 2.39
6.78 24.37 2.39
6.28 24.49 2.39
5.79 24.61 2.39
5.28 24.67 2.39
4.79 24.77 2.39
4.29 24.85 2.39
3.78 24.92 2.39
3.28 24.98 2.39
2.78 25.03 2.39
2.28 25.07 2.39
1.77 25.10 2.39
1.32 26.21 2.49
0.79 26.22 2.49
0.27 26.22 2.49
-0.26 26.21 2.49
-0.78 26.19 2.49
-1.31 26.16 2.49
-1.83 26.11 2.49
-2.36 26.06 2.49
-2.88 26.00 2.49
-3.40 25.92 2.49
-3.91 25.84 2.49
-4.43 25.74 2.49
-4.94 25.64 2.49
-5.46 25.52 2.49
-5.96 25.40 2.49
-6.47 25.26 2.49
-6.68 24.07 2.39
-7.16 23.93 2.39
-7.64 23.77 2.39
-8.11 23.60 2.39
-8.58 23.42 2.39
-9.04 23.23 2.39
-9.50 23.04 2.39
-9.96 22.83 2.39
-10.14 22.03 2.33
-10.23 21.11 2.25
-10.40 20.39 2.20
-10.69 19.97 2.18
-10.89 19.40 2.14
-11.11 18.89 2.11
-11.38 18.49 2.09
-11.52 17.90 2.05
-11.59 17.24 2.00
-11.64 16.58 1.95
-11.68 15.95 1.91
-11.72 15.34 1.86
-11.74 14.74 1.82
-11.75 14.17 1.78
-11.79 13.64 1.74
-11.84 13.16 1.71
-11.90 12.70 1.68
-11.95 12.26 1.66
-11.99 11.82 1.63
-12.05 11.41 1.61
-12.12 11.02 1.59
-12.19 10.65 1.57
-12.29 10.31 1.55
-12.40 9.98 1.54
-12.50 9.65 1.53
-12.55 9.30 1.52
-12.56 8.92 1.50
-12.65 8.61 1.49
-12.74 8.30 1.48
-12.82 7.99 1.47
-12.91 7.69 1.46
-12.97 7.38 1.45
-13.00 7.05 1.44
-13.04 6.74 1.43
-13.07 6.42 1.42
-13.09 6.11 1.41
-13.11 5.80 1.40
-13.12 5.50 1.39
-13.11 5.18 1.37
-13.09 4.87 1.36
-13.07 4.57 1.35
-13.06 4.27 1.34
-13.04 3.98 1.33
-13.02 3.69 1.32
-13.00 3.40 1.31
-12.98 3.12 1.30
-12.96 2.84 1.30
-12.93 2.57 1.29
-12.90 2.29 1.28
-12.87 2.02 1.27
-12.85 1.75 1.27
-12.82 1.49 1.26
-12.78 1.22 1.26
-12.70 0.96 1.25
-12.63 0.70 1.24
-12.55 0.44 1.23
-12.47 0.19 1.22
-12.40 -0.06 1.21
-12.32 -0.31 1.21
-12.25 -0.55 1.20
-12.23 -0.80 1.20
-12.23 -1.05 1.20
-12.23 -1.29 1.21
-12.22 -1.54 1.21
-12.21 -1.79 1.21
-12.20 -2.04 1.21
-12.19 -2.29 1.22
-12.18 -2.54 1.22
-12.18 -2.80 1.23
-12.19 -3.06 1.23
-12.30 -3.35 1.25
-12.59 -3.70 1.29
-12.85 -4.06 1.32
-13.07 -4.42 1.35
-13.19 -4.76 1.38
-13.33 -5.11 1.40
-13.46 -5.48 1.43
-13.76 -5.92 1.47
-22.18 -10.08 2.39
-21.97 -10.52 2.39
-21.76 -10.96 2.39
-21.53 -11.40 2.39
-21.30 -11.83 2.39
-21.97 -12.78 2.49
-21.71 -13.22 2.49
-21.44 -13.66 2.49
-21.16 -14.08 2.49
-20.88 -14.51 2.49
-20.58 -14.92 2.49
-20.28 -15.34 2.49
-19.97 -15.74 2.49
-14.07 -11.56 1.79
-19.33 -16.53 2.49
-18.99 -16.92 2.49
-18.65 -17.30 2.49
-18.31 -17.68 2.49
-17.95 -18.04 2.49
-17.59 -18.40 2.49
-17.22 -18.75 2.49
-16.84 -19.10 2.49
-16.46 -19.44 2.49
-7.11 -8.75 1.10
-15.58 -19.97 2.48
-14.93 -19.95 2.44
-14.30 -19.94 2.40
-13.84 -20.14 2.39
-13.44 -20.42 2.39
-13.03 -20.69 2.39
-12.61 -20.95 2.39
-12.19 -21.21 2.39
-11.77 -21.45 2.39
-11.34 -21.69 2.39
-10.90 -21.92 2.39
-10.46 -22.14 2.39
-10.02 -22.35 2.39
-9.57 -22.56 2.39
-7.91 -19.72 2.07
-7.44 -19.68 2.05
-6.98 -19.66 2.03
-6.53 -19.64 2.02
-6.09 -19.63 2.00
-5.66 -19.62 1.99
-5.23 -19.61 1.98
-4.81 -19.60 1.96
-4.39 -19.59 1.95
-3.98 -19.58 1.94
-3.57 -19.57 1.93
-3.16 -19.56 1.93
-2.76 -19.54 1.92
-2.36 -19.53 1.91
-1.96 -19.52 1.90
-1.57 -19.50 1.90
-1.17 -19.49 1.89
-0.78 -19.47 1.89
-0.39 -19.46 1.89
0.00 -19.98 2.39
0.41 -19.98 2.39
0.81 -19.98 2.39
1.21 -19.96 2.39
1.61 -19.94 2.39
2.01 -19.91 2.39
2.41 -19.87 2.39
2.81 -19.83 2.39
3.21 -19.77 2.39
3.61 -19.71 2.39
4.00 -19.64 2.39
4.40 -19.57 2.39
4.79 -19.49 2.39
5.18 -19.39 2.39
5.57 -19.29 2.39
5.98 -19.24 2.40
6.40 -19.22 2.41
6.83 -19.21 2.42
7.26 -19.19 2.44
7.70 -19.18 2.46
8.14 -19.16 2.47
8.59 -19.15 2.49
8.98 -18.98 2.49
9.36 -18.81 2.49
9.74 -18.62 2.49
5.28 -9.61 1.30
10.49 -18.23 2.49
10.86 -18.02 2.49
11.22 -17.81 2.49
6.99 -10.61 1.50
11.94 -17.35 2.49
12.29 -17.12 2.49
12.63 -16.87 2.49
12.97 -16.62 2.49
13.31 -16.36 2.49
13.64 -16.10 2.49
13.96 -15.83 2.49
14.28 -15.55 2.49
2.91 -3.04 0.50
14.91 -14.97 2.49
15.21 -14.68 2.49
15.51 -14.37 2.49
15.80 -14.06 2.49
16.08 -13.75 2.49
16.36 -13.43 2.49
16.63 -13.10 2.49
16.90 -12.77 2.49
17.15 -12.43 2.49
17.41 -12.09 2.49
17.65 -11.74 2.49
17.89 -11.39 2.49
17.37 -10.57 2.39
17.58 -10.22 2.39
17.79 -9.87 2.39
17.99 -9.52 2.39
18.18 -9.16 2.39
18.37 -8.79 2.39
18.54 -8.42 2.39
18.71 -8.05 2.39
18.88 -7.68 2.39
19.03 -7.30 2.39
19.18 -6.92 2.39
19.35 -6.54 2.39
19.48 -6.15 2.39
19.60 -5.76 2.39
19.72 -5.37 2.39
19.83 -4.97 2.39
19.93 -4.58 2.39
19.82 -4.13 2.37
19.84 -3.72 2.36
20.18 -3.37 2.39
20.25 -2.97 2.39
20.31 -2.56 2.39
20.36 -2.15 2.39
19.43 -1.66 2.28
19.76 -1.29 2.31
19.21 -0.87 2.25
18.63 -0.47 2.18
17.41 -0.09 2.03
17.56 0.27 2.05
17.10 0.60 2.00
16.87 0.93 1.97
16.64 1.26 1.95
16.42 1.57 1.93
16.20 1.88 1.90
15.99 2.18 1.88
15.78 2.48 1.86
15.65 2.78 1.86
15.55 3.08 1.85
15.45 3.39 1.85
15.36 3.69 1.84
15.26 3.99 1.84
15.16 4.29 1.84
15.08 4.60 1.84
15.08 4.93 1.85
15.08 5.27 1.86
15.08 5.61 1.88
15.08 5.96 1.89
15.08 6.31 1.91
15.01 6.64 1.91
15.00 7.00 1.93
14.99 7.36 1.95
14.98 7.74 1.97
14.97 8.12 1.99
14.89 8.47 2.00
14.89 8.86 2.02
14.88 9.27 2.04
14.87 9.68 2.07
14.86 10.10 2.10
14.78 10.49 2.12
14.78 10.94 2.15
14.78 11.41 2.18
14.78 11.89 2.21
14.73 12.34 2.24
14.73 12.86 2.28
14.74 13.39 2.33
14.68 13.89 2.36
14.61 14.38 2.39
14.31 14.67 2.39
14.01 14.96 2.39
13.71 15.23 2.39
13.40 15.50 2.39
13.08 15.76 2.39
12.76 16.02 2.39
12.43 16.27 2.39
12.10 16.51 2.39
11.77 16.75 2.39
11.43 16.98 2.39
11.08 17.20 2.39
10.73 17.42 2.39
10.38 17.63 2.39
10.02 17.83 2.39
9.66 18.02 2.39
9.29 18.21 2.39
8.92 18.39 2.39
8.55 18.56 2.39
8.17 18.72 2.39
7.79 18.88 2.39
7.41 19.02 2.39
7.03 19.16 2.39
6.64 19.29 2.39
6.25 19.42 2.39
5.86 19.54 2.39
5.45 19.62 2.39
5.06 19.72 2.39
4.66 19.81 2.39
4.26 19.89 2.39
3.86 19.97 2.39
3.46 20.04 2.39
3.05 20.09 2.39
2.65 20.15 2.39
2.24 20.19 2.39
1.84 20.22 2.39
1.49 21.12 2.49
1.07 21.14 2.49
0.64 21.15 2.49
0.22 21.15 2.49
-0.21 21.15 2.49
-0.63 21.13 2.49
-1.06 21.11 2.49
-1.48 21.07 2.49
-1.90 21.03 2.49
-2.32 20.98 2.49
-2.74 20.93 2.49
-3.16 20.86 2.49
-3.58 20.78 2.49
-3.99 20.70 2.49
-4.40 20.61 2.49
-4.82 20.51 2.49
-5.22 20.40 2.49
-5.63 20.29 2.49
-6.03 20.16 2.49
-6.44 20.03 2.49
-6.55 19.06 2.39
-6.93 18.92 2.39
-7.31 18.77 2.39
-7.68 18.62 2.39
-8.05 18.45 2.39
-8.41 18.28 2.39
-8.78 18.10 2.39
-9.13 17.91 2.39
-9.49 17.72 2.39
-9.84 17.52 2.39
-10.11 17.18 2.37
-10.28 16.70 2.33
-10.48 16.28 2.31
-10.67 15.87 2.28
-10.87 15.49 2.26
-11.04 15.07 2.23
-11.15 14.61 2.19
-11.26 14.15 2.16
-11.32 13.65 2.12
-11.38 13.18 2.08
-11.45 12.73 2.04
-11.51 12.29 2.01
-11.56 11.86 1.98
-11.62 11.46 1.95
-11.70 11.08 1.93
-11.78 10.71 1.90
-11.85 10.35 1.88
-11.95 10.02 1.87
-12.05 9.70 1.85
-12.11 9.36 1.83
-12.13 8.99 1.81
-12.15 8.63 1.79
-12.22 8.31 1.77
-12.31 8.02 1.76
-12.39 7.72 1.75
-12.46 7.42 1.74
-12.47 7.09 1.72
-12.48 6.77 1.71
-12.52 6.47 1.69
-12.56 6.17 1.68
-12.59 5.88 1.67
-12.62 5.59 1.66
-12.63 5.29 1.65
-12.60 4.98 1.63
-12.59 4.69 1.62
-12.57 4.40 1.60
-12.55 4.11 1.59
-12.53 3.83 1.58
-12.51 3.55 1.57
-12.51 3.28 1.56
-12.53 3.01 1.55
-12.51 2.74 1.54
-12.48 2.48 1.53
-12.46 2.21 1.53
-12.43 1.95 1.52
-12.41 1.69 1.51
-12.38 1.44 1.50
-12.36 1.18 1.50
-12.34 0.93 1.49
-12.29 0.68 1.49
-12.21 0.43 1.48
-12.14 0.18 1.47
-12.07 -0.06 1.46
-12.00 -0.30 1.45
-11.93 -0.54 1.44
-11.91 -0.78 1.44
-11.91 -1.02 1.44
-11.91 -1.26 1.45
-11.92 -1.50 1.45
-11.91 -1.74 1.45
-11.89 -1.99 1.46
-11.88 -2.23 1.46
-11.87 -2.48 1.47
-11.86 -2.72 1.47
-11.87 -2.98 1.48
-11.88 -3.24 1.49
-11.89 -3.50 1.50
-12.15 -3.84 1.54
-12.43 -4.21 1.59
-12.72 -4.59 1.64
-12.86 -4.93 1.67
-12.98 -5.28 1.69
-13.11 -5.64 1.73
-13.24 -6.02 1.76
-14.51 -6.95 1.95
-17.66 -8.90 2.39
-17.47 -9.25 2.39
-17.29 -9.60 2.39
-17.09 -9.94 2.39
-16.89 -10.29 2.39
-16.68 -10.62 2.39
-16.46 -10.96 2.39
-16.24 -11.29 2.39
-16.01 -11.61 2.39
-15.78 -11.93 2.39
-16.21 -12.77 2.49
-14.07 -11.56 2.20
-15.68 -13.42 2.49
-15.41 -13.73 2.49
-15.13 -14.04 2.49
-14.85 -14.34 2.49
-14.56 -14.64 2.49
-14.27 -14.93 2.49
-13.97 -15.21 2.49
-13.66 -15.49 2.49
-13.35 -15.77 2.49
-7.09 -8.73 1.36
-12.71 -16.30 2.49
-12.38 -16.55 2.49
-12.05 -16.80 2.49
-11.71 -17.04 2.49
-11.37 -17.28 2.49
-11.02 -17.50 2.49
-10.67 -17.73 2.49
-10.31 -17.94 2.49
-9.95 -18.15 2.49
-9.59 -18.35 2.49
-9.22 -18.54 2.49
-8.85 -18.73 2.49
-8.47 -18.90 2.49
-8.09 -19.07 2.49
-7.71 -19.24 2.49
-7.33 -19.39 2.49
-6.94 -19.54 2.49
-6.54 -19.67 2.49
-6.10 -19.65 2.47
-5.66 -19.64 2.46
-5.24 -19.62 2.44
-4.81 -19.61 2.42
-4.39 -19.59 2.41
-3.98 -19.58 2.40
-3.58 -19.60 2.39
-3.18 -19.67 2.39
-2.78 -19.69 2.39
-2.39 -19.80 2.39
-1.99 -19.85 2.39
-1.60 -19.89 2.39
-1.20 -19.92 2.39
-0.80 -19.95 2.39
-0.40 -19.97 2.39
0.00 -17.49 2.49
0.36 -17.49 2.49
0.71 -17.49 2.49
1.06 -17.47 2.49
1.41 -17.45 2.49
1.76 -17.43 2.49
2.11 -17.39 2.49
2.46 -17.35 2.49
2.81 -17.31 2.49
3.16 -17.25 2.49
3.50 -17.19 2.49
3.85 -17.12 2.49
4.19 -17.04 2.49
4.54 -16.96 2.49
4.88 -16.87 2.49
5.22 -16.78 2.49
5.55 -16.67 2.49
5.89 -16.56 2.49
6.22 -16.45 2.49
6.55 -16.32 2.49
6.88 -16.19 2.49
7.21 -16.06 2.49
7.53 -15.91 2.49
7.85 -15.77 2.49
4.97 -9.49 1.52
5.26 -9.58 1.55
8.79 -15.28 2.49
9.10 -15.10 2.49
9.40 -14.92 2.49
9.71 -14.73 2.49
10.00 -14.54 2.49
10.29 -14.34 2.49
10.58 -14.14 2.49
10.87 -13.93 2.49
11.15 -13.71 2.49
9.15 -10.80 2.00
11.70 -13.26 2.49
11.96 -13.02 2.49
2.91 -3.04 0.59
12.48 -12.54 2.49
11.12 -10.73 2.18
12.99 -12.04 2.49
13.23 -11.78 2.49
13.47 -11.51 2.49
13.13 -10.78 2.39
13.35 -10.51 2.39
13.56 -10.25 2.39
13.77 -9.98 2.39
13.97 -9.70 2.39
14.16 -9.42 2.39
14.35 -9.14 2.39
14.54 -8.85 2.39
14.72 -8.56 2.39
14.89 -8.26 2.39
15.05 -7.96 2.39
15.21 -7.66 2.39
15.37 -7.36 2.39
15.52 -7.05 2.39
15.68 -6.75 2.39
15.82 -6.43 2.39
15.95 -6.11 2.39
16.07 -5.79 2.39
16.19 -5.47 2.39
16.30 -5.15 2.39
16.40 -4.82 2.39
16.50 -4.49 2.39
16.59 -4.16 2.39
16.67 -3.83 2.39
16.75 -3.49 2.39
16.82 -3.16 2.39
16.88 -2.82 2.39
16.93 -2.48 2.39
16.98 -2.14 2.39
17.03 -1.80 2.39
17.06 -1.46 2.39
17.09 -1.11 2.39
17.11 -0.77 2.39
17.12 -0.43 2.39
17.13 -0.08 2.39
17.13 0.26 2.39
17.13 0.60 2.39
16.87 0.93 2.36
16.64 1.26 2.33
16.42 1.57 2.30
16.20 1.88 2.28
15.99 2.18 2.25
15.78 2.48 2.23
15.65 2.78 2.22
15.55 3.08 2.21
15.45 3.39 2.21
15.35 3.69 2.20
15.26 3.99 2.20
15.16 4.29 2.20
15.08 4.60 2.20
15.08 4.93 2.21
15.08 5.27 2.23
15.08 5.61 2.25
15.08 5.96 2.26
15.08 6.31 2.28
15.01 6.64 2.29
15.00 7.00 2.31
14.99 7.36 2.33
14.98 7.74 2.35
14.97 8.12 2.38
14.91 8.48 2.39
14.74 8.77 2.39
14.56 9.07 2.39
14.38 9.36 2.39
14.18 9.64 2.39
13.99 9.93 2.39
13.78 10.20 2.39
13.58 10.48 2.39
13.36 10.75 2.39
13.14 11.01 2.39
12.92 11.27 2.39
12.69 11.53 2.39
12.45 11.78 2.39
12.21 12.03 2.39
11.97 12.27 2.39
11.72 12.50 2.39
11.46 12.74 2.39
11.20 12.96 2.39
10.94 13.18 2.39
10.67 13.40 2.39
10.40 13.61 2.39
10.12 13.81 2.39
9.84 14.01 2.39
9.56 14.20 2.39
9.27 14.39 2.39
8.98 14.57 2.39
8.68 14.74 2.39
8.38 14.91 2.39
8.08 15.07 2.39
7.77 15.23 2.39
7.46 15.38 2.39
7.15 15.52 2.39
6.84 15.66 2.39
6.52 15.79 2.39
6.20 15.92 2.39
5.88 16.03 2.39
5.55 16.12 2.39
5.22 16.23 2.39
4.89 16.32 2.39
4.57 16.42 2.39
4.23 16.50 2.39
3.90 16.58 2.39
3.57 16.65 2.39
3.23 16.71 2.39
2.89 16.77 2.39
2.56 16.82 2.39
2.22 16.86 2.39
1.88 16.90 2.39
1.60 17.66 2.49
1.25 17.68 2.49
0.89 17.70 2.49
0.54 17.71 2.49
0.18 17.71 2.49
-0.17 17.71 2.49
-0.53 17.70 2.49
-0.88 17.68 2.49
-1.24 17.65 2.49
-1.59 17.62 2.49
-1.94 17.58 2.49
-2.30 17.53 2.49
-2.65 17.47 2.49
-3.00 17.41 2.49
-3.34 17.34 2.49
-3.69 17.27 2.49
-4.03 17.19 2.49
-4.38 17.10 2.49
-4.72 17.00 2.49
-5.06 16.90 2.49
-5.39 16.79 2.49
-5.73 16.67 2.49
-6.06 16.55 2.49
-6.31 16.23 2.47
-6.44 15.61 2.39
-6.75 15.47 2.39
-7.05 15.33 2.39
-7.36 15.18 2.39
-7.66 15.02 2.39
-7.95 14.86 2.39
-8.25 14.69 2.39
-8.54 14.52 2.39
-8.83 14.34 2.39
-9.11 14.16 2.39
-9.39 13.97 2.39
-9.67 13.77 2.39
-9.94 13.57 2.39
-10.19 13.34 2.39
-10.35 13.01 2.36
-10.52 12.69 2.34
-10.69 12.38 2.33
-10.86 12.07 2.31
-11.02 11.77 2.30
-11.19 11.48 2.28
-11.29 11.13 2.26
-11.37 10.77 2.23
-11.45 10.41 2.21
-11.52 10.06 2.18
-11.62 9.74 2.16
-11.69 9.41 2.14
-11.72 9.05 2.11
-11.74 8.70 2.09
-11.76 8.35 2.06
-11.81 8.04 2.04
-11.90 7.75 2.03
-11.98 7.46 2.02
-11.99 7.14 1.99
-12.00 6.82 1.97
-12.01 6.51 1.95
-12.04 6.22 1.94
-12.08 5.94 1.93
-12.11 5.66 1.91
-12.13 5.37 1.90
-12.11 5.07 1.88
-12.10 4.78 1.86
-12.08 4.50 1.85
-12.06 4.22 1.83
-12.05 3.95 1.82
-12.04 3.67 1.80
-12.03 3.41 1.79
-12.04 3.15 1.78
-12.06 2.90 1.78
-12.07 2.65 1.77
-12.06 2.39 1.76
-12.04 2.14 1.75
-12.02 1.89 1.75
-12.00 1.64 1.74
-11.97 1.39 1.73
-11.96 1.15 1.72
-11.94 0.90 1.72
-11.92 0.66 1.71
-11.90 0.42 1.71
-11.83 0.18 1.70
-11.76 -0.06 1.69
-11.69 -0.29 1.68
-11.62 -0.52 1.67
-11.60 -0.76 1.67
-11.60 -0.99 1.67
-11.61 -1.23 1.68
-11.61 -1.46 1.68
-11.61 -1.70 1.69
-11.60 -1.94 1.69
-11.59 -2.18 1.70
-11.58 -2.42 1.70
-11.56 -2.66 1.71
-11.57 -2.90 1.72
-11.58 -3.15 1.73
-11.58 -3.41 1.74
-11.59 -3.66 1.75
-11.73 -3.97 1.78
-11.99 -4.33 1.83
-12.26 -4.70 1.89
-12.24 -4.98 1.90
-12.54 -5.40 1.96
-12.77 -5.80 2.02
-12.89 -6.17 2.06
-13.57 -6.84 2.19
-13.57 -7.18 2.21
-13.57 -7.54 2.23
-13.97 -8.13 2.33
-14.20 -8.65 2.39
-14.02 -8.93 2.39
-13.84 -9.21 2.39
-13.65 -9.49 2.39
-13.46 -9.76 2.39
-13.26 -10.03 2.39
-13.06 -10.29 2.39
-12.85 -10.55 2.39
-12.64 -10.81 2.39
-12.42 -11.06 2.39
-12.20 -11.31 2.39
-11.97 -11.56 2.39
-12.24 -12.30 2.49
-11.99 -12.55 2.49
-11.74 -12.79 2.49
-11.48 -13.02 2.49
-11.22 -13.25 2.49
-7.09 -8.72 1.61
-10.68 -13.70 2.49
-10.40 -13.91 2.49
-10.12 -14.12 2.49
-9.84 -14.32 2.49
-9.55 -14.52 2.49
-9.26 -14.71 2.49
-8.97 -14.89 2.49
-8.67 -15.07 2.49
-8.36 -15.25 2.49
-8.06 -15.42 2.49
-7.75 -15.58 2.49
-7.43 -15.73 2.49
-7.12 -15.88 2.49
-6.80 -16.02 2.49
-6.48 -16.16 2.49
-6.15 -16.29 2.49
-5.83 -16.41 2.49
-5.50 -16.53 2.49
-5.16 -16.64 2.49
-4.83 -16.75 2.49
-4.49 -16.84 2.49
-4.16 -16.94 2.49
-3.82 -17.02 2.49
-3.47 -17.10 2.49
-3.13 -17.17 2.49
-2.79 -17.23 2.49
-2.44 -17.29 2.49
-2.09 -17.34 2.49
-1.75 -17.38 2.49
-1.40 -17.42 2.49
-1.05 -17.45 2.49
-0.70 -17.47 2.49
-0.35 -17.48 2.49
0.00 -15.06 2.49
0.31 -15.06 2.49
0.61 -15.05 2.49
0.91 -15.04 2.49
1.21 -15.02 2.49
1.52 -15.00 2.49
1.82 -14.97 2.49
2.12 -14.93 2.49
2.42 -14.89 2.49
2.72 -14.84 2.49
3.01 -14.79 2.49
3.31 -14.73 2.49
3.61 -14.67 2.49
3.90 -14.59 2.49
4.20 -14.52 2.49
4.49 -14.43 2.49
4.78 -14.34 2.49
5.07 -14.25 2.49
5.35 -14.15 2.49
5.64 -14.04 2.49
5.92 -13.93 2.49
6.20 -13.81 2.49
6.48 -13.69 2.49
6.75 -13.56 2.49
4.96 -9.47 1.76
5.26 -9.58 1.80
7.56 -13.14 2.49
7.83 -12.99 2.49
8.09 -12.83 2.49
8.35 -12.67 2.49
8.60 -12.50 2.49
8.85 -12.33 2.49
9.10 -12.15 2.49
9.34 -11.97 2.49
8.80 -10.82 2.29
9.82 -11.59 2.49
9.64 -10.92 2.39
6.43 -7.00 1.56
2.91 -3.04 0.69
7.21 -7.24 1.67
7.43 -7.17 1.69
7.58 -7.02 1.69
7.70 -6.85 1.69
7.75 -6.63 1.67
7.29 -5.98 1.54
11.47 -9.03 2.39
11.65 -8.80 2.39
11.83 -8.57 2.39
12.00 -8.33 2.39
12.17 -8.09 2.39
12.33 -7.85 2.39
12.49 -7.60 2.39
12.64 -7.35 2.39
12.79 -7.10 2.39
12.95 -6.85 2.39
13.09 -6.59 2.39
13.22 -6.33 2.39
13.35 -6.06 2.39
13.47 -5.79 2.39
13.58 -5.52 2.39
13.70 -5.25 2.39
13.80 -4.98 2.39
13.90 -4.70 2.39
13.99 -4.42 2.39
14.08 -4.14 2.39
14.17 -3.86 2.39
14.24 -3.57 2.39
14.31 -3.29 2.39
14.38 -3.00 2.39
14.44 -2.71 2.39
14.49 -2.42 2.39
14.54 -2.13 2.39
14.58 -1.84 2.39
14.62 -1.54 2.39
14.65 -1.25 2.39
14.67 -0.96 2.39
14.69 -0.66 2.39
14.70 -0.37 2.39
14.71 -0.07 2.39
14.71 0.22 2.39
14.70 0.52 2.39
14.69 0.81 2.39
14.67 1.11 2.39
14.65 1.40 2.39
14.62 1.70 2.39
14.58 1.99 2.39
14.54 2.28 2.39
14.49 2.57 2.39
14.44 2.86 2.39
14.38 3.15 2.39
14.31 3.44 2.39
14.24 3.73 2.39
14.17 4.01 2.39
14.08 4.30 2.39
13.99 4.58 2.39
13.90 4.86 2.39
13.80 5.14 2.39
13.69 5.41 2.39
13.58 5.69 2.39
13.47 5.96 2.39
13.34 6.23 2.39
13.22 6.49 2.39
13.08 6.76 2.39
12.94 7.02 2.39
12.80 7.28 2.39
12.65 7.53 2.39
12.50 7.78 2.39
12.34 8.03 2.39
12.17 8.28 2.39
12.01 8.52 2.39
11.83 8.76 2.39
11.65 8.99 2.39
11.47 9.23 2.39
11.28 9.45 2.39
11.09 9.68 2.39
10.89 9.90 2.39
10.69 10.11 2.39
10.48 10.32 2.39
10.27 10.53 2.39
10.06 10.73 2.39
9.84 10.93 2.39
9.62 11.13 2.39
9.39 11.32 2.39
9.16 11.50 2.39
8.93 11.68 2.39
8.69 11.86 2.39
8.45 12.03 2.39
8.21 12.19 2.39
7.96 12.35 2.39
7.71 12.51 2.39
7.45 12.66 2.39
7.20 12.80 2.39
6.94 12.94 2.39
6.68 13.08 2.39
6.41 13.21 2.39
6.14 13.33 2.39
5.87 13.45 2.39
5.59 13.54 2.39
5.32 13.65 2.39
5.04 13.75 2.39
4.77 13.85 2.39
4.49 13.94 2.39
4.20 14.02 2.39
3.92 14.10 2.39
3.64 14.17 2.39
3.35 14.24 2.39
3.06 14.30 2.39
2.78 14.36 2.39
2.49 14.41 2.39
2.20 14.45 2.39
1.91 14.49 2.39
1.68 15.15 2.49
1.38 15.17 2.49
1.07 15.20 2.49
0.77 15.21 2.49
0.46 15.22 2.49
0.16 15.22 2.49
-0.15 15.22 2.49
-0.45 15.21 2.49
-0.76 15.19 2.49
-1.06 15.17 2.49
-1.37 15.14 2.49
-1.67 15.11 2.49
-1.97 15.07 2.49
-2.27 15.02 2.49
-2.57 14.97 2.49
-2.87 14.91 2.49
-3.17 14.85 2.49
-3.47 14.78 2.49
-3.76 14.70 2.49
-4.06 14.62 2.49
-4.35 14.53 2.49
-4.64 14.43 2.49
-4.92 14.33 2.49
-5.21 14.23 2.49
-5.49 14.12 2.49
-5.77 14.00 2.49
-6.05 13.88 2.49
-6.22 13.52 2.45
-6.33 13.05 2.39
-6.59 12.92 2.39
-6.84 12.78 2.39
-7.10 12.64 2.39
-7.35 12.49 2.39
-7.59 12.34 2.39
-7.84 12.18 2.39
-8.08 12.02 2.39
-8.32 11.85 2.39
-8.55 11.68 2.39
-8.78 11.50 2.39
-9.01 11.32 2.39
-9.23 11.13 2.39
-9.45 10.94 2.39
-9.66 10.75 2.39
-9.88 10.55 2.39
-10.08 10.35 2.39
-10.66 10.51 2.48
-10.87 10.30 2.48
-11.08 10.08 2.48
-11.21 9.79 2.47
-11.28 9.46 2.44
-11.31 9.11 2.41
-11.34 8.76 2.38
-11.37 8.42 2.35
-11.39 8.09 2.32
-11.43 7.78 2.29
-11.51 7.50 2.28
-11.53 7.19 2.25
-11.55 6.88 2.23
-11.56 6.58 2.21
-11.58 6.28 2.19
-11.59 5.99 2.17
-11.63 5.72 2.15
-11.66 5.45 2.14
-11.65 5.16 2.12
-11.64 4.88 2.10
-11.63 4.60 2.08
-11.61 4.32 2.06
-11.60 4.06 2.04
-11.59 3.79 2.03
-11.58 3.53 2.01
-11.59 3.28 2.00
-11.60 3.04 2.00
-11.62 2.80 1.99
-11.64 2.55 1.98
-11.65 2.31 1.98
-11.65 2.07 1.97
-11.63 1.83 1.96
-11.61 1.59 1.95
-11.59 1.35 1.94
-11.58 1.11 1.94
-11.56 0.87 1.93
-11.54 0.64 1.93
-11.52 0.41 1.92
-11.50 0.17 1.92
-11.46 -0.06 1.91
-11.40 -0.28 1.90
-11.33 -0.51 1.89
-11.31 -0.74 1.89
-11.31 -0.97 1.89
-11.31 -1.20 1.90
-11.31 -1.43 1.90
-11.31 -1.66 1.91
-11.31 -1.89 1.91
-11.31 -2.12 1.92
-11.29 -2.36 1.93
-11.28 -2.59 1.93
-11.28 -2.83 1.94
-11.29 -3.07 1.95
-11.29 -3.32 1.96
-11.30 -3.57 1.98
-11.30 -3.82 1.99
-11.33 -4.09 2.01
-11.56 -4.44 2.07
-11.73 -4.77 2.11
-11.70 -5.04 2.13
-11.67 -5.31 2.14
-11.64 -5.58 2.15
-12.00 -6.05 2.24
-12.66 -6.70 2.39
-12.71 -7.06 2.43
-12.70 -7.39 2.45
-12.69 -7.73 2.48
-12.67 -8.07 2.51
-11.93 -7.94 2.39
-11.76 -8.18 2.39
-11.60 -8.41 2.39
-11.43 -8.64 2.39
-11.25 -8.87 2.39
-11.07 -9.10 2.39
-10.89 -9.32 2.39
-10.70 -9.53 2.39
-10.51 -9.75 2.39
-10.31 -9.96 2.39
-10.11 -10.16 2.39
-9.91 -10.37 2.39
-9.70 -10.56 2.39
-9.48 -10.76 2.39
-9.27 -10.95 2.39
-7.09 -8.72 1.87
-9.20 -11.80 2.49
-8.96 -11.98 2.49
-8.72 -12.16 2.49
-8.48 -12.34 2.49
-8.23 -12.51 2.49
-7.98 -12.67 2.49
-7.72 -12.83 2.49
-7.47 -12.99 2.49
-7.20 -13.14 2.49
-6.94 -13.28 2.49
-6.67 -13.42 2.49
-6.40 -13.55 2.49
-6.13 -13.68 2.49
-5.86 -13.80 2.49
-5.58 -13.92 2.49
-5.30 -14.03 2.49
-5.02 -14.14 2.49
-4.73 -14.24 2.49
-4.45 -14.33 2.49
-4.16 -14.42 2.49
-3.87 -14.51 2.49
-3.58 -14.58 2.49
-3.29 -14.66 2.49
-2.99 -14.72 2.49
-2.70 -14.78 2.49
-2.40 -14.84 2.49
-2.10 -14.89 2.49
-1.80 -14.93 2.49
-1.50 -14.96 2.49
-1.20 -14.99 2.49
-0.90 -15.02 2.49
-0.60 -15.04 2.49
-0.30 -15.05 2.49
0.00 -13.21 2.49
0.27 -13.21 2.49
0.54 -13.20 2.49
0.80 -13.19 2.49
1.07 -13.17 2.49
1.33 -13.15 2.49
1.59 -13.13 2.49
1.86 -13.09 2.49
2.12 -13.06 2.49
2.38 -13.02 2.49
2.64 -12.97 2.49
2.90 -12.91 2.49
3.16 -12.86 2.49
3.42 -12.79 2.49
3.68 -12.73 2.49
3.93 -12.65 2.49
4.19 -12.57 2.49
4.44 -12.49 2.49
4.69 -12.40 2.49
4.94 -12.31 2.49
5.19 -12.21 2.49
5.43 -12.10 2.49
5.68 -12.00 2.49
5.92 -11.88 2.49
4.96 -9.47 2.01
5.26 -9.58 2.05
6.63 -11.51 2.49
6.86 -11.38 2.49
7.09 -11.24 2.49
7.01 -10.64 2.39
7.22 -10.50 2.39
7.43 -10.36 2.39
7.64 -10.21 2.39
7.85 -10.05 2.39
8.05 -9.90 2.39
8.25 -9.73 2.39
8.44 -9.57 2.39
8.64 -9.40 2.39
2.91 -3.04 0.79
6.49 -6.51 1.72
6.53 -6.30 1.70
6.65 -6.17 1.70
6.79 -6.04 1.70
7.00 -5.99 1.72
7.36 -6.04 1.78
10.05 -7.91 2.39
10.20 -7.71 2.39
10.36 -7.51 2.39
10.51 -7.30 2.39
10.66 -7.09 2.39
10.81 -6.88 2.39
10.95 -6.67 2.39
11.09 -6.45 2.39
11.22 -6.22 2.39
11.34 -6.00 2.39
11.46 -5.77 2.39
11.58 -5.54 2.39
9.30 -4.22 1.91
9.28 -3.99 1.88
9.44 -3.84 1.90
11.99 -4.60 2.39
12.08 -4.36 2.39
12.17 -4.11 2.39
12.25 -3.87 2.39
12.33 -3.62 2.39
12.40 -3.38 2.39
12.47 -3.13 2.39
12.53 -2.88 2.39
12.59 -2.62 2.39
12.64 -2.37 2.39
12.69 -2.12 2.39
12.73 -1.86 2.39
12.76 -1.61 2.39
12.79 -1.35 2.39
12.82 -1.09 2.39
12.84 -0.84 2.39
12.86 -0.58 2.39
12.87 -0.32 2.39
12.87 -0.06 2.39
12.87 0.20 2.39
12.87 0.45 2.39
12.86 0.71 2.39
12.84 0.97 2.39
12.82 1.23 2.39
12.79 1.48 2.39
12.76 1.74 2.39
12.73 2.00 2.39
12.68 2.25 2.39
12.64 2.51 2.39
12.58 2.76 2.39
12.53 3.01 2.39
12.46 3.26 2.39
12.40 3.51 2.39
12.32 3.76 2.39
12.25 4.01 2.39
12.16 4.25 2.39
12.08 4.50 2.39
11.98 4.74 2.39
11.89 4.98 2.39
11.78 5.21 2.39
11.68 5.45 2.39
11.57 5.68 2.39
11.45 5.91 2.39
11.33 6.14 2.39
11.20 6.37 2.39
11.07 6.59 2.39
10.94 6.81 2.39
10.80 7.03 2.39
10.65 7.24 2.39
10.51 7.46 2.39
10.35 7.67 2.39
10.20 7.87 2.39
10.04 8.07 2.39
9.87 8.27 2.39
9.70 8.47 2.39
9.53 8.66 2.39
9.36 8.85 2.39
9.17 9.04 2.39
8.99 9.22 2.39
8.80 9.39 2.39
8.61 9.57 2.39
8.42 9.74 2.39
8.22 9.90 2.39
8.02 10.07 2.39
7.81 10.22 2.39
7.61 10.38 2.39
7.40 10.53 2.39
7.18 10.67 2.39
6.97 10.81 2.39
6.75 10.95 2.39
6.52 11.08 2.39
6.30 11.21 2.39
6.07 11.33 2.39
5.84 11.43 2.39
5.60 11.55 2.39
5.37 11.65 2.39
5.14 11.76 2.39
4.90 11.86 2.39
4.66 11.95 2.39
4.42 12.04 2.39
4.17 12.12 2.39
3.93 12.20 2.39
3.68 12.28 2.39
3.43 12.35 2.39
3.19 12.41 2.39
2.93 12.47 2.39
2.68 12.52 2.39
2.43 12.57 2.39
2.18 12.62 2.39
1.92 12.65 2.39
1.74 13.24 2.49
1.48 13.27 2.49
1.21 13.29 2.49
0.94 13.31 2.49
0.67 13.32 2.49
0.41 13.33 2.49
0.14 13.33 2.49
-0.13 13.33 2.49
-0.40 13.32 2.49
-0.66 13.31 2.49
-0.93 13.29 2.49
-1.20 13.26 2.49
-1.46 13.24 2.49
-1.73 13.20 2.49
-1.99 13.16 2.49
-2.25 13.11 2.49
-2.52 13.06 2.49
-2.78 13.01 2.49
-3.04 12.95 2.49
-3.30 12.88 2.49
-3.55 12.81 2.49
-3.81 12.73 2.49
-4.06 12.65 2.49
-4.31 12.56 2.49
-4.56 12.47 2.49
-4.81 12.37 2.49
-5.06 12.27 2.49
-5.30 12.16 2.49
-5.54 12.05 2.49
-5.78 11.94 2.49
-6.02 11.81 2.49
-6.15 11.49 2.45
-6.22 11.08 2.39
-6.44 10.95 2.39
-6.66 10.82 2.39
-6.87 10.68 2.39
-7.08 10.54 2.39
-7.29 10.39 2.39
-7.50 10.24 2.39
-7.70 10.08 2.39
-7.90 9.92 2.39
-8.09 9.76 2.39
-8.28 9.60 2.39
-8.47 9.42 2.39
-8.66 9.25 2.39
-8.84 9.07 2.39
-9.02 8.89 2.39
-9.19 8.71 2.39
-9.37 8.52 2.39
-9.53 8.33 2.39
-9.70 8.13 2.39
-9.86 7.93 2.39
-10.01 7.73 2.39
-10.88 8.06 2.56
-10.97 7.79 2.54
-11.05 7.52 2.53
-11.09 7.23 2.50
-11.11 6.93 2.48
-11.13 6.63 2.45
-11.15 6.34 2.43
-11.17 6.06 2.41
-11.19 5.78 2.38
-11.22 5.51 2.37
-11.21 5.24 2.34
-11.21 4.96 2.32
-11.20 4.69 2.30
-11.19 4.43 2.28
-11.18 4.16 2.26
-11.17 3.91 2.24
-11.15 3.65 2.22
-11.15 3.41 2.21
-11.17 3.17 2.20
-11.19 2.93 2.19
-11.21 2.70 2.19
-11.23 2.46 2.18
-11.24 2.23 2.18
-11.26 2.00 2.17
-11.27 1.77 2.16
-11.25 1.54 2.15
-11.23 1.30 2.15
-11.22 1.08 2.14
-11.20 0.85 2.13
-11.19 0.62 2.13
-11.17 0.39 2.12
-11.15 0.17 2.12
-11.13 -0.05 2.11
-11.11 -0.28 2.11
-11.05 -0.50 2.10
-11.03 -0.72 2.10
-11.03 -0.94 2.10
-11.03 -1.17 2.11
-11.03 -1.39 2.11
-11.03 -1.62 2.12
-11.03 -1.84 2.13
-11.03 -2.07 2.13
-11.02 -2.30 2.14
-11.01 -2.53 2.15
-11.01 -2.76 2.16
-11.01 -3.00 2.17
-11.01 -3.24 2.18
-11.02 -3.48 2.20
-11.02 -3.73 2.21
-11.02 -3.97 2.23
-11.02 -4.23 2.24
-11.16 -4.54 2.29
-11.22 -4.83 2.32
-11.19 -5.09 2.34
-11.16 -5.35 2.35
-11.13 -5.61 2.37
-11.09 -5.87 2.39
-11.06 -6.14 2.40
-11.39 -6.63 2.51
-11.37 -6.93 2.53
-11.26 -7.17 2.54
-11.14 -7.41 2.54
-11.01 -7.65 2.55
-10.18 -7.38 2.39
-10.03 -7.59 2.39
-9.88 -7.79 2.39
-9.72 -7.98 2.39
-9.56 -8.18 2.39
-9.39 -8.37 2.39
-9.22 -8.56 2.39
-9.05 -8.74 2.39
-8.87 -8.92 2.39
-8.69 -9.10 2.39
-8.51 -9.27 2.39
-8.32 -9.44 2.39
-8.13 -9.61 2.39
-7.09 -8.72 2.13
-7.74 -9.93 2.39
-7.54 -10.08 2.39
-7.65 -10.68 2.49
-7.44 -10.83 2.49
-7.22 -10.98 2.49
-7.00 -11.12 2.49
-6.78 -11.26 2.49
-6.55 -11.40 2.49
-6.32 -11.53 2.49
-6.09 -11.65 2.49
-5.86 -11.77 2.49
-5.62 -11.89 2.49
-5.38 -12.00 2.49
-5.14 -12.11 2.49
-4.89 -12.21 2.49
-4.65 -12.31 2.49
-4.40 -12.40 2.49
-4.15 -12.49 2.49
-3.90 -12.58 2.49
-3.65 -12.65 2.49
-3.39 -12.73 2.49
-3.14 -12.79 2.49
-2.88 -12.86 2.49
-2.62 -12.91 2.49
-2.36 -12.97 2.49
-2.10 -13.01 2.49
-1.84 -13.06 2.49
-1.58 -13.09 2.49
-1.32 -13.13 2.49
-1.05 -13.15 2.49
-0.79 -13.17 2.49
-0.53 -13.19 2.49
-0.26 -13.20 2.49
0.00 -11.75 2.49
0.24 -11.75 2.49
0.48 -11.74 2.49
0.71 -11.73 2.49
0.95 -11.72 2.49
1.18 -11.70 2.49
1.42 -11.68 2.49
1.65 -11.65 2.49
1.89 -11.61 2.49
2.12 -11.58 2.49
2.35 -11.53 2.49
2.58 -11.49 2.49
2.81 -11.43 2.49
3.04 -11.38 2.49
3.27 -11.32 2.49
3.50 -11.25 2.49
3.73 -11.18 2.49
3.95 -11.11 2.49
4.17 -11.03 2.49
4.39 -10.94 2.49
4.61 -10.86 2.49
4.83 -10.76 2.49
5.05 -10.67 2.49
5.26 -10.56 2.49
4.96 -9.47 2.26
5.26 -9.58 2.31
5.65 -9.81 2.39
5.85 -9.70 2.39
6.04 -9.58 2.39
6.23 -9.46 2.39
6.42 -9.33 2.39
6.61 -9.21 2.39
6.79 -9.07 2.39
6.98 -8.94 2.39
7.16 -8.80 2.39
7.33 -8.65 2.39
7.51 -8.51 2.39
7.68 -8.36 2.39
2.91 -3.04 0.89
6.60 -6.63 1.97
6.63 -6.40 1.94
6.75 -6.25 1.94
6.90 -6.14 1.95
7.16 -6.12 1.98
8.78 -7.21 2.39
8.94 -7.04 2.39
9.08 -6.86 2.39
9.22 -6.68 2.39
9.35 -6.49 2.39
9.48 -6.31 2.39
9.61 -6.12 2.39
9.73 -5.92 2.39
9.85 -5.73 2.39
9.97 -5.53 2.39
10.08 -5.33 2.39
10.18 -5.13 2.39
10.29 -4.92 2.39
10.38 -4.71 2.39
10.48 -4.51 2.39
10.57 -4.30 2.39
10.65 -4.08 2.39
10.73 -3.87 2.39
10.81 -3.65 2.39
10.88 -3.44 2.39
10.95 -3.22 2.39
11.02 -3.00 2.39
11.08 -2.78 2.39
11.13 -2.55 2.39
11.18 -2.33 2.39
11.23 -2.11 2.39
11.27 -1.88 2.39
11.31 -1.65 2.39
11.34 -1.43 2.39
11.37 -1.20 2.39
11.39 -0.97 2.39
11.41 -0.74 2.39
11.42 -0.51 2.39
11.43 -0.28 2.39
11.43 -0.06 2.39
11.43 0.17 2.39
11.43 0.40 2.39
11.42 0.63 2.39
11.40 0.86 2.39
11.39 1.09 2.39
11.36 1.32 2.39
11.33 1.55 2.39
11.30 1.77 2.39
11.26 2.00 2.39
11.22 2.23 2.39
11.18 2.45 2.39
11.13 2.67 2.39
11.07 2.90 2.39
11.01 3.12 2.39
10.95 3.34 2.39
10.88 3.56 2.39
10.80 3.78 2.39
10.73 3.99 2.39
10.64 4.21 2.39
10.56 4.42 2.39
10.47 4.63 2.39
10.37 4.84 2.39
10.27 5.05 2.39
10.17 5.25 2.39
10.06 5.45 2.39
9.95 5.66 2.39
9.83 5.85 2.39
9.71 6.05 2.39
9.59 6.24 2.39
9.46 6.43 2.39
9.33 6.62 2.39
9.20 6.81 2.39
9.06 6.99 2.39
8.91 7.17 2.39
8.77 7.35 2.39
8.62 7.52 2.39
8.47 7.69 2.39
8.31 7.86 2.39
8.15 8.02 2.39
7.99 8.19 2.39
7.82 8.34 2.39
7.65 8.50 2.39
7.48 8.65 2.39
7.30 8.80 2.39
7.12 8.94 2.39
6.94 9.08 2.39
6.76 9.22 2.39
6.57 9.35 2.39
6.38 9.48 2.39
6.19 9.60 2.39
5.99 9.73 2.39
5.79 9.83 2.39
5.59 9.94 2.39
5.39 10.05 2.39
5.18 10.16 2.39
4.98 10.26 2.39
4.77 10.35 2.39
4.56 10.45 2.39
4.35 10.53 2.39
4.14 10.62 2.39
3.92 10.70 2.39
3.71 10.77 2.39
3.49 10.84 2.39
3.27 10.91 2.39
3.05 10.97 2.39
2.83 11.03 2.39
2.61 11.08 2.39
2.39 11.13 2.39
2.16 11.17 2.39
1.94 11.21 2.39
1.78 11.73 2.49
1.55 11.76 2.49
1.31 11.79 2.49
1.07 11.81 2.49
0.84 11.83 2.49
0.60 11.84 2.49
0.36 11.85 2.49
0.12 11.85 2.49
-0.11 11.85 2.49
-0.35 11.84 2.49
-0.59 11.83 2.49
-0.83 11.81 2.49
-1.06 11.79 2.49
-1.30 11.76 2.49
-1.53 11.73 2.49
-1.77 11.70 2.49
-2.00 11.66 2.49
-2.24 11.61 2.49
-2.47 11.56 2.49
-2.70 11.51 2.49
-2.93 11.45 2.49
-3.16 11.39 2.49
-3.39 11.32 2.49
-3.61 11.25 2.49
-3.84 11.17 2.49
-4.06 11.09 2.49
-4.28 11.00 2.49
-4.50 10.91 2.49
-4.72 10.82 2.49
-4.93 10.72 2.49
-5.14 10.61 2.49
-5.35 10.51 2.49
-5.56 10.39 2.49
-5.77 10.28 2.49
-5.97 10.16 2.49
-6.10 9.91 2.46
-6.11 9.50 2.39
-6.30 9.37 2.39
-6.48 9.24 2.39
-6.67 9.11 2.39
-6.85 8.97 2.39
-7.02 8.83 2.39
-7.20 8.68 2.39
-7.37 8.54 2.39
-7.54 8.38 2.39
-7.70 8.23 2.39
-7.86 8.07 2.39
-8.02 7.91 2.39
-8.18 7.75 2.39
-8.33 7.58 2.39
-8.48 7.41 2.39
-8.63 7.24 2.39
-8.77 7.06 2.39
-8.91 6.88 2.39
-9.04 6.70 2.39
-9.17 6.52 2.39
-9.30 6.33 2.39
-9.42 6.14 2.39
-9.54 5.95 2.39
-9.66 5.75 2.39
-9.77 5.56 2.39
-9.88 5.36 2.39
-10.54 5.45 2.52
-10.55 5.19 2.50
-10.56 4.93 2.48
-10.56 4.68 2.46
-10.57 4.43 2.44
-10.56 4.18 2.42
-10.56 3.93 2.40
-10.55 3.69 2.38
-10.55 3.45 2.36
-10.58 3.23 2.36
-10.63 3.01 2.35
-10.68 2.80 2.35
-10.73 2.58 2.35
-10.78 2.37 2.35
-10.82 2.15 2.35
-10.86 1.93 2.35
-10.89 1.71 2.35
-10.90 1.49 2.35
-10.89 1.26 2.34
-10.88 1.04 2.33
-10.86 0.82 2.32
-10.85 0.60 2.32
-10.83 0.38 2.31
-10.80 0.16 2.30
-10.77 -0.05 2.30
-10.73 -0.27 2.29
-10.70 -0.48 2.29
-10.68 -0.70 2.28
-10.70 -0.91 2.29
-10.72 -1.13 2.30
-10.73 -1.35 2.31
-10.74 -1.57 2.32
-10.75 -1.80 2.33
-10.75 -2.02 2.34
-10.75 -2.24 2.34
-10.74 -2.47 2.35
-10.74 -2.69 2.36
-10.74 -2.93 2.38
-10.74 -3.16 2.39
-10.75 -3.40 2.41
-10.74 -3.63 2.42
-10.74 -3.88 2.44
-10.74 -4.12 2.46
-10.74 -4.37 2.48
-10.76 -4.63 2.50
-10.75 -4.88 2.52
-10.71 -5.13 2.54
-10.68 -5.38 2.55
-10.64 -5.63 2.57
-10.58 -5.87 2.58
-10.48 -6.10 2.59
-9.56 -5.82 2.39
-9.44 -6.01 2.39
-9.32 -6.20 2.39
-9.19 -6.39 2.39
-9.06 -6.57 2.39
-8.93 -6.75 2.39
-8.79 -6.93 2.39
-8.65 -7.11 2.39
-8.51 -7.28 2.39
-8.36 -7.45 2.39
-8.21 -7.62 2.39
-8.06 -7.78 2.39
-7.90 -7.94 2.39
-7.74 -8.10 2.39
-7.58 -8.25 2.39
-7.41 -8.40 2.39
-7.24 -8.55 2.39
-7.07 -8.70 2.39
-6.89 -8.84 2.39
-6.71 -8.98 2.39
-6.81 -9.50 2.49
-6.62 -9.64 2.49
-6.43 -9.77 2.49
-6.23 -9.90 2.49
-6.03 -10.02 2.49
-5.83 -10.14 2.49
-5.63 -10.26 2.49
-5.42 -10.37 2.49
-5.21 -10.48 2.49
-5.00 -10.58 2.49
-4.79 -10.68 2.49
-4.57 -10.78 2.49
-4.36 -10.87 2.49
-4.14 -10.96 2.49
-3.92 -11.04 2.49
-3.69 -11.12 2.49
-3.47 -11.19 2.49
-3.25 -11.26 2.49
-3.02 -11.33 2.49
-2.79 -11.39 2.49
-2.56 -11.44 2.49
-2.33 -11.49 2.49
-2.10 -11.54 2.49
-1.87 -11.58 2.49
-1.64 -11.62 2.49
-1.41 -11.65 2.49
-1.17 -11.68 2.49
-0.94 -11.70 2.49
-0.70 -11.72 2.49
-0.47 -11.73 2.49
-0.23 -11.74 2.49
0.00 -10.57 2.49
0.22 -10.57 2.49
0.43 -10.57 2.49
0.64 -10.56 2.49
0.85 -10.54 2.49
1.07 -10.53 2.49
1.28 -10.50 2.49
1.49 -10.48 2.49
1.70 -10.45 2.49
1.91 -10.41 2.49
2.12 -10.38 2.49
2.32 -10.33 2.49
2.53 -10.29 2.49
2.74 -10.24 2.49
2.94 -10.18 2.49
3.15 -10.12 2.49
3.35 -10.06 2.49
3.55 -9.99 2.49
3.75 -9.92 2.49
3.95 -9.84 2.49
4.15 -9.76 2.49
4.35 -9.68 2.49
4.35 -9.20 2.39
4.54 -9.11 2.39
4.72 -9.02 2.39
4.90 -8.92 2.39
5.08 -8.82 2.39
5.26 -8.72 2.39
5.43 -8.62 2.39
5.61 -8.51 2.39
5.78 -8.39 2.39
5.94 -8.28 2.39
6.11 -8.16 2.39
6.27 -8.04 2.39
6.44 -7.91 2.39
6.59 -7.78 2.39
6.75 -7.65 2.39
6.90 -7.51 2.39
2.91 -3.04 0.99
7.20 -7.23 2.39
6.74 -6.50 2.19
6.89 -6.38 2.20
7.28 -6.47 2.28
7.39 -6.32 2.28
7.91 -6.49 2.39
8.04 -6.33 2.39
8.16 -6.17 2.39
8.29 -6.00 2.39
8.41 -5.84 2.39
8.53 -5.67 2.39
8.64 -5.50 2.39
8.75 -5.32 2.39
8.86 -5.15 2.39
8.96 -4.97 2.39
9.06 -4.79 2.39
9.15 -4.61 2.39
9.25 -4.42 2.39
9.33 -4.24 2.39
9.42 -4.05 2.39
9.50 -3.86 2.39
9.58 -3.67 2.39
9.65 -3.48 2.39
9.72 -3.28 2.39
9.78 -3.09 2.39
9.84 -2.89 2.39
9.90 -2.69 2.39
9.95 -2.50 2.39
10.00 -2.30 2.39
10.05 -2.09 2.39
10.09 -1.89 2.39
10.13 -1.69 2.39
10.16 -1.49 2.39
10.19 -1.28 2.39
10.21 -1.08 2.39
10.23 -0.87 2.39
10.25 -0.67 2.39
10.26 -0.46 2.39
10.27 -0.26 2.39
10.27 -0.05 2.39
10.27 0.16 2.39
10.27 0.36 2.39
10.26 0.57 2.39
10.25 0.77 2.39
10.23 0.98 2.39
10.21 1.19 2.39
10.19 1.39 2.39
10.16 1.59 2.39
10.12 1.80 2.39
10.08 2.00 2.39
10.04 2.20 2.39
10.00 2.40 2.39
9.95 2.60 2.39
9.89 2.80 2.39
9.84 3.00 2.39
9.77 3.20 2.39
9.71 3.39 2.39
9.64 3.59 2.39
9.56 3.78 2.39
9.49 3.97 2.39
9.40 4.16 2.39
9.32 4.35 2.39
9.23 4.53 2.39
9.14 4.72 2.39
9.04 4.90 2.39
8.94 5.08 2.39
8.84 5.26 2.39
8.73 5.44 2.39
8.62 5.61 2.39
8.50 5.78 2.39
8.38 5.95 2.39
8.26 6.12 2.39
8.14 6.28 2.39
8.01 6.44 2.39
7.88 6.60 2.39
7.74 6.76 2.39
7.61 6.91 2.39
7.47 7.06 2.39
7.32 7.21 2.39
7.18 7.36 2.39
7.03 7.50 2.39
6.87 7.64 2.39
6.72 7.77 2.39
6.56 7.91 2.39
6.40 8.03 2.39
6.24 8.16 2.39
6.07 8.28 2.39
5.90 8.39 2.39
5.73 8.51 2.39
5.55 8.62 2.39
5.38 8.73 2.39
5.20 8.83 2.39
5.02 8.94 2.39
4.84 9.03 2.39
4.66 9.13 2.39
4.48 9.22 2.39
4.29 9.30 2.39
4.10 9.39 2.39
3.91 9.47 2.39
3.72 9.54 2.39
3.53 9.61 2.39
3.33 9.68 2.39
3.14 9.74 2.39
2.94 9.80 2.39
2.74 9.86 2.39
2.54 9.91 2.39
2.34 9.96 2.39
2.14 10.00 2.39
1.96 10.11 2.41
1.82 10.51 2.49
1.60 10.54 2.49
1.39 10.57 2.49
1.18 10.60 2.49
0.97 10.62 2.49
0.75 10.63 2.49
0.54 10.64 2.49
0.33 10.65 2.49
0.11 10.65 2.49
-0.10 10.65 2.49
-0.32 10.65 2.49
-0.53 10.63 2.49
-0.74 10.62 2.49
-0.96 10.60 2.49
-1.17 10.58 2.49
-1.38 10.55 2.49
-1.59 10.52 2.49
-1.80 10.48 2.49
-2.01 10.44 2.49
-2.22 10.40 2.49
-2.43 10.35 2.49
-2.63 10.30 2.49
-2.84 10.24 2.49
-3.04 10.18 2.49
-3.25 10.11 2.49
-3.45 10.04 2.49
-3.65 9.97 2.49
-3.85 9.89 2.49
-4.04 9.81 2.49
-4.24 9.73 2.49
-4.43 9.64 2.49
-4.63 9.55 2.49
-4.82 9.45 2.49
-5.00 9.35 2.49
-5.19 9.25 2.49
-5.37 9.14 2.49
-5.55 9.03 2.49
-5.73 8.91 2.49
-5.91 8.79 2.49
-6.05 8.63 2.48
-6.05 8.26 2.41
-6.16 8.07 2.39
-6.32 7.94 2.39
-6.47 7.81 2.39
-6.63 7.68 2.39
-6.78 7.54 2.39
-6.93 7.40 2.39
-7.08 7.26 2.39
-7.22 7.12 2.39
-7.36 6.97 2.39
-7.50 6.82 2.39
-7.63 6.67 2.39
-7.76 6.51 2.39
-7.89 6.35 2.39
-8.01 6.19 2.39
-8.13 6.03 2.39
-8.25 5.86 2.39
-8.37 5.70 2.39
-8.48 5.53 2.39
-8.59 5.35 2.39
-8.69 5.18 2.39
-8.79 5.00 2.39
-8.89 4.82 2.39
-8.98 4.64 2.39
-9.07 4.46 2.39
-9.16 4.28 2.39
-9.24 4.09 2.39
-9.32 3.91 2.39
-9.40 3.72 2.39
-9.47 3.53 2.39
-9.54 3.34 2.39
-9.60 3.14 2.39
-9.66 2.95 2.39
-9.72 2.76 2.39
-9.77 2.56 2.39
-9.82 2.36 2.39
-10.02 2.20 2.43
-10.06 2.00 2.43
-10.10 1.80 2.43
-10.14 1.59 2.43
-10.16 1.39 2.43
-10.17 1.18 2.43
-10.18 0.98 2.42
-10.18 0.77 2.42
-10.16 0.56 2.41
-10.14 0.36 2.40
-10.11 0.15 2.40
-10.09 -0.05 2.39
-10.06 -0.25 2.38
-10.02 -0.45 2.38
-10.01 -0.65 2.38
-10.01 -0.85 2.38
-10.00 -1.06 2.39
-10.00 -1.26 2.39
-10.00 -1.46 2.40
-10.01 -1.67 2.41
-10.01 -1.88 2.42
-10.01 -2.09 2.42
-10.00 -2.30 2.43
-10.00 -2.51 2.45
-9.98 -2.72 2.45
-9.67 -2.84 2.39
-9.61 -3.04 2.39
-9.55 -3.23 2.39
-9.48 -3.42 2.39
-9.41 -3.61 2.39
-9.33 -3.80 2.39
-9.26 -3.98 2.39
-9.17 -4.17 2.39
