ply
format ascii 1.0
element vertex 2851
property float32 x
property float32 y
property float32 z
end_header
-7.71 32.86 2.39
-8.36 32.66 2.39
-9.01 32.45 2.39
-9.64 32.22 2.39
-10.28 31.99 2.39
-11.53 33.55 2.53
-11.31 30.90 2.35
-10.99 28.24 2.16
-10.98 26.62 2.06
-10.89 24.98 1.95
-10.85 23.59 1.86
-10.91 22.50 1.79
-10.96 21.50 1.73
-11.05 20.65 1.69
-11.14 19.84 1.64
-11.23 19.10 1.60
-11.29 18.34 1.56
-11.34 17.63 1.52
-11.39 16.95 1.48
-11.44 16.30 1.44
-11.53 15.74 1.42
-11.65 15.26 1.40
-11.77 14.79 1.38
-11.87 14.32 1.36
-11.96 13.85 1.34
-12.02 13.37 1.31
-12.08 12.91 1.29
-12.14 12.46 1.28
-12.20 12.03 1.26
-12.23 11.58 1.24
-12.25 11.15 1.22
-12.28 10.73 1.20
-12.30 10.32 1.18
-12.33 9.92 1.17
-12.33 9.53 1.15
-12.34 9.14 1.14
-12.36 8.78 1.12
-12.37 8.42 1.11
-12.39 8.07 1.10
-12.41 7.74 1.09
-12.45 7.42 1.08
-12.48 7.10 1.07
-12.50 6.78 1.06
-12.53 6.48 1.06
-12.55 6.17 1.05
-12.58 5.88 1.04
-12.63 5.59 1.04
-12.69 5.32 1.03
-12.77 5.05 1.03
-12.85 4.79 1.03
-12.92 4.52 1.03
-13.00 4.26 1.03
-13.08 3.99 1.03
-13.15 3.73 1.03
-13.21 3.46 1.03
-13.26 3.19 1.03
-13.32 2.92 1.04
-13.38 2.66 1.04
-13.43 2.39 1.04
-13.47 2.12 1.04
-13.48 1.84 1.04
-13.49 1.57 1.04
-13.50 1.29 1.04
-13.50 1.02 1.04
-13.51 0.75 1.04
-13.52 0.48 1.04
-13.53 0.21 1.04
-13.52 -0.06 1.04
-13.51 -0.34 1.04
-13.49 -0.61 1.04
-13.47 -0.88 1.04
-13.45 -1.15 1.04
-13.42 -1.42 1.04
-13.40 -1.69 1.04
-13.38 -1.96 1.04
-13.39 -2.24 1.05
-13.37 -2.51 1.05
-13.34 -2.78 1.05
-13.30 -3.05 1.06
-13.27 -3.33 1.06
-13.24 -3.60 1.06
-13.21 -3.88 1.07
-13.17 -4.16 1.07
-13.11 -4.43 1.07
-13.03 -4.70 1.08
-12.95 -4.96 1.08
-12.86 -5.23 1.08
-12.77 -5.50 1.08
-12.68 -5.76 1.08
-12.60 -6.03 1.09
-12.51 -6.30 1.09
-12.50 -6.61 1.10
-12.49 -6.94 1.11
-12.48 -7.26 1.13
-12.46 -7.59 1.14
-12.44 -7.92 1.15
-12.42 -8.26 1.16
-12.43 -8.63 1.18
-12.84 -9.31 1.24
-13.37 -10.11 1.31
-13.61 -10.73 1.35
-13.88 -11.39 1.40
-24.26 -20.75 2.49
-23.83 -21.23 2.49
-23.40 -21.70 2.49
-22.96 -22.17 2.49
-22.51 -22.62 2.49
-22.05 -23.07 2.49
-21.58 -23.51 2.49
-21.11 -23.94 2.49
-20.63 -24.36 2.49
-20.14 -24.77 2.49
-19.64 -25.18 2.49
-19.13 -25.57 2.49
-18.36 -25.60 2.46
-17.59 -25.59 2.42
-16.84 -25.59 2.39
-16.33 -25.93 2.39
-15.81 -26.26 2.39
-15.28 -26.58 2.39
-14.75 -26.89 2.39
-14.21 -27.19 2.39
-13.67 -27.48 2.39
-13.12 -27.76 2.39
-12.57 -28.03 2.39
-12.01 -28.29 2.39
-11.44 -28.54 2.39
-10.87 -28.78 2.39
-10.30 -29.01 2.39
-9.72 -29.23 2.39
-7.91 -25.48 2.07
-7.35 -25.46 2.05
-6.79 -25.44 2.04
-6.24 -25.44 2.03
-5.70 -25.43 2.02
-5.17 -25.43 2.01
-4.64 -25.42 2.00
-4.11 -25.42 1.99
-3.59 -25.41 1.98
-3.07 -25.41 1.97
-2.55 -25.41 1.97
-2.04 -25.40 1.96
-1.53 -25.40 1.96
-1.01 -25.40 1.95
-0.50 -25.39 1.95
0.01 -25.09 2.49
0.51 -25.10 2.49
1.02 -25.10 2.49
1.52 -25.09 2.49
2.03 -25.08 2.49
2.53 -25.05 2.49
3.04 -25.01 2.49
3.54 -24.97 2.49
4.04 -24.91 2.49
4.55 -24.84 2.49
5.05 -24.77 2.49
5.55 -24.68 2.49
6.05 -24.59 2.49
6.55 -24.48 2.49
7.04 -24.36 2.49
7.54 -24.24 2.49
8.03 -24.10 2.49
8.52 -23.96 2.49
6.28 -16.59 1.74
9.49 -23.64 2.49
9.97 -23.47 2.49
10.45 -23.28 2.49
10.93 -23.09 2.49
11.40 -22.89 2.49
11.87 -22.68 2.49
12.33 -22.45 2.49
9.76 -16.95 1.90
13.25 -21.98 2.49
13.70 -21.73 2.49
14.15 -21.48 2.49
11.64 -16.92 1.99
15.03 -20.93 2.49
15.46 -20.65 2.49
15.89 -20.35 2.49
16.31 -20.05 2.49
16.73 -19.74 2.49
17.14 -19.42 2.49
17.54 -19.09 2.49
17.94 -18.75 2.49
18.33 -18.41 2.49
18.71 -18.05 2.49
18.31 -16.96 2.39
18.66 -16.60 2.39
19.01 -16.24 2.39
19.35 -15.87 2.39
19.68 -15.50 2.39
20.01 -15.12 2.39
20.33 -14.73 2.39
20.64 -14.33 2.39
20.95 -13.93 2.39
21.24 -13.52 2.39
21.53 -13.10 2.39
21.84 -12.70 2.39
21.96 -12.18 2.38
19.66 -10.40 2.10
20.15 -10.14 2.13
20.44 -9.78 2.14
20.74 -9.42 2.15
19.14 -8.23 1.96
20.85 -8.47 2.12
19.20 -7.36 1.93
17.99 -6.48 1.80
16.99 -5.74 1.68
16.67 -5.26 1.64
16.37 -4.81 1.60
16.07 -4.37 1.56
15.80 -3.96 1.52
15.60 -3.58 1.50
15.50 -3.23 1.48
15.40 -2.89 1.46
15.29 -2.55 1.44
15.20 -2.22 1.43
15.05 -1.89 1.41
15.06 -1.59 1.41
15.07 -1.28 1.40
15.07 -0.98 1.40
15.08 -0.68 1.40
15.09 -0.37 1.40
15.10 -0.07 1.40
15.11 0.23 1.40
15.03 0.53 1.39
15.03 0.83 1.39
15.03 1.14 1.39
15.03 1.44 1.39
15.03 1.75 1.39
15.03 2.05 1.40
14.96 2.35 1.39
14.96 2.66 1.40
14.96 2.97 1.40
14.96 3.28 1.41
14.96 3.60 1.41
14.96 3.92 1.42
14.89 4.22 1.42
14.90 4.55 1.43
14.91 4.88 1.44
14.92 5.22 1.45
14.93 5.56 1.46
14.88 5.88 1.46
14.89 6.24 1.48
14.90 6.59 1.49
14.91 6.96 1.51
14.92 7.33 1.52
14.87 7.68 1.53
14.86 8.06 1.54
14.86 8.45 1.56
14.85 8.85 1.58
14.79 9.21 1.59
14.79 9.63 1.61
14.78 10.05 1.63
14.78 10.49 1.65
14.72 10.90 1.67
14.72 11.36 1.70
14.71 11.84 1.72
14.64 12.27 1.74
14.63 12.77 1.77
14.61 13.28 1.80
14.56 13.78 1.83
14.64 14.42 1.87
15.10 15.48 1.97
15.99 17.07 2.13
16.04 17.83 2.19
15.62 18.07 2.18
15.19 18.31 2.17
15.86 19.91 2.32
15.93 20.85 2.39
15.51 21.16 2.39
15.08 21.46 2.39
14.64 21.76 2.39
14.20 22.04 2.39
13.75 22.32 2.39
13.30 22.58 2.39
12.83 22.83 2.39
12.37 23.08 2.39
11.90 23.32 2.39
11.43 23.54 2.39
10.95 23.76 2.39
10.46 23.96 2.39
9.98 24.16 2.39
9.49 24.34 2.39
8.99 24.52 2.39
8.49 24.68 2.39
7.99 24.84 2.39
7.49 24.98 2.39
6.98 25.11 2.39
6.47 25.23 2.39
5.96 25.34 2.39
2.30 10.75 1.01
4.93 25.51 2.39
4.42 25.58 2.39
3.90 25.65 2.39
3.38 25.71 2.39
2.86 25.75 2.39
2.34 25.79 2.39
1.82 25.81 2.39
1.36 26.94 2.49
0.82 26.94 2.49
0.28 26.93 2.49
-0.26 26.91 2.49
-0.80 26.88 2.49
-1.34 26.84 2.49
-1.88 26.79 2.49
-2.41 26.72 2.49
-2.94 26.65 2.49
-3.48 26.56 2.49
-4.00 26.46 2.49
-4.53 26.36 2.49
-5.05 26.24 2.49
-5.58 26.11 2.49
-6.09 25.97 2.49
-6.33 24.75 2.39
-6.82 24.59 2.39
-7.31 24.43 2.39
-7.79 24.26 2.39
-8.27 24.07 2.39
-8.74 23.88 2.39
-9.21 23.68 2.39
-9.67 23.47 2.39
-9.97 22.88 2.35
-10.04 21.83 2.27
-10.10 20.84 2.19
-10.21 20.04 2.13
-10.29 19.23 2.06
-10.40 18.53 2.01
-10.50 17.86 1.96
-10.59 17.22 1.92
-10.69 16.61 1.88
-10.77 16.03 1.84
-10.90 15.53 1.81
-11.13 15.20 1.80
-11.28 14.77 1.77
-11.40 14.33 1.75
-11.49 13.86 1.72
-11.57 13.40 1.69
-11.64 12.94 1.67
-11.70 12.50 1.64
-11.77 12.08 1.62
-11.81 11.64 1.59
-11.84 11.21 1.57
-11.87 10.80 1.54
-11.90 10.40 1.52
-11.93 10.01 1.50
-11.94 9.62 1.48
-11.96 9.24 1.46
-11.97 8.87 1.44
-11.99 8.52 1.42
-12.01 8.17 1.41
-12.03 7.84 1.39
-12.07 7.52 1.38
-12.10 7.21 1.37
-12.13 6.91 1.36
-12.16 6.60 1.35
-12.19 6.30 1.34
-12.22 6.01 1.33
-12.26 5.73 1.32
-12.31 5.45 1.32
-12.36 5.18 1.31
-12.43 4.92 1.31
-12.51 4.66 1.31
-12.58 4.40 1.31
-12.66 4.15 1.31
-12.73 3.89 1.31
-12.75 3.62 1.30
-12.79 3.35 1.30
-12.85 3.09 1.30
-12.92 2.84 1.30
-12.98 2.58 1.31
-13.04 2.32 1.31
-13.10 2.06 1.31
-13.14 1.80 1.31
-13.15 1.53 1.31
-13.16 1.26 1.31
-13.17 1.00 1.31
-13.18 0.73 1.31
-13.19 0.47 1.31
-13.20 0.20 1.31
-13.20 -0.06 1.31
-13.19 -0.33 1.31
-13.17 -0.59 1.31
-13.15 -0.86 1.31
-13.13 -1.12 1.31
-13.11 -1.38 1.32
-13.08 -1.65 1.32
-13.06 -1.91 1.32
-13.04 -2.18 1.32
-13.01 -2.44 1.32
-12.97 -2.70 1.33
-12.94 -2.97 1.33
-12.90 -3.23 1.33
-12.86 -3.50 1.34
-12.82 -3.77 1.34
-12.77 -4.03 1.34
-12.73 -4.30 1.35
-12.70 -4.58 1.35
-12.61 -4.84 1.36
-12.53 -5.09 1.36
-12.44 -5.35 1.36
-12.36 -5.61 1.36
-12.27 -5.87 1.37
-12.18 -6.14 1.37
-12.12 -6.41 1.38
-12.12 -6.73 1.39
-12.11 -7.05 1.41
-12.10 -7.37 1.43
-12.08 -7.69 1.44
-12.05 -8.02 1.46
-12.03 -8.36 1.48
-12.04 -8.73 1.50
-12.05 -9.11 1.52
-12.67 -9.98 1.63
-13.11 -10.76 1.71
-13.35 -11.42 1.77
-17.70 -15.77 2.39
-17.38 -16.12 2.39
-17.05 -16.47 2.39
-16.72 -16.80 2.39
-16.38 -17.14 2.39
-16.03 -17.46 2.39
-16.36 -18.55 2.49
-15.98 -18.88 2.49
-15.60 -19.19 2.49
-15.21 -19.51 2.49
-14.82 -19.81 2.49
-14.42 -20.11 2.49
-14.02 -20.40 2.49
-13.61 -20.68 2.49
-13.19 -20.95 2.49
-12.77 -21.22 2.49
-12.35 -21.47 2.49
-11.92 -21.72 2.49
-11.48 -21.96 2.49
-11.04 -22.20 2.49
-10.60 -22.42 2.49
-10.15 -22.64 2.49
-9.69 -22.85 2.49
-9.24 -23.04 2.49
-8.78 -23.23 2.49
-8.31 -23.42 2.49
-7.84 -23.59 2.49
-7.37 -23.75 2.49
-6.90 -23.91 2.49
-6.42 -24.05 2.49
-5.94 -24.19 2.49
-5.45 -24.31 2.49
-4.96 -24.43 2.49
-4.48 -24.54 2.49
-3.98 -24.64 2.49
-3.49 -24.73 2.49
-3.00 -24.81 2.49
-2.50 -24.88 2.49
-2.00 -24.94 2.49
-1.50 -24.99 2.49
-1.00 -25.03 2.49
-0.50 -25.06 2.49
0.01 -20.41 2.49
0.42 -20.41 2.49
0.83 -20.41 2.49
1.24 -20.40 2.49
1.65 -20.39 2.49
2.06 -20.36 2.49
2.47 -20.33 2.49
2.88 -20.29 2.49
3.29 -20.24 2.49
3.70 -20.18 2.49
4.10 -20.12 2.49
4.51 -20.05 2.49
4.91 -19.96 2.49
5.32 -19.88 2.49
5.72 -19.78 2.49
4.91 -15.77 2.00
6.52 -19.56 2.49
6.92 -19.44 2.49
6.28 -16.59 2.14
7.70 -19.18 2.49
8.09 -19.03 2.49
8.48 -18.88 2.49
8.86 -18.72 2.49
6.23 -12.50 1.68
6.41 -12.24 1.66
6.65 -12.10 1.66
6.96 -12.08 1.67
10.29 -17.07 2.39
10.64 -16.87 2.39
10.98 -16.67 2.39
11.33 -16.46 2.39
11.66 -16.24 2.39
12.00 -16.02 2.39
12.33 -15.78 2.39
12.65 -15.55 2.39
12.97 -15.30 2.39
13.29 -15.05 2.39
13.60 -14.79 2.39
13.90 -14.53 2.39
14.20 -14.26 2.39
14.50 -13.98 2.39
14.79 -13.70 2.39
15.07 -13.41 2.39
15.37 -13.13 2.39
15.65 -12.83 2.39
15.91 -12.53 2.39
16.17 -12.22 2.39
16.43 -11.90 2.39
16.68 -11.58 2.39
16.92 -11.25 2.39
17.16 -10.91 2.39
17.39 -10.58 2.39
17.61 -10.23 2.39
17.83 -9.89 2.39
18.04 -9.53 2.39
18.24 -9.18 2.39
18.43 -8.82 2.39
18.62 -8.45 2.39
18.80 -8.08 2.39
18.97 -7.71 2.39
19.14 -7.33 2.39
17.99 -6.48 2.23
16.99 -5.74 2.09
16.67 -5.26 2.04
16.36 -4.80 1.99
16.07 -4.37 1.94
15.79 -3.96 1.89
15.60 -3.58 1.86
15.50 -3.23 1.84
15.39 -2.88 1.82
15.29 -2.55 1.80
15.19 -2.22 1.78
15.05 -1.89 1.76
15.06 -1.59 1.75
15.07 -1.28 1.75
15.07 -0.98 1.75
15.08 -0.68 1.74
15.09 -0.37 1.74
15.10 -0.07 1.74
15.11 0.23 1.74
15.03 0.53 1.73
15.03 0.84 1.73
15.03 1.14 1.73
15.03 1.44 1.74
15.03 1.75 1.74
15.03 2.05 1.74
14.96 2.35 1.74
14.96 2.66 1.74
14.96 2.97 1.75
14.96 3.28 1.76
14.96 3.60 1.76
14.96 3.92 1.77
14.89 4.22 1.77
14.90 4.55 1.78
14.91 4.88 1.80
14.92 5.22 1.81
14.93 5.56 1.82
14.88 5.88 1.83
14.89 6.24 1.84
14.90 6.60 1.86
14.91 6.96 1.88
14.92 7.34 1.90
14.87 7.68 1.91
14.86 8.06 1.93
14.86 8.45 1.95
14.85 8.85 1.97
14.79 9.22 1.99
14.79 9.63 2.01
14.78 10.05 2.04
14.78 10.49 2.07
14.72 10.90 2.09
14.72 11.36 2.12
14.71 11.84 2.15
14.64 12.27 2.18
14.63 12.77 2.21
14.61 13.28 2.25
14.56 13.78 2.28
14.64 14.42 2.34
14.67 15.04 2.39
14.36 15.33 2.39
14.05 15.62 2.39
13.73 15.89 2.39
13.41 16.16 2.39
13.08 16.43 2.39
12.75 16.69 2.39
12.41 16.94 2.39
12.07 17.18 2.39
11.72 17.42 2.39
11.36 17.64 2.39
11.01 17.86 2.39
10.64 18.08 2.39
10.28 18.28 2.39
9.91 18.48 2.39
9.53 18.67 2.39
9.15 18.85 2.39
8.77 19.03 2.39
8.38 19.19 2.39
7.99 19.35 2.39
7.60 19.50 2.39
7.21 19.64 2.39
6.81 19.78 2.39
6.41 19.90 2.39
6.00 20.02 2.39
5.59 20.10 2.39
5.18 20.20 2.39
4.78 20.29 2.39
2.30 10.75 1.26
3.95 20.45 2.39
3.54 20.51 2.39
3.13 20.57 2.39
2.71 20.62 2.39
2.30 20.66 2.39
1.88 20.69 2.39
1.53 21.60 2.49
1.09 21.62 2.49
0.66 21.62 2.49
0.23 21.62 2.49
-0.21 21.61 2.49
-0.64 21.58 2.49
-1.07 21.55 2.49
-1.50 21.51 2.49
-1.93 21.46 2.49
-2.36 21.41 2.49
-2.79 21.34 2.49
-3.22 21.27 2.49
-3.64 21.18 2.49
-4.06 21.09 2.49
-4.48 20.99 2.49
-4.90 20.88 2.49
-5.31 20.77 2.49
-5.72 20.64 2.49
-6.13 20.51 2.49
-6.27 19.52 2.39
-6.65 19.38 2.39
-7.03 19.22 2.39
-7.41 19.06 2.39
-7.79 18.90 2.39
-8.16 18.72 2.39
-8.53 18.54 2.39
-8.89 18.35 2.39
-9.25 18.15 2.39
-9.60 17.95 2.39
-9.74 17.35 2.34
-9.84 16.75 2.28
-9.95 16.18 2.24
-10.03 15.60 2.18
-10.10 15.03 2.13
-10.31 14.70 2.12
-10.53 14.39 2.11
-10.74 14.08 2.09
-10.86 13.65 2.06
-11.06 13.34 2.05
-11.20 12.97 2.03
-11.27 12.54 2.00
-11.34 12.12 1.97
-11.39 11.69 1.94
-11.43 11.27 1.91
-11.47 10.86 1.88
-11.50 10.47 1.85
-11.54 10.08 1.83
-11.56 9.70 1.80
-11.58 9.33 1.77
-11.60 8.97 1.75
-11.62 8.61 1.73
-11.64 8.27 1.71
-11.66 7.94 1.69
-11.70 7.63 1.67
-11.74 7.32 1.66
-11.77 7.02 1.64
-11.81 6.72 1.63
-11.84 6.43 1.62
-11.87 6.14 1.61
-11.90 5.86 1.60
-11.95 5.59 1.59
-12.00 5.32 1.58
-12.05 5.05 1.58
-12.11 4.79 1.57
-12.18 4.54 1.57
-12.26 4.29 1.57
-12.33 4.04 1.57
-12.39 3.79 1.57
-12.39 3.52 1.56
-12.40 3.25 1.55
-12.44 3.00 1.55
-12.50 2.75 1.55
-12.56 2.50 1.56
-12.62 2.25 1.56
-12.68 2.00 1.56
-12.72 1.74 1.56
-12.72 1.48 1.56
-12.73 1.22 1.56
-12.75 0.97 1.56
-12.76 0.71 1.56
-12.78 0.45 1.56
-12.79 0.20 1.56
-12.80 -0.06 1.57
-12.80 -0.32 1.57
-12.76 -0.57 1.56
-12.73 -0.83 1.56
-12.70 -1.08 1.56
-12.67 -1.34 1.56
-12.63 -1.59 1.56
-12.60 -1.84 1.56
-12.56 -2.10 1.56
-12.54 -2.35 1.57
-12.53 -2.61 1.57
-12.51 -2.87 1.58
-12.47 -3.13 1.58
-12.43 -3.38 1.58
-12.39 -3.64 1.59
-12.35 -3.90 1.59
-12.31 -4.16 1.60
-12.27 -4.42 1.61
-12.23 -4.69 1.61
-12.19 -4.96 1.62
-12.13 -5.22 1.63
-12.04 -5.47 1.63
-11.96 -5.72 1.64
-11.87 -5.98 1.64
-11.78 -6.23 1.65
-11.75 -6.52 1.66
-11.75 -6.83 1.68
-11.74 -7.15 1.70
-11.73 -7.47 1.72
-11.70 -7.79 1.74
-11.68 -8.11 1.76
-11.66 -8.45 1.78
-11.66 -8.82 1.81
-11.67 -9.19 1.84
-11.67 -9.58 1.87
-12.24 -10.47 1.99
-12.20 -10.86 2.02
-13.07 -12.12 2.20
-13.49 -13.02 2.32
-13.47 -13.54 2.36
-13.36 -13.98 2.39
-13.08 -14.24 2.39
-12.79 -14.50 2.39
-12.49 -14.76 2.39
-12.20 -15.01 2.39
-11.89 -15.25 2.39
-11.59 -15.49 2.39
-11.27 -15.72 2.39
-10.96 -15.94 2.39
-10.64 -16.16 2.39
-10.31 -16.38 2.39
-9.98 -16.58 2.39
-9.65 -16.78 2.39
-9.71 -17.71 2.49
-9.36 -17.91 2.49
-9.00 -18.10 2.49
-8.64 -18.28 2.49
-8.27 -18.45 2.49
-7.90 -18.62 2.49
-7.53 -18.78 2.49
-7.15 -18.93 2.49
-6.77 -19.08 2.49
-6.39 -19.22 2.49
-6.00 -19.35 2.49
-5.62 -19.47 2.49
-5.23 -19.59 2.49
-4.83 -19.70 2.49
-4.44 -19.80 2.49
-4.04 -19.90 2.49
-3.64 -19.98 2.49
-3.24 -20.06 2.49
-2.84 -20.13 2.49
-2.44 -20.19 2.49
-2.03 -20.25 2.49
-1.63 -20.30 2.49
-1.22 -20.34 2.49
-0.81 -20.37 2.49
-0.40 -20.39 2.49
0.01 -17.18 2.49
0.35 -17.19 2.49
0.70 -17.18 2.49
1.04 -17.18 2.49
1.39 -17.16 2.49
1.74 -17.14 2.49
2.08 -17.11 2.49
2.42 -17.07 2.49
2.77 -17.03 2.49
3.11 -16.98 2.49
3.45 -16.92 2.49
3.79 -16.86 2.49
2.48 -10.07 1.50
4.47 -16.71 2.49
4.81 -16.63 2.49
4.94 -15.87 2.39
5.26 -15.76 2.39
5.57 -15.66 2.39
5.89 -15.56 2.39
6.21 -15.45 2.39
6.52 -15.33 2.39
6.83 -15.20 2.39
7.14 -15.07 2.39
7.44 -14.94 2.39
6.50 -12.41 2.00
6.74 -12.26 2.00
7.16 -12.44 2.05
8.64 -14.33 2.39
8.93 -14.16 2.39
9.22 -13.99 2.39
9.51 -13.81 2.39
9.79 -13.63 2.39
10.07 -13.44 2.39
10.34 -13.24 2.39
10.63 -13.06 2.39
10.90 -12.85 2.39
8.79 -9.95 1.88
8.99 -9.78 1.88
11.67 -12.20 2.39
11.92 -11.97 2.39
12.17 -11.73 2.39
12.41 -11.50 2.39
12.65 -11.25 2.39
12.88 -11.00 2.39
13.11 -10.75 2.39
13.33 -10.49 2.39
13.55 -10.23 2.39
13.76 -9.96 2.39
13.97 -9.69 2.39
14.17 -9.42 2.39
14.36 -9.14 2.39
14.56 -8.85 2.39
14.74 -8.56 2.39
14.92 -8.27 2.39
15.09 -7.98 2.39
15.26 -7.68 2.39
15.42 -7.37 2.39
15.58 -7.07 2.39
15.72 -6.76 2.39
15.87 -6.44 2.39
16.00 -6.13 2.39
16.13 -5.81 2.39
16.26 -5.49 2.39
16.37 -5.16 2.39
16.36 -4.80 2.38
16.07 -4.37 2.32
15.79 -3.95 2.27
15.60 -3.58 2.23
15.50 -3.23 2.20
15.39 -2.88 2.18
15.29 -2.55 2.15
15.19 -2.22 2.13
15.05 -1.89 2.10
15.06 -1.58 2.10
15.07 -1.28 2.09
15.07 -0.98 2.09
15.08 -0.67 2.09
15.09 -0.37 2.09
15.10 -0.07 2.09
15.11 0.23 2.09
15.03 0.53 2.08
15.03 0.84 2.08
15.03 1.14 2.08
15.03 1.44 2.08
15.03 1.75 2.09
15.03 2.05 2.09
14.96 2.35 2.09
14.96 2.66 2.09
14.96 2.97 2.10
14.96 3.29 2.11
14.96 3.60 2.12
14.96 3.92 2.13
14.89 4.22 2.13
14.90 4.55 2.14
14.91 4.88 2.15
14.92 5.22 2.17
14.93 5.56 2.19
14.88 5.88 2.20
14.89 6.24 2.21
14.90 6.60 2.23
14.91 6.96 2.26
14.92 7.34 2.28
14.87 7.68 2.29
14.86 8.06 2.32
14.86 8.45 2.34
14.85 8.85 2.37
14.84 9.24 2.39
14.65 9.54 2.39
14.46 9.83 2.39
14.26 10.12 2.39
14.05 10.41 2.39
13.84 10.69 2.39
13.63 10.97 2.39
13.41 11.24 2.39
13.18 11.51 2.39
12.95 11.77 2.39
12.71 12.03 2.39
12.46 12.28 2.39
12.22 12.53 2.39
11.96 12.77 2.39
11.70 13.00 2.39
11.44 13.24 2.39
11.17 13.46 2.39
10.90 13.68 2.39
10.62 13.90 2.39
10.34 14.11 2.39
10.05 14.31 2.39
9.76 14.51 2.39
9.47 14.70 2.39
9.17 14.88 2.39
8.87 15.06 2.39
8.56 15.23 2.39
8.25 15.40 2.39
7.94 15.56 2.39
7.62 15.71 2.39
7.31 15.85 2.39
6.98 15.99 2.39
6.66 16.13 2.39
6.33 16.25 2.39
6.01 16.37 2.39
5.67 16.46 2.39
5.33 16.57 2.39
5.00 16.66 2.39
4.66 16.75 2.39
4.32 16.84 2.39
3.98 16.92 2.39
2.30 10.72 1.51
3.30 17.05 2.39
2.95 17.10 2.39
2.61 17.15 2.39
2.26 17.19 2.39
1.92 17.23 2.39
1.64 18.00 2.49
1.28 18.02 2.49
0.91 18.03 2.49
0.55 18.04 2.49
0.19 18.04 2.49
-0.17 18.03 2.49
-0.53 18.01 2.49
-0.89 17.99 2.49
-1.25 17.96 2.49
-1.61 17.92 2.49
-1.97 17.87 2.49
-2.33 17.82 2.49
-2.68 17.76 2.49
-3.04 17.69 2.49
-3.39 17.62 2.49
-3.74 17.54 2.49
-4.09 17.45 2.49
-4.44 17.35 2.49
-4.78 17.25 2.49
-5.12 17.14 2.49
-5.46 17.02 2.49
-5.80 16.90 2.49
-6.13 16.77 2.49
-6.20 15.94 2.39
-6.51 15.80 2.39
-6.82 15.66 2.39
-7.13 15.51 2.39
-7.44 15.35 2.39
-7.74 15.19 2.39
-8.04 15.02 2.39
-8.33 14.85 2.39
-8.62 14.67 2.39
-8.91 14.48 2.39
-9.19 14.29 2.39
-9.47 14.09 2.39
-9.74 13.89 2.39
-9.83 13.44 2.35
-9.92 13.00 2.31
-10.07 12.66 2.28
-10.26 12.38 2.27
-10.44 12.10 2.26
-10.59 11.78 2.24
-10.71 11.44 2.22
-10.84 11.13 2.20
-10.97 10.82 2.18
-11.10 10.52 2.17
-11.16 10.16 2.14
-11.19 9.78 2.11
-11.22 9.41 2.08
-11.24 9.06 2.05
-11.26 8.71 2.03
-11.28 8.37 2.00
-11.30 8.04 1.98
-11.34 7.72 1.96
-11.38 7.42 1.94
-11.42 7.13 1.92
-11.46 6.83 1.91
-11.50 6.55 1.89
-11.53 6.26 1.88
-11.56 5.98 1.86
-11.61 5.71 1.85
-11.66 5.45 1.85
-11.71 5.19 1.84
-11.76 4.93 1.83
-11.80 4.67 1.82
-11.87 4.43 1.82
-11.94 4.18 1.82
-12.02 3.94 1.82
-12.05 3.68 1.81
-12.05 3.42 1.81
-12.06 3.16 1.80
-12.06 2.91 1.79
-12.11 2.66 1.79
-12.17 2.42 1.79
-12.22 2.18 1.79
-12.28 1.93 1.80
-12.31 1.68 1.80
-12.30 1.43 1.79
-12.29 1.18 1.79
-12.30 0.93 1.79
-12.31 0.69 1.79
-12.32 0.44 1.79
-12.34 0.19 1.79
-12.35 -0.06 1.79
-12.34 -0.30 1.79
-12.31 -0.55 1.79
-12.27 -0.80 1.79
-12.24 -1.04 1.79
-12.20 -1.29 1.79
-12.17 -1.53 1.79
-12.14 -1.77 1.79
-12.10 -2.02 1.79
-12.07 -2.26 1.79
-12.06 -2.51 1.80
-12.06 -2.77 1.80
-12.05 -3.02 1.81
-12.03 -3.27 1.82
-11.99 -3.52 1.82
-11.95 -3.77 1.83
-11.91 -4.02 1.84
-11.87 -4.28 1.84
-11.83 -4.53 1.85
-11.79 -4.79 1.86
-11.75 -5.05 1.87
-11.70 -5.32 1.88
-11.66 -5.58 1.89
-11.58 -5.83 1.90
-11.49 -6.08 1.90
-11.41 -6.33 1.91
-11.40 -6.63 1.93
-11.39 -6.93 1.95
-11.37 -7.24 1.97
-11.36 -7.56 2.00
-11.34 -7.88 2.02
-11.31 -8.20 2.05
-11.30 -8.54 2.08
-11.29 -8.90 2.11
-11.29 -9.27 2.14
-11.29 -9.65 2.18
-11.41 -10.16 2.24
-11.51 -10.67 2.30
-11.45 -11.05 2.33
-11.39 -11.44 2.37
-11.32 -11.84 2.40
-11.67 -12.71 2.53
-11.47 -13.00 2.54
-11.26 -13.30 2.55
-11.05 -13.59 2.57
-10.03 -12.86 2.39
-9.77 -13.06 2.39
-9.51 -13.26 2.39
-9.24 -13.45 2.39
-8.97 -13.63 2.39
-8.70 -13.81 2.39
-8.42 -13.99 2.39
-8.14 -14.16 2.39
-7.85 -14.32 2.39
-7.57 -14.48 2.39
-7.27 -14.63 2.39
-6.98 -14.77 2.39
-6.97 -15.56 2.49
-6.66 -15.70 2.49
-6.35 -15.83 2.49
-6.03 -15.96 2.49
-5.71 -16.09 2.49
-5.39 -16.20 2.49
-5.06 -16.31 2.49
-4.73 -16.42 2.49
-4.40 -16.51 2.49
-4.07 -16.60 2.49
-3.74 -16.69 2.49
-3.41 -16.77 2.49
-3.07 -16.84 2.49
-2.73 -16.90 2.49
-2.39 -16.96 2.49
-2.05 -17.01 2.49
-1.71 -17.06 2.49
-1.37 -17.10 2.49
-1.02 -17.13 2.49
-0.68 -17.15 2.49
-0.34 -17.17 2.49
0.01 -14.82 2.49
0.31 -14.83 2.49
0.60 -14.83 2.49
0.90 -14.82 2.49
1.20 -14.80 2.49
1.50 -14.78 2.49
1.80 -14.76 2.49
2.09 -14.72 2.49
2.39 -14.69 2.49
2.68 -14.64 2.49
2.98 -14.59 2.49
3.14 -13.93 2.39
3.42 -13.88 2.39
3.70 -13.81 2.39
2.46 -8.50 1.48
4.25 -13.67 2.39
4.53 -13.58 2.39
4.80 -13.50 2.39
5.08 -13.41 2.39
5.35 -13.31 2.39
5.62 -13.21 2.39
5.89 -13.10 2.39
4.94 -10.44 1.92
5.08 -10.19 1.89
5.26 -10.04 1.88
5.50 -10.00 1.89
7.20 -12.49 2.39
7.45 -12.35 2.39
7.70 -12.21 2.39
7.95 -12.06 2.39
8.20 -11.90 2.39
8.44 -11.74 2.39
8.68 -11.58 2.39
8.91 -11.41 2.39
9.15 -11.24 2.39
9.38 -11.06 2.39
9.60 -10.87 2.39
9.82 -10.68 2.39
10.04 -10.49 2.39
10.26 -10.29 2.39
10.47 -10.09 2.39
10.67 -9.88 2.39
10.88 -9.67 2.39
11.08 -9.46 2.39
11.27 -9.24 2.39
11.46 -9.02 2.39
11.65 -8.79 2.39
11.83 -8.56 2.39
12.00 -8.33 2.39
12.18 -8.09 2.39
12.34 -7.85 2.39
12.51 -7.60 2.39
12.66 -7.35 2.39
12.82 -7.10 2.39
12.96 -6.85 2.39
13.11 -6.59 2.39
13.24 -6.33 2.39
13.37 -6.07 2.39
13.50 -5.80 2.39
13.62 -5.53 2.39
13.74 -5.26 2.39
13.85 -4.99 2.39
13.95 -4.71 2.39
14.05 -4.43 2.39
14.15 -4.15 2.39
14.23 -3.87 2.39
14.32 -3.58 2.39
14.39 -3.30 2.39
14.46 -3.01 2.39
14.53 -2.72 2.39
14.59 -2.43 2.39
14.64 -2.14 2.39
14.69 -1.84 2.39
14.73 -1.55 2.39
14.76 -1.25 2.39
14.79 -0.96 2.39
14.82 -0.66 2.39
14.83 -0.36 2.39
14.84 -0.07 2.39
14.85 0.23 2.39
14.85 0.53 2.39
14.84 0.83 2.39
14.82 1.13 2.39
14.81 1.42 2.39
14.78 1.72 2.39
14.75 2.02 2.39
14.71 2.31 2.39
14.66 2.61 2.39
14.61 2.90 2.39
14.56 3.20 2.39
14.50 3.49 2.39
14.43 3.78 2.39
14.35 4.07 2.39
14.27 4.36 2.39
14.19 4.65 2.39
14.09 4.93 2.39
14.00 5.21 2.39
13.89 5.50 2.39
13.78 5.77 2.39
13.67 6.05 2.39
13.55 6.33 2.39
13.42 6.60 2.39
13.29 6.87 2.39
13.15 7.13 2.39
13.00 7.40 2.39
12.86 7.66 2.39
12.70 7.91 2.39
12.54 8.17 2.39
12.38 8.42 2.39
12.21 8.67 2.39
12.03 8.91 2.39
11.85 9.15 2.39
11.67 9.39 2.39
11.48 9.62 2.39
11.28 9.85 2.39
11.08 10.07 2.39
10.88 10.29 2.39
10.67 10.51 2.39
10.46 10.72 2.39
10.24 10.93 2.39
10.02 11.13 2.39
9.79 11.33 2.39
9.56 11.52 2.39
9.33 11.71 2.39
9.09 11.90 2.39
8.85 12.07 2.39
8.60 12.25 2.39
8.36 12.42 2.39
8.10 12.58 2.39
7.85 12.74 2.39
7.59 12.89 2.39
7.33 13.04 2.39
7.07 13.18 2.39
6.80 13.32 2.39
6.53 13.45 2.39
6.26 13.57 2.39
5.98 13.69 2.39
5.70 13.79 2.39
5.42 13.90 2.39
5.14 14.00 2.39
4.85 14.10 2.39
4.57 14.19 2.39
4.28 14.27 2.39
3.99 14.35 2.39
3.70 14.42 2.39
3.41 14.49 2.39
2.30 10.72 1.76
2.83 14.61 2.39
2.53 14.65 2.39
2.24 14.70 2.39
1.94 14.73 2.39
1.71 15.40 2.49
1.41 15.43 2.49
1.09 15.44 2.49
0.78 15.46 2.49
0.47 15.46 2.49
0.16 15.46 2.49
-0.15 15.46 2.49
-0.46 15.44 2.49
-0.77 15.42 2.49
-1.07 15.40 2.49
-1.38 15.37 2.49
-1.69 15.33 2.49
-2.00 15.28 2.49
-2.30 15.23 2.49
-2.61 15.18 2.49
-2.91 15.11 2.49
-3.21 15.05 2.49
-3.51 14.97 2.49
-3.81 14.89 2.49
-4.10 14.80 2.49
-4.40 14.71 2.49
-4.69 14.61 2.49
-4.98 14.50 2.49
-5.26 14.39 2.49
-5.55 14.28 2.49
-5.83 14.16 2.49
-6.11 14.03 2.49
-6.12 13.32 2.39
-6.38 13.19 2.39
-6.64 13.05 2.39
-6.90 12.90 2.39
-7.15 12.76 2.39
-7.40 12.60 2.39
-7.65 12.44 2.39
-7.89 12.28 2.39
-8.13 12.11 2.39
-8.37 11.94 2.39
-8.60 11.76 2.39
-8.83 11.58 2.39
-9.06 11.39 2.39
-9.28 11.20 2.39
-9.50 11.01 2.39
-9.71 10.81 2.39
-9.83 10.51 2.37
-9.96 10.23 2.35
-10.09 9.95 2.34
-10.23 9.69 2.32
-10.36 9.43 2.31
-10.47 9.15 2.30
-10.55 8.85 2.27
-10.62 8.56 2.25
-10.69 8.26 2.23
-10.75 7.97 2.22
-10.85 7.71 2.20
-10.96 7.46 2.20
-11.06 7.22 2.19
-11.12 6.94 2.17
-11.16 6.66 2.16
-11.20 6.38 2.14
-11.24 6.10 2.12
-11.28 5.83 2.11
-11.33 5.58 2.10
-11.38 5.32 2.09
-11.43 5.07 2.08
-11.48 4.81 2.07
-11.52 4.56 2.07
-11.57 4.32 2.06
-11.65 4.08 2.06
-11.71 3.84 2.06
-11.72 3.59 2.05
-11.73 3.33 2.04
-11.74 3.08 2.03
-11.74 2.83 2.02
-11.75 2.58 2.01
-11.79 2.35 2.01
-11.85 2.11 2.02
-11.90 1.87 2.02
-11.91 1.63 2.02
-11.91 1.39 2.01
-11.90 1.15 2.01
-11.89 0.90 2.00
-11.89 0.66 2.00
-11.90 0.43 2.00
-11.91 0.19 2.00
-11.92 -0.05 2.01
-11.92 -0.29 2.01
-11.88 -0.53 2.00
-11.85 -0.77 2.00
-11.82 -1.00 2.00
-11.78 -1.24 2.00
-11.74 -1.48 2.00
-11.71 -1.71 2.00
-11.68 -1.95 2.00
-11.64 -2.18 2.00
-11.63 -2.42 2.01
-11.62 -2.66 2.01
-11.61 -2.91 2.02
-11.60 -3.15 2.03
-11.59 -3.40 2.04
-11.57 -3.65 2.05
-11.53 -3.90 2.06
-11.49 -4.14 2.07
-11.45 -4.39 2.07
-11.41 -4.64 2.08
-11.37 -4.89 2.09
-11.32 -5.14 2.11
-11.28 -5.40 2.12
-11.23 -5.66 2.13
-11.18 -5.92 2.14
-11.12 -6.17 2.16
-11.07 -6.44 2.17
-11.05 -6.73 2.19
-11.04 -7.03 2.22
-11.02 -7.33 2.24
-11.00 -7.64 2.27
-10.98 -7.96 2.30
-10.96 -8.28 2.33
-10.94 -8.62 2.36
-10.93 -8.98 2.40
-10.92 -9.34 2.44
-10.91 -9.72 2.48
-10.90 -10.11 2.52
-10.84 -10.47 2.56
-10.66 -10.71 2.56
-9.73 -10.18 2.39
-9.53 -10.38 2.39
-9.32 -10.57 2.39
-9.10 -10.75 2.39
-8.89 -10.94 2.39
-8.67 -11.11 2.39
-8.44 -11.29 2.39
-8.21 -11.45 2.39
-7.98 -11.62 2.39
-7.75 -11.78 2.39
-7.51 -11.93 2.39
-7.27 -12.08 2.39
-7.03 -12.23 2.39
-6.78 -12.37 2.39
-6.53 -12.50 2.39
-6.28 -12.64 2.39
-6.03 -12.76 2.39
-6.02 -13.44 2.49
-5.75 -13.56 2.49
-5.48 -13.68 2.49
-5.21 -13.79 2.49
-4.93 -13.89 2.49
-4.65 -13.99 2.49
-4.37 -14.09 2.49
-4.09 -14.17 2.49
-3.80 -14.26 2.49
-3.52 -14.34 2.49
-3.23 -14.41 2.49
-2.94 -14.47 2.49
-2.65 -14.54 2.49
-2.36 -14.59 2.49
-2.06 -14.64 2.49
-1.77 -14.68 2.49
-1.48 -14.72 2.49
-1.18 -14.75 2.49
-0.88 -14.78 2.49
-0.59 -14.80 2.49
-0.29 -14.82 2.49
0.01 -13.02 2.49
0.27 -13.03 2.49
0.53 -13.02 2.49
0.79 -13.02 2.49
1.06 -13.00 2.49
1.32 -12.98 2.49
1.58 -12.96 2.49
1.84 -12.93 2.49
2.10 -12.90 2.49
2.36 -12.86 2.49
2.51 -12.28 2.39
2.76 -12.23 2.39
2.49 -10.10 1.98
3.25 -12.13 2.39
3.49 -12.06 2.39
3.74 -12.00 2.39
3.98 -11.92 2.39
4.22 -11.85 2.39
4.46 -11.77 2.39
4.70 -11.68 2.39
4.93 -11.59 2.39
5.17 -11.49 2.39
5.40 -11.39 2.39
5.63 -11.29 2.39
5.86 -11.18 2.39
6.08 -11.06 2.39
6.32 -10.96 2.39
6.54 -10.84 2.39
6.76 -10.71 2.39
6.98 -10.58 2.39
7.19 -10.44 2.39
7.40 -10.30 2.39
7.61 -10.15 2.39
7.82 -10.00 2.39
8.02 -9.85 2.39
8.22 -9.69 2.39
8.42 -9.53 2.39
8.61 -9.36 2.39
8.80 -9.19 2.39
8.99 -9.02 2.39
9.18 -8.84 2.39
9.36 -8.66 2.39
9.53 -8.48 2.39
9.71 -8.29 2.39
9.88 -8.10 2.39
10.04 -7.90 2.39
10.20 -7.70 2.39
10.36 -7.50 2.39
10.52 -7.29 2.39
10.66 -7.08 2.39
10.81 -6.87 2.39
10.95 -6.66 2.39
11.09 -6.44 2.39
11.22 -6.22 2.39
11.35 -5.99 2.39
11.47 -5.77 2.39
11.59 -5.54 2.39
11.71 -5.31 2.39
11.82 -5.08 2.39
11.92 -4.84 2.39
12.02 -4.60 2.39
12.12 -4.36 2.39
12.21 -4.12 2.39
12.30 -3.88 2.39
12.38 -3.63 2.39
12.45 -3.38 2.39
12.52 -3.13 2.39
12.59 -2.88 2.39
12.65 -2.63 2.39
12.71 -2.38 2.39
12.76 -2.12 2.39
12.80 -1.87 2.39
12.84 -1.61 2.39
12.88 -1.35 2.39
12.91 -1.10 2.39
12.93 -0.84 2.39
12.95 -0.58 2.39
12.97 -0.32 2.39
12.98 -0.06 2.39
12.98 0.20 2.39
12.98 0.46 2.39
12.97 0.72 2.39
12.96 0.98 2.39
12.94 1.24 2.39
12.92 1.50 2.39
12.89 1.76 2.39
12.85 2.02 2.39
12.82 2.28 2.39
12.77 2.54 2.39
12.72 2.79 2.39
12.67 3.05 2.39
12.61 3.30 2.39
12.54 3.56 2.39
12.47 3.81 2.39
12.39 4.06 2.39
12.31 4.31 2.39
12.23 4.56 2.39
12.14 4.80 2.39
12.04 5.04 2.39
11.94 5.29 2.39
11.83 5.53 2.39
11.72 5.76 2.39
11.60 6.00 2.39
11.48 6.23 2.39
11.36 6.46 2.39
11.23 6.69 2.39
11.09 6.91 2.39
10.95 7.13 2.39
10.81 7.35 2.39
10.66 7.57 2.39
10.51 7.78 2.39
10.35 7.99 2.39
10.19 8.20 2.39
10.02 8.40 2.39
9.85 8.60 2.39
9.68 8.80 2.39
9.50 8.99 2.39
9.32 9.18 2.39
9.13 9.36 2.39
8.94 9.54 2.39
8.75 9.72 2.39
8.55 9.89 2.39
8.35 10.06 2.39
8.15 10.23 2.39
7.94 10.39 2.39
7.73 10.55 2.39
7.52 10.70 2.39
7.30 10.84 2.39
7.08 10.99 2.39
6.86 11.13 2.39
6.63 11.26 2.39
6.40 11.39 2.39
6.17 11.51 2.39
5.93 11.62 2.39
5.70 11.73 2.39
5.46 11.84 2.39
5.22 11.95 2.39
4.98 12.05 2.39
4.73 12.14 2.39
4.49 12.23 2.39
4.24 12.32 2.39
3.99 12.40 2.39
3.74 12.47 2.39
3.49 12.54 2.39
3.24 12.60 2.39
2.98 12.66 2.39
2.30 10.71 2.01
2.47 12.76 2.39
2.21 12.81 2.39
1.96 12.87 2.40
1.77 13.43 2.49
1.50 13.46 2.49
1.23 13.48 2.49
0.96 13.50 2.49
0.69 13.51 2.49
0.42 13.52 2.49
0.14 13.52 2.49
-0.13 13.51 2.49
-0.40 13.50 2.49
-0.67 13.49 2.49
-0.94 13.47 2.49
-1.21 13.44 2.49
-1.48 13.41 2.49
-1.74 13.37 2.49
-2.01 13.32 2.49
-2.28 13.28 2.49
-2.54 13.22 2.49
-2.81 13.16 2.49
-3.07 13.10 2.49
-3.33 13.03 2.49
-3.59 12.95 2.49
-3.84 12.87 2.49
-4.10 12.78 2.49
-4.35 12.69 2.49
-4.61 12.60 2.49
-4.85 12.50 2.49
-5.10 12.39 2.49
-5.35 12.28 2.49
-5.59 12.16 2.49
-5.83 12.04 2.49
-6.07 11.92 2.49
-6.09 11.39 2.41
-6.26 11.17 2.39
-6.48 11.04 2.39
-6.70 10.90 2.39
-6.91 10.76 2.39
-7.12 10.61 2.39
-7.33 10.46 2.39
-7.54 10.30 2.39
-7.74 10.15 2.39
-7.94 9.98 2.39
-8.13 9.82 2.39
-8.32 9.65 2.39
-8.51 9.47 2.39
-8.69 9.30 2.39
-8.87 9.11 2.39
-9.05 8.93 2.39
-9.22 8.74 2.39
-9.39 8.55 2.39
-9.55 8.36 2.39
-9.72 8.16 2.39
-9.87 7.96 2.39
-10.00 7.73 2.38
-10.10 7.49 2.37
-10.20 7.25 2.36
-10.29 7.01 2.35
-10.40 6.78 2.35
-10.50 6.55 2.34
-10.60 6.32 2.33
-10.69 6.09 2.33
-10.79 5.86 2.32
-10.89 5.64 2.32
-11.04 5.43 2.33
-11.11 5.20 2.33
-11.16 4.95 2.32
-11.21 4.70 2.31
-11.25 4.46 2.30
-11.30 4.22 2.29
-11.36 3.98 2.29
-11.40 3.74 2.28
-11.41 3.49 2.27
-11.42 3.25 2.26
-11.43 3.00 2.25
-11.44 2.76 2.24
-11.44 2.52 2.23
-11.45 2.28 2.23
-11.49 2.05 2.23
-11.55 1.82 2.23
-11.54 1.58 2.23
-11.54 1.35 2.22
-11.53 1.11 2.21
-11.53 0.88 2.21
-11.52 0.64 2.21
-11.51 0.41 2.20
-11.51 0.18 2.20
-11.52 -0.05 2.21
-11.52 -0.28 2.21
-11.49 -0.51 2.20
-11.45 -0.74 2.20
-11.42 -0.97 2.20
-11.39 -1.20 2.20
-11.35 -1.43 2.20
-11.31 -1.65 2.19
-11.28 -1.88 2.19
-11.24 -2.11 2.20
-11.22 -2.34 2.20
-11.21 -2.57 2.21
-11.20 -2.80 2.22
-11.18 -3.04 2.23
-11.17 -3.28 2.24
-11.16 -3.52 2.25
-11.14 -3.76 2.26
-11.12 -4.01 2.28
-11.09 -4.25 2.29
-11.05 -4.49 2.30
-11.01 -4.73 2.31
-10.96 -4.98 2.32
-10.88 -5.21 2.32
-10.79 -5.43 2.33
-10.69 -5.65 2.33
-10.59 -5.88 2.33
-10.48 -6.10 2.34
-10.38 -6.32 2.34
-10.31 -6.57 2.36
-10.24 -6.81 2.37
-10.17 -7.06 2.39
-10.11 -7.33 2.41
-10.04 -7.59 2.43
-9.73 -7.67 2.39
-9.58 -7.86 2.39
-9.42 -8.05 2.39
-9.25 -8.24 2.39
-9.09 -8.43 2.39
-8.91 -8.61 2.39
-8.74 -8.78 2.39
-8.56 -8.96 2.39
-8.38 -9.13 2.39
-8.19 -9.29 2.39
-8.01 -9.46 2.39
-7.82 -9.62 2.39
-7.62 -9.77 2.39
-7.42 -9.92 2.39
-7.22 -10.07 2.39
-7.02 -10.22 2.39
-6.81 -10.36 2.39
-6.61 -10.49 2.39
-6.39 -10.62 2.39
-6.18 -10.75 2.39
-5.96 -10.88 2.39
-5.84 -11.18 2.43
-5.76 -11.59 2.49
-5.53 -11.70 2.49
-5.29 -11.82 2.49
-5.06 -11.92 2.49
-4.82 -12.02 2.49
-4.58 -12.12 2.49
-4.33 -12.21 2.49
-4.09 -12.30 2.49
-3.84 -12.38 2.49
-3.59 -12.46 2.49
-3.34 -12.53 2.49
-3.09 -12.60 2.49
-2.84 -12.66 2.49
-2.58 -12.72 2.49
-2.33 -12.78 2.49
-2.07 -12.82 2.49
-1.81 -12.87 2.49
-1.55 -12.90 2.49
-1.30 -12.94 2.49
-1.04 -12.96 2.49
-0.78 -12.99 2.49
-0.51 -13.00 2.49
-0.25 -13.02 2.49
0.01 -11.60 2.49
0.24 -11.60 2.49
0.47 -11.60 2.49
0.71 -11.59 2.49
0.94 -11.58 2.49
1.17 -11.56 2.49
1.41 -11.54 2.49
1.64 -11.52 2.49
1.87 -11.49 2.49
2.10 -11.45 2.49
2.26 -11.07 2.42
2.47 -10.98 2.41
2.67 -10.85 2.39
2.89 -10.80 2.39
3.11 -10.74 2.39
3.33 -10.68 2.39
3.54 -10.62 2.39
3.76 -10.55 2.39
3.97 -10.47 2.39
4.18 -10.40 2.39
4.39 -10.31 2.39
4.60 -10.23 2.39
4.81 -10.14 2.39
5.01 -10.04 2.39
5.21 -9.95 2.39
5.41 -9.84 2.39
5.61 -9.74 2.39
5.81 -9.63 2.39
6.01 -9.51 2.39
6.20 -9.40 2.39
6.40 -9.29 2.39
6.59 -9.16 2.39
6.77 -9.03 2.39
6.95 -8.90 2.39
7.13 -8.76 2.39
7.31 -8.62 2.39
7.49 -8.47 2.39
7.66 -8.33 2.39
7.83 -8.17 2.39
8.00 -8.02 2.39
8.16 -7.86 2.39
8.32 -7.70 2.39
8.48 -7.53 2.39
8.63 -7.37 2.39
8.78 -7.20 2.39
8.93 -7.02 2.39
9.07 -6.84 2.39
9.21 -6.66 2.39
9.35 -6.48 2.39
9.48 -6.29 2.39
9.61 -6.11 2.39
9.73 -5.91 2.39
9.85 -5.72 2.39
9.97 -5.52 2.39
10.08 -5.33 2.39
10.19 -5.12 2.39
10.30 -4.92 2.39
10.40 -4.72 2.39
10.50 -4.51 2.39
10.59 -4.30 2.39
10.68 -4.09 2.39
10.76 -3.87 2.39
10.84 -3.66 2.39
10.92 -3.44 2.39
10.99 -3.22 2.39
11.06 -3.00 2.39
11.12 -2.78 2.39
11.18 -2.56 2.39
11.23 -2.33 2.39
11.28 -2.11 2.39
11.33 -1.88 2.39
11.37 -1.66 2.39
11.40 -1.43 2.39
11.43 -1.20 2.39
11.46 -0.97 2.39
11.48 -0.74 2.39
11.50 -0.51 2.39
11.51 -0.28 2.39
11.52 -0.05 2.39
11.52 0.18 2.39
11.52 0.41 2.39
11.51 0.64 2.39
11.50 0.87 2.39
11.48 1.11 2.39
11.46 1.34 2.39
11.44 1.57 2.39
11.40 1.80 2.39
11.37 2.02 2.39
11.33 2.25 2.39
11.29 2.48 2.39
11.24 2.71 2.39
11.18 2.93 2.39
11.12 3.16 2.39
11.06 3.38 2.39
10.99 3.60 2.39
10.92 3.82 2.39
10.84 4.04 2.39
10.76 4.26 2.39
10.68 4.47 2.39
10.59 4.69 2.39
10.49 4.90 2.39
10.39 5.11 2.39
10.29 5.32 2.39
10.18 5.53 2.39
10.07 5.73 2.39
9.96 5.93 2.39
9.84 6.13 2.39
9.71 6.33 2.39
9.59 6.52 2.39
9.45 6.71 2.39
9.32 6.90 2.39
9.18 7.09 2.39
9.03 7.27 2.39
8.89 7.45 2.39
8.74 7.63 2.39
8.58 7.80 2.39
8.42 7.97 2.39
8.26 8.14 2.39
8.10 8.30 2.39
7.93 8.46 2.39
7.76 8.62 2.39
7.58 8.77 2.39
7.41 8.92 2.39
7.22 9.07 2.39
7.04 9.21 2.39
6.85 9.35 2.39
6.66 9.49 2.39
6.47 9.62 2.39
6.28 9.74 2.39
6.08 9.87 2.39
5.87 9.97 2.39
5.67 10.09 2.39
5.47 10.20 2.39
5.26 10.30 2.39
5.05 10.40 2.39
4.84 10.50 2.39
4.63 10.60 2.39
4.41 10.68 2.39
4.20 10.77 2.39
3.98 10.85 2.39
3.76 10.92 2.39
3.54 10.99 2.39
3.32 11.06 2.39
3.10 11.12 2.39
2.87 11.18 2.39
2.65 11.23 2.39
2.30 10.71 2.27
2.19 11.32 2.39
1.98 11.42 2.40
1.81 11.89 2.49
1.57 11.92 2.49
1.33 11.94 2.49
1.09 11.96 2.49
0.85 11.98 2.49
0.61 11.99 2.49
0.37 12.00 2.49
0.13 12.00 2.49
-0.11 11.99 2.49
-0.35 11.98 2.49
-0.59 11.97 2.49
-0.83 11.95 2.49
-1.07 11.93 2.49
-1.31 11.90 2.49
-1.55 11.87 2.49
-1.78 11.83 2.49
-2.02 11.79 2.49
-2.26 11.74 2.49
-2.49 11.69 2.49
-2.72 11.63 2.49
-2.95 11.57 2.49
-3.18 11.50 2.49
-3.41 11.43 2.49
-3.64 11.35 2.49
-3.87 11.27 2.49
-4.09 11.19 2.49
-4.31 11.10 2.49
-4.53 11.01 2.49
-4.75 10.91 2.49
-4.96 10.81 2.49
-5.18 10.70 2.49
-5.39 10.59 2.49
-5.60 10.47 2.49
-5.80 10.35 2.49
-6.01 10.23 2.49
-6.06 9.87 2.43
-6.14 9.56 2.39
-6.33 9.43 2.39
-6.52 9.30 2.39
-6.70 9.16 2.39
-6.88 9.02 2.39
-7.05 8.88 2.39
-7.23 8.73 2.39
-7.40 8.58 2.39
-7.56 8.42 2.39
-7.73 8.27 2.39
-7.89 8.11 2.39
-8.05 7.94 2.39
-8.20 7.77 2.39
-8.35 7.60 2.39
-8.50 7.43 2.39
-8.64 7.26 2.39
-8.78 7.08 2.39
-8.92 6.90 2.39
-9.05 6.71 2.39
-9.18 6.53 2.39
-9.30 6.34 2.39
-9.42 6.15 2.39
-9.54 5.96 2.39
-9.65 5.76 2.39
-9.76 5.56 2.39
-9.87 5.36 2.39
-9.97 5.16 2.39
-10.36 5.10 2.46
-10.49 4.91 2.47
-10.63 4.71 2.48
-10.76 4.52 2.49
-10.89 4.32 2.50
-11.02 4.11 2.51
-11.09 3.89 2.51
-11.11 3.64 2.50
-11.12 3.40 2.49
-11.13 3.16 2.47
-11.14 2.92 2.46
-11.14 2.69 2.45
-11.15 2.45 2.44
-11.16 2.22 2.44
-11.16 1.99 2.43
-11.19 1.77 2.43
-11.19 1.54 2.42
-11.19 1.31 2.42
-11.18 1.08 2.41
-11.18 0.85 2.41
-11.17 0.63 2.40
-11.16 0.40 2.40
-11.15 0.18 2.40
-11.14 -0.05 2.40
-11.14 -0.27 2.40
-11.11 -0.49 2.39
-11.08 -0.72 2.39
-11.05 -0.94 2.39
-11.02 -1.16 2.38
-10.97 -1.38 2.38
-10.90 -1.59 2.37
-10.83 -1.80 2.37
-10.76 -2.01 2.36
-10.68 -2.22 2.35
-10.64 -2.44 2.35
-10.61 -2.66 2.36
-10.58 -2.88 2.37
-10.56 -3.10 2.37
-10.52 -3.32 2.38
-10.49 -3.54 2.39
-10.45 -3.77 2.40
-10.41 -3.99 2.41
-10.37 -4.21 2.42
-10.30 -4.43 2.42
-10.23 -4.65 2.43
-10.16 -4.86 2.43
-9.88 -4.97 2.39
-9.77 -5.17 2.39
-9.67 -5.36 2.39
-9.56 -5.56 2.39
-9.44 -5.75 2.39
-9.32 -5.94 2.39
-9.20 -6.12 2.39
-9.08 -6.30 2.39
-8.95 -6.48 2.39
-8.81 -6.66 2.39
-8.68 -6.84 2.39
-8.54 -7.01 2.39
-8.40 -7.18 2.39
-8.25 -7.35 2.39
-8.10 -7.51 2.39
-7.95 -7.67 2.39
-7.79 -7.83 2.39
-7.63 -7.99 2.39
-7.47 -8.14 2.39
-7.31 -8.29 2.39
-7.14 -8.43 2.39
-6.97 -8.57 2.39
-6.79 -8.71 2.39
-6.62 -8.85 2.39
-6.44 -8.98 2.39
-6.26 -9.11 2.39
-6.08 -9.23 2.39
-5.89 -9.35 2.39
-5.83 -9.69 2.44
-5.75 -10.00 2.49
-5.55 -10.11 2.49
-5.34 -10.22 2.49
-5.14 -10.33 2.49
-4.93 -10.43 2.49
-4.72 -10.53 2.49
-4.51 -10.63 2.49
-4.29 -10.72 2.49
-4.08 -10.80 2.49
-3.86 -10.89 2.49
-3.64 -10.96 2.49
-3.42 -11.04 2.49
-3.20 -11.11 2.49
-2.98 -11.17 2.49
-2.75 -11.23 2.49
-2.53 -11.29 2.49
-2.30 -11.34 2.49
-2.07 -11.38 2.49
-1.84 -11.43 2.49
-1.61 -11.47 2.49
-1.38 -11.50 2.49
-1.15 -11.53 2.49
-0.92 -11.55 2.49
-0.69 -11.57 2.49
-0.46 -11.59 2.49
-0.22 -11.60 2.49
0.01 -10.45 2.49
0.22 -10.45 2.49
0.43 -10.45 2.49
0.64 -10.44 2.49
0.85 -10.43 2.49
1.06 -10.41 2.49
1.27 -10.39 2.49
1.48 -10.37 2.49
1.69 -10.34 2.49
1.89 -10.31 2.49
2.10 -10.27 2.49
2.24 -9.94 2.42
2.41 -9.77 2.39
2.61 -9.72 2.39
2.80 -9.67 2.39
3.00 -9.61 2.39
3.19 -9.56 2.39
3.38 -9.49 2.39
3.57 -9.43 2.39
3.76 -9.36 2.39
3.95 -9.28 2.39
4.14 -9.21 2.39
4.33 -9.12 2.39
4.51 -9.04 2.39
4.69 -8.95 2.39
4.87 -8.86 2.39
5.05 -8.76 2.39
5.23 -8.66 2.39
5.40 -8.56 2.39
5.58 -8.45 2.39
5.75 -8.34 2.39
5.92 -8.23 2.39
6.08 -8.11 2.39
6.26 -8.00 2.39
6.42 -7.88 2.39
6.58 -7.75 2.39
6.74 -7.62 2.39
6.89 -7.49 2.39
7.04 -7.35 2.39
7.19 -7.21 2.39
7.34 -7.07 2.39
7.48 -6.92 2.39
7.62 -6.77 2.39
7.76 -6.62 2.39
7.90 -6.47 2.39
8.03 -6.31 2.39
8.16 -6.15 2.39
8.28 -5.99 2.39
8.40 -5.83 2.39
8.52 -5.66 2.39
8.64 -5.49 2.39
8.75 -5.32 2.39
8.86 -5.14 2.39
8.96 -4.96 2.39
9.06 -4.79 2.39
9.16 -4.60 2.39
9.26 -4.42 2.39
9.35 -4.24 2.39
9.43 -4.05 2.39
9.52 -3.86 2.39
9.60 -3.67 2.39
9.67 -3.48 2.39
9.74 -3.29 2.39
9.81 -3.09 2.39
9.88 -2.89 2.39
9.94 -2.70 2.39
9.99 -2.50 2.39
10.04 -2.30 2.39
10.09 -2.10 2.39
10.14 -1.89 2.39
10.17 -1.69 2.39
10.21 -1.49 2.39
10.24 -1.28 2.39
10.27 -1.08 2.39
10.29 -0.87 2.39
10.31 -0.67 2.39
10.33 -0.46 2.39
10.34 -0.25 2.39
10.34 -0.04 2.39
10.34 0.16 2.39
10.34 0.37 2.39
10.33 0.58 2.39
10.32 0.79 2.39
10.31 0.99 2.39
10.29 1.20 2.39
10.27 1.41 2.39
10.24 1.61 2.39
10.21 1.82 2.39
10.17 2.02 2.39
10.13 2.23 2.39
10.09 2.43 2.39
10.04 2.63 2.39
9.99 2.83 2.39
9.93 3.03 2.39
9.87 3.23 2.39
9.80 3.43 2.39
9.73 3.63 2.39
9.66 3.82 2.39
9.58 4.02 2.39
9.50 4.21 2.39
9.42 4.40 2.39
9.33 4.59 2.39
9.24 4.77 2.39
9.14 4.96 2.39
9.04 5.14 2.39
8.94 5.32 2.39
8.83 5.50 2.39
8.72 5.68 2.39
8.60 5.85 2.39
8.48 6.02 2.39
8.36 6.19 2.39
8.24 6.36 2.39
8.11 6.52 2.39
7.98 6.69 2.39
7.84 6.84 2.39
7.70 7.00 2.39
7.56 7.15 2.39
7.41 7.30 2.39
7.27 7.45 2.39
7.12 7.60 2.39
6.96 7.74 2.39
6.81 7.87 2.39
6.65 8.01 2.39
6.48 8.14 2.39
6.32 8.27 2.39
6.15 8.39 2.39
5.97 8.50 2.39
5.80 8.62 2.39
5.63 8.73 2.39
5.45 8.84 2.39
5.27 8.95 2.39
5.09 9.05 2.39
4.91 9.15 2.39
4.72 9.25 2.39
4.53 9.34 2.39
4.35 9.43 2.39
4.16 9.51 2.39
3.96 9.59 2.39
3.77 9.67 2.39
3.57 9.74 2.39
3.38 9.81 2.39
3.18 9.87 2.39
2.98 9.93 2.39
2.78 9.98 2.39
2.58 10.04 2.39
2.38 10.08 2.39
2.17 10.13 2.39
1.99 10.26 2.41
1.84 10.64 2.49
1.63 10.67 2.49
1.41 10.70 2.49
1.20 10.72 2.49
0.98 10.74 2.49
0.76 10.76 2.49
0.55 10.77 2.49
0.33 10.77 2.49
0.12 10.77 2.49
-0.10 10.77 2.49
-0.32 10.76 2.49
-0.53 10.75 2.49
-0.75 10.73 2.49
-0.96 10.71 2.49
-1.18 10.69 2.49
-1.39 10.66 2.49
-1.60 10.63 2.49
-1.81 10.59 2.49
-2.03 10.55 2.49
-2.24 10.50 2.49
-2.45 10.45 2.49
-2.65 10.39 2.49
-2.86 10.33 2.49
-3.07 10.27 2.49
-3.27 10.20 2.49
-3.47 10.13 2.49
-3.67 10.06 2.49
-3.87 9.98 2.49
-4.07 9.89 2.49
-4.27 9.80 2.49
-4.46 9.71 2.49
-4.65 9.62 2.49
-4.84 9.52 2.49
-5.03 9.42 2.49
-5.22 9.31 2.49
-5.40 9.20 2.49
-5.58 9.08 2.49
-5.76 8.97 2.49
-5.94 8.85 2.49
-6.05 8.63 2.47
-6.05 8.28 2.40
-6.18 8.11 2.39
-6.34 7.98 2.39
-6.50 7.85 2.39
-6.65 7.71 2.39
-6.80 7.58 2.39
-6.95 7.43 2.39
-7.09 7.29 2.39
-7.24 7.14 2.39
-7.37 6.99 2.39
-7.51 6.84 2.39
-7.64 6.69 2.39
-7.77 6.53 2.39
-7.90 6.37 2.39
-8.02 6.21 2.39
-8.14 6.04 2.39
-8.26 5.87 2.39
-8.37 5.70 2.39
-8.48 5.53 2.39
-8.58 5.36 2.39
-8.69 5.18 2.39
-8.79 5.01 2.39
-8.88 4.83 2.39
-8.97 4.65 2.39
-9.06 4.46 2.39
-9.14 4.28 2.39
-9.22 4.09 2.39
-9.30 3.91 2.39
-9.37 3.72 2.39
-9.44 3.53 2.39
-9.51 3.33 2.39
-9.57 3.14 2.39
-9.63 2.95 2.39
-9.68 2.75 2.39
-9.73 2.56 2.39
-9.78 2.36 2.39
-9.82 2.16 2.39
-9.86 1.96 2.39
-9.89 1.76 2.39
-9.92 1.57 2.39
-9.95 1.37 2.39
-9.97 1.16 2.39
-10.65 1.03 2.55
-10.64 0.81 2.54
-10.63 0.60 2.54
-10.62 0.38 2.53
-10.60 0.17 2.53
-10.59 -0.04 2.53
-10.56 -0.26 2.52
-10.51 -0.47 2.51
-10.46 -0.68 2.50
-10.40 -0.88 2.49
-10.34 -1.09 2.49
-9.92 -1.24 2.39
-9.89 -1.44 2.39
-9.86 -1.64 2.39
-9.82 -1.84 2.39
-9.78 -2.03 2.39
-9.74 -2.23 2.39
-9.69 -2.43 2.39
-9.63 -2.62 2.39
-9.58 -2.81 2.39
-9.52 -3.00 2.39
-9.45 -3.19 2.39
-9.39 -3.38 2.39
-9.31 -3.57 2.39
-9.24 -3.75 2.39
-9.16 -3.94 2.39
-9.08 -4.12 2.39
-8.99 -4.30 2.39
-8.90 -4.48 2.39
-8.81 -4.66 2.39
-8.71 -4.83 2.39
-8.61 -5.01 2.39
-8.51 -5.18 2.39
-8.40 -5.35 2.39
-8.29 -5.52 2.39
-8.18 -5.68 2.39
-8.06 -5.84 2.39
-7.94 -6.00 2.39
-7.82 -6.16 2.39
-7.70 -6.32 2.39
-7.57 -6.47 2.39
-7.44 -6.62 2.39
-7.30 -6.77 2.39
-7.16 -6.92 2.39
-7.02 -7.06 2.39
-6.88 -7.20 2.39
-6.73 -7.33 2.39
-6.59 -7.47 2.39
-6.43 -7.60 2.39
-6.28 -7.73 2.39
-6.12 -7.85 2.39
-5.97 -7.98 2.39
-5.85 -8.16 2.41
-5.84 -8.50 2.47
-5.71 -8.68 2.49
-5.54 -8.79 2.49
-5.36 -8.90 2.49
-5.18 -9.01 2.49
-5.00 -9.12 2.49
-4.81 -9.21 2.49
-4.63 -9.31 2.49
-4.44 -9.40 2.49
-4.25 -9.49 2.49
-4.06 -9.58 2.49
-3.87 -9.66 2.49
-3.67 -9.74 2.49
-3.48 -9.81 2.49
-3.28 -9.88 2.49
-3.08 -9.95 2.49
-2.88 -10.01 2.49
-2.68 -10.07 2.49
-2.48 -10.12 2.49
-2.28 -10.17 2.49
-2.07 -10.22 2.49
-1.87 -10.26 2.49
-1.66 -10.30 2.49
-1.45 -10.33 2.49
-1.25 -10.36 2.49
-1.04 -10.38 2.49
-0.83 -10.41 2.49
-0.62 -10.42 2.49
-0.41 -10.44 2.49
-0.20 -10.45 2.49
0.01 -9.50 2.49
0.20 -9.50 2.49
0.39 -9.50 2.49
0.58 -9.49 2.49
0.77 -9.48 2.49
0.96 -9.46 2.49
1.15 -9.45 2.49
1.34 -9.42 2.49
1.53 -9.40 2.49
1.72 -9.37 2.49
1.91 -9.33 2.49
2.10 -9.30 2.49
2.22 -9.00 2.42
2.37 -8.83 2.39
2.55 -8.78 2.39
2.72 -8.73 2.39
2.90 -8.68 2.39
3.07 -8.62 2.39
3.25 -8.56 2.39
3.42 -8.50 2.39
3.59 -8.43 2.39
3.76 -8.36 2.39
3.93 -8.29 2.39
4.10 -8.21 2.39
4.26 -8.13 2.39
4.43 -8.04 2.39
4.59 -7.96 2.39
4.75 -7.87 2.39
4.91 -7.77 2.39
5.07 -7.68 2.39
5.22 -7.57 2.39
5.37 -7.47 2.39
5.52 -7.37 2.39
5.67 -7.26 2.39
5.82 -7.14 2.39
5.97 -7.03 2.39
6.11 -6.91 2.39
6.26 -6.80 2.39
6.39 -6.67 2.39
6.53 -6.55 2.39
6.66 -6.42 2.39
6.79 -6.28 2.39
6.92 -6.15 2.39
7.04 -6.01 2.39
7.17 -5.87 2.39
7.29 -5.73 2.39
7.40 -5.58 2.39
7.52 -5.43 2.39
7.63 -5.28 2.39
7.73 -5.13 2.39
7.84 -4.98 2.39
7.94 -4.82 2.39
8.04 -4.66 2.39
8.13 -4.50 2.39
8.22 -4.34 2.39
8.31 -4.18 2.39
8.40 -4.01 2.39
8.48 -3.84 2.39
8.56 -3.67 2.39
8.63 -3.50 2.39
8.71 -3.33 2.39
8.77 -3.15 2.39
8.84 -2.98 2.39
8.90 -2.80 2.39
8.96 -2.62 2.39
9.01 -2.44 2.39
9.06 -2.26 2.39
9.11 -2.08 2.39
9.15 -1.90 2.39
9.19 -1.72 2.39
9.23 -1.53 2.39
9.26 -1.35 2.39
9.29 -1.16 2.39
9.31 -0.98 2.39
9.33 -0.79 2.39
9.35 -0.60 2.39
9.36 -0.41 2.39
9.37 -0.23 2.39
9.38 -0.04 2.39
9.38 0.15 2.39
9.37 0.34 2.39
9.37 0.53 2.39
9.36 0.71 2.39
9.34 0.90 2.39
9.33 1.09 2.39
9.31 1.28 2.39
9.28 1.46 2.39
9.25 1.65 2.39
9.22 1.83 2.39
9.18 2.02 2.39
9.14 2.20 2.39
9.10 2.39 2.39
9.05 2.57 2.39
9.00 2.75 2.39
8.94 2.93 2.39
8.88 3.11 2.39
8.82 3.29 2.39
8.75 3.46 2.39
8.68 3.64 2.39
8.61 3.81 2.39
8.53 3.99 2.39
8.45 4.16 2.39
8.37 4.33 2.39
8.28 4.49 2.39
8.19 4.66 2.39
8.10 4.82 2.39
8.00 4.99 2.39
7.90 5.15 2.39
7.79 5.30 2.39
7.69 5.46 2.39
7.58 5.61 2.39
7.46 5.76 2.39
7.35 5.91 2.39
7.23 6.06 2.39
7.10 6.20 2.39
6.98 6.34 2.39
6.85 6.48 2.39
6.72 6.62 2.39
6.58 6.75 2.39
6.45 6.88 2.39
6.31 7.01 2.39
6.17 7.13 2.39
6.01 7.25 2.39
5.87 7.37 2.39
5.72 7.48 2.39
5.57 7.59 2.39
5.41 7.70 2.39
5.26 7.81 2.39
5.10 7.91 2.39
4.94 8.01 2.39
4.78 8.11 2.39
4.61 8.20 2.39
4.45 8.29 2.39
4.28 8.38 2.39
4.11 8.46 2.39
3.94 8.54 2.39
3.77 8.62 2.39
3.59 8.69 2.39
3.42 8.76 2.39
3.24 8.82 2.39
3.06 8.89 2.39
2.88 8.94 2.39
2.70 9.00 2.39
2.52 9.05 2.39
2.34 9.10 2.39
2.15 9.14 2.39
2.00 9.30 2.42
1.86 9.61 2.49
1.67 9.64 2.49
1.47 9.67 2.49
1.28 9.70 2.49
1.09 9.72 2.49
0.89 9.74 2.49
0.69 9.75 2.49
0.50 9.76 2.49
0.30 9.77 2.49
0.11 9.77 2.49
-0.09 9.76 2.49
-0.29 9.76 2.49
-0.48 9.75 2.49
-0.68 9.73 2.49
-0.87 9.71 2.49
-1.06 9.69 2.49
-1.26 9.67 2.49
-1.45 9.63 2.49
-1.64 9.60 2.49
-1.84 9.56 2.49
-2.03 9.52 2.49
-2.22 9.47 2.49
-2.41 9.43 2.49
-2.59 9.37 2.49
-2.78 9.31 2.49
-2.96 9.25 2.49
-3.15 9.19 2.49
-3.33 9.12 2.49
-3.51 9.05 2.49
-3.69 8.97 2.49
-3.87 8.89 2.49
-4.05 8.81 2.49
-4.22 8.73 2.49
-4.39 8.64 2.49
-4.56 8.54 2.49
-4.73 8.45 2.49
-4.90 8.35 2.49
-5.06 8.24 2.49
-5.23 8.14 2.49
-5.39 8.03 2.49
-5.54 7.91 2.49
-5.70 7.80 2.49
-5.85 7.68 2.49
-6.00 7.56 2.49
-6.03 7.29 2.44
-6.04 7.01 2.39
-6.17 6.88 2.39
-6.31 6.75 2.39
-6.44 6.62 2.39
-6.57 6.49 2.39
-6.69 6.35 2.39
-6.82 6.21 2.39
-6.94 6.07 2.39
-7.06 5.93 2.39
-7.17 5.78 2.39
-7.28 5.64 2.39
-7.39 5.49 2.39
-7.50 5.33 2.39
-7.60 5.18 2.39
-7.70 5.03 2.39
-7.79 4.87 2.39
-7.89 4.71 2.39
-7.98 4.55 2.39
-8.06 4.38 2.39
-8.15 4.22 2.39
-8.23 4.05 2.39
-8.30 3.89 2.39
-8.38 3.72 2.39
-8.45 3.55 2.39
-8.51 3.38 2.39
-8.58 3.20 2.39
-8.64 3.03 2.39
-8.69 2.85 2.39
-8.75 2.68 2.39
-8.79 2.50 2.39
-8.84 2.32 2.39
-8.88 2.14 2.39
-8.92 1.97 2.39
-8.95 1.79 2.39
-8.99 1.60 2.39
-9.01 1.42 2.39
-9.04 1.24 2.39
-9.06 1.06 2.39
-9.07 0.88 2.39
-9.09 0.69 2.39
-9.10 0.51 2.39
-9.10 0.33 2.39
-9.10 0.15 2.39
-9.10 -0.04 2.39
-9.10 -0.22 2.39
-9.09 -0.40 2.39
-9.08 -0.59 2.39
-9.06 -0.77 2.39
-9.04 -0.95 2.39
-9.02 -1.13 2.39
-8.99 -1.31 2.39
-8.96 -1.49 2.39
-8.93 -1.67 2.39
-8.89 -1.85 2.39
-8.85 -2.03 2.39
-8.81 -2.20 2.39
-8.76 -2.38 2.39
-8.71 -2.56 2.39
-8.65 -2.73 2.39
-8.59 -2.90 2.39
-8.53 -3.07 2.39
-8.47 -3.24 2.39
-8.40 -3.41 2.39
-8.33 -3.58 2.39
-8.25 -3.75 2.39
-8.18 -3.91 2.39
-8.09 -4.07 2.39
-8.01 -4.24 2.39
-7.92 -4.40 2.39
-7.83 -4.55 2.39
-7.74 -4.71 2.39
-7.64 -4.86 2.39
-7.54 -5.02 2.39
-7.44 -5.17 2.39
-7.33 -5.31 2.39
-7.22 -5.46 2.39
-7.11 -5.60 2.39
-7.00 -5.75 2.39
-6.88 -5.88 2.39
-6.76 -6.02 2.39
-6.64 -6.16 2.39
-6.51 -6.29 2.39
-6.39 -6.42 2.39
-6.26 -6.55 2.39
-6.12 -6.67 2.39
-5.99 -6.79 2.39
-5.87 -6.93 2.40
-5.85 -7.20 2.45
-5.81 -7.45 2.49
-5.66 -7.56 2.49
-5.50 -7.68 2.49
-5.35 -7.79 2.49
-5.19 -7.89 2.49
-5.03 -8.00 2.49
-4.87 -8.10 2.49
-4.71 -8.19 2.49
-4.54 -8.29 2.49
-4.38 -8.38 2.49
-4.21 -8.47 2.49
-4.04 -8.55 2.49
-3.87 -8.63 2.49
-3.69 -8.71 2.49
-3.52 -8.78 2.49
-3.34 -8.85 2.49
-3.16 -8.92 2.49
-2.98 -8.98 2.49
-2.80 -9.04 2.49
-2.62 -9.10 2.49
-2.44 -9.15 2.49
-2.25 -9.20 2.49
-2.07 -9.24 2.49
-1.88 -9.29 2.49
-1.70 -9.32 2.49
-1.51 -9.36 2.49
-1.32 -9.39 2.49
-1.13 -9.42 2.49
-0.94 -9.44 2.49
-0.75 -9.46 2.49
-0.56 -9.47 2.49
-0.37 -9.49 2.49
-0.18 -9.49 2.49
0.01 -8.70 2.49
0.18 -8.70 2.49
0.36 -8.69 2.49
0.53 -8.69 2.49
0.71 -8.68 2.49
0.88 -8.66 2.49
1.06 -8.65 2.49
1.23 -8.63 2.49
1.40 -8.60 2.49
1.58 -8.57 2.49
1.75 -8.54 2.49
1.92 -8.51 2.49
2.09 -8.47 2.49
2.21 -8.23 2.43
2.33 -8.04 2.39
2.49 -7.99 2.39
2.65 -7.94 2.39
2.81 -7.89 2.39
2.97 -7.84 2.39
3.13 -7.78 2.39
3.29 -7.72 2.39
3.44 -7.65 2.39
3.60 -7.58 2.39
3.75 -7.51 2.39
3.90 -7.44 2.39
4.05 -7.36 2.39
4.20 -7.28 2.39
4.35 -7.20 2.39
4.49 -7.11 2.39
4.64 -7.02 2.39
4.78 -6.93 2.39
4.92 -6.83 2.39
5.05 -6.74 2.39
5.19 -6.64 2.39
5.33 -6.53 2.39
5.46 -6.43 2.39
5.59 -6.32 2.39
5.71 -6.21 2.39
5.84 -6.09 2.39
5.96 -5.98 2.39
6.08 -5.86 2.39
6.21 -5.75 2.39
6.33 -5.62 2.39
6.44 -5.50 2.39
6.55 -5.37 2.39
6.66 -5.24 2.39
6.77 -5.10 2.39
6.87 -4.97 2.39
6.97 -4.83 2.39
7.07 -4.69 2.39
7.17 -4.55 2.39
7.26 -4.41 2.39
7.35 -4.26 2.39
7.44 -4.12 2.39
7.52 -3.97 2.39
7.60 -3.82 2.39
7.68 -3.67 2.39
7.75 -3.51 2.39
7.82 -3.36 2.39
7.89 -3.20 2.39
7.96 -3.04 2.39
8.02 -2.88 2.39
8.08 -2.72 2.39
8.13 -2.56 2.39
8.19 -2.40 2.39
8.24 -2.23 2.39
8.28 -2.07 2.39
8.32 -1.90 2.39
8.36 -1.74 2.39
8.40 -1.57 2.39
8.43 -1.40 2.39
8.46 -1.23 2.39
8.49 -1.06 2.39
8.51 -0.89 2.39
8.53 -0.72 2.39
8.54 -0.55 2.39
8.55 -0.38 2.39
8.56 -0.21 2.39
8.57 -0.03 2.39
8.57 0.14 2.39
8.56 0.31 2.39
8.56 0.48 2.39
8.55 0.65 2.39
8.54 0.82 2.39
8.52 0.99 2.39
8.50 1.17 2.39
8.48 1.34 2.39
8.45 1.51 2.39
8.42 1.68 2.39
8.39 1.84 2.39
8.35 2.01 2.39
8.31 2.18 2.39
8.27 2.35 2.39
8.22 2.51 2.39
8.17 2.68 2.39
8.11 2.84 2.39
8.06 3.00 2.39
8.00 3.17 2.39
7.93 3.33 2.39
7.86 3.48 2.39
7.79 3.64 2.39
7.72 3.80 2.39
7.64 3.95 2.39
7.56 4.10 2.39
7.48 4.26 2.39
7.39 4.41 2.39
7.31 4.55 2.39
7.21 4.70 2.39
7.12 4.84 2.39
7.02 4.99 2.39
6.92 5.13 2.39
6.82 5.26 2.39
6.71 5.40 2.39
6.60 5.53 2.39
6.49 5.66 2.39
6.37 5.79 2.39
6.26 5.92 2.39
6.14 6.04 2.39
6.01 6.16 2.39
5.88 6.28 2.39
5.75 6.39 2.39
5.62 6.51 2.39
5.49 6.62 2.39
5.36 6.73 2.39
5.22 6.83 2.39
5.08 6.94 2.39
4.94 7.04 2.39
4.80 7.13 2.39
4.66 7.23 2.39
4.51 7.32 2.39
4.36 7.41 2.39
4.21 7.49 2.39
4.06 7.57 2.39
3.91 7.65 2.39
3.75 7.73 2.39
3.60 7.80 2.39
3.44 7.87 2.39
3.28 7.94 2.39
3.12 8.00 2.39
2.96 8.06 2.39
2.80 8.12 2.39
2.63 8.17 2.39
2.47 8.22 2.39
2.30 8.27 2.39
2.14 8.31 2.39
2.00 8.50 2.43
1.88 8.75 2.49
1.70 8.78 2.49
1.53 8.81 2.49
1.35 8.84 2.49
1.17 8.86 2.49
0.99 8.88 2.49
0.81 8.90 2.49
0.63 8.91 2.49
0.46 8.92 2.49
0.28 8.92 2.49
0.10 8.92 2.49
-0.08 8.92 2.49
-0.26 8.92 2.49
-0.44 8.91 2.49
-0.62 8.89 2.49
-0.79 8.88 2.49
-0.97 8.86 2.49
-1.15 8.83 2.49
-1.33 8.80 2.49
-1.50 8.77 2.49
-1.68 8.74 2.49
-1.85 8.70 2.49
-2.02 8.66 2.49
-2.20 8.61 2.49
-2.37 8.57 2.49
-2.54 8.51 2.49
-2.71 8.46 2.49
-2.88 8.40 2.49
-3.04 8.34 2.49
-3.21 8.27 2.49
-3.37 8.20 2.49
-3.54 8.13 2.49
-3.70 8.06 2.49
-3.86 7.98 2.49
-4.01 7.90 2.49
-4.17 7.81 2.49
-4.33 7.72 2.49
-4.48 7.63 2.49
-4.63 7.54 2.49
-4.78 7.44 2.49
-4.92 7.34 2.49
-5.07 7.24 2.49
-5.21 7.13 2.49
-5.35 7.02 2.49
-5.49 6.91 2.49
-5.62 6.80 2.49
-5.76 6.68 2.49
-5.89 6.56 2.49
-6.02 6.44 2.49
-6.02 6.19 2.44
-6.03 5.95 2.40
-6.12 5.81 2.39
-6.23 5.68 2.39
-6.34 5.55 2.39
-6.45 5.42 2.39
-6.56 5.29 2.39
