ply
format ascii 1.0
element vertex 2876
property float32 x
property float32 y
property float32 z
end_header
11.71 5.45 1.22
11.72 5.74 1.24
11.71 6.04 1.25
11.71 6.33 1.27
11.70 6.63 1.29
11.66 6.93 1.30
11.62 7.22 1.31
11.57 7.52 1.33
11.52 7.82 1.34
11.48 8.13 1.36
11.49 8.49 1.38
11.50 8.86 1.41
11.48 9.22 1.43
11.46 9.58 1.46
11.44 9.96 1.48
11.94 10.83 1.58
11.90 11.24 1.61
11.86 11.66 1.63
11.87 12.15 1.67
11.90 12.68 1.72
11.95 13.25 1.76
11.95 13.80 1.81
11.75 14.14 1.83
11.56 14.49 1.84
11.36 14.84 1.86
11.22 15.28 1.89
11.07 15.73 1.92
10.91 16.19 1.96
10.66 16.52 1.97
7.59 12.31 1.45
7.38 12.52 1.46
7.17 12.74 1.48
10.04 18.70 2.15
9.78 19.14 2.18
9.44 19.42 2.19
9.09 19.69 2.20
8.74 19.99 2.22
8.40 20.31 2.24
8.05 20.63 2.26
7.70 20.95 2.28
7.45 21.61 2.34
7.19 22.30 2.40
6.91 23.01 2.47
6.24 22.38 2.39
5.78 22.47 2.39
5.32 22.55 2.39
4.86 22.62 2.39
4.39 22.68 2.39
3.93 22.74 2.39
3.47 22.78 2.39
3.01 22.82 2.39
2.55 22.85 2.39
2.17 23.85 2.50
1.69 23.86 2.50
1.21 23.86 2.50
0.73 23.86 2.50
0.25 23.84 2.50
-0.23 23.82 2.50
-0.70 23.78 2.50
-1.18 23.74 2.50
-1.66 23.69 2.50
-2.13 23.63 2.50
-2.60 23.57 2.50
-3.07 23.49 2.50
-3.54 23.40 2.50
-4.01 23.31 2.50
-4.47 23.21 2.50
-4.93 23.10 2.50
-5.39 22.98 2.50
-5.61 21.93 2.39
-6.05 21.78 2.39
-6.48 21.64 2.39
-6.91 21.50 2.39
-7.34 21.35 2.39
-7.76 21.19 2.39
-8.18 21.02 2.39
-8.60 20.84 2.39
-9.01 20.66 2.39
-5.96 12.94 1.51
-9.68 19.95 2.35
-9.77 19.16 2.28
-9.74 18.18 2.19
-9.68 17.24 2.10
-9.73 16.53 2.04
-9.79 15.89 1.98
-9.86 15.30 1.93
-9.93 14.76 1.89
-9.97 14.19 1.84
-10.00 13.65 1.80
-9.99 13.07 1.75
-10.01 12.56 1.70
-10.03 12.09 1.67
-10.06 11.64 1.63
-10.08 11.20 1.60
-10.10 10.78 1.57
-10.12 10.38 1.54
-10.14 9.99 1.51
-10.16 9.61 1.48
-10.22 9.28 1.46
-10.28 8.97 1.44
-10.30 8.63 1.42
-10.32 8.30 1.40
-10.34 7.98 1.38
-10.41 7.70 1.37
-10.58 7.50 1.37
-10.76 7.31 1.37
-10.93 7.11 1.37
-11.11 6.91 1.38
-11.16 6.64 1.36
-11.39 6.47 1.38
-11.59 6.27 1.38
-11.69 6.03 1.38
-11.79 5.78 1.37
-11.88 5.54 1.37
-11.98 5.29 1.37
-11.98 5.01 1.35
-11.99 4.73 1.34
-12.00 4.46 1.33
-12.01 4.19 1.32
-12.01 3.92 1.31
-12.02 3.66 1.30
-12.03 3.40 1.29
-12.09 3.15 1.29
-12.18 2.92 1.29
-12.21 2.67 1.29
-12.22 2.41 1.28
-12.22 2.16 1.28
-12.23 1.91 1.27
-12.23 1.66 1.27
-12.24 1.41 1.26
-12.26 1.16 1.26
-12.28 0.92 1.26
-12.28 0.67 1.25
-12.27 0.42 1.25
-12.26 0.17 1.24
-10.92 -0.06 1.11
-10.52 -0.27 1.06
-10.18 -0.47 1.03
-10.53 -0.70 1.06
-12.28 -1.06 1.24
-12.29 -1.31 1.24
-12.30 -1.56 1.24
-12.30 -1.81 1.24
-12.30 -2.07 1.25
-12.31 -2.32 1.25
-12.31 -2.58 1.25
-12.28 -2.83 1.25
-12.25 -3.09 1.25
-12.24 -3.35 1.25
-12.27 -3.62 1.26
-12.29 -3.90 1.27
-12.32 -4.18 1.28
-12.34 -4.47 1.29
-12.35 -4.75 1.30
-12.34 -5.04 1.30
-12.34 -5.33 1.31
-12.35 -5.63 1.32
-12.36 -5.94 1.33
-12.38 -6.25 1.34
-12.39 -6.57 1.36
-12.33 -6.86 1.36
-12.28 -7.16 1.37
-12.25 -7.48 1.38
-12.25 -7.82 1.39
-12.26 -8.17 1.41
-12.26 -8.53 1.43
-12.26 -8.91 1.44
-12.27 -9.30 1.46
-12.26 -9.68 1.48
-12.24 -10.07 1.50
-12.22 -10.47 1.52
-12.20 -10.89 1.54
-12.27 -11.40 1.57
-12.24 -11.84 1.60
-12.21 -12.30 1.62
-12.18 -12.77 1.65
-12.62 -13.77 1.74
-12.56 -14.27 1.77
-10.62 -12.57 1.53
-10.28 -12.68 1.51
-12.40 -15.92 1.87
-12.30 -16.47 1.90
-12.19 -17.03 1.93
-11.97 -17.45 1.94
-11.94 -18.17 1.99
-11.92 -18.96 2.05
-11.86 -19.73 2.10
-11.79 -20.54 2.16
-11.64 -21.26 2.21
-11.46 -21.96 2.25
-11.22 -22.59 2.29
-10.97 -23.25 2.33
-10.77 -24.06 2.38
-10.61 -25.04 2.45
-9.88 -24.69 2.39
-9.40 -24.93 2.39
-8.91 -25.16 2.39
-8.42 -25.38 2.39
-7.93 -25.59 2.39
-7.42 -25.78 2.39
-6.92 -25.97 2.39
-6.40 -26.15 2.39
-6.03 -26.95 2.45
-5.60 -27.61 2.50
-5.05 -27.76 2.50
-4.50 -27.90 2.50
-3.95 -28.02 2.50
-3.39 -28.14 2.50
-2.83 -28.24 2.50
-2.26 -28.33 2.50
-1.70 -28.41 2.50
-1.13 -28.48 2.50
-0.56 -28.53 2.50
0.01 -22.67 2.50
0.47 -22.69 2.50
0.93 -22.69 2.50
1.38 -22.69 2.50
1.84 -22.68 2.50
2.20 -21.72 2.39
2.64 -21.69 2.39
3.07 -21.65 2.39
3.51 -21.60 2.39
3.94 -21.54 2.39
4.38 -21.47 2.39
4.81 -21.39 2.39
5.24 -21.30 2.39
5.67 -21.20 2.39
6.56 -22.71 2.57
7.24 -23.30 2.66
2.70 -8.12 0.93
8.61 -24.21 2.79
8.84 -23.38 2.72
6.92 -17.25 2.02
9.26 -21.81 2.57
9.59 -21.37 2.54
9.89 -20.92 2.51
10.06 -20.22 2.45
10.23 -19.56 2.40
10.50 -19.13 2.37
10.89 -18.94 2.37
11.34 -18.83 2.39
11.73 -18.63 2.39
11.95 -18.16 2.36
12.16 -17.70 2.33
12.46 -17.37 2.32
12.53 -16.74 2.27
12.59 -16.14 2.22
12.67 -15.59 2.18
12.80 -15.12 2.15
12.92 -14.66 2.12
13.04 -14.21 2.10
13.21 -13.83 2.08
13.39 -13.47 2.07
13.54 -13.07 2.05
13.67 -12.69 2.03
13.97 -12.45 2.04
14.31 -12.25 2.05
14.65 -12.04 2.07
14.87 -11.73 2.07
14.98 -11.34 2.05
15.09 -10.95 2.04
15.19 -10.56 2.02
15.29 -10.18 2.01
15.31 -9.76 1.99
7.45 -4.54 0.96
7.54 -4.39 0.96
14.66 -8.15 1.84
14.20 -7.53 1.77
14.07 -7.10 1.73
13.94 -6.69 1.70
13.76 -6.26 1.67
13.59 -5.86 1.63
13.42 -5.47 1.60
13.27 -5.10 1.57
13.12 -4.74 1.55
12.98 -4.40 1.52
12.84 -4.07 1.50
12.70 -3.75 1.47
12.57 -3.43 1.45
12.51 -3.15 1.44
12.41 -2.86 1.42
12.32 -2.58 1.41
12.22 -2.31 1.39
12.13 -2.04 1.38
12.04 -1.78 1.37
11.95 -1.52 1.35
11.92 -1.27 1.35
11.93 -1.03 1.35
11.93 -0.79 1.35
11.93 -0.55 1.35
11.93 -0.31 1.35
11.93 -0.07 1.35
11.92 0.17 1.35
11.92 0.41 1.36
11.91 0.65 1.36
11.87 0.88 1.36
11.83 1.12 1.36
11.78 1.35 1.36
11.74 1.59 1.36
11.70 1.82 1.36
11.65 2.05 1.36
11.60 2.29 1.36
11.55 2.52 1.36
11.54 2.76 1.37
11.58 3.02 1.39
11.62 3.28 1.40
11.66 3.54 1.42
11.69 3.81 1.43
11.63 4.05 1.43
11.56 4.29 1.44
11.50 4.53 1.45
11.47 4.79 1.46
7.33 3.23 0.94
11.49 5.34 1.49
11.49 5.63 1.51
11.50 5.92 1.53
11.49 6.21 1.54
11.48 6.51 1.56
11.46 6.80 1.58
11.41 7.09 1.60
11.37 7.38 1.61
11.32 7.68 1.63
11.27 7.98 1.65
11.22 8.29 1.67
11.21 8.64 1.70
11.20 8.99 1.72
11.18 9.34 1.75
11.15 9.71 1.78
11.12 10.09 1.81
11.10 10.48 1.84
11.26 11.06 1.91
11.21 11.46 1.94
11.15 11.88 1.98
11.10 12.30 2.02
11.05 12.76 2.06
11.07 13.31 2.11
11.09 13.89 2.17
11.11 14.50 2.24
10.96 14.92 2.27
10.75 15.28 2.29
10.52 15.59 2.31
10.27 15.91 2.33
7.59 12.29 1.78
7.38 12.50 1.79
7.17 12.72 1.81
9.30 17.32 2.44
9.08 17.75 2.47
8.82 18.13 2.51
8.44 18.29 2.51
8.07 18.44 2.51
7.69 18.58 2.51
7.31 18.73 2.51
6.94 18.87 2.52
6.23 18.05 2.39
5.85 18.15 2.39
5.48 18.24 2.39
5.11 18.32 2.39
4.73 18.40 2.39
4.36 18.47 2.39
3.98 18.53 2.39
3.60 18.59 2.39
3.23 18.63 2.39
2.85 18.68 2.39
2.47 18.71 2.39
2.18 19.54 2.50
1.79 19.57 2.50
1.39 19.58 2.50
1.00 19.58 2.50
0.60 19.58 2.50
0.21 19.57 2.50
-0.18 19.56 2.50
-0.58 19.53 2.50
-0.97 19.50 2.50
-1.36 19.46 2.50
-1.75 19.42 2.50
-2.14 19.37 2.50
-2.52 19.31 2.50
-2.91 19.24 2.50
-3.29 19.16 2.50
-3.68 19.08 2.50
-4.06 18.99 2.50
-4.43 18.90 2.50
-4.81 18.80 2.50
-5.19 18.69 2.50
-5.56 18.57 2.50
-5.68 17.69 2.39
-6.03 17.56 2.39
-6.38 17.43 2.39
-6.73 17.29 2.39
-7.08 17.15 2.39
-7.42 17.00 2.39
-5.96 12.94 1.84
-8.09 16.68 2.39
-8.42 16.51 2.39
-8.75 16.34 2.39
-9.08 16.16 2.39
-9.40 15.97 2.39
-9.58 15.55 2.36
-9.66 15.00 2.30
-9.70 14.42 2.24
-9.74 13.87 2.19
-9.78 13.35 2.14
-9.78 12.80 2.08
-9.82 12.32 2.03
-9.85 11.86 1.99
-9.88 11.42 1.95
-9.90 11.00 1.91
-9.93 10.59 1.87
-9.95 10.20 1.84
-9.97 9.82 1.80
-9.99 9.45 1.77
-10.05 9.13 1.75
-10.10 8.81 1.72
-10.12 8.48 1.70
-10.14 8.15 1.67
-10.16 7.84 1.65
-10.21 7.55 1.63
-10.38 7.36 1.63
-10.55 7.17 1.63
-10.72 6.97 1.64
-10.82 6.73 1.63
-10.86 6.45 1.62
-10.97 6.23 1.61
-11.28 6.11 1.64
-11.55 5.96 1.66
-11.65 5.71 1.65
-11.75 5.47 1.65
-11.85 5.23 1.65
-11.87 4.96 1.64
-11.88 4.68 1.62
-11.88 4.41 1.61
-11.89 4.15 1.60
-11.90 3.88 1.59
-11.91 3.62 1.57
-11.91 3.36 1.56
-11.95 3.12 1.56
-12.04 2.88 1.56
-12.06 2.63 1.55
-12.07 2.38 1.55
-12.07 2.13 1.54
-12.08 1.88 1.53
-12.08 1.64 1.53
-12.08 1.39 1.52
-12.10 1.14 1.52
-12.12 0.90 1.52
-12.12 0.66 1.51
-12.11 0.41 1.51
-12.10 0.17 1.50
-10.90 -0.07 1.35
-10.51 -0.28 1.30
-10.17 -0.47 1.26
-10.53 -0.70 1.30
-12.10 -1.05 1.50
-12.11 -1.30 1.50
-12.12 -1.54 1.50
-12.12 -1.79 1.50
-12.12 -2.04 1.51
-12.12 -2.29 1.51
-12.12 -2.55 1.51
-12.12 -2.80 1.52
-12.09 -3.05 1.52
-12.07 -3.30 1.52
-12.09 -3.57 1.53
-12.12 -3.85 1.54
-12.14 -4.12 1.55
-12.17 -4.41 1.56
-12.19 -4.69 1.58
-12.19 -4.98 1.59
-12.18 -5.26 1.60
-12.19 -5.56 1.61
-12.20 -5.86 1.62
-12.21 -6.17 1.64
-12.22 -6.49 1.65
-12.21 -6.80 1.67
-12.16 -7.09 1.68
-12.12 -7.40 1.69
-12.12 -7.74 1.71
-12.12 -8.08 1.73
-12.12 -8.44 1.75
-12.11 -8.81 1.77
-12.12 -9.19 1.79
-12.11 -9.57 1.82
-12.09 -9.95 1.84
-12.07 -10.35 1.86
-12.04 -10.75 1.89
-12.05 -11.20 1.92
-12.05 -11.66 1.96
-12.02 -12.11 1.99
-11.98 -12.57 2.02
-11.95 -13.04 2.05
-12.13 -13.79 2.13
-10.61 -12.56 1.90
-10.27 -12.67 1.88
-11.94 -15.34 2.24
-11.85 -15.87 2.28
-11.74 -16.41 2.32
-11.56 -16.86 2.34
-11.36 -17.31 2.37
-11.24 -17.88 2.41
-11.14 -18.54 2.47
-11.03 -19.22 2.52
-10.91 -19.94 2.58
-9.74 -18.68 2.39
-9.38 -18.90 2.39
-9.01 -19.11 2.39
-8.64 -19.32 2.39
-8.26 -19.52 2.39
-7.88 -19.71 2.39
-7.50 -19.89 2.39
-7.11 -20.07 2.39
-6.71 -20.23 2.39
-6.31 -20.39 2.39
-5.98 -20.79 2.42
-5.74 -21.58 2.50
-5.32 -21.72 2.50
-4.88 -21.85 2.50
-4.45 -21.97 2.50
-4.01 -22.08 2.50
-3.58 -22.18 2.50
-3.13 -22.28 2.50
-2.69 -22.36 2.50
-2.24 -22.44 2.50
-1.79 -22.50 2.50
-1.34 -22.56 2.50
-0.89 -22.61 2.50
-0.44 -22.64 2.50
0.01 -18.77 2.50
0.39 -18.78 2.50
0.77 -18.79 2.50
1.15 -18.78 2.50
1.52 -18.77 2.50
1.90 -18.75 2.50
2.18 -17.94 2.39
2.54 -17.91 2.39
2.90 -17.86 2.39
3.26 -17.81 2.39
3.62 -17.75 2.39
3.98 -17.69 2.39
4.33 -17.61 2.39
4.69 -17.53 2.39
5.04 -17.44 2.39
5.39 -17.34 2.39
2.71 -8.12 1.13
6.09 -17.12 2.39
7.37 -19.49 2.74
6.92 -17.25 2.45
8.63 -20.31 2.90
8.92 -19.89 2.87
9.12 -19.28 2.80
9.31 -18.70 2.75
9.56 -18.28 2.71
9.85 -17.96 2.69
10.13 -17.61 2.67
10.39 -17.26 2.65
10.76 -17.08 2.65
11.09 -16.85 2.65
11.42 -16.61 2.65
11.57 -16.14 2.61
11.66 -15.59 2.56
11.80 -15.13 2.52
11.94 -14.70 2.49
12.11 -14.31 2.46
12.27 -13.92 2.44
12.35 -13.46 2.40
12.50 -13.08 2.38
12.74 -12.81 2.38
12.88 -12.44 2.36
13.02 -12.08 2.34
13.27 -11.83 2.34
13.59 -11.63 2.36
13.73 -11.28 2.34
13.84 -10.92 2.33
14.10 -10.67 2.33
14.46 -10.50 2.36
14.77 -10.28 2.38
14.87 -9.91 2.36
14.88 -9.49 2.34
7.45 -4.54 1.16
7.54 -4.39 1.16
13.62 -7.57 2.07
13.49 -7.15 2.03
13.38 -6.75 1.99
13.28 -6.37 1.96
13.17 -6.00 1.93
13.03 -5.62 1.89
12.89 -5.26 1.86
12.75 -4.90 1.82
12.61 -4.56 1.79
12.47 -4.23 1.76
12.34 -3.91 1.73
12.20 -3.60 1.71
12.12 -3.32 1.69
12.08 -3.04 1.67
12.04 -2.78 1.66
11.97 -2.51 1.65
11.88 -2.24 1.63
11.79 -1.98 1.61
11.71 -1.73 1.60
11.62 -1.48 1.58
11.61 -1.24 1.58
11.61 -1.01 1.58
11.62 -0.77 1.58
11.62 -0.54 1.58
11.62 -0.30 1.58
11.62 -0.07 1.58
11.61 0.16 1.58
11.61 0.39 1.59
11.60 0.63 1.59
11.56 0.86 1.59
11.52 1.09 1.59
11.48 1.32 1.59
11.44 1.55 1.59
11.40 1.77 1.59
11.36 2.00 1.59
11.31 2.23 1.59
11.26 2.45 1.59
11.23 2.68 1.60
11.27 2.93 1.61
11.30 3.18 1.63
11.33 3.44 1.65
11.37 3.70 1.66
11.40 3.97 1.68
11.38 4.22 1.69
11.31 4.45 1.70
11.26 4.70 1.71
7.33 3.23 1.12
11.27 5.24 1.75
11.27 5.52 1.77
11.28 5.81 1.79
11.28 6.10 1.81
11.28 6.39 1.83
11.26 6.68 1.85
11.22 6.97 1.87
11.17 7.25 1.89
11.12 7.54 1.91
11.07 7.84 1.93
11.02 8.14 1.95
10.97 8.44 1.98
10.93 8.77 2.00
10.91 9.11 2.03
10.88 9.47 2.07
10.84 9.82 2.10
10.77 10.17 2.13
10.71 10.52 2.16
10.64 10.88 2.19
10.57 11.26 2.23
10.51 11.65 2.27
10.44 12.05 2.31
10.37 12.46 2.35
10.29 12.88 2.39
10.19 13.30 2.44
10.13 13.78 2.49
10.11 14.36 2.56
10.06 14.91 2.62
9.83 15.22 2.65
7.58 12.27 2.11
7.37 12.49 2.12
7.16 12.71 2.14
8.88 16.52 2.75
8.47 16.54 2.73
8.06 16.56 2.71
7.66 16.58 2.69
7.26 16.59 2.67
6.19 14.96 2.39
5.89 15.06 2.39
5.58 15.16 2.39
5.26 15.25 2.39
4.95 15.34 2.39
4.64 15.42 2.39
4.32 15.49 2.39
4.01 15.56 2.39
3.69 15.62 2.39
3.37 15.68 2.39
3.05 15.73 2.39
2.73 15.77 2.39
2.41 15.81 2.39
2.18 16.52 2.50
1.85 16.55 2.50
1.52 16.57 2.50
1.18 16.58 2.50
0.85 16.59 2.50
0.51 16.59 2.50
0.18 16.59 2.50
-0.15 16.57 2.50
-0.49 16.56 2.50
-0.82 16.53 2.50
-1.15 16.50 2.50
-1.48 16.46 2.50
-1.81 16.42 2.50
-2.14 16.37 2.50
-2.47 16.32 2.50
-2.79 16.26 2.50
-3.12 16.19 2.50
-3.44 16.11 2.50
-3.76 16.03 2.50
-4.08 15.95 2.50
-4.40 15.86 2.50
-4.72 15.76 2.50
-5.03 15.66 2.50
-5.34 15.55 2.50
-5.65 15.43 2.50
-5.71 14.68 2.39
-6.01 14.56 2.39
-6.30 14.43 2.39
-5.96 12.94 2.16
-6.87 14.16 2.39
-7.15 14.02 2.39
-7.43 13.87 2.39
-7.71 13.72 2.39
-7.98 13.56 2.39
-8.25 13.40 2.39
-8.52 13.23 2.39
-8.78 13.05 2.39
-9.04 12.88 2.39
-9.30 12.69 2.39
-9.56 12.51 2.39
-9.63 12.09 2.35
-9.67 11.64 2.30
-9.70 11.22 2.25
-9.73 10.80 2.21
-9.75 10.41 2.17
-9.78 10.02 2.13
-9.80 9.65 2.09
-9.83 9.29 2.05
-9.89 8.98 2.03
-9.92 8.65 1.99
-9.94 8.33 1.96
-9.97 8.01 1.94
-9.99 7.70 1.91
-10.01 7.41 1.88
-10.18 7.22 1.89
-10.35 7.03 1.89
-10.48 6.82 1.89
-10.53 6.55 1.87
-10.57 6.28 1.85
-10.61 6.02 1.84
-10.87 5.88 1.86
-11.17 5.76 1.89
-11.49 5.63 1.92
-11.61 5.41 1.93
-11.71 5.17 1.92
-11.75 4.91 1.91
-11.76 4.64 1.90
-11.77 4.37 1.88
-11.78 4.10 1.87
-11.79 3.84 1.85
-11.80 3.59 1.84
-11.80 3.33 1.83
-11.82 3.08 1.82
-11.90 2.85 1.82
-11.91 2.60 1.82
-11.92 2.35 1.81
-11.92 2.10 1.80
-11.93 1.86 1.79
-11.93 1.61 1.79
-11.94 1.37 1.78
-11.95 1.13 1.77
-11.96 0.89 1.77
-11.96 0.65 1.77
-11.96 0.41 1.76
-11.95 0.16 1.76
-10.89 -0.07 1.60
-10.49 -0.28 1.54
-10.17 -0.47 1.49
-10.53 -0.70 1.55
-11.92 -1.04 1.75
-11.93 -1.28 1.75
-11.94 -1.52 1.76
-11.94 -1.77 1.76
-11.94 -2.01 1.76
-11.94 -2.26 1.77
-11.94 -2.51 1.77
-11.94 -2.76 1.78
-11.93 -3.01 1.78
-11.90 -3.26 1.79
-11.93 -3.53 1.80
-11.95 -3.80 1.81
-11.97 -4.07 1.82
-11.99 -4.35 1.83
-12.02 -4.63 1.85
-12.03 -4.92 1.86
-12.03 -5.20 1.88
-12.03 -5.49 1.89
-12.04 -5.79 1.91
-12.05 -6.09 1.92
-12.05 -6.40 1.94
-12.06 -6.72 1.96
-12.04 -7.03 1.98
-11.99 -7.32 1.99
-11.98 -7.66 2.01
-11.98 -8.00 2.04
-11.98 -8.35 2.06
-11.98 -8.71 2.09
-11.97 -9.08 2.11
-11.97 -9.46 2.14
-11.95 -9.84 2.17
-11.92 -10.23 2.20
-11.89 -10.63 2.23
-11.87 -11.04 2.26
-11.87 -11.49 2.30
-11.83 -11.93 2.34
-11.80 -12.38 2.38
-11.76 -12.84 2.42
-10.93 -12.44 2.30
-10.59 -12.55 2.27
-10.26 -12.66 2.25
-11.32 -14.55 2.55
-11.16 -14.95 2.57
-10.99 -15.36 2.60
-9.83 -14.35 2.39
-9.56 -14.56 2.39
-9.28 -14.77 2.39
-8.99 -14.97 2.39
-8.70 -15.17 2.39
-8.40 -15.36 2.39
-8.11 -15.55 2.39
-7.80 -15.73 2.39
-7.49 -15.90 2.39
-7.18 -16.07 2.39
-6.87 -16.23 2.39
-6.55 -16.38 2.39
-6.23 -16.53 2.39
-5.95 -16.81 2.41
-5.81 -17.53 2.50
-5.47 -17.67 2.50
-5.12 -17.79 2.50
-4.76 -17.91 2.50
-4.41 -18.02 2.50
-4.05 -18.13 2.50
-3.69 -18.23 2.50
-3.33 -18.32 2.50
-2.96 -18.40 2.50
-2.60 -18.47 2.50
-2.23 -18.54 2.50
-1.86 -18.60 2.50
-1.48 -18.65 2.50
-1.11 -18.69 2.50
-0.74 -18.73 2.50
-0.36 -18.75 2.50
0.01 -16.00 2.50
0.34 -16.01 2.50
0.66 -16.01 2.50
0.98 -16.01 2.50
1.30 -15.99 2.50
1.62 -15.97 2.50
1.94 -15.95 2.50
2.17 -15.25 2.39
2.47 -15.22 2.39
2.78 -15.17 2.39
3.09 -15.12 2.39
3.39 -15.06 2.39
3.69 -15.00 2.39
3.99 -14.93 2.39
4.29 -14.85 2.39
4.59 -14.76 2.39
2.71 -8.12 1.32
5.18 -14.58 2.39
5.48 -14.47 2.39
5.77 -14.37 2.39
6.05 -14.25 2.39
7.21 -16.06 2.72
8.04 -17.00 2.90
8.67 -17.43 3.01
8.88 -16.98 2.96
9.08 -16.55 2.91
9.33 -16.21 2.89
9.69 -16.08 2.90
10.05 -15.95 2.91
10.41 -15.82 2.92
10.71 -15.59 2.92
10.86 -15.14 2.88
11.00 -14.71 2.84
11.14 -14.29 2.80
11.30 -13.90 2.77
11.40 -13.46 2.72
11.29 -12.81 2.64
11.19 -12.20 2.56
11.39 -11.92 2.55
11.64 -11.71 2.55
11.82 -11.42 2.54
11.92 -11.06 2.52
12.06 -10.75 2.50
12.27 -10.51 2.50
12.47 -10.25 2.50
12.67 -10.00 2.50
12.80 -9.69 2.49
13.04 -9.47 2.50
13.21 -9.19 2.50
13.36 -8.91 2.49
13.51 -8.62 2.49
7.44 -4.54 1.36
7.54 -4.39 1.36
12.94 -7.20 2.31
12.85 -6.81 2.27
12.76 -6.44 2.23
12.59 -6.04 2.18
12.43 -5.66 2.13
12.38 -5.34 2.11
12.37 -5.05 2.09
12.24 -4.71 2.05
12.11 -4.38 2.02
11.98 -4.07 1.98
11.86 -3.76 1.95
11.74 -3.47 1.92
11.71 -3.20 1.91
11.67 -2.94 1.89
11.63 -2.69 1.88
11.60 -2.43 1.87
11.55 -2.18 1.85
11.47 -1.93 1.84
11.39 -1.68 1.82
11.31 -1.44 1.80
11.31 -1.21 1.80
11.31 -0.98 1.80
11.32 -0.75 1.80
11.32 -0.53 1.80
11.32 -0.30 1.80
11.32 -0.07 1.80
11.32 0.15 1.80
11.31 0.38 1.81
11.31 0.61 1.81
11.27 0.83 1.81
11.23 1.06 1.81
11.20 1.28 1.81
11.16 1.50 1.81
11.12 1.73 1.81
11.07 1.95 1.81
11.03 2.17 1.81
10.99 2.39 1.81
10.94 2.61 1.82
10.96 2.85 1.83
11.00 3.10 1.85
11.03 3.34 1.87
11.06 3.60 1.89
11.09 3.85 1.91
11.12 4.12 1.93
11.13 4.38 1.95
11.07 4.61 1.96
7.33 3.23 1.31
11.06 5.14 1.99
11.06 5.41 2.02
11.06 5.69 2.04
11.07 5.98 2.06
11.07 6.27 2.09
11.06 6.56 2.12
11.03 6.84 2.14
10.98 7.12 2.16
10.93 7.41 2.18
10.88 7.70 2.20
10.81 7.98 2.23
10.70 8.23 2.24
10.58 8.49 2.25
10.46 8.74 2.27
10.40 9.05 2.30
10.34 9.37 2.33
10.28 9.69 2.36
10.21 10.02 2.39
10.14 10.36 2.42
10.06 10.71 2.46
9.98 11.06 2.50
9.90 11.42 2.54
9.81 11.79 2.58
9.73 12.18 2.62
9.65 12.58 2.67
9.55 12.99 2.72
9.44 13.40 2.77
9.33 13.82 2.82
9.21 14.26 2.87
7.57 12.26 2.44
7.36 12.47 2.46
7.15 12.69 2.47
7.79 14.50 2.80
7.11 13.88 2.65
6.15 12.63 2.39
5.89 12.74 2.39
5.62 12.84 2.39
5.36 12.94 2.39
5.09 13.03 2.39
4.83 13.11 2.39
4.56 13.20 2.39
4.29 13.27 2.39
4.02 13.34 2.39
3.74 13.41 2.39
3.47 13.47 2.39
3.20 13.53 2.39
2.92 13.58 2.39
2.65 13.62 2.39
2.38 13.73 2.40
2.18 14.28 2.50
1.89 14.31 2.50
1.60 14.34 2.50
1.32 14.36 2.50
1.03 14.37 2.50
0.74 14.38 2.50
0.45 14.38 2.50
0.16 14.38 2.50
-0.13 14.37 2.50
-0.42 14.35 2.50
-0.71 14.33 2.50
-1.00 14.31 2.50
-1.28 14.28 2.50
-1.57 14.24 2.50
-1.85 14.20 2.50
-2.14 14.15 2.50
-2.42 14.10 2.50
-2.70 14.04 2.50
-2.98 13.98 2.50
-3.26 13.91 2.50
-3.54 13.84 2.50
-3.82 13.76 2.50
-4.09 13.68 2.50
-4.36 13.59 2.50
-4.63 13.49 2.50
-4.90 13.39 2.50
-5.17 13.29 2.50
-5.44 13.18 2.50
-5.68 13.03 2.49
-5.71 12.41 2.39
-5.96 12.29 2.39
-6.21 12.17 2.39
-6.45 12.04 2.39
-6.69 11.91 2.39
-6.93 11.77 2.39
-7.16 11.63 2.39
-7.39 11.48 2.39
-7.62 11.33 2.39
-7.85 11.18 2.39
-8.07 11.02 2.39
-8.30 10.85 2.39
-8.51 10.69 2.39
-8.73 10.51 2.39
-8.94 10.34 2.39
-9.15 10.16 2.39
-9.35 9.97 2.39
-9.55 9.79 2.39
-9.64 9.49 2.37
-9.67 9.14 2.33
-9.72 8.82 2.29
-9.75 8.50 2.26
-9.77 8.18 2.23
-9.80 7.87 2.19
-9.82 7.57 2.16
-9.84 7.28 2.13
-9.99 7.08 2.13
-10.16 6.90 2.14
-10.21 6.63 2.12
-10.25 6.37 2.10
-10.29 6.12 2.08
-10.33 5.86 2.07
-10.48 5.67 2.07
-10.76 5.55 2.10
-11.06 5.42 2.14
-11.37 5.29 2.17
-11.58 5.11 2.19
-11.64 4.86 2.18
-11.65 4.59 2.17
-11.66 4.33 2.15
-11.67 4.06 2.14
-11.68 3.81 2.12
-11.69 3.55 2.11
-11.69 3.30 2.09
-11.70 3.05 2.08
-11.76 2.81 2.08
-11.77 2.56 2.07
-11.77 2.32 2.06
-11.78 2.07 2.05
-11.78 1.83 2.05
-11.79 1.59 2.04
-11.79 1.35 2.03
-11.80 1.11 2.03
-11.81 0.87 2.02
-11.81 0.64 2.02
-11.80 0.40 2.01
-11.80 0.16 2.01
-10.87 -0.07 1.85
-10.47 -0.28 1.78
-10.17 -0.47 1.73
-10.53 -0.70 1.79
-11.75 -1.02 2.00
-11.76 -1.26 2.00
-11.76 -1.50 2.00
-11.76 -1.74 2.01
-11.77 -1.99 2.01
-11.77 -2.23 2.02
-11.77 -2.48 2.02
-11.77 -2.72 2.03
-11.77 -2.97 2.04
-11.75 -3.22 2.04
-11.76 -3.48 2.05
-11.78 -3.75 2.07
-11.80 -4.02 2.08
-11.83 -4.29 2.10
-11.85 -4.57 2.12
-11.87 -4.85 2.13
-11.88 -5.14 2.15
-11.87 -5.42 2.17
-11.88 -5.71 2.19
-11.89 -6.01 2.21
-11.89 -6.32 2.23
-11.90 -6.63 2.25
-11.90 -6.95 2.27
-11.87 -7.25 2.29
-11.85 -7.58 2.32
-11.85 -7.91 2.34
-11.84 -8.26 2.37
-11.84 -8.61 2.40
-11.83 -8.98 2.43
-11.83 -9.36 2.47
-11.80 -9.73 2.50
-11.78 -10.11 2.53
-11.75 -10.50 2.57
-11.72 -10.90 2.60
-11.69 -11.32 2.64
-11.56 -11.66 2.67
-11.41 -11.97 2.68
-11.24 -12.29 2.70
-9.76 -11.11 2.39
-9.55 -11.32 2.39
-9.33 -11.52 2.39
-9.11 -11.72 2.39
-8.89 -11.91 2.39
-8.66 -12.10 2.39
-8.42 -12.29 2.39
-8.18 -12.47 2.39
-7.94 -12.65 2.39
-7.69 -12.82 2.39
-7.44 -12.99 2.39
-7.19 -13.15 2.39
-6.93 -13.30 2.39
-6.67 -13.46 2.39
-6.41 -13.60 2.39
-6.14 -13.74 2.39
-5.92 -14.01 2.41
-5.84 -14.61 2.50
-5.55 -14.74 2.50
-5.26 -14.87 2.50
-4.96 -14.98 2.50
-4.67 -15.09 2.50
-4.37 -15.20 2.50
-4.07 -15.30 2.50
-3.76 -15.39 2.50
-3.46 -15.48 2.50
-3.15 -15.56 2.50
-2.84 -15.63 2.50
-2.53 -15.70 2.50
-2.21 -15.76 2.50
-1.90 -15.82 2.50
-1.58 -15.86 2.50
-1.26 -15.91 2.50
-0.95 -15.94 2.50
-0.63 -15.97 2.50
-0.31 -15.99 2.50
0.01 -13.93 2.50
0.29 -13.94 2.50
0.57 -13.94 2.50
0.85 -13.93 2.50
1.13 -13.92 2.50
1.41 -13.90 2.50
1.69 -13.88 2.50
1.97 -13.85 2.50
2.15 -13.24 2.39
2.42 -13.20 2.39
2.69 -13.15 2.39
2.95 -13.10 2.39
3.21 -13.05 2.39
3.48 -12.98 2.39
3.74 -12.92 2.39
4.00 -12.84 2.39
2.70 -8.10 1.52
4.51 -12.68 2.39
4.76 -12.59 2.39
5.02 -12.49 2.39
5.27 -12.39 2.39
5.51 -12.29 2.39
5.76 -12.18 2.39
6.00 -12.06 2.39
6.89 -13.17 2.64
7.55 -13.76 2.79
8.30 -14.42 2.95
8.77 -14.57 3.02
9.03 -14.34 3.01
9.30 -14.13 3.00
9.59 -13.95 3.00
9.87 -13.76 3.01
10.15 -13.56 3.01
10.39 -13.33 3.00
10.29 -12.66 2.90
10.19 -12.04 2.80
10.14 -11.50 2.72
10.25 -11.17 2.69
10.33 -10.81 2.66
10.40 -10.46 2.62
10.46 -10.11 2.59
10.52 -9.77 2.55
10.58 -9.43 2.52
10.68 -9.15 2.50
10.85 -8.92 2.50
11.02 -8.70 2.50
11.19 -8.47 2.50
11.35 -8.24 2.50
11.50 -8.00 2.50
11.63 -7.75 2.49
11.76 -7.50 2.49
7.44 -4.54 1.56
7.54 -4.40 1.56
12.02 -6.69 2.46
11.88 -6.30 2.41
11.75 -5.93 2.36
11.62 -5.58 2.31
11.62 -5.29 2.29
11.66 -5.03 2.28
11.69 -4.77 2.27
11.73 -4.51 2.26
11.64 -4.22 2.23
11.53 -3.92 2.19
11.42 -3.63 2.16
11.35 -3.35 2.13
11.32 -3.10 2.12
11.28 -2.85 2.10
11.25 -2.60 2.09
11.22 -2.36 2.07
11.18 -2.12 2.06
11.15 -1.88 2.05
11.09 -1.64 2.03
11.02 -1.41 2.02
11.03 -1.18 2.01
11.03 -0.96 2.01
11.03 -0.74 2.01
11.03 -0.52 2.01
11.03 -0.29 2.01
11.03 -0.07 2.01
11.03 0.15 2.01
11.03 0.37 2.02
11.03 0.59 2.02
10.99 0.81 2.02
10.96 1.03 2.02
10.92 1.25 2.02
10.88 1.46 2.02
10.84 1.68 2.02
10.80 1.90 2.02
10.75 2.11 2.02
10.70 2.33 2.02
10.64 2.54 2.02
10.61 2.76 2.03
10.63 2.99 2.04
10.68 3.24 2.07
10.72 3.49 2.09
10.77 3.74 2.12
10.81 4.00 2.14
10.84 4.26 2.17
10.86 4.52 2.19
7.33 3.23 1.49
10.86 5.04 2.24
10.86 5.31 2.26
10.86 5.58 2.28
10.86 5.86 2.31
10.85 6.14 2.34
10.85 6.43 2.37
10.84 6.73 2.40
10.75 6.97 2.41
10.65 7.21 2.42
10.54 7.45 2.43
10.43 7.69 2.45
10.32 7.94 2.46
10.20 8.18 2.47
10.09 8.42 2.49
9.97 8.67 2.51
9.89 8.95 2.53
9.82 9.26 2.57
9.75 9.57 2.60
9.68 9.89 2.63
9.60 10.21 2.67
9.52 10.54 2.71
9.43 10.88 2.75
9.34 11.22 2.79
9.25 11.58 2.84
9.15 11.94 2.88
9.05 12.31 2.93
8.95 12.69 2.98
8.72 12.92 3.00
8.06 12.47 2.86
7.45 12.05 2.73
6.31 10.68 2.39
6.09 10.79 2.39
5.86 10.90 2.39
5.64 11.01 2.39
5.41 11.11 2.39
5.18 11.20 2.39
4.95 11.30 2.39
4.72 11.38 2.39
4.49 11.47 2.39
4.25 11.54 2.39
4.01 11.62 2.39
3.78 11.69 2.39
3.54 11.75 2.39
3.30 11.81 2.39
3.06 11.86 2.39
2.82 11.91 2.39
2.58 11.96 2.39
2.36 12.15 2.42
2.18 12.55 2.50
1.93 12.59 2.50
1.67 12.61 2.50
1.42 12.64 2.50
1.16 12.65 2.50
0.91 12.67 2.50
0.65 12.67 2.50
0.40 12.68 2.50
0.14 12.68 2.50
-0.11 12.67 2.50
-0.37 12.66 2.50
-0.62 12.64 2.50
-0.88 12.62 2.50
-1.13 12.59 2.50
-1.38 12.56 2.50
-1.63 12.53 2.50
-1.88 12.48 2.50
-2.13 12.44 2.50
-2.38 12.39 2.50
-2.63 12.33 2.50
-2.88 12.27 2.50
-3.12 12.21 2.50
-3.37 12.14 2.50
-3.61 12.07 2.50
-3.85 11.99 2.50
-4.09 11.91 2.50
-4.33 11.82 2.50
-4.56 11.73 2.50
-4.80 11.63 2.50
-5.03 11.53 2.50
-5.26 11.43 2.50
-5.49 11.32 2.50
-5.70 11.17 2.49
-5.71 10.66 2.40
-5.90 10.51 2.39
-6.11 10.39 2.39
-6.32 10.26 2.39
-6.53 10.13 2.39
-6.73 10.00 2.39
-6.93 9.86 2.39
-7.13 9.72 2.39
-7.32 9.58 2.39
-7.51 9.43 2.39
-7.70 9.28 2.39
-7.89 9.12 2.39
-8.07 8.96 2.39
-8.25 8.80 2.39
-8.43 8.64 2.39
-8.60 8.47 2.39
-8.77 8.29 2.39
-8.94 8.12 2.39
-9.11 7.94 2.39
-9.27 7.76 2.39
-9.42 7.57 2.39
-9.58 7.38 2.39
-9.68 7.16 2.38
-9.81 6.95 2.38
-9.89 6.72 2.36
-9.94 6.46 2.34
-9.99 6.21 2.32
-10.03 5.96 2.30
-10.07 5.71 2.28
-10.11 5.47 2.27
-10.38 5.35 2.30
-10.66 5.22 2.34
-10.95 5.10 2.38
-11.25 4.96 2.42
-11.47 4.79 2.44
-11.53 4.54 2.43
-11.55 4.28 2.42
-11.56 4.02 2.40
-11.57 3.77 2.38
-11.58 3.52 2.37
-11.59 3.26 2.36
-11.59 3.02 2.34
-11.62 2.77 2.33
-11.62 2.53 2.32
-11.63 2.29 2.31
-11.64 2.05 2.30
-11.64 1.81 2.29
-11.65 1.57 2.29
-11.65 1.33 2.28
-11.66 1.10 2.27
-11.66 0.86 2.27
-11.66 0.63 2.26
-11.65 0.39 2.26
-11.65 0.16 2.25
-10.85 -0.07 2.10
-10.46 -0.28 2.02
-10.17 -0.48 1.96
-10.52 -0.71 2.03
-11.60 -1.01 2.24
-11.59 -1.25 2.24
-11.59 -1.48 2.25
-11.59 -1.72 2.25
-11.59 -1.96 2.26
-11.58 -2.20 2.26
-11.57 -2.44 2.27
-11.56 -2.68 2.27
-11.55 -2.92 2.28
-11.54 -3.17 2.28
-11.57 -3.43 2.30
-11.62 -3.70 2.32
-11.64 -3.96 2.34
-11.66 -4.23 2.36
-11.68 -4.51 2.38
-11.70 -4.79 2.40
-11.72 -5.07 2.42
-11.72 -5.35 2.44
-11.73 -5.64 2.46
-11.73 -5.94 2.48
-11.73 -6.24 2.51
-11.74 -6.55 2.53
-11.74 -6.86 2.56
-11.74 -7.18 2.59
-11.72 -7.50 2.61
-11.72 -7.83 2.64
-11.71 -8.17 2.68
-11.70 -8.52 2.71
-11.69 -8.88 2.75
-11.69 -9.25 2.78
-11.66 -9.62 2.82
-9.74 -8.36 2.39
-9.58 -8.57 2.39
-9.42 -8.77 2.39
-9.25 -8.96 2.39
-9.08 -9.16 2.39
-8.90 -9.35 2.39
-8.72 -9.53 2.39
-8.54 -9.72 2.39
-8.35 -9.90 2.39
-8.16 -10.07 2.39
-7.96 -10.25 2.39
-7.76 -10.42 2.39
-7.56 -10.58 2.39
-7.36 -10.74 2.39
-7.15 -10.90 2.39
-6.93 -11.05 2.39
-6.72 -11.20 2.39
-6.50 -11.34 2.39
-6.28 -11.48 2.39
-6.05 -11.62 2.39
-5.90 -11.91 2.43
-5.83 -12.39 2.50
-5.59 -12.51 2.50
-5.34 -12.63 2.50
-5.09 -12.75 2.50
-4.84 -12.86 2.50
-4.58 -12.97 2.50
-4.33 -13.07 2.50
-4.07 -13.16 2.50
-3.81 -13.25 2.50
-3.54 -13.34 2.50
-3.28 -13.42 2.50
-3.01 -13.49 2.50
-2.74 -13.56 2.50
-2.47 -13.62 2.50
-2.20 -13.68 2.50
-1.93 -13.73 2.50
-1.65 -13.78 2.50
-1.38 -13.82 2.50
-1.10 -13.85 2.50
-0.82 -13.88 2.50
-0.54 -13.91 2.50
-0.27 -13.92 2.50
0.01 -12.33 2.50
0.26 -12.33 2.50
0.51 -12.33 2.50
0.76 -12.32 2.50
1.00 -12.31 2.50
1.25 -12.29 2.50
1.50 -12.27 2.50
1.74 -12.25 2.50
1.99 -12.21 2.50
2.16 -11.75 2.41
2.38 -11.63 2.39
2.61 -11.59 2.39
2.84 -11.53 2.39
3.07 -11.48 2.39
3.30 -11.42 2.39
3.53 -11.35 2.39
2.70 -8.09 1.72
3.99 -11.21 2.39
4.21 -11.13 2.39
4.43 -11.04 2.39
4.65 -10.95 2.39
4.87 -10.86 2.39
5.09 -10.76 2.39
5.31 -10.66 2.39
5.52 -10.55 2.39
5.73 -10.44 2.39
5.94 -10.32 2.39
6.14 -10.20 2.39
7.17 -11.39 2.70
7.74 -11.76 2.83
8.36 -12.16 2.96
8.77 -12.23 3.02
9.01 -12.04 3.02
9.03 -11.58 2.95
9.15 -11.27 2.92
9.28 -10.96 2.89
9.39 -10.66 2.86
9.50 -10.36 2.83
9.58 -10.03 2.79
9.66 -9.71 2.75
9.73 -9.40 2.72
9.80 -9.10 2.69
9.86 -8.80 2.66
9.96 -8.53 2.64
10.05 -8.27 2.62
10.15 -8.01 2.60
10.24 -7.75 2.59
10.32 -7.50 2.57
10.41 -7.24 2.56
10.49 -6.99 2.54
10.56 -6.74 2.53
7.44 -4.54 1.76
7.54 -4.40 1.76
10.81 -6.02 2.50
10.92 -5.79 2.50
10.88 -5.50 2.47
10.92 -5.25 2.45
10.97 -5.00 2.44
11.01 -4.75 2.43
11.05 -4.51 2.42
11.08 -4.27 2.41
11.11 -4.03 2.40
11.11 -3.77 2.38
11.01 -3.50 2.35
10.97 -3.24 2.33
10.95 -3.00 2.31
10.92 -2.76 2.29
10.89 -2.52 2.28
10.86 -2.28 2.26
10.83 -2.05 2.25
10.80 -1.82 2.24
10.77 -1.60 2.23
10.73 -1.37 2.22
10.74 -1.15 2.21
10.75 -0.94 2.21
10.75 -0.72 2.21
10.75 -0.50 2.21
10.75 -0.29 2.21
10.75 -0.07 2.21
10.75 0.14 2.21
10.74 0.36 2.22
10.74 0.57 2.22
10.71 0.79 2.22
10.67 1.00 2.21
10.62 1.21 2.21
10.57 1.42 2.21
10.52 1.63 2.21
10.48 1.84 2.21
10.42 2.05 2.21
10.37 2.25 2.21
10.32 2.46 2.21
10.27 2.67 2.21
10.25 2.88 2.22
10.23 3.10 2.23
10.24 3.33 2.25
10.28 3.57 2.27
10.31 3.81 2.30
10.35 4.06 2.33
10.38 4.32 2.36
7.33 3.23 1.68
10.40 4.83 2.41
10.36 5.06 2.43
10.34 5.31 2.45
10.33 5.57 2.47
10.31 5.83 2.50
10.29 6.10 2.53
10.27 6.37 2.56
10.25 6.64 2.58
10.19 6.90 2.61
10.13 7.16 2.63
10.05 7.41 2.65
9.96 7.66 2.67
9.85 7.89 2.68
9.74 8.13 2.70
9.62 8.36 2.72
9.50 8.60 2.73
9.40 8.86 2.76
9.33 9.15 2.79
9.25 9.45 2.83
9.17 9.75 2.87
9.09 10.06 2.91
9.00 10.38 2.95
8.91 10.70 2.99
8.71 10.89 3.00
8.15 10.62 2.88
7.62 10.35 2.77
7.12 10.10 2.66
6.21 9.19 2.39
6.02 9.30 2.39
5.82 9.41 2.39
5.63 9.52 2.39
5.43 9.62 2.39
5.23 9.72 2.39
5.03 9.82 2.39
4.83 9.91 2.39
4.62 9.99 2.39
4.42 10.08 2.39
4.21 10.15 2.39
4.00 10.23 2.39
3.79 10.30 2.39
3.58 10.37 2.39
3.37 10.43 2.39
3.16 10.49 2.39
2.95 10.54 2.39
2.73 10.59 2.39
2.52 10.63 2.39
2.35 10.89 2.44
2.17 11.18 2.50
1.95 11.21 2.50
1.72 11.24 2.50
1.49 11.26 2.50
1.27 11.29 2.50
1.04 11.30 2.50
0.81 11.31 2.50
0.58 11.32 2.50
0.35 11.32 2.50
0.13 11.32 2.50
-0.10 11.32 2.50
-0.33 11.31 2.50
-0.56 11.29 2.50
-0.78 11.28 2.50
-1.01 11.25 2.50
-1.23 11.23 2.50
-1.46 11.19 2.50
-1.68 11.16 2.50
-1.91 11.12 2.50
-2.13 11.07 2.50
-2.35 11.02 2.50
-2.57 10.97 2.50
-2.79 10.91 2.50
-3.01 10.85 2.50
-3.23 10.79 2.50
-3.44 10.72 2.50
-3.65 10.64 2.50
-3.87 10.57 2.50
-4.08 10.48 2.50
-4.29 10.40 2.50
-4.50 10.31 2.50
-4.70 10.21 2.50
-4.91 10.12 2.50
-5.11 10.02 2.50
-5.31 9.91 2.50
-5.51 9.80 2.50
-5.70 9.69 2.50
-5.72 9.29 2.42
-5.83 9.06 2.39
-6.02 8.94 2.39
-6.19 8.82 2.39
-6.37 8.69 2.39
-6.55 8.56 2.39
-6.72 8.43 2.39
-6.89 8.29 2.39
-7.05 8.16 2.39
-7.22 8.01 2.39
-7.38 7.87 2.39
-7.54 7.72 2.39
-7.69 7.57 2.39
-7.84 7.41 2.39
-7.99 7.26 2.39
-8.14 7.10 2.39
-8.28 6.93 2.39
-8.42 6.77 2.39
-8.56 6.60 2.39
-8.70 6.43 2.39
-8.83 6.25 2.39
-8.95 6.08 2.39
-9.08 5.90 2.39
-9.20 5.72 2.39
-9.32 5.53 2.39
-9.43 5.35 2.39
-9.54 5.16 2.39
-9.65 4.97 2.39
-9.75 4.78 2.39
-10.56 4.91 2.57
-10.71 4.72 2.58
-10.76 4.49 2.57
-10.82 4.26 2.56
-10.87 4.03 2.55
-10.93 3.80 2.54
-10.98 3.57 2.53
-11.02 3.35 2.53
-11.07 3.12 2.52
-11.11 2.89 2.51
-11.12 2.66 2.50
-11.13 2.42 2.49
-11.16 2.19 2.49
-11.18 1.97 2.48
-11.21 1.74 2.48
-11.23 1.51 2.47
-11.25 1.28 2.47
-11.27 1.06 2.46
-11.28 0.83 2.46
-11.32 0.60 2.46
-11.30 0.38 2.46
-11.27 0.15 2.45
-10.83 -0.07 2.35
-10.44 -0.28 2.26
-10.16 -0.48 2.20
-10.52 -0.71 2.28
-11.07 -0.97 2.40
-11.02 -1.19 2.39
-11.02 -1.41 2.40
-11.02 -1.64 2.40
-11.02 -1.87 2.41
-11.02 -2.09 2.41
-11.01 -2.32 2.42
-11.00 -2.55 2.42
-10.98 -2.78 2.43
-10.97 -3.01 2.44
-10.95 -3.25 2.45
-10.96 -3.49 2.46
-10.97 -3.74 2.48
-10.99 -3.99 2.50
-11.07 -4.27 2.53
-11.14 -4.56 2.57
-11.22 -4.86 2.60
-11.29 -5.16 2.64
-11.30 -5.44 2.67
-11.27 -5.71 2.68
-11.27 -6.00 2.71
-9.86 -5.50 2.39
-9.76 -5.70 2.39
-9.65 -5.91 2.39
-9.54 -6.10 2.39
-9.42 -6.30 2.39
-9.30 -6.49 2.39
-9.18 -6.69 2.39
-9.05 -6.88 2.39
-8.92 -7.06 2.39
-8.79 -7.25 2.39
-8.65 -7.43 2.39
-8.51 -7.61 2.39
-8.36 -7.79 2.39
-8.21 -7.96 2.39
-8.06 -8.13 2.39
-7.90 -8.30 2.39
-7.74 -8.47 2.39
-7.58 -8.63 2.39
-7.41 -8.79 2.39
-7.24 -8.94 2.39
-7.06 -9.09 2.39
-6.89 -9.24 2.39
-6.71 -9.39 2.39
-6.52 -9.53 2.39
-6.34 -9.67 2.39
-6.15 -9.80 2.39
-5.96 -9.93 2.39
-5.89 -10.28 2.44
-5.80 -10.62 2.50
-5.59 -10.74 2.50
-5.38 -10.86 2.50
-5.17 -10.98 2.50
-4.95 -11.09 2.50
-4.73 -11.20 2.50
-4.51 -11.30 2.50
-4.28 -11.40 2.50
-4.06 -11.49 2.50
-3.83 -11.58 2.50
-3.60 -11.66 2.50
-3.37 -11.74 2.50
-3.14 -11.81 2.50
-2.90 -11.88 2.50
-2.66 -11.95 2.50
-2.42 -12.01 2.50
-2.19 -12.06 2.50
-1.94 -12.11 2.50
-1.70 -12.16 2.50
-1.46 -12.20 2.50
-1.22 -12.23 2.50
-0.97 -12.26 2.50
-0.73 -12.28 2.50
-0.48 -12.30 2.50
-0.23 -12.32 2.50
0.01 -11.04 2.50
0.24 -11.05 2.50
0.46 -11.04 2.50
0.68 -11.04 2.50
0.90 -11.03 2.50
1.12 -11.01 2.50
1.34 -10.99 2.50
1.56 -10.97 2.50
1.78 -10.94 2.50
2.00 -10.90 2.50
2.16 -10.58 2.43
2.34 -10.37 2.39
2.54 -10.33 2.39
2.75 -10.28 2.39
2.96 -10.22 2.39
3.16 -10.16 2.39
2.70 -8.09 1.92
3.57 -10.03 2.39
3.77 -9.96 2.39
3.97 -9.89 2.39
4.17 -9.81 2.39
4.36 -9.72 2.39
4.56 -9.63 2.39
4.75 -9.54 2.39
4.94 -9.44 2.39
5.13 -9.34 2.39
5.32 -9.24 2.39
5.50 -9.13 2.39
5.68 -9.02 2.39
5.86 -8.90 2.39
6.04 -8.78 2.39
6.77 -9.45 2.61
7.18 -9.60 2.69
7.61 -9.76 2.78
8.07 -9.93 2.87
8.55 -10.10 2.97
8.74 -9.92 2.97
8.85 -9.65 2.94
8.93 -9.35 2.91
9.01 -9.07 2.87
9.09 -8.79 2.84
9.16 -8.51 2.81
9.23 -8.23 2.78
9.32 -7.98 2.76
9.41 -7.74 2.74
9.50 -7.50 2.72
9.59 -7.26 2.71
9.68 -7.03 2.69
9.76 -6.79 2.68
9.84 -6.56 2.66
9.91 -6.33 2.65
7.44 -4.54 1.97
7.54 -4.40 1.97
10.12 -5.63 2.61
10.16 -5.39 2.60
10.17 -5.14 2.57
10.18 -4.89 2.55
10.24 -4.67 2.55
10.30 -4.45 2.54
10.35 -4.23 2.53
10.40 -4.01 2.53
10.45 -3.79 2.52
10.49 -3.57 2.51
10.56 -3.35 2.51
10.56 -3.12 2.50
10.53 -2.89 2.48
10.49 -2.65 2.46
10.46 -2.42 2.44
10.42 -2.19 2.42
10.38 -1.97 2.41
10.34 -1.75 2.39
10.29 -1.53 2.37
10.28 -1.32 2.37
10.29 -1.11 2.36
10.29 -0.90 2.36
10.30 -0.69 2.36
10.30 -0.49 2.36
10.30 -0.28 2.36
10.30 -0.07 2.36
10.30 0.13 2.36
10.29 0.34 2.37
10.29 0.55 2.37
10.30 0.76 2.38
10.31 0.96 2.39
10.30 1.17 2.39
10.26 1.38 2.39
10.21 1.58 2.39
10.16 1.78 2.38
10.11 1.98 2.38
10.06 2.18 2.38
10.01 2.38 2.38
9.96 2.58 2.39
9.93 2.79 2.39
9.91 3.00 2.41
9.89 3.21 2.42
9.87 3.42 2.43
9.85 3.64 2.45
9.88 3.88 2.48
9.91 4.12 2.50
7.34 3.23 1.87
9.96 4.62 2.57
9.94 4.85 2.59
9.89 5.08 2.60
9.85 5.31 2.62
9.80 5.54 2.64
9.75 5.78 2.66
9.73 6.03 2.69
9.70 6.28 2.72
9.67 6.54 2.75
9.63 6.80 2.78
9.56 7.04 2.80
9.48 7.28 2.82
9.40 7.53 2.85
9.32 7.78 2.87
9.24 8.03 2.90
9.15 8.28 2.92
9.06 8.53 2.95
8.94 8.76 2.97
8.86 9.04 3.01
8.55 9.09 2.97
8.08 8.94 2.87
7.64 8.80 2.77
7.21 8.65 2.68
6.26 7.83 2.39
6.10 7.94 2.39
5.93 8.06 2.39
5.76 8.17 2.39
5.59 8.28 2.39
5.42 8.38 2.39
5.25 8.48 2.39
5.07 8.58 2.39
4.90 8.67 2.39
4.72 8.76 2.39
4.54 8.85 2.39
4.35 8.93 2.39
4.17 9.01 2.39
3.99 9.08 2.39
3.80 9.16 2.39
3.61 9.22 2.39
3.42 9.29 2.39
3.23 9.35 2.39
3.04 9.41 2.39
2.85 9.46 2.39
2.66 9.51 2.39
2.47 9.55 2.39
2.34 9.87 2.46
2.17 10.05 2.50
1.96 10.08 2.50
1.76 10.11 2.50
1.55 10.14 2.50
1.35 10.17 2.50
1.14 10.19 2.50
0.94 10.20 2.50
0.73 10.21 2.50
0.53 10.22 2.50
0.32 10.22 2.50
0.12 10.22 2.50
-0.09 10.22 2.50
-0.30 10.21 2.50
-0.50 10.20 2.50
-0.71 10.18 2.50
-0.91 10.16 2.50
-1.11 10.14 2.50
-1.32 10.11 2.50
-1.52 10.08 2.50
-1.72 10.04 2.50
-1.92 10.00 2.50
-2.12 9.96 2.50
-2.32 9.91 2.50
-2.52 9.86 2.50
-2.72 9.80 2.50
-2.91 9.74 2.50
-3.11 9.68 2.50
-3.30 9.61 2.50
-3.49 9.54 2.50
-3.68 9.47 2.50
-3.87 9.39 2.50
-4.06 9.31 2.50
-4.25 9.23 2.50
-4.43 9.14 2.50
-4.61 9.05 2.50
-4.79 8.95 2.50
-4.97 8.85 2.50
-5.15 8.75 2.50
-5.33 8.65 2.50
-5.50 8.54 2.50
-5.67 8.42 2.50
-5.72 8.15 2.45
-5.76 7.85 2.39
-5.92 7.74 2.39
-6.07 7.62 2.39
-6.22 7.49 2.39
-6.37 7.37 2.39
-6.52 7.24 2.39
-6.66 7.11 2.39
-6.81 6.97 2.39
-6.95 6.84 2.39
-7.09 6.70 2.39
-7.22 6.55 2.39
-7.35 6.41 2.39
-7.48 6.26 2.39
-7.61 6.11 2.39
-7.73 5.96 2.39
-7.85 5.80 2.39
-7.97 5.65 2.39
-8.09 5.49 2.39
-8.20 5.32 2.39
-8.31 5.16 2.39
-8.41 4.99 2.39
-8.51 4.83 2.39
-8.61 4.66 2.39
-8.71 4.48 2.39
-8.80 4.31 2.39
-8.89 4.13 2.39
-8.98 3.96 2.39
-9.06 3.78 2.39
-9.14 3.60 2.39
-9.21 3.41 2.39
-9.28 3.23 2.39
-9.35 3.04 2.39
-9.42 2.86 2.39
-9.48 2.67 2.39
-9.54 2.48 2.39
-9.59 2.29 2.39
-9.64 2.10 2.39
-9.69 1.90 2.39
-9.73 1.71 2.39
-9.77 1.51 2.39
-10.50 1.41 2.56
-10.52 1.20 2.56
-10.54 0.99 2.56
-10.55 0.78 2.55
-10.59 0.56 2.56
-10.63 0.35 2.56
-10.66 0.14 2.57
-10.69 -0.08 2.57
-10.42 -0.28 2.51
-10.16 -0.48 2.44
-10.52 -0.71 2.53
-10.55 -0.93 2.54
-10.51 -1.13 2.53
-10.49 -1.35 2.53
-10.49 -1.56 2.54
-10.49 -1.78 2.54
-10.49 -1.99 2.55
-9.81 -2.07 2.39
-9.77 -2.27 2.39
-9.73 -2.47 2.39
-9.69 -2.66 2.39
-9.64 -2.86 2.39
-9.59 -3.06 2.39
-9.54 -3.25 2.39
-9.48 -3.44 2.39
-9.41 -3.64 2.39
-9.35 -3.83 2.39
-9.28 -4.02 2.39
-9.20 -4.21 2.39
-9.12 -4.40 2.39
-9.04 -4.58 2.39
-8.96 -4.77 2.39
-8.87 -4.95 2.39
-8.77 -5.13 2.39
-8.68 -5.31 2.39
-8.58 -5.49 2.39
-8.47 -5.67 2.39
-8.36 -5.84 2.39
-8.25 -6.01 2.39
-8.14 -6.18 2.39
-8.02 -6.35 2.39
-7.90 -6.52 2.39
-7.77 -6.68 2.39
-7.64 -6.84 2.39
-7.51 -7.00 2.39
-7.38 -7.16 2.39
-7.24 -7.31 2.39
-7.10 -7.46 2.39
-6.95 -7.61 2.39
-6.80 -7.75 2.39
-6.65 -7.89 2.39
-6.50 -8.03 2.39
-6.34 -8.17 2.39
-6.18 -8.30 2.39
-6.02 -8.43 2.39
-5.88 -8.59 2.40
-5.87 -8.97 2.47
-5.75 -9.18 2.50
-5.57 -9.30 2.50
-5.39 -9.42 2.50
-5.20 -9.53 2.50
-5.02 -9.64 2.50
-4.83 -9.75 2.50
-4.63 -9.85 2.50
-4.44 -9.95 2.50
-4.24 -10.04 2.50
-4.04 -10.13 2.50
-3.84 -10.22 2.50
-3.64 -10.30 2.50
-3.43 -10.38 2.50
-3.23 -10.46 2.50
-3.02 -10.53 2.50
-2.81 -10.59 2.50
-2.60 -10.65 2.50
-2.39 -10.71 2.50
-2.17 -10.76 2.50
-1.96 -10.81 2.50
-1.74 -10.85 2.50
-1.52 -10.89 2.50
-1.31 -10.93 2.50
-1.09 -10.96 2.50
-0.87 -10.98 2.50
-0.65 -11.01 2.50
-0.43 -11.02 2.50
-0.21 -11.03 2.50
0.01 -9.99 2.50
0.21 -9.99 2.50
0.41 -9.99 2.50
0.61 -9.98 2.50
0.81 -9.97 2.50
1.01 -9.96 2.50
1.21 -9.94 2.50
1.41 -9.92 2.50
1.61 -9.89 2.50
1.81 -9.86 2.50
2.01 -9.82 2.50
2.17 -9.61 2.45
2.30 -9.34 2.39
2.49 -9.29 2.39
2.68 -9.24 2.39
2.86 -9.19 2.39
2.70 -8.09 2.12
3.23 -9.07 2.39
3.41 -9.01 2.39
3.59 -8.94 2.39
3.77 -8.87 2.39
3.95 -8.79 2.39
4.12 -8.71 2.39
4.30 -8.63 2.39
4.47 -8.54 2.39
4.64 -8.45 2.39
4.81 -8.35 2.39
4.97 -8.26 2.39
5.14 -8.16 2.39
5.30 -8.05 2.39
5.46 -7.94 2.39
5.62 -7.83 2.39
5.77 -7.72 2.39
5.92 -7.60 2.39
6.08 -7.48 2.39
6.79 -8.02 2.61
7.12 -8.08 2.67
7.41 -8.07 2.72
7.66 -8.02 2.76
7.91 -7.96 2.79
8.17 -7.89 2.82
8.42 -7.82 2.85
8.66 -7.73 2.89
8.75 -7.49 2.86
8.84 -7.27 2.85
8.93 -7.05 2.83
9.02 -6.83 2.82
9.10 -6.61 2.80
9.18 -6.39 2.79
9.26 -6.17 2.77
9.33 -5.96 2.76
7.44 -4.54 2.17
7.53 -4.40 2.18
9.50 -5.29 2.71
9.51 -5.05 2.69
9.53 -4.82 2.67
9.54 -4.58 2.64
9.54 -4.35 2.62
9.58 -4.14 2.61
9.64 -3.94 2.60
9.68 -3.73 2.60
9.73 -3.53 2.59
9.80 -3.33 2.59
9.89 -3.14 2.60
9.98 -2.95 2.61
10.06 -2.76 2.62
10.03 -2.54 2.60
10.00 -2.32 2.58
9.97 -2.10 2.56
9.93 -1.88 2.54
9.89 -1.67 2.53
9.86 -1.46 2.51
9.86 -1.26 2.51
9.86 -1.06 2.50
9.87 -0.86 2.50
9.87 -0.67 2.50
9.88 -0.47 2.50
9.88 -0.27 2.50
9.88 -0.07 2.50
9.88 0.13 2.50
9.87 0.32 2.50
9.87 0.52 2.51
9.87 0.72 2.51
9.89 0.92 2.52
9.90 1.12 2.53
9.91 1.33 2.55
9.91 1.53 2.55
9.86 1.73 2.55
9.82 1.92 2.55
9.77 2.12 2.55
9.72 2.31 2.55
9.67 2.51 2.55
9.63 2.70 2.56
9.61 2.90 2.57
9.59 3.11 2.58
9.56 3.32 2.60
9.54 3.52 2.61
9.51 3.73 2.63
9.48 3.94 2.64
7.34 3.22 2.06
9.51 4.41 2.70
9.53 4.65 2.74
9.50 4.87 2.75
9.45 5.09 2.77
9.40 5.31 2.79
9.35 5.53 2.81
9.30 5.76 2.83
9.24 5.98 2.85
9.19 6.21 2.88
9.13 6.45 2.90
9.10 6.70 2.93
9.03 6.93 2.96
8.95 7.16 2.98
8.87 7.39 3.01
8.69 7.54 3.00
8.29 7.49 2.91
7.90 7.44 2.83
7.53 7.38 2.75
7.17 7.32 2.68
6.26 6.65 2.39
6.12 6.77 2.39
5.98 6.89 2.39
5.84 7.00 2.39
5.69 7.11 2.39
5.54 7.22 2.39
5.39 7.32 2.39
5.24 7.43 2.39
5.09 7.52 2.39
4.93 7.62 2.39
4.77 7.71 2.39
4.61 7.80 2.39
4.45 7.88 2.39
4.29 7.97 2.39
4.13 8.05 2.39
3.96 8.12 2.39
3.80 8.19 2.39
3.63 8.26 2.39
3.46 8.33 2.39
3.29 8.39 2.39
3.12 8.45 2.39
2.94 8.50 2.39
2.77 8.56 2.39
2.60 8.61 2.39
2.42 8.65 2.39
2.33 9.02 2.48
2.16 9.11 2.50
1.97 9.14 2.50
1.79 9.18 2.50
1.60 9.21 2.50
1.42 9.23 2.50
1.23 9.25 2.50
1.04 9.27 2.50
0.86 9.29 2.50
0.67 9.30 2.50
0.48 9.30 2.50
0.29 9.31 2.50
0.11 9.31 2.50
-0.08 9.30 2.50
-0.27 9.30 2.50
-0.45 9.29 2.50
-0.64 9.27 2.50
-0.83 9.25 2.50
-1.01 9.23 2.50
-1.20 9.21 2.50
-1.38 9.18 2.50
-1.57 9.14 2.50
-1.75 9.11 2.50
-1.93 9.07 2.50
-2.11 9.02 2.50
-2.29 8.98 2.50
-2.47 8.93 2.50
-2.65 8.87 2.50
-2.83 8.82 2.50
-3.01 8.76 2.50
-3.18 8.69 2.50
-3.35 8.63 2.50
-3.53 8.56 2.50
-3.70 8.48 2.50
-3.87 8.41 2.50
-4.04 8.32 2.50
-4.20 8.24 2.50
-4.37 8.15 2.50
-4.53 8.06 2.50
-4.69 7.97 2.50
-4.85 7.88 2.50
-5.01 7.78 2.50
-5.16 7.67 2.50
-5.32 7.57 2.50
-5.47 7.46 2.50
-5.62 7.35 2.50
-5.73 7.19 2.48
-5.74 6.91 2.42
-5.80 6.71 2.39
-5.94 6.59 2.39
-6.07 6.47 2.39
-6.20 6.35 2.39
-6.33 6.23 2.39
-6.45 6.10 2.39
-6.58 5.97 2.39
-6.70 5.84 2.39
-6.81 5.70 2.39
-6.93 5.57 2.39
-7.04 5.43 2.39
-7.15 5.28 2.39
-7.26 5.14 2.39
-7.36 5.00 2.39
-7.47 4.85 2.39
-7.56 4.70 2.39
-7.66 4.55 2.39
-7.75 4.39 2.39
-7.84 4.24 2.39
-7.93 4.08 2.39
-8.01 3.92 2.39
-8.09 3.76 2.39
-8.17 3.60 2.39
-8.25 3.44 2.39
-8.32 3.27 2.39
-8.39 3.11 2.39
-8.45 2.94 2.39
-8.51 2.77 2.39
-8.57 2.60 2.39
-8.63 2.43 2.39
-8.68 2.25 2.39
-8.73 2.08 2.39
-8.77 1.91 2.39
-8.81 1.73 2.39
-8.85 1.55 2.39
-8.89 1.38 2.39
-8.92 1.20 2.39
-8.95 1.02 2.39
-8.97 0.84 2.39
-8.99 0.66 2.39
-9.01 0.48 2.39
-9.02 0.30 2.39
-9.03 0.12 2.39
-9.04 -0.07 2.39
-9.04 -0.25 2.39
-9.04 -0.43 2.39
-9.04 -0.61 2.39
-9.03 -0.79 2.39
-9.02 -0.98 2.39
-9.01 -1.16 2.39
-8.99 -1.34 2.39
-8.97 -1.52 2.39
-8.94 -1.70 2.39
-8.91 -1.88 2.39
-8.88 -2.06 2.39
-8.84 -2.24 2.39
-8.80 -2.42 2.39
-8.76 -2.60 2.39
-8.71 -2.78 2.39
-8.66 -2.96 2.39
-8.61 -3.13 2.39
-8.55 -3.31 2.39
-8.49 -3.48 2.39
-8.42 -3.65 2.39
-8.36 -3.82 2.39
-8.28 -3.99 2.39
-8.21 -4.16 2.39
-8.13 -4.33 2.39
-8.05 -4.50 2.39
-7.96 -4.66 2.39
-7.88 -4.82 2.39
-7.78 -4.99 2.39
-7.69 -5.15 2.39
-7.59 -5.30 2.39
-7.49 -5.46 2.39
-7.38 -5.61 2.39
-7.28 -5.77 2.39
-7.16 -5.91 2.39
-7.05 -6.06 2.39
-6.93 -6.21 2.39
-6.81 -6.35 2.39
-6.69 -6.49 2.39
-6.56 -6.63 2.39
-6.43 -6.77 2.39
-6.30 -6.90 2.39
-6.17 -7.03 2.39
-6.05 -7.18 2.40
-5.89 -7.28 2.39
-5.86 -7.55 2.44
-5.84 -7.85 2.50
-5.69 -7.97 2.50
-5.53 -8.09 2.50
-5.37 -8.21 2.50
-5.21 -8.32 2.50
-5.05 -8.43 2.50
-4.88 -8.53 2.50
-4.71 -8.64 2.50
-4.54 -8.74 2.50
-4.37 -8.83 2.50
-4.19 -8.92 2.50
-4.02 -9.01 2.50
-3.84 -9.10 2.50
-3.66 -9.18 2.50
-3.48 -9.26 2.50
-3.29 -9.33 2.50
-3.11 -9.40 2.50
-2.92 -9.47 2.50
-2.73 -9.53 2.50
-2.54 -9.59 2.50
-2.35 -9.64 2.50
-2.16 -9.70 2.50
-1.96 -9.74 2.50
-1.77 -9.79 2.50
-1.57 -9.82 2.50
-1.38 -9.86 2.50
-1.18 -9.89 2.50
-0.98 -9.92 2.50
-0.78 -9.94 2.50
-0.59 -9.96 2.50
-0.39 -9.97 2.50
-0.19 -9.98 2.50
0.01 -9.11 2.50
0.20 -9.11 2.50
0.38 -9.11 2.50
0.56 -9.11 2.50
0.74 -9.10 2.50
0.93 -9.08 2.50
1.11 -9.07 2.50
1.29 -9.04 2.50
1.47 -9.02 2.50
1.65 -8.99 2.50
1.83 -8.96 2.50
2.01 -8.92 2.50
2.17 -8.82 2.48
2.27 -8.47 2.39
2.44 -8.43 2.39
2.61 -8.38 2.39
2.70 -8.09 2.32
2.94 -8.27 2.39
3.11 -8.21 2.39
3.27 -8.15 2.39
3.44 -8.08 2.39
3.60 -8.01 2.39
3.76 -7.94 2.39
3.92 -7.86 2.39
4.07 -7.79 2.39
4.23 -7.70 2.39
4.38 -7.62 2.39
4.53 -7.53 2.39
4.68 -7.44 2.39
4.83 -7.34 2.39
4.98 -7.24 2.39
5.12 -7.14 2.39
5.26 -7.04 2.39
5.40 -6.93 2.39
5.54 -6.82 2.39
5.67 -6.71 2.39
5.81 -6.59 2.39
5.94 -6.47 2.39
6.06 -6.35 2.39
6.19 -6.23 2.39
6.86 -6.63 2.60
7.07 -6.57 2.63
7.28 -6.49 2.66
7.49 -6.42 2.69
7.71 -6.34 2.72
7.93 -6.26 2.76
8.16 -6.18 2.79
8.38 -6.09 2.83
8.60 -5.99 2.86
8.74 -5.83 2.87
8.81 -5.62 2.86
7.44 -4.54 2.38
7.53 -4.40 2.38
8.92 -4.97 2.79
8.94 -4.75 2.77
8.95 -4.53 2.75
8.97 -4.31 2.73
8.98 -4.10 2.70
8.99 -3.89 2.68
9.00 -3.68 2.67
9.05 -3.49 2.66
9.13 -3.31 2.67
9.21 -3.13 2.67
9.29 -2.96 2.68
9.37 -2.78 2.69
9.45 -2.59 2.70
9.53 -2.41 2.70
9.57 -2.22 2.71
9.55 -2.01 2.69
9.52 -1.81 2.67
9.48 -1.61 2.65
9.45 -1.41 2.64
9.46 -1.21 2.64
9.47 -1.02 2.63
9.48 -0.83 2.63
9.48 -0.64 2.63
9.49 -0.45 2.63
9.49 -0.26 2.63
9.49 -0.07 2.63
9.48 0.12 2.63
9.48 0.31 2.63
9.47 0.50 2.64
9.48 0.69 2.64
9.49 0.88 2.65
9.50 1.08 2.66
9.51 1.27 2.67
9.52 1.47 2.69
9.53 1.67 2.70
9.53 1.86 2.71
9.49 2.05 2.71
9.44 2.24 2.71
9.39 2.43 2.72
9.34 2.62 2.72
9.32 2.81 2.73
9.29 3.01 2.74
9.27 3.21 2.75
9.25 3.41 2.77
9.22 3.61 2.78
9.19 3.82 2.80
7.34 3.22 2.26
9.13 4.23 2.84
9.11 4.45 2.86
9.12 4.68 2.89
9.08 4.89 2.91
9.03 5.10 2.93
8.98 5.31 2.95
8.93 5.53 2.97
8.87 5.74 2.99
8.82 5.96 3.02
8.58 6.05 2.98
8.25 6.07 2.91
7.94 6.09 2.84
7.63 6.10 2.78
7.32 6.10 2.71
7.02 6.09 2.65
6.22 5.63 2.39
6.11 5.75 2.39
5.98 5.86 2.39
5.86 5.98 2.39
5.74 6.09 2.39
5.61 6.20 2.39
5.48 6.30 2.39
5.35 6.41 2.39
5.21 6.51 2.39
5.08 6.61 2.39
4.94 6.71 2.39
4.80 6.80 2.39
4.66 6.89 2.39
4.52 6.98 2.39
4.37 7.06 2.39
4.23 7.14 2.39
4.08 7.22 2.39
3.93 7.30 2.39
3.78 7.37 2.39
3.63 7.44 2.39
3.48 7.51 2.39
3.32 7.57 2.39
3.17 7.63 2.39
3.01 7.69 2.39
2.86 7.74 2.39
2.70 7.79 2.39
2.54 7.84 2.39
2.38 7.89 2.39
2.32 8.27 2.50
2.15 8.31 2.50
1.98 8.35 2.50
1.81 8.38 2.50
1.64 8.41 2.50
1.47 8.44 2.50
1.30 8.46 2.50
1.13 8.48 2.50
0.96 8.50 2.50
0.79 8.51 2.50
0.61 8.52 2.50
0.44 8.53 2.50
0.27 8.53 2.50
0.10 8.53 2.50
-0.07 8.53 2.50
-0.24 8.52 2.50
-0.42 8.51 2.50
-0.59 8.50 2.50
-0.76 8.48 2.50
-0.93 8.47 2.50
-1.10 8.44 2.50
-1.27 8.42 2.50
-1.44 8.39 2.50
-1.60 8.35 2.50
-1.77 8.32 2.50
-1.94 8.28 2.50
-2.10 8.24 2.50
-2.27 8.19 2.50
-2.43 8.14 2.50
-2.60 8.09 2.50
-2.76 8.03 2.50
-2.92 7.97 2.50
-3.08 7.91 2.50
-3.24 7.85 2.50
-3.39 7.78 2.50
-3.55 7.71 2.50
-3.70 7.64 2.50
-3.85 7.56 2.50
-4.01 7.48 2.50
-4.16 7.40 2.50
-4.30 7.31 2.50
-4.45 7.22 2.50
-4.59 7.13 2.50
-4.74 7.04 2.50
-4.88 6.94 2.50
-5.02 6.84 2.50
-5.15 6.74 2.50
-5.29 6.64 2.50
-5.42 6.53 2.50
-5.55 6.42 2.50
-5.68 6.31 2.50
-5.74 6.12 2.47
-5.75 5.89 2.42
-5.81 5.71 2.39
-5.94 5.61 2.40
-6.03 5.47 2.39
-6.14 5.35 2.39
-6.25 5.23 2.39
-6.36 5.10 2.39
-6.46 4.98 2.39
-6.56 4.85 2.39
-6.66 4.71 2.39
-6.75 4.58 2.39
-6.85 4.45 2.39
-6.94 4.31 2.39
-7.03 4.17 2.39
-7.11 4.03 2.39
-7.19 3.89 2.39
-7.27 3.74 2.39
-7.35 3.60 2.39
-7.42 3.45 2.39
-7.49 3.30 2.39
-7.56 3.15 2.39
-7.63 3.00 2.39
-7.69 2.85 2.39
-7.75 2.69 2.39
-7.80 2.54 2.39
-7.86 2.38 2.39
-7.91 2.22 2.39
-7.96 2.06 2.39
-8.00 1.91 2.39
-8.04 1.74 2.39
-8.08 1.58 2.39
-8.11 1.42 2.39
-8.15 1.26 2.39
-8.17 1.10 2.39
-8.20 0.93 2.39
-8.22 0.77 2.39
-8.24 0.60 2.39
-8.26 0.44 2.39
-8.27 0.27 2.39
-8.28 0.10 2.39
-8.28 -0.06 2.39
-8.28 -0.23 2.39
-8.28 -0.40 2.39
-8.28 -0.56 2.39
-8.27 -0.73 2.39
-8.26 -0.90 2.39
-8.25 -1.06 2.39
-8.23 -1.23 2.39
-8.21 -1.40 2.39
-8.19 -1.56 2.39
-8.16 -1.73 2.39
-8.13 -1.89 2.39
-8.10 -2.06 2.39
-8.06 -2.22 2.39
-8.02 -2.38 2.39
-7.97 -2.55 2.39
-7.93 -2.71 2.39
-7.88 -2.87 2.39
-7.82 -3.03 2.39
-7.77 -3.19 2.39
-7.71 -3.34 2.39
-7.65 -3.50 2.39
-7.58 -3.66 2.39
-7.51 -3.81 2.39
-7.44 -3.96 2.39
-7.36 -4.12 2.39
-7.28 -4.27 2.39
-7.20 -4.41 2.39
-7.12 -4.56 2.39
-7.03 -4.71 2.39
-6.94 -4.85 2.39
-6.85 -4.99 2.39
-6.75 -5.13 2.39
-6.65 -5.27 2.39
-6.55 -5.41 2.39
-6.44 -5.54 2.39
-6.34 -5.68 2.39
-6.23 -5.81 2.39
-6.11 -5.93 2.39
-6.00 -6.06 2.39
-5.88 -6.18 2.39
-5.85 -6.41 2.43
-5.85 -6.68 2.49
-5.75 -6.82 2.50
-5.61 -6.94 2.50
-5.48 -7.06 2.50
-5.34 -7.17 2.50
-5.20 -7.28 2.50
-5.05 -7.39 2.50
-4.91 -7.50 2.50
-4.76 -7.60 2.50
-4.61 -7.70 2.50
-4.46 -7.79 2.50
-4.30 -7.89 2.50
-4.15 -7.98 2.50
-3.99 -8.06 2.50
-3.83 -8.15 2.50
-3.67 -8.23 2.50
-3.50 -8.31 2.50
-3.34 -8.38 2.50
-3.17 -8.45 2.50
-3.00 -8.52 2.50
-2.83 -8.58 2.50
-2.66 -8.64 2.50
-2.49 -8.70 2.50
-2.32 -8.75 2.50
-2.14 -8.80 2.50
-1.97 -8.85 2.50
-1.79 -8.89 2.50
-1.61 -8.93 2.50
-1.43 -8.96 2.50
-1.26 -9.00 2.50
-1.08 -9.02 2.50
-0.90 -9.05 2.50
-0.71 -9.07 2.50
-0.53 -9.08 2.50
-0.35 -9.10 2.50
-0.17 -9.11 2.50
0.01 -8.37 2.50
0.18 -8.37 2.50
0.35 -8.37 2.50
0.52 -8.36 2.50
0.68 -8.35 2.50
0.85 -8.34 2.50
1.02 -8.32 2.50
1.19 -8.30 2.50
1.35 -8.28 2.50
1.52 -8.25 2.50
1.68 -8.22 2.50
1.85 -8.19 2.50
2.01 -8.15 2.50
2.17 -8.11 2.50
2.24 -7.74 2.39
2.40 -7.70 2.39
2.55 -7.64 2.39
2.70 -7.59 2.39
2.85 -7.54 2.39
3.00 -7.48 2.39
3.15 -7.42 2.39
3.30 -7.36 2.39
3.45 -7.29 2.39
3.59 -7.22 2.39
3.74 -7.15 2.39
3.88 -7.07 2.39
4.02 -6.99 2.39
4.16 -6.91 2.39
4.30 -6.82 2.39
4.43 -6.74 2.39
4.57 -6.65 2.39
4.70 -6.55 2.39
4.83 -6.46 2.39
4.96 -6.36 2.39
5.08 -6.26 2.39
5.21 -6.16 2.39
5.33 -6.05 2.39
5.45 -5.94 2.39
5.57 -5.83 2.39
5.68 -5.72 2.39
5.79 -5.60 2.39
5.90 -5.48 2.39
6.01 -5.36 2.39
6.11 -5.24 2.39
6.22 -5.11 2.39
6.82 -5.38 2.58
7.00 -5.30 2.61
7.18 -5.22 2.64
7.37 -5.13 2.67
7.55 -5.04 2.70
7.73 -4.94 2.73
7.43 -4.54 2.59
7.53 -4.40 2.60
8.08 -4.50 2.76
8.12 -4.32 2.74
8.16 -4.13 2.73
8.19 -3.94 2.71
8.22 -3.75 2.70
8.25 -3.57 2.68
8.28 -3.39 2.67
8.36 -3.22 2.68
8.47 -3.07 2.69
8.64 -2.94 2.73
8.76 -2.79 2.75
8.83 -2.62 2.76
8.91 -2.45 2.77
8.97 -2.27 2.77
9.04 -2.10 2.78
9.11 -1.92 2.79
9.13 -1.74 2.79
9.10 -1.54 2.77
9.08 -1.35 2.76
9.10 -1.17 2.76
9.10 -0.99 2.75
9.11 -0.80 2.75
9.12 -0.62 2.75
9.12 -0.44 2.75
9.12 -0.25 2.75
9.12 -0.07 2.75
9.12 0.11 2.75
9.11 0.30 2.75
9.11 0.48 2.76
9.11 0.66 2.76
9.12 0.85 2.77
9.13 1.03 2.78
9.14 1.22 2.79
9.14 1.41 2.81
9.15 1.60 2.82
9.15 1.79 2.83
9.15 1.98 2.85
9.15 2.17 2.86
9.13 2.36 2.87
9.08 2.54 2.87
9.04 2.73 2.88
9.02 2.92 2.89
8.99 3.11 2.90
8.97 3.31 2.92
8.94 3.50 2.93
8.91 3.70 2.95
7.34 3.22 2.45
7.43 3.44 2.51
8.82 4.30 3.01
8.77 4.49 3.02
8.51 4.58 2.97
8.25 4.66 2.91
8.00 4.73 2.86
7.75 4.79 2.80
7.50 4.85 2.75
7.25 4.90 2.70
7.01 4.94 2.64
6.25 4.59 2.39
6.15 4.72 2.39
6.05 4.83 2.39
5.94 4.95 2.39
5.84 5.07 2.39
5.73 5.18 2.39
5.62 5.29 2.39
5.51 5.40 2.39
5.40 5.50 2.39
5.28 5.61 2.39
5.17 5.71 2.39
5.05 5.81 2.39
4.93 5.90 2.39
4.80 6.00 2.39
4.68 6.09 2.39
4.55 6.18 2.39
4.42 6.26 2.39
4.30 6.35 2.39
4.16 6.43 2.39
4.03 6.50 2.39
3.90 6.58 2.39
3.76 6.65 2.39
3.63 6.72 2.39
3.49 6.79 2.39
3.35 6.86 2.39
3.21 6.92 2.39
3.07 6.98 2.39
2.92 7.03 2.39
2.78 7.09 2.39
2.64 7.14 2.39
2.49 7.18 2.39
2.34 7.23 2.39
2.29 7.58 2.50
2.14 7.62 2.50
1.98 7.66 2.50
1.83 7.70 2.50
1.67 7.73 2.50
1.51 7.76 2.50
1.36 7.78 2.50
1.20 7.80 2.50
1.04 7.82 2.50
0.88 7.84 2.50
0.73 7.85 2.50
0.57 7.86 2.50
0.41 7.87 2.50
0.25 7.87 2.50
0.09 7.87 2.50
-0.07 7.87 2.50
-0.22 7.86 2.50
