ply
format ascii 1.0
element vertex 2997
property float32 x
property float32 y
property float32 z
end_header
2.62 -7.00 2.39
2.76 -6.94 2.39
2.90 -6.88 2.39
3.03 -6.82 2.39
3.17 -6.75 2.39
3.30 -6.68 2.39
3.43 -6.61 2.39
3.56 -6.53 2.39
3.69 -6.46 2.39
3.82 -6.38 2.39
3.94 -6.29 2.39
4.07 -6.21 2.39
4.19 -6.12 2.39
4.31 -6.04 2.39
4.43 -5.94 2.39
4.54 -5.85 2.39
4.66 -5.75 2.39
4.77 -5.66 2.39
4.88 -5.56 2.39
4.99 -5.46 2.39
5.10 -5.35 2.39
5.20 -5.25 2.39
5.30 -5.14 2.39
5.41 -5.03 2.39
5.50 -4.92 2.39
5.60 -4.80 2.39
5.73 -4.72 2.40
5.73 -4.52 2.36
5.72 -4.33 2.33
5.72 -4.15 2.29
5.71 -3.98 2.26
5.71 -3.80 2.22
5.70 -3.64 2.19
5.70 -3.48 2.17
5.70 -3.32 2.14
5.69 -3.16 2.11
5.69 -3.01 2.09
5.69 -2.87 2.07
5.68 -2.72 2.04
5.68 -2.58 2.02
5.68 -2.44 2.01
5.67 -2.31 1.99
5.67 -2.17 1.97
5.67 -2.04 1.95
5.66 -1.91 1.94
5.66 -1.79 1.93
5.66 -1.66 1.91
5.65 -1.54 1.90
5.65 -1.41 1.89
5.65 -1.29 1.88
5.65 -1.17 1.87
5.64 -1.05 1.86
5.64 -0.94 1.85
5.64 -0.82 1.84
5.63 -0.70 1.84
5.63 -0.59 1.83
5.63 -0.47 1.83
5.63 -0.36 1.82
5.62 -0.24 1.82
5.62 -0.13 1.82
5.62 -0.02 1.81
5.61 0.10 1.81
5.61 0.21 1.81
5.61 0.32 1.81
5.61 0.44 1.81
5.60 0.55 1.81
5.60 0.66 1.82
5.60 0.78 1.82
5.60 0.89 1.82
5.59 1.01 1.83
5.59 1.13 1.83
5.59 1.24 1.84
5.58 1.36 1.84
5.58 1.48 1.85
5.58 1.60 1.86
5.58 1.72 1.87
5.57 1.84 1.88
5.57 1.97 1.89
5.57 2.09 1.90
5.56 2.22 1.91
5.56 2.35 1.93
5.56 2.48 1.94
5.55 2.62 1.96
5.55 2.75 1.97
5.55 2.89 1.99
5.54 3.03 2.01
5.54 3.18 2.03
5.54 3.33 2.05
5.53 3.48 2.07
5.53 3.63 2.10
5.53 3.79 2.12
5.52 3.96 2.15
5.52 4.12 2.18
5.51 4.30 2.21
5.51 4.47 2.24
5.51 4.66 2.27
5.50 4.85 2.31
5.50 5.04 2.34
5.49 5.24 2.38
5.49 5.45 2.43
5.30 5.48 2.39
5.19 5.60 2.39
5.09 5.70 2.39
4.97 5.81 2.39
4.86 5.92 2.39
4.75 6.02 2.39
4.63 6.12 2.39
4.51 6.22 2.39
4.39 6.31 2.39
4.27 6.41 2.39
4.14 6.50 2.39
4.01 6.59 2.39
3.89 6.68 2.39
3.76 6.76 2.39
3.62 6.84 2.39
3.49 6.92 2.39
3.35 7.00 2.39
3.22 7.07 2.39
3.08 7.14 2.39
2.94 7.21 2.39
2.79 7.27 2.39
2.65 7.34 2.39
2.50 7.40 2.39
2.36 7.45 2.39
2.21 7.51 2.39
2.06 7.56 2.39
1.40 5.59 1.76
1.39 6.02 1.88
1.35 6.47 2.01
1.46 7.73 2.39
1.30 7.77 2.39
1.20 8.14 2.49
1.03 8.17 2.49
0.87 8.20 2.49
0.71 8.22 2.49
0.54 8.24 2.49
0.38 8.26 2.49
0.21 8.28 2.49
0.05 8.29 2.49
-0.12 8.30 2.49
-0.29 8.30 2.49
-0.45 8.30 2.49
-0.62 8.30 2.49
-0.79 8.29 2.49
-0.95 8.28 2.49
-1.12 8.27 2.49
-1.29 8.25 2.49
-1.45 8.23 2.49
-1.62 8.21 2.49
-1.78 8.19 2.49
-1.95 8.16 2.49
-2.11 8.12 2.49
-2.28 8.09 2.49
-2.44 8.04 2.49
-2.60 8.00 2.49
-2.77 7.95 2.49
-2.93 7.90 2.49
-3.09 7.85 2.49
-3.25 7.79 2.49
-3.40 7.73 2.49
-3.56 7.67 2.49
-3.72 7.60 2.49
-3.87 7.53 2.49
-4.02 7.46 2.49
-4.17 7.38 2.49
-4.32 7.30 2.49
-4.47 7.22 2.49
-4.62 7.13 2.49
-4.76 7.04 2.49
-4.90 6.95 2.49
-5.05 6.85 2.49
-5.18 6.75 2.49
-5.32 6.65 2.49
-5.46 6.55 2.49
-5.59 6.44 2.49
-5.72 6.33 2.49
-5.85 6.22 2.49
-5.97 6.10 2.49
-6.10 5.99 2.49
-6.22 5.86 2.49
-6.33 5.74 2.49
-6.45 5.62 2.49
-6.56 5.49 2.49
-6.67 5.36 2.49
-6.70 5.16 2.46
-6.70 4.95 2.42
-6.70 4.75 2.39
-6.79 4.61 2.39
-6.89 4.48 2.39
-6.98 4.34 2.39
-7.06 4.20 2.39
-6.96 3.95 2.33
-7.23 3.91 2.39
-7.30 3.77 2.39
-7.38 3.62 2.39
-7.45 3.47 2.39
-7.06 3.12 2.24
-7.58 3.17 2.39
-7.64 3.02 2.39
-7.70 2.87 2.39
-7.76 2.71 2.39
-6.78 2.22 2.07
-6.75 2.06 2.05
-6.74 1.91 2.04
-6.73 1.77 2.03
-6.73 1.62 2.02
-6.73 1.48 2.01
-6.72 1.34 2.00
-6.72 1.20 1.99
-6.72 1.06 1.98
-6.72 0.93 1.98
-6.72 0.79 1.97
-6.72 0.65 1.97
-6.72 0.52 1.97
-6.72 0.38 1.96
-6.71 0.25 1.96
-6.71 0.11 1.96
-6.71 -0.02 1.96
-6.70 -0.16 1.96
-6.70 -0.29 1.96
-6.70 -0.42 1.96
-6.69 -0.56 1.97
-6.69 -0.69 1.97
-6.68 -0.83 1.97
-6.68 -0.96 1.98
-6.67 -1.10 1.98
-6.66 -1.23 1.99
-6.66 -1.37 2.00
-6.66 -1.51 2.01
-6.65 -1.65 2.02
-6.65 -1.79 2.03
-6.65 -1.93 2.04
-6.66 -2.08 2.06
-7.67 -2.57 2.39
-7.62 -2.72 2.39
-7.55 -2.87 2.39
-7.49 -3.02 2.39
-7.42 -3.16 2.39
-6.91 -3.11 2.25
-7.28 -3.45 2.39
-7.20 -3.59 2.39
-7.12 -3.73 2.39
-7.04 -3.87 2.39
-6.95 -4.01 2.39
-6.86 -4.14 2.39
-6.77 -4.28 2.39
-6.68 -4.41 2.39
-6.58 -4.54 2.39
-6.49 -4.66 2.39
-6.47 -4.85 2.42
-6.46 -5.05 2.46
-6.44 -5.24 2.49
-6.33 -5.37 2.49
-6.21 -5.49 2.49
-6.10 -5.61 2.49
-5.98 -5.72 2.49
-5.85 -5.83 2.49
-5.73 -5.94 2.49
-5.60 -6.05 2.49
-5.48 -6.15 2.49
-5.35 -6.26 2.49
-5.21 -6.36 2.49
-5.08 -6.45 2.49
-4.94 -6.55 2.49
-4.81 -6.64 2.49
-4.67 -6.72 2.49
-4.53 -6.81 2.49
-4.38 -6.89 2.49
-4.24 -6.97 2.49
-4.10 -7.04 2.49
-3.95 -7.12 2.49
-3.80 -7.19 2.49
-3.65 -7.25 2.49
-3.50 -7.32 2.49
-3.35 -7.38 2.49
-3.20 -7.44 2.49
-3.05 -7.49 2.49
-2.89 -7.54 2.49
-2.74 -7.59 2.49
-2.58 -7.64 2.49
-2.42 -7.68 2.49
-2.27 -7.72 2.49
-2.11 -7.75 2.49
-1.95 -7.78 2.49
-1.79 -7.81 2.49
-1.63 -7.84 2.49
-1.47 -7.86 2.49
-1.31 -7.88 2.49
-1.15 -7.90 2.49
-0.99 -7.91 2.49
-0.83 -7.92 2.49
-0.67 -7.93 2.49
-0.51 -7.93 2.49
-0.35 -7.93 2.49
-0.19 -7.93 2.49
-0.03 -7.34 2.49
0.11 -7.34 2.49
0.26 -7.33 2.49
0.41 -7.31 2.49
0.55 -7.30 2.49
0.70 -7.28 2.49
0.85 -7.25 2.49
0.99 -7.23 2.49
1.13 -7.20 2.49
1.28 -7.17 2.49
1.42 -7.14 2.49
1.56 -7.10 2.49
1.64 -6.81 2.40
1.77 -6.73 2.39
1.90 -6.69 2.39
1.66 -5.42 1.95
1.63 -4.95 1.79
1.90 -5.42 1.98
2.43 -6.50 2.39
2.56 -6.44 2.39
2.68 -6.38 2.39
2.81 -6.32 2.39
2.93 -6.26 2.39
3.06 -6.20 2.39
3.18 -6.13 2.39
3.30 -6.06 2.39
3.42 -5.99 2.39
3.54 -5.92 2.39
3.66 -5.84 2.39
3.77 -5.76 2.39
3.88 -5.68 2.39
4.00 -5.60 2.39
4.11 -5.52 2.39
4.21 -5.43 2.39
4.32 -5.34 2.39
4.43 -5.25 2.39
4.53 -5.16 2.39
4.63 -5.06 2.39
4.73 -4.97 2.39
4.83 -4.87 2.39
4.92 -4.77 2.39
5.02 -4.67 2.39
5.11 -4.56 2.39
5.20 -4.46 2.39
5.28 -4.35 2.39
5.37 -4.24 2.39
5.45 -4.13 2.39
5.53 -4.02 2.39
5.71 -3.98 2.43
5.71 -3.81 2.40
5.70 -3.64 2.36
5.70 -3.48 2.33
5.70 -3.32 2.30
5.69 -3.16 2.28
5.69 -3.01 2.25
5.69 -2.87 2.23
5.68 -2.72 2.20
5.68 -2.58 2.18
5.68 -2.44 2.16
5.67 -2.31 2.14
5.67 -2.17 2.12
5.67 -2.04 2.11
5.66 -1.91 2.09
5.66 -1.78 2.07
5.66 -1.66 2.06
5.65 -1.53 2.05
5.65 -1.41 2.03
5.65 -1.29 2.02
5.65 -1.17 2.01
5.64 -1.05 2.00
5.64 -0.93 2.00
5.64 -0.82 1.99
5.63 -0.70 1.98
5.63 -0.59 1.97
5.63 -0.47 1.97
5.63 -0.36 1.96
5.62 -0.24 1.96
5.62 -0.13 1.96
5.62 -0.02 1.96
5.61 0.10 1.95
5.61 0.21 1.95
5.61 0.32 1.95
5.61 0.44 1.95
5.60 0.55 1.96
5.60 0.67 1.96
5.60 0.78 1.96
5.60 0.89 1.97
5.59 1.01 1.97
5.59 1.13 1.98
5.59 1.24 1.98
5.58 1.36 1.99
5.58 1.48 2.00
5.58 1.60 2.01
5.58 1.72 2.02
5.57 1.85 2.03
5.57 1.97 2.04
5.57 2.10 2.05
5.56 2.22 2.06
5.56 2.35 2.08
5.56 2.49 2.09
5.55 2.62 2.11
5.55 2.76 2.13
5.55 2.89 2.15
5.54 3.04 2.17
5.54 3.18 2.19
5.54 3.33 2.21
5.53 3.48 2.24
5.53 3.64 2.26
5.53 3.79 2.29
5.52 3.96 2.32
5.52 4.13 2.35
5.51 4.30 2.38
5.51 4.48 2.41
5.37 4.54 2.39
5.28 4.65 2.39
5.19 4.76 2.39
5.10 4.87 2.39
5.00 4.98 2.39
4.91 5.08 2.39
4.81 5.18 2.39
4.71 5.29 2.39
4.61 5.38 2.39
4.50 5.48 2.39
4.39 5.58 2.39
4.29 5.67 2.39
4.18 5.76 2.39
4.06 5.85 2.39
3.95 5.93 2.39
3.83 6.02 2.39
3.71 6.10 2.39
3.59 6.18 2.39
3.47 6.26 2.39
3.35 6.33 2.39
3.23 6.41 2.39
3.10 6.48 2.39
2.97 6.54 2.39
2.84 6.61 2.39
2.71 6.67 2.39
2.58 6.73 2.39
2.45 6.79 2.39
2.31 6.84 2.39
1.67 5.29 1.83
1.56 5.29 1.82
1.41 5.16 1.76
1.40 5.59 1.90
1.37 5.95 2.01
1.49 7.12 2.39
1.34 7.15 2.39
1.25 7.49 2.49
1.10 7.53 2.49
0.95 7.55 2.49
0.80 7.58 2.49
0.65 7.60 2.49
0.50 7.62 2.49
0.35 7.64 2.49
0.19 7.65 2.49
0.04 7.66 2.49
-0.11 7.67 2.49
-0.27 7.67 2.49
-0.42 7.67 2.49
-0.57 7.67 2.49
-0.73 7.66 2.49
-0.88 7.65 2.49
-1.04 7.64 2.49
-1.19 7.62 2.49
-1.34 7.60 2.49
-1.50 7.58 2.49
-1.65 7.56 2.49
-1.80 7.53 2.49
-1.95 7.50 2.49
-2.11 7.46 2.49
-2.26 7.43 2.49
-2.41 7.39 2.49
-2.56 7.34 2.49
-2.70 7.29 2.49
-2.85 7.24 2.49
-3.00 7.19 2.49
-3.14 7.14 2.49
-3.29 7.08 2.49
-3.43 7.01 2.49
-3.57 6.95 2.49
-3.71 6.88 2.49
-3.85 6.81 2.49
-3.99 6.73 2.49
-4.13 6.66 2.49
-4.26 6.58 2.49
-4.39 6.49 2.49
-4.53 6.41 2.49
-4.66 6.32 2.49
-4.78 6.23 2.49
-4.91 6.14 2.49
-5.03 6.04 2.49
-5.16 5.94 2.49
-5.28 5.84 2.49
-5.39 5.73 2.49
-5.51 5.63 2.49
-5.62 5.52 2.49
-5.73 5.41 2.49
-5.84 5.29 2.49
-5.95 5.18 2.49
-6.05 5.06 2.49
-6.15 4.94 2.49
-6.25 4.82 2.49
-6.35 4.69 2.49
-6.44 4.56 2.49
-6.54 4.44 2.49
-6.62 4.30 2.49
-6.68 4.15 2.48
-6.67 3.97 2.45
-6.67 3.79 2.42
-6.67 3.61 2.39
-6.73 3.48 2.39
-6.80 3.34 2.39
-6.87 3.20 2.39
-6.93 3.07 2.39
-6.99 2.93 2.39
-7.05 2.79 2.39
-7.10 2.65 2.39
-7.15 2.50 2.39
-7.20 2.36 2.39
-7.24 2.21 2.39
-6.92 1.96 2.27
-7.32 1.92 2.39
-7.36 1.78 2.39
-7.39 1.63 2.39
-7.42 1.48 2.39
-7.45 1.33 2.39
-7.47 1.18 2.39
-7.01 0.97 2.24
-7.51 0.88 2.39
-7.52 0.73 2.39
-7.53 0.58 2.39
-7.54 0.43 2.39
-7.54 0.28 2.39
-7.54 0.13 2.39
-7.54 -0.02 2.39
-7.54 -0.17 2.39
-7.53 -0.32 2.39
-6.86 -0.43 2.18
-7.50 -0.62 2.39
-7.48 -0.77 2.39
-7.46 -0.92 2.39
-7.44 -1.07 2.39
-7.41 -1.22 2.39
-7.38 -1.36 2.39
-7.35 -1.51 2.39
-6.83 -1.55 2.23
-7.27 -1.80 2.39
-7.23 -1.94 2.39
-7.18 -2.09 2.39
-7.14 -2.23 2.39
-7.08 -2.37 2.39
-7.03 -2.51 2.39
-6.97 -2.65 2.39
-6.91 -2.78 2.39
-6.85 -2.92 2.39
-6.79 -3.05 2.39
-6.72 -3.19 2.39
-6.65 -3.32 2.39
-6.57 -3.45 2.39
-6.50 -3.58 2.39
-6.49 -3.74 2.42
-6.48 -3.91 2.44
-6.48 -4.09 2.47
-6.44 -4.24 2.49
-6.34 -4.37 2.49
-6.25 -4.49 2.49
-6.15 -4.61 2.49
-6.05 -4.73 2.49
-5.95 -4.84 2.49
-5.85 -4.96 2.49
-5.74 -5.07 2.49
-5.64 -5.18 2.49
-5.52 -5.28 2.49
-5.41 -5.39 2.49
-5.30 -5.49 2.49
-5.18 -5.59 2.49
-5.06 -5.69 2.49
-4.94 -5.78 2.49
-4.82 -5.87 2.49
-4.70 -5.96 2.49
-4.57 -6.05 2.49
-4.45 -6.13 2.49
-4.32 -6.22 2.49
-4.19 -6.29 2.49
-4.06 -6.37 2.49
-3.92 -6.44 2.49
-3.79 -6.52 2.49
-3.66 -6.58 2.49
-3.52 -6.65 2.49
-3.38 -6.71 2.49
-3.24 -6.77 2.49
-3.10 -6.83 2.49
-2.96 -6.88 2.49
-2.82 -6.93 2.49
-2.68 -6.98 2.49
-2.54 -7.02 2.49
-2.39 -7.07 2.49
-2.25 -7.11 2.49
-2.10 -7.14 2.49
-1.96 -7.18 2.49
-1.81 -7.21 2.49
-1.66 -7.23 2.49
-1.51 -7.26 2.49
-1.37 -7.28 2.49
-1.22 -7.30 2.49
-1.07 -7.31 2.49
-0.92 -7.33 2.49
-0.78 -7.34 2.49
-0.63 -7.34 2.49
-0.48 -7.35 2.49
-0.33 -7.35 2.49
-0.18 -7.35 2.49
-0.03 -6.83 2.49
0.10 -6.83 2.49
0.24 -6.82 2.49
0.38 -6.81 2.49
0.51 -6.79 2.49
0.65 -6.77 2.49
0.78 -6.75 2.49
0.92 -6.73 2.49
1.05 -6.71 2.49
1.19 -6.68 2.49
1.32 -6.65 2.49
1.45 -6.61 2.49
1.59 -6.58 2.49
1.65 -6.27 2.39
1.77 -6.23 2.39
1.83 -5.97 2.30
1.65 -5.02 1.95
1.62 -4.61 1.81
1.73 -4.64 1.83
1.85 -4.66 1.86
2.50 -5.95 2.39
2.62 -5.89 2.39
2.73 -5.83 2.39
2.85 -5.77 2.39
2.96 -5.71 2.39
3.07 -5.65 2.39
3.19 -5.58 2.39
3.30 -5.51 2.39
3.40 -5.44 2.39
3.51 -5.37 2.39
3.62 -5.30 2.39
3.72 -5.22 2.39
3.82 -5.14 2.39
3.93 -5.06 2.39
4.03 -4.98 2.39
4.12 -4.89 2.39
4.22 -4.81 2.39
4.31 -4.72 2.39
4.41 -4.63 2.39
4.50 -4.54 2.39
4.59 -4.45 2.39
4.67 -4.35 2.39
4.76 -4.25 2.39
4.84 -4.16 2.39
4.92 -4.06 2.39
5.00 -3.95 2.39
5.08 -3.85 2.39
5.16 -3.75 2.39
5.23 -3.64 2.39
5.30 -3.54 2.39
5.37 -3.43 2.39
5.44 -3.32 2.39
5.51 -3.21 2.39
18.78 -10.44 8.06
5.69 -3.01 2.41
5.69 -2.87 2.39
5.68 -2.72 2.36
5.68 -2.58 2.34
5.68 -2.44 2.32
5.67 -2.31 2.30
5.67 -2.17 2.28
5.67 -2.04 2.26
5.66 -1.91 2.24
5.66 -1.78 2.23
5.66 -1.66 2.21
5.65 -1.53 2.20
5.65 -1.41 2.18
5.65 -1.29 2.17
5.65 -1.17 2.16
5.64 -1.05 2.15
5.64 -0.93 2.14
5.64 -0.82 2.13
5.63 -0.70 2.13
5.63 -0.59 2.12
5.63 -0.47 2.11
5.63 -0.36 2.11
5.62 -0.24 2.10
5.62 -0.13 2.10
5.62 -0.01 2.10
5.61 0.10 2.10
5.61 0.21 2.10
5.61 0.32 2.10
5.61 0.44 2.10
5.60 0.55 2.10
5.60 0.67 2.10
5.60 0.78 2.11
5.60 0.90 2.11
5.59 1.01 2.11
5.59 1.13 2.12
5.59 1.24 2.13
5.58 1.36 2.14
5.58 1.48 2.14
5.58 1.60 2.15
5.58 1.72 2.16
5.57 1.85 2.18
5.57 1.97 2.19
5.57 2.10 2.20
5.56 2.23 2.22
5.56 2.36 2.23
5.56 2.49 2.25
5.55 2.62 2.27
5.55 2.76 2.29
5.55 2.90 2.31
5.54 3.04 2.33
5.54 3.18 2.35
5.54 3.33 2.38
5.53 3.48 2.40
5.53 3.64 2.43
5.37 3.69 2.39
5.30 3.80 2.39
5.23 3.91 2.39
5.15 4.02 2.39
5.07 4.12 2.39
4.99 4.23 2.39
4.91 4.33 2.39
4.83 4.43 2.39
4.74 4.53 2.39
4.65 4.63 2.39
4.56 4.73 2.39
4.47 4.83 2.39
4.38 4.92 2.39
4.28 5.01 2.39
4.19 5.10 2.39
4.09 5.19 2.39
3.98 5.27 2.39
3.88 5.36 2.39
3.78 5.44 2.39
3.67 5.52 2.39
3.56 5.60 2.39
3.45 5.67 2.39
3.34 5.75 2.39
3.23 5.82 2.39
3.11 5.89 2.39
3.00 5.96 2.39
2.88 6.02 2.39
2.76 6.08 2.39
2.64 6.14 2.39
2.52 6.20 2.39
2.40 6.26 2.39
2.27 6.31 2.39
2.15 6.36 2.39
1.67 5.30 1.98
1.41 4.79 1.77
1.41 5.20 1.91
1.38 5.49 2.01
1.52 6.64 2.41
1.38 6.61 2.39
1.30 6.93 2.49
1.16 6.96 2.49
1.02 6.99 2.49
0.88 7.02 2.49
0.74 7.04 2.49
0.60 7.06 2.49
0.46 7.08 2.49
0.32 7.09 2.49
0.18 7.10 2.49
0.04 7.11 2.49
-0.11 7.12 2.49
-0.25 7.12 2.49
-0.39 7.12 2.49
-0.54 7.12 2.49
-0.68 7.11 2.49
-0.82 7.10 2.49
-0.96 7.09 2.49
-1.11 7.07 2.49
-1.25 7.06 2.49
-1.39 7.04 2.49
-1.53 7.01 2.49
-1.67 6.99 2.49
-1.81 6.96 2.49
-1.96 6.92 2.49
-2.09 6.89 2.49
-2.23 6.85 2.49
-2.37 6.81 2.49
-2.51 6.77 2.49
-2.65 6.72 2.49
-2.78 6.67 2.49
-2.92 6.62 2.49
-3.05 6.56 2.49
-3.18 6.50 2.49
-3.31 6.44 2.49
-3.44 6.38 2.49
-3.57 6.31 2.49
-3.70 6.24 2.49
-3.83 6.17 2.49
-3.95 6.10 2.49
-4.08 6.02 2.49
-4.20 5.94 2.49
-4.32 5.86 2.49
-4.44 5.77 2.49
-4.55 5.69 2.49
-4.67 5.60 2.49
-4.78 5.51 2.49
-4.89 5.41 2.49
-5.00 5.31 2.49
-5.11 5.22 2.49
-5.21 5.11 2.49
-5.32 5.01 2.49
-5.42 4.91 2.49
-5.51 4.80 2.49
-5.61 4.69 2.49
-5.70 4.58 2.49
-5.80 4.46 2.49
-5.89 4.35 2.49
-5.97 4.23 2.49
-6.06 4.11 2.49
-6.14 3.99 2.49
-6.22 3.87 2.49
-6.29 3.74 2.49
-6.37 3.62 2.49
-6.44 3.49 2.49
-6.51 3.36 2.49
-6.58 3.23 2.49
-6.64 3.10 2.49
-6.65 2.94 2.47
-6.64 2.78 2.45
-6.64 2.63 2.43
-6.64 2.47 2.41
-6.64 2.32 2.40
-6.67 2.19 2.39
-6.71 2.05 2.39
-6.75 1.92 2.39
-6.79 1.78 2.39
-6.82 1.65 2.39
-6.85 1.51 2.39
-6.88 1.37 2.39
-6.90 1.23 2.39
-6.92 1.10 2.39
-6.94 0.96 2.39
-6.96 0.82 2.39
-6.97 0.68 2.39
-6.98 0.54 2.39
-6.99 0.40 2.39
-6.99 0.26 2.39
-6.99 0.12 2.39
-6.99 -0.02 2.39
-6.99 -0.16 2.39
-6.98 -0.30 2.39
-6.86 -0.43 2.35
-6.95 -0.58 2.39
-6.94 -0.72 2.39
-6.92 -0.85 2.39
-6.90 -0.99 2.39
-6.87 -1.13 2.39
-6.84 -1.26 2.39
-6.81 -1.40 2.39
-6.78 -1.53 2.39
-6.74 -1.67 2.39
-6.72 -1.81 2.40
-6.66 -1.93 2.39
-6.62 -2.07 2.39
-6.57 -2.20 2.39
-6.53 -2.33 2.39
-6.52 -2.47 2.41
-6.52 -2.62 2.43
-6.51 -2.77 2.45
-6.51 -2.93 2.47
-6.50 -3.08 2.49
-6.43 -3.21 2.49
-6.36 -3.33 2.49
-6.29 -3.46 2.49
-6.22 -3.58 2.49
-6.14 -3.70 2.49
-6.06 -3.82 2.49
-5.98 -3.94 2.49
-5.89 -4.05 2.49
-5.80 -4.17 2.49
-5.71 -4.28 2.49
-5.62 -4.39 2.49
-5.53 -4.49 2.49
-5.43 -4.60 2.49
-5.33 -4.70 2.49
-5.23 -4.81 2.49
-5.13 -4.90 2.49
-5.03 -5.00 2.49
-4.92 -5.10 2.49
-4.81 -5.19 2.49
-4.70 -5.28 2.49
-4.59 -5.37 2.49
-4.48 -5.45 2.49
-4.37 -5.54 2.49
-4.25 -5.62 2.49
-4.13 -5.70 2.49
-4.01 -5.77 2.49
-3.89 -5.85 2.49
-3.77 -5.92 2.49
-3.65 -5.99 2.49
-3.53 -6.05 2.49
-3.40 -6.12 2.49
-3.27 -6.18 2.49
-3.15 -6.24 2.49
-3.02 -6.29 2.49
-2.89 -6.34 2.49
-2.76 -6.39 2.49
-2.62 -6.44 2.49
-2.49 -6.49 2.49
-2.36 -6.53 2.49
-2.23 -6.57 2.49
-2.09 -6.61 2.49
-1.96 -6.64 2.49
-1.82 -6.67 2.49
-1.68 -6.70 2.49
-1.55 -6.73 2.49
-1.41 -6.75 2.49
-1.27 -6.77 2.49
-1.14 -6.79 2.49
-1.00 -6.80 2.49
-0.86 -6.82 2.49
-0.72 -6.83 2.49
-0.59 -6.83 2.49
-0.45 -6.84 2.49
-0.31 -6.84 2.49
-0.17 -6.84 2.49
-0.03 -6.38 2.49
0.09 -6.38 2.49
0.22 -6.37 2.49
0.35 -6.36 2.49
0.48 -6.34 2.49
0.60 -6.33 2.49
0.73 -6.31 2.49
0.86 -6.29 2.49
0.98 -6.27 2.49
1.11 -6.24 2.49
1.23 -6.21 2.49
1.36 -6.18 2.49
1.48 -6.15 2.49
1.60 -6.11 2.49
1.65 -5.82 2.39
1.77 -5.79 2.39
1.88 -5.74 2.39
1.64 -4.67 1.96
1.61 -4.32 1.82
1.63 -4.13 1.76
1.70 -4.05 1.74
1.79 -4.04 1.75
1.90 -4.05 1.77
2.66 -5.40 2.39
2.77 -5.34 2.39
2.87 -5.28 2.39
2.98 -5.22 2.39
3.08 -5.16 2.39
3.18 -5.09 2.39
3.28 -5.02 2.39
3.38 -4.95 2.39
3.48 -4.88 2.39
3.58 -4.81 2.39
3.67 -4.73 2.39
3.76 -4.66 2.39
3.86 -4.58 2.39
3.95 -4.50 2.39
4.03 -4.41 2.39
4.12 -4.33 2.39
4.21 -4.25 2.39
4.29 -4.16 2.39
4.37 -4.07 2.39
4.45 -3.98 2.39
4.53 -3.89 2.39
4.61 -3.79 2.39
4.68 -3.70 2.39
4.75 -3.60 2.39
4.82 -3.51 2.39
4.89 -3.41 2.39
4.96 -3.31 2.39
5.03 -3.21 2.39
5.09 -3.10 2.39
5.15 -3.00 2.39
5.21 -2.90 2.39
5.27 -2.79 2.39
5.32 -2.68 2.39
5.37 -2.57 2.39
5.42 -2.47 2.39
5.47 -2.36 2.39
5.52 -2.24 2.39
5.67 -2.17 2.43
5.67 -2.04 2.41
5.66 -1.91 2.40
5.66 -1.78 2.38
5.66 -1.66 2.36
5.65 -1.53 2.35
5.65 -1.41 2.33
5.65 -1.29 2.32
5.65 -1.17 2.31
5.64 -1.05 2.30
5.64 -0.93 2.29
5.64 -0.82 2.28
5.63 -0.70 2.27
5.63 -0.58 2.27
5.63 -0.47 2.26
5.63 -0.36 2.25
5.62 -0.24 2.25
5.62 -0.13 2.25
5.62 -0.01 2.24
5.61 0.10 2.24
5.61 0.21 2.24
5.61 0.33 2.24
5.61 0.44 2.24
5.60 0.55 2.24
5.60 0.67 2.25
5.60 0.78 2.25
5.60 0.90 2.26
5.59 1.01 2.26
5.59 1.13 2.27
5.59 1.25 2.28
5.58 1.36 2.28
5.58 1.48 2.29
5.58 1.60 2.30
5.58 1.73 2.31
5.57 1.85 2.33
5.57 1.97 2.34
5.57 2.10 2.36
5.56 2.23 2.37
5.56 2.36 2.39
5.56 2.49 2.41
5.55 2.62 2.43
5.42 2.70 2.39
5.37 2.81 2.39
5.32 2.92 2.39
5.26 3.03 2.39
5.20 3.13 2.39
5.14 3.24 2.39
5.08 3.35 2.39
5.02 3.45 2.39
4.95 3.55 2.39
4.88 3.65 2.39
4.81 3.76 2.39
4.74 3.85 2.39
4.66 3.95 2.39
4.59 4.05 2.39
4.51 4.14 2.39
4.43 4.24 2.39
4.35 4.33 2.39
4.26 4.42 2.39
4.18 4.51 2.39
4.09 4.59 2.39
4.00 4.68 2.39
3.91 4.76 2.39
3.81 4.85 2.39
3.72 4.93 2.39
3.62 5.00 2.39
3.52 5.08 2.39
3.42 5.15 2.39
3.32 5.23 2.39
3.22 5.30 2.39
3.12 5.37 2.39
3.01 5.43 2.39
2.90 5.50 2.39
2.79 5.56 2.39
2.69 5.62 2.39
2.57 5.68 2.39
2.46 5.73 2.39
2.35 5.79 2.39
2.23 5.84 2.39
1.54 4.29 1.74
2.00 5.93 2.39
1.41 4.46 1.78
1.42 4.85 1.92
1.39 5.10 2.01
1.54 6.14 2.40
1.40 6.13 2.39
1.32 6.35 2.46
1.21 6.46 2.49
1.08 6.49 2.49
0.95 6.52 2.49
0.82 6.54 2.49
0.69 6.56 2.49
0.56 6.58 2.49
0.43 6.60 2.49
0.30 6.61 2.49
0.16 6.62 2.49
0.03 6.63 2.49
-0.10 6.63 2.49
-0.24 6.64 2.49
-0.37 6.64 2.49
-0.50 6.63 2.49
-0.63 6.63 2.49
-0.77 6.62 2.49
-0.90 6.61 2.49
-1.03 6.59 2.49
-1.17 6.58 2.49
-1.30 6.56 2.49
-1.43 6.53 2.49
-1.56 6.51 2.49
-1.69 6.48 2.49
-1.82 6.45 2.49
-1.95 6.42 2.49
-2.08 6.38 2.49
-2.21 6.34 2.49
-2.34 6.30 2.49
-2.47 6.26 2.49
-2.59 6.21 2.49
-2.72 6.16 2.49
-2.84 6.11 2.49
-2.97 6.06 2.49
-3.09 6.00 2.49
-3.21 5.94 2.49
-3.33 5.88 2.49
-3.45 5.81 2.49
-3.57 5.75 2.49
-3.68 5.68 2.49
-3.80 5.61 2.49
-3.91 5.53 2.49
-4.02 5.45 2.49
-4.13 5.38 2.49
-4.24 5.29 2.49
-4.35 5.21 2.49
-4.45 5.13 2.49
-4.55 5.04 2.49
-4.66 4.95 2.49
-4.75 4.85 2.49
-4.85 4.76 2.49
-4.95 4.66 2.49
-5.04 4.57 2.49
-5.13 4.47 2.49
-5.22 4.36 2.49
-5.31 4.26 2.49
-5.40 4.15 2.49
-5.48 4.05 2.49
-5.56 3.94 2.49
-5.64 3.83 2.49
-5.71 3.71 2.49
-5.79 3.60 2.49
-5.86 3.48 2.49
-5.93 3.37 2.49
-5.99 3.25 2.49
-6.06 3.13 2.49
-6.12 3.01 2.49
-6.18 2.88 2.49
-6.23 2.76 2.49
-6.29 2.63 2.49
-6.34 2.51 2.49
-6.39 2.38 2.49
-6.43 2.25 2.49
-6.48 2.12 2.49
-6.52 1.99 2.49
-6.55 1.86 2.49
-6.59 1.73 2.49
-6.61 1.60 2.49
-6.61 1.46 2.48
-6.61 1.32 2.47
-6.60 1.18 2.46
-6.60 1.05 2.45
-6.60 0.91 2.44
-6.60 0.78 2.43
-6.59 0.64 2.43
-6.59 0.51 2.42
-6.59 0.38 2.42
-6.59 0.25 2.42
-6.58 0.11 2.42
-6.58 -0.02 2.42
-6.58 -0.15 2.42
-6.57 -0.28 2.42
-6.57 -0.41 2.42
-6.57 -0.54 2.42
-6.56 -0.68 2.43
-6.56 -0.81 2.43
-6.55 -0.94 2.44
-6.55 -1.07 2.45
-6.55 -1.21 2.46
-6.54 -1.34 2.46
-6.54 -1.48 2.48
-6.54 -1.62 2.49
-6.51 -1.75 2.49
-6.47 -1.88 2.49
-6.43 -2.01 2.49
-6.38 -2.13 2.49
-6.34 -2.26 2.49
-6.29 -2.38 2.49
-6.23 -2.51 2.49
-6.18 -2.63 2.49
-6.12 -2.75 2.49
-6.06 -2.87 2.49
-6.00 -2.99 2.49
-5.93 -3.10 2.49
-5.86 -3.22 2.49
-5.79 -3.33 2.49
-5.72 -3.45 2.49
-5.65 -3.56 2.49
-5.57 -3.67 2.49
-5.49 -3.77 2.49
-5.41 -3.88 2.49
-5.33 -3.98 2.49
-5.24 -4.09 2.49
-5.15 -4.19 2.49
-5.06 -4.29 2.49
-4.97 -4.38 2.49
-4.88 -4.48 2.49
-4.79 -4.57 2.49
-4.69 -4.66 2.49
-4.59 -4.75 2.49
-4.49 -4.84 2.49
-4.39 -4.92 2.49
-4.29 -5.00 2.49
-4.18 -5.08 2.49
-4.07 -5.16 2.49
-3.97 -5.24 2.49
-3.86 -5.31 2.49
-3.75 -5.38 2.49
-3.63 -5.45 2.49
-3.52 -5.52 2.49
-3.41 -5.58 2.49
-3.29 -5.65 2.49
-3.17 -5.71 2.49
-3.06 -5.76 2.49
-2.94 -5.82 2.49
-2.82 -5.87 2.49
-2.70 -5.92 2.49
-2.57 -5.97 2.49
-2.45 -6.01 2.49
-2.33 -6.05 2.49
-2.20 -6.09 2.49
-2.08 -6.13 2.49
-1.95 -6.17 2.49
-1.83 -6.20 2.49
-1.70 -6.23 2.49
-1.58 -6.26 2.49
-1.45 -6.28 2.49
-1.32 -6.30 2.49
-1.19 -6.32 2.49
-1.06 -6.34 2.49
-0.94 -6.35 2.49
-0.81 -6.37 2.49
-0.68 -6.37 2.49
-0.55 -6.38 2.49
-0.42 -6.39 2.49
-0.29 -6.39 2.49
-0.16 -6.39 2.49
-0.03 -5.98 2.49
0.09 -5.98 2.49
0.21 -5.97 2.49
0.33 -5.96 2.49
0.45 -5.95 2.49
0.56 -5.93 2.49
0.68 -5.92 2.49
0.80 -5.90 2.49
0.92 -5.87 2.49
1.04 -5.85 2.49
1.15 -5.82 2.49
1.27 -5.80 2.49
1.39 -5.76 2.49
1.50 -5.73 2.49
1.61 -5.67 2.48
1.66 -5.42 2.39
1.76 -5.39 2.39
1.87 -5.35 2.39
1.63 -4.36 1.96
1.61 -4.06 1.85
1.62 -3.86 1.77
1.79 -4.04 1.87
1.90 -4.05 1.89
2.49 -5.06 2.39
2.59 -5.01 2.39
2.69 -4.95 2.39
2.79 -4.90 2.39
2.89 -4.84 2.39
2.98 -4.77 2.39
3.08 -4.71 2.39
3.17 -4.65 2.39
3.26 -4.58 2.39
3.35 -4.51 2.39
3.44 -4.44 2.39
3.53 -4.37 2.39
3.62 -4.29 2.39
3.70 -4.22 2.39
3.78 -4.14 2.39
3.87 -4.06 2.39
3.95 -3.98 2.39
4.02 -3.90 2.39
4.10 -3.82 2.39
4.18 -3.73 2.39
4.25 -3.65 2.39
4.32 -3.56 2.39
4.39 -3.47 2.39
4.46 -3.38 2.39
4.53 -3.29 2.39
4.59 -3.20 2.39
4.65 -3.10 2.39
4.71 -3.01 2.39
4.77 -2.91 2.39
4.83 -2.82 2.39
4.89 -2.72 2.39
4.94 -2.62 2.39
4.99 -2.52 2.39
5.04 -2.42 2.39
5.09 -2.31 2.39
5.14 -2.21 2.39
5.18 -2.11 2.39
5.22 -2.00 2.39
5.26 -1.89 2.39
5.30 -1.79 2.39
5.33 -1.68 2.39
5.37 -1.57 2.39
5.40 -1.46 2.39
5.43 -1.36 2.39
5.45 -1.25 2.39
5.48 -1.14 2.39
5.50 -1.02 2.39
24.61 -4.07 10.65
5.64 -0.82 2.43
5.63 -0.70 2.42
5.63 -0.58 2.41
5.63 -0.47 2.41
5.63 -0.35 2.40
5.62 -0.24 2.40
5.62 -0.13 2.39
5.62 -0.01 2.39
5.61 0.10 2.39
5.61 0.21 2.39
5.61 0.33 2.39
5.61 0.44 2.39
5.60 0.55 2.39
5.60 0.67 2.40
5.60 0.78 2.40
5.60 0.90 2.41
5.59 1.01 2.41
5.59 1.13 2.42
5.59 1.25 2.43
38.45 9.40 16.76
5.45 1.45 2.39
5.43 1.56 2.39
5.40 1.67 2.39
5.37 1.78 2.39
5.33 1.89 2.39
5.30 2.00 2.39
5.26 2.11 2.39
5.22 2.21 2.39
5.18 2.32 2.39
5.13 2.43 2.39
5.08 2.53 2.39
5.04 2.63 2.39
4.99 2.74 2.39
4.93 2.84 2.39
4.88 2.94 2.39
4.82 3.04 2.39
4.76 3.14 2.39
4.70 3.24 2.39
4.64 3.33 2.39
4.57 3.43 2.39
4.51 3.52 2.39
4.44 3.61 2.39
4.37 3.71 2.39
4.30 3.80 2.39
4.22 3.88 2.39
4.15 3.97 2.39
4.07 4.06 2.39
3.99 4.14 2.39
3.91 4.23 2.39
3.83 4.31 2.39
3.74 4.39 2.39
3.66 4.46 2.39
3.57 4.54 2.39
3.48 4.62 2.39
3.39 4.69 2.39
3.30 4.76 2.39
3.21 4.83 2.39
3.11 4.90 2.39
3.01 4.96 2.39
2.92 5.03 2.39
2.82 5.09 2.39
2.72 5.15 2.39
2.61 5.21 2.39
2.51 5.26 2.39
2.41 5.32 2.39
2.30 5.37 2.39
1.71 4.22 1.86
1.63 4.26 1.86
1.52 4.23 1.83
1.41 4.18 1.80
1.43 4.54 1.94
1.39 4.76 2.02
1.55 5.70 2.40
1.43 5.71 2.39
1.33 5.84 2.43
1.25 6.02 2.49
1.13 6.05 2.49
1.01 6.08 2.49
0.89 6.10 2.49
0.77 6.12 2.49
0.64 6.14 2.49
0.52 6.16 2.49
0.40 6.17 2.49
0.27 6.18 2.49
0.15 6.19 2.49
0.03 6.20 2.49
-0.10 6.21 2.49
-0.22 6.21 2.49
-0.35 6.21 2.49
-0.47 6.20 2.49
-0.60 6.20 2.49
-0.72 6.19 2.49
-0.84 6.18 2.49
-0.97 6.16 2.49
-1.09 6.15 2.49
-1.22 6.13 2.49
-1.34 6.11 2.49
-1.46 6.09 2.49
-1.58 6.06 2.49
-1.71 6.03 2.49
-1.83 6.00 2.49
-1.95 5.97 2.49
-2.07 5.93 2.49
-2.19 5.89 2.49
-2.31 5.85 2.49
-2.43 5.81 2.49
-2.54 5.76 2.49
-2.66 5.71 2.49
-2.77 5.66 2.49
-2.89 5.61 2.49
-3.00 5.55 2.49
-3.11 5.49 2.49
-3.22 5.43 2.49
-3.33 5.37 2.49
-3.44 5.30 2.49
-3.55 5.24 2.49
-3.65 5.17 2.49
-3.76 5.10 2.49
-3.86 5.02 2.49
-3.96 4.95 2.49
-4.06 4.87 2.49
-4.16 4.79 2.49
-4.26 4.71 2.49
-4.35 4.62 2.49
-4.44 4.54 2.49
-4.53 4.45 2.49
-4.62 4.36 2.49
-4.71 4.27 2.49
-4.80 4.17 2.49
-4.88 4.08 2.49
-4.96 3.98 2.49
-5.04 3.88 2.49
-5.12 3.78 2.49
-5.19 3.68 2.49
-5.27 3.57 2.49
-5.34 3.47 2.49
-5.41 3.36 2.49
-5.47 3.25 2.49
-5.54 3.14 2.49
-5.60 3.03 2.49
-5.66 2.92 2.49
-5.72 2.81 2.49
-5.77 2.69 2.49
-5.82 2.58 2.49
-5.87 2.46 2.49
-5.92 2.34 2.49
-5.97 2.22 2.49
-6.01 2.10 2.49
-6.05 1.98 2.49
-6.09 1.86 2.49
-6.12 1.74 2.49
-6.16 1.62 2.49
-6.19 1.49 2.49
-6.21 1.37 2.49
-6.24 1.25 2.49
-6.26 1.12 2.49
-6.28 1.00 2.49
-6.30 0.87 2.49
-6.31 0.74 2.49
-6.32 0.62 2.49
-6.33 0.49 2.49
-6.34 0.36 2.49
-6.34 0.24 2.49
-6.34 0.11 2.49
-6.34 -0.02 2.49
-6.34 -0.14 2.49
-6.33 -0.27 2.49
-6.32 -0.39 2.49
-6.31 -0.52 2.49
-6.30 -0.65 2.49
-6.28 -0.77 2.49
-6.26 -0.90 2.49
-6.24 -1.02 2.49
-6.21 -1.14 2.49
-6.19 -1.27 2.49
-6.16 -1.39 2.49
-6.12 -1.51 2.49
-6.09 -1.63 2.49
-6.05 -1.75 2.49
-6.01 -1.87 2.49
-5.97 -1.99 2.49
-5.92 -2.11 2.49
-5.88 -2.23 2.49
-5.83 -2.34 2.49
-5.78 -2.46 2.49
-5.72 -2.57 2.49
-5.67 -2.68 2.49
-5.61 -2.79 2.49
-5.55 -2.90 2.49
-5.48 -3.01 2.49
-5.42 -3.12 2.49
-5.35 -3.22 2.49
-5.28 -3.33 2.49
-5.21 -3.43 2.49
-5.14 -3.53 2.49
-5.06 -3.63 2.49
-4.98 -3.73 2.49
-4.90 -3.82 2.49
-4.82 -3.92 2.49
-4.74 -4.01 2.49
-4.65 -4.10 2.49
-4.57 -4.19 2.49
-4.48 -4.27 2.49
-4.39 -4.36 2.49
-4.30 -4.44 2.49
-4.20 -4.52 2.49
-4.11 -4.60 2.49
-4.01 -4.68 2.49
-3.91 -4.76 2.49
-3.81 -4.83 2.49
-3.71 -4.90 2.49
-3.61 -4.97 2.49
-3.51 -5.04 2.49
-3.40 -5.10 2.49
-3.30 -5.17 2.49
-3.19 -5.23 2.49
-3.08 -5.28 2.49
-2.97 -5.34 2.49
-2.86 -5.39 2.49
-2.75 -5.45 2.49
-2.64 -5.49 2.49
-2.53 -5.54 2.49
-2.41 -5.59 2.49
-2.30 -5.63 2.49
-2.18 -5.67 2.49
-2.07 -5.71 2.49
-1.95 -5.74 2.49
-1.83 -5.77 2.49
-1.72 -5.81 2.49
-1.60 -5.83 2.49
-1.48 -5.86 2.49
-1.36 -5.88 2.49
-1.24 -5.90 2.49
-1.12 -5.92 2.49
-1.00 -5.94 2.49
-0.88 -5.95 2.49
-0.76 -5.96 2.49
-0.64 -5.97 2.49
-0.52 -5.98 2.49
-0.40 -5.98 2.49
-0.28 -5.99 2.49
-0.16 -5.99 2.49
-0.03 -5.62 2.49
0.08 -5.62 2.49
0.19 -5.61 2.49
0.30 -5.60 2.49
0.42 -5.59 2.49
0.53 -5.58 2.49
0.64 -5.56 2.49
0.75 -5.54 2.49
0.86 -5.52 2.49
0.97 -5.50 2.49
1.08 -5.48 2.49
1.19 -5.45 2.49
1.30 -5.42 2.49
1.41 -5.39 2.49
1.52 -5.36 2.49
1.60 -5.24 2.45
1.66 -5.07 2.39
1.76 -5.03 2.39
1.86 -4.99 2.39
1.62 -4.08 1.97
1.63 -3.89 1.89
1.60 -3.62 1.78
1.90 -4.05 2.01
2.34 -4.76 2.39
2.44 -4.71 2.39
2.53 -4.66 2.39
2.62 -4.61 2.39
2.72 -4.55 2.39
2.81 -4.49 2.39
2.89 -4.43 2.39
2.98 -4.37 2.39
3.07 -4.31 2.39
3.15 -4.24 2.39
3.24 -4.18 2.39
3.32 -4.11 2.39
3.40 -4.04 2.39
3.48 -3.97 2.39
3.56 -3.90 2.39
3.64 -3.82 2.39
3.71 -3.75 2.39
3.78 -3.67 2.39
3.86 -3.59 2.39
3.93 -3.51 2.39
4.00 -3.43 2.39
4.06 -3.35 2.39
4.13 -3.27 2.39
4.19 -3.18 2.39
4.26 -3.10 2.39
4.32 -3.01 2.39
4.38 -2.92 2.39
4.44 -2.83 2.39
4.49 -2.74 2.39
4.55 -2.65 2.39
4.60 -2.56 2.39
4.65 -2.46 2.39
4.70 -2.37 2.39
4.74 -2.27 2.39
4.79 -2.18 2.39
4.83 -2.08 2.39
4.87 -1.98 2.39
4.91 -1.88 2.39
4.95 -1.78 2.39
4.98 -1.68 2.39
5.02 -1.58 2.39
5.05 -1.48 2.39
5.08 -1.38 2.39
5.11 -1.27 2.39
5.13 -1.17 2.39
5.16 -1.07 2.39
5.18 -0.96 2.39
5.20 -0.86 2.39
5.21 -0.75 2.39
5.23 -0.65 2.39
5.24 -0.54 2.39
5.25 -0.44 2.39
5.26 -0.33 2.39
5.27 -0.22 2.39
5.28 -0.12 2.39
5.28 -0.01 2.39
5.28 0.10 2.39
5.28 0.20 2.39
5.28 0.31 2.39
5.27 0.42 2.39
5.26 0.52 2.39
5.25 0.63 2.39
5.24 0.73 2.39
5.23 0.84 2.39
5.21 0.95 2.39
5.19 1.05 2.39
5.18 1.16 2.39
5.15 1.26 2.39
5.13 1.37 2.39
5.10 1.47 2.39
5.08 1.57 2.39
5.05 1.68 2.39
5.01 1.78 2.39
4.98 1.88 2.39
4.94 1.98 2.39
4.91 2.08 2.39
4.87 2.18 2.39
4.82 2.28 2.39
4.78 2.38 2.39
4.73 2.48 2.39
4.69 2.57 2.39
4.64 2.67 2.39
4.58 2.76 2.39
4.53 2.86 2.39
4.48 2.95 2.39
4.42 3.04 2.39
4.36 3.13 2.39
4.30 3.22 2.39
4.24 3.31 2.39
4.17 3.40 2.39
4.11 3.48 2.39
4.04 3.57 2.39
3.97 3.65 2.39
3.90 3.73 2.39
3.82 3.81 2.39
3.75 3.89 2.39
3.67 3.97 2.39
3.60 4.05 2.39
3.52 4.12 2.39
3.44 4.20 2.39
3.35 4.27 2.39
3.27 4.34 2.39
3.18 4.41 2.39
3.10 4.47 2.39
3.01 4.54 2.39
2.92 4.60 2.39
2.83 4.66 2.39
2.74 4.72 2.39
2.64 4.78 2.39
2.55 4.84 2.39
2.45 4.89 2.39
2.36 4.94 2.39
2.26 4.99 2.39
2.16 5.04 2.39
1.71 4.22 1.98
1.44 3.78 1.76
1.41 3.94 1.82
1.43 4.25 1.95
1.40 4.46 2.03
1.56 5.32 2.40
1.44 5.33 2.39
1.35 5.41 2.41
1.28 5.62 2.49
1.17 5.65 2.49
1.06 5.68 2.49
0.94 5.70 2.49
0.83 5.73 2.49
0.72 5.75 2.49
0.60 5.76 2.49
0.49 5.78 2.49
0.37 5.79 2.49
0.26 5.80 2.49
0.14 5.81 2.49
0.02 5.82 2.49
-0.09 5.82 2.49
-0.21 5.82 2.49
-0.33 5.82 2.49
-0.44 5.82 2.49
-0.56 5.81 2.49
-0.68 5.81 2.49
-0.79 5.80 2.49
-0.91 5.78 2.49
-1.03 5.77 2.49
-1.14 5.75 2.49
-1.26 5.73 2.49
-1.37 5.71 2.49
-1.49 5.68 2.49
-1.60 5.66 2.49
-1.72 5.63 2.49
-1.83 5.59 2.49
-1.94 5.56 2.49
-2.05 5.52 2.49
-2.17 5.48 2.49
-2.28 5.44 2.49
-2.39 5.40 2.49
-2.49 5.35 2.49
-2.60 5.31 2.49
-2.71 5.26 2.49
-2.82 5.20 2.49
-2.92 5.15 2.49
-3.02 5.09 2.49
-3.13 5.03 2.49
-3.23 4.97 2.49
-3.33 4.91 2.49
-3.43 4.84 2.49
-3.52 4.78 2.49
-3.62 4.71 2.49
-3.72 4.64 2.49
-3.81 4.56 2.49
-3.90 4.49 2.49
-3.99 4.41 2.49
-4.08 4.33 2.49
-4.17 4.25 2.49
-4.25 4.17 2.49
-4.33 4.08 2.49
-4.42 4.00 2.49
-4.50 3.91 2.49
-4.57 3.82 2.49
-4.65 3.73 2.49
-4.73 3.64 2.49
-4.80 3.54 2.49
-4.87 3.45 2.49
-4.94 3.35 2.49
-5.00 3.25 2.49
-5.07 3.15 2.49
-5.13 3.05 2.49
-5.19 2.95 2.49
-5.25 2.84 2.49
-5.30 2.74 2.49
-5.36 2.63 2.49
-5.41 2.52 2.49
-5.46 2.42 2.49
-5.51 2.31 2.49
-5.55 2.20 2.49
-5.59 2.08 2.49
-5.63 1.97 2.49
-5.67 1.86 2.49
-5.71 1.75 2.49
-5.74 1.63 2.49
-5.77 1.52 2.49
-5.80 1.40 2.49
-5.82 1.28 2.49
-5.85 1.17 2.49
-5.87 1.05 2.49
-5.89 0.93 2.49
-5.90 0.82 2.49
-5.92 0.70 2.49
-5.93 0.58 2.49
-5.94 0.46 2.49
-5.94 0.34 2.49
-5.95 0.22 2.49
-5.95 0.10 2.49
-5.95 -0.01 2.49
-5.94 -0.13 2.49
-5.94 -0.25 2.49
-5.93 -0.37 2.49
-5.92 -0.49 2.49
-5.90 -0.60 2.49
-5.89 -0.72 2.49
-5.87 -0.84 2.49
-5.85 -0.96 2.49
-5.83 -1.07 2.49
-5.80 -1.19 2.49
-5.77 -1.30 2.49
-5.74 -1.42 2.49
-5.71 -1.53 2.49
-5.67 -1.64 2.49
-5.64 -1.75 2.49
-5.60 -1.87 2.49
-5.56 -1.98 2.49
-5.51 -2.09 2.49
-5.47 -2.19 2.49
-5.42 -2.30 2.49
-5.37 -2.41 2.49
-5.31 -2.51 2.49
-5.26 -2.62 2.49
-5.20 -2.72 2.49
-5.14 -2.82 2.49
-5.08 -2.92 2.49
-5.02 -3.02 2.49
-4.96 -3.12 2.49
-4.89 -3.21 2.49
-4.82 -3.31 2.49
-4.75 -3.40 2.49
-4.68 -3.49 2.49
-4.60 -3.58 2.49
-4.53 -3.67 2.49
-4.45 -3.76 2.49
-4.37 -3.84 2.49
-4.29 -3.93 2.49
-4.20 -4.01 2.49
-4.12 -4.09 2.49
-4.03 -4.17 2.49
-3.95 -4.25 2.49
-3.86 -4.32 2.49
-3.77 -4.39 2.49
-3.68 -4.46 2.49
-3.58 -4.53 2.49
-3.49 -4.60 2.49
-3.39 -4.66 2.49
-3.30 -4.73 2.49
-3.20 -4.79 2.49
-3.10 -4.85 2.49
-3.00 -4.91 2.49
-2.90 -4.96 2.49
-2.79 -5.01 2.49
-2.69 -5.06 2.49
-2.59 -5.11 2.49
-2.48 -5.16 2.49
-2.38 -5.20 2.49
-2.27 -5.25 2.49
-2.16 -5.29 2.49
-2.05 -5.32 2.49
-1.94 -5.36 2.49
-1.83 -5.39 2.49
-1.72 -5.42 2.49
-1.61 -5.45 2.49
-1.50 -5.48 2.49
-1.39 -5.50 2.49
-1.28 -5.53 2.49
-1.17 -5.55 2.49
-1.05 -5.56 2.49
-0.94 -5.58 2.49
-0.83 -5.59 2.49
-0.71 -5.60 2.49
-0.60 -5.61 2.49
-0.49 -5.62 2.49
-0.37 -5.62 2.49
-0.26 -5.62 2.49
-0.15 -5.62 2.49
-0.03 -5.30 2.49
0.07 -5.29 2.49
0.18 -5.29 2.49
0.28 -5.28 2.49
0.39 -5.27 2.49
0.50 -5.25 2.49
0.60 -5.24 2.49
0.71 -5.22 2.49
0.81 -5.20 2.49
0.92 -5.18 2.49
1.02 -5.16 2.49
1.12 -5.14 2.49
1.22 -5.11 2.49
1.33 -5.08 2.49
1.43 -5.05 2.49
1.53 -5.02 2.49
1.59 -4.86 2.43
1.66 -4.74 2.39
1.75 -4.70 2.39
1.84 -4.66 2.39
1.61 -3.83 1.98
1.62 -3.67 1.91
1.59 -3.40 1.79
1.62 -3.30 1.76
1.69 -3.27 1.76
1.77 -3.26 1.77
1.87 -3.29 1.81
2.56 -4.29 2.39
2.64 -4.24 2.39
2.73 -4.18 2.39
2.81 -4.12 2.39
2.89 -4.06 2.39
2.97 -4.00 2.39
3.05 -3.94 2.39
3.13 -3.88 2.39
3.21 -3.81 2.39
3.28 -3.74 2.39
3.35 -3.67 2.39
3.43 -3.60 2.39
3.50 -3.53 2.39
3.57 -3.46 2.39
3.64 -3.39 2.39
3.70 -3.31 2.39
3.77 -3.24 2.39
3.83 -3.16 2.39
3.89 -3.08 2.39
3.96 -3.00 2.39
4.01 -2.92 2.39
4.07 -2.84 2.39
4.13 -2.75 2.39
4.18 -2.67 2.39
4.24 -2.58 2.39
4.29 -2.50 2.39
4.34 -2.41 2.39
4.38 -2.32 2.39
4.43 -2.23 2.39
4.47 -2.14 2.39
4.52 -2.05 2.39
4.56 -1.96 2.39
4.59 -1.87 2.39
4.63 -1.77 2.39
4.67 -1.68 2.39
4.70 -1.59 2.39
4.73 -1.49 2.39
4.76 -1.40 2.39
4.79 -1.30 2.39
4.82 -1.20 2.39
4.84 -1.10 2.39
4.86 -1.01 2.39
4.88 -0.91 2.39
4.90 -0.81 2.39
4.92 -0.71 2.39
4.93 -0.61 2.39
4.94 -0.51 2.39
4.95 -0.41 2.39
4.96 -0.31 2.39
4.97 -0.21 2.39
4.97 -0.11 2.39
4.98 -0.01 2.39
4.98 0.09 2.39
4.98 0.19 2.39
4.97 0.29 2.39
4.97 0.39 2.39
4.96 0.49 2.39
4.95 0.59 2.39
4.94 0.69 2.39
4.93 0.79 2.39
4.91 0.89 2.39
4.90 0.99 2.39
4.88 1.09 2.39
4.86 1.19 2.39
4.84 1.29 2.39
4.81 1.39 2.39
4.78 1.48 2.39
4.76 1.58 2.39
4.73 1.68 2.39
4.69 1.77 2.39
4.66 1.87 2.39
4.62 1.96 2.39
4.59 2.06 2.39
4.55 2.15 2.39
4.50 2.24 2.39
4.46 2.34 2.39
4.42 2.43 2.39
4.37 2.52 2.39
4.32 2.61 2.39
4.27 2.70 2.39
4.22 2.78 2.39
4.16 2.87 2.39
4.11 2.95 2.39
4.05 3.04 2.39
3.99 3.12 2.39
3.93 3.20 2.39
3.87 3.28 2.39
3.80 3.36 2.39
3.74 3.44 2.39
3.67 3.52 2.39
3.60 3.60 2.39
3.53 3.67 2.39
3.46 3.74 2.39
3.39 3.81 2.39
3.31 3.88 2.39
3.23 3.95 2.39
3.16 4.02 2.39
3.08 4.09 2.39
3.00 4.15 2.39
2.92 4.21 2.39
2.83 4.28 2.39
2.75 4.33 2.39
2.66 4.39 2.39
2.58 4.45 2.39
2.49 4.50 2.39
2.40 4.56 2.39
2.31 4.61 2.39
1.66 3.49 1.79
1.57 3.46 1.76
1.48 3.46 1.74
1.44 3.55 1.77
1.42 3.73 1.84
1.43 3.99 1.96
1.41 4.19 2.04
1.56 4.98 2.40
1.45 4.98 2.39
1.36 5.04 2.40
1.31 5.26 2.49
1.20 5.29 2.49
1.10 5.32 2.49
0.99 5.35 2.49
0.89 5.37 2.49
0.78 5.39 2.49
0.67 5.41 2.49
0.56 5.42 2.49
0.46 5.44 2.49
0.35 5.45 2.49
0.24 5.46 2.49
0.13 5.47 2.49
0.02 5.47 2.49
-0.09 5.48 2.49
-0.20 5.48 2.49
-0.31 5.48 2.49
-0.42 5.47 2.49
-0.53 5.47 2.49
-0.64 5.46 2.49
-0.75 5.45 2.49
-0.86 5.44 2.49
-0.97 5.42 2.49
-1.08 5.41 2.49
-1.19 5.39 2.49
-1.29 5.37 2.49
-1.40 5.34 2.49
-1.51 5.32 2.49
-1.62 5.29 2.49
-1.72 5.26 2.49
-1.83 5.23 2.49
-1.93 5.19 2.49
-2.04 5.16 2.49
-2.14 5.12 2.49
-2.24 5.08 2.49
-2.35 5.03 2.49
-2.45 4.99 2.49
-2.55 4.94 2.49
-2.65 4.89 2.49
-2.75 4.84 2.49
-2.84 4.79 2.49
-2.94 4.73 2.49
-3.04 4.67 2.49
-3.13 4.62 2.49
-3.22 4.55 2.49
-3.31 4.49 2.49
-3.40 4.43 2.49
-3.49 4.36 2.49
-3.58 4.29 2.49
-3.67 4.22 2.49
-3.75 4.15 2.49
-3.83 4.07 2.49
-3.92 4.00 2.49
-4.00 3.92 2.49
-4.08 3.84 2.49
-4.15 3.76 2.49
-4.23 3.67 2.49
-4.30 3.59 2.49
-4.37 3.50 2.49
-4.44 3.42 2.49
-4.51 3.33 2.49
-4.58 3.24 2.49
-4.64 3.15 2.49
-4.70 3.05 2.49
-4.76 2.96 2.49
-4.82 2.87 2.49
-4.88 2.77 2.49
-4.93 2.67 2.49
-4.99 2.57 2.49
-5.04 2.47 2.49
-5.08 2.37 2.49
-5.13 2.27 2.49
-5.18 2.17 2.49
-5.22 2.06 2.49
-5.26 1.96 2.49
-5.29 1.85 2.49
-5.33 1.75 2.49
-5.36 1.64 2.49
-5.39 1.53 2.49
-5.42 1.43 2.49
-5.45 1.32 2.49
-5.47 1.21 2.49
-5.50 1.10 2.49
-5.52 0.99 2.49
-5.53 0.88 2.49
-5.55 0.77 2.49
-5.56 0.66 2.49
-5.57 0.55 2.49
-5.58 0.43 2.49
-5.59 0.32 2.49
-5.59 0.21 2.49
-5.59 0.10 2.49
-5.59 -0.01 2.49
-5.59 -0.12 2.49
-5.58 -0.23 2.49
-5.57 -0.35 2.49
-5.56 -0.46 2.49
-5.55 -0.57 2.49
-5.54 -0.68 2.49
-5.52 -0.79 2.49
-5.50 -0.90 2.49
-5.48 -1.01 2.49
-5.45 -1.12 2.49
-5.43 -1.22 2.49
-5.40 -1.33 2.49
-5.37 -1.44 2.49
-5.34 -1.54 2.49
-5.30 -1.65 2.49
-5.26 -1.75 2.49
-5.23 -1.86 2.49
-5.18 -1.96 2.49
-5.14 -2.06 2.49
-5.10 -2.16 2.49
-5.05 -2.26 2.49
-5.00 -2.36 2.49
-4.95 -2.46 2.49
-4.89 -2.56 2.49
-4.84 -2.65 2.49
-4.78 -2.75 2.49
-4.72 -2.84 2.49
-4.66 -2.93 2.49
-4.60 -3.02 2.49
-4.54 -3.11 2.49
-4.47 -3.20 2.49
-4.40 -3.29 2.49
-4.33 -3.37 2.49
-4.26 -3.45 2.49
-4.19 -3.54 2.49
-4.11 -3.62 2.49
-4.04 -3.69 2.49
-3.96 -3.77 2.49
-3.88 -3.85 2.49
-3.80 -3.92 2.49
-3.72 -3.99 2.49
-3.63 -4.06 2.49
-3.55 -4.13 2.49
-3.46 -4.20 2.49
-3.37 -4.26 2.49
-3.28 -4.33 2.49
-3.20 -4.39 2.49
-3.10 -4.45 2.49
-3.01 -4.51 2.49
-2.92 -4.56 2.49
-2.82 -4.62 2.49
-2.73 -4.67 2.49
-2.63 -4.72 2.49
-2.54 -4.77 2.49
-2.44 -4.81 2.49
-2.34 -4.86 2.49
-2.24 -4.90 2.49
-2.14 -4.94 2.49
-2.04 -4.98 2.49
-1.93 -5.01 2.49
-1.83 -5.05 2.49
-1.73 -5.08 2.49
-1.63 -5.11 2.49
-1.52 -5.13 2.49
-1.42 -5.16 2.49
-1.31 -5.18 2.49
-1.21 -5.20 2.49
-1.10 -5.22 2.49
-0.99 -5.24 2.49
-0.89 -5.25 2.49
-0.78 -5.27 2.49
-0.68 -5.28 2.49
-0.57 -5.29 2.49
-0.46 -5.29 2.49
-0.35 -5.30 2.49
-0.25 -5.30 2.49
-0.14 -5.30 2.49
-0.03 -5.00 2.49
0.07 -5.00 2.49
0.17 -4.99 2.49
0.27 -4.98 2.49
0.37 -4.97 2.49
0.47 -4.96 2.49
0.57 -4.95 2.49
0.67 -4.93 2.49
0.76 -4.92 2.49
0.86 -4.90 2.49
0.96 -4.87 2.49
1.06 -4.85 2.49
1.15 -4.83 2.49
1.25 -4.80 2.49
1.35 -4.77 2.49
1.44 -4.74 2.49
1.54 -4.71 2.49
1.58 -4.54 2.42
1.65 -4.44 2.39
1.74 -4.41 2.39
1.83 -4.37 2.39
1.59 -3.61 1.99
1.62 -3.47 1.93
1.58 -3.22 1.82
1.60 -3.10 1.77
1.77 -3.26 1.88
1.87 -3.29 1.91
2.42 -4.05 2.39
2.50 -4.00 2.39
2.58 -3.95 2.39
2.65 -3.89 2.39
2.73 -3.84 2.39
2.81 -3.78 2.39
2.88 -3.72 2.39
2.96 -3.66 2.39
3.03 -3.60 2.39
3.10 -3.54 2.39
3.17 -3.47 2.39
3.24 -3.41 2.39
3.31 -3.34 2.39
3.37 -3.27 2.39
3.44 -3.20 2.39
3.50 -3.13 2.39
3.56 -3.06 2.39
3.62 -2.99 2.39
3.68 -2.91 2.39
3.74 -2.84 2.39
3.79 -2.76 2.39
3.85 -2.68 2.39
3.90 -2.60 2.39
3.95 -2.52 2.39
4.00 -2.44 2.39
4.05 -2.36 2.39
4.10 -2.28 2.39
4.14 -2.19 2.39
4.19 -2.11 2.39
4.23 -2.03 2.39
4.27 -1.94 2.39
4.31 -1.85 2.39
4.34 -1.76 2.39
4.38 -1.68 2.39
4.41 -1.59 2.39
4.44 -1.50 2.39
4.47 -1.41 2.39
4.50 -1.32 2.39
4.53 -1.23 2.39
4.55 -1.14 2.39
4.57 -1.04 2.39
4.59 -0.95 2.39
4.61 -0.86 2.39
4.63 -0.76 2.39
4.65 -0.67 2.39
4.66 -0.58 2.39
4.67 -0.48 2.39
4.68 -0.39 2.39
4.69 -0.29 2.39
4.70 -0.20 2.39
4.70 -0.10 2.39
4.70 -0.01 2.39
4.70 0.09 2.39
4.70 0.18 2.39
4.70 0.28 2.39
4.69 0.37 2.39
4.69 0.47 2.39
4.68 0.56 2.39
4.67 0.66 2.39
4.66 0.75 2.39
4.64 0.84 2.39
4.63 0.94 2.39
4.61 1.03 2.39
4.59 1.13 2.39
4.57 1.22 2.39
4.54 1.31 2.39
4.52 1.40 2.39
4.49 1.50 2.39
4.46 1.59 2.39
4.43 1.68 2.39
4.40 1.77 2.39
4.37 1.86 2.39
4.33 1.95 2.39
4.29 2.03 2.39
4.25 2.12 2.39
4.21 2.21 2.39
4.17 2.29 2.39
4.12 2.38 2.39
4.08 2.46 2.39
4.03 2.55 2.39
3.98 2.63 2.39
3.93 2.71 2.39
3.88 2.79 2.39
3.82 2.87 2.39
3.77 2.95 2.39
3.71 3.03 2.39
3.65 3.10 2.39
3.59 3.18 2.39
3.53 3.25 2.39
3.46 3.32 2.39
3.40 3.40 2.39
3.33 3.47 2.39
3.26 3.53 2.39
3.19 3.60 2.39
3.12 3.67 2.39
3.05 3.73 2.39
2.98 3.80 2.39
2.90 3.86 2.39
2.83 3.92 2.39
2.75 3.98 2.39
2.67 4.04 2.39
2.59 4.09 2.39
2.51 4.15 2.39
2.43 4.20 2.39
2.35 4.25 2.39
2.26 4.30 2.39
2.18 4.35 2.39
1.66 3.49 1.90
1.56 3.46 1.86
1.43 3.35 1.78
1.45 3.59 1.90
1.43 3.76 1.97
1.65 4.60 2.39
1.57 4.68 2.41
1.46 4.67 2.39
1.37 4.71 2.39
1.33 4.94 2.49
1.23 4.97 2.49
1.13 4.99 2.49
1.04 5.02 2.49
0.94 5.04 2.49
0.83 5.06 2.49
0.73 5.08 2.49
0.63 5.10 2.49
0.53 5.12 2.49
0.43 5.13 2.49
0.33 5.14 2.49
0.22 5.15 2.49
0.12 5.16 2.49
0.02 5.16 2.49
-0.09 5.17 2.49
-0.19 5.17 2.49
-0.29 5.17 2.49
-0.40 5.16 2.49
-0.50 5.16 2.49
-0.60 5.15 2.49
-0.71 5.14 2.49
-0.81 5.13 2.49
-0.91 5.11 2.49
-1.02 5.10 2.49
-1.12 5.08 2.49
-1.22 5.06 2.49
-1.32 5.04 2.49
-1.42 5.01 2.49
-1.52 4.99 2.49
-1.63 4.96 2.49
-1.72 4.93 2.49
-1.82 4.90 2.49
-1.92 4.86 2.49
-2.02 4.82 2.49
-2.12 4.79 2.49
-2.21 4.74 2.49
-2.31 4.70 2.49
-2.40 4.66 2.49
-2.50 4.61 2.49
-2.59 4.56 2.49
-2.68 4.51 2.49
-2.77 4.46 2.49
-2.86 4.40 2.49
-2.95 4.35 2.49
-3.04 4.29 2.49
-3.12 4.23 2.49
-3.21 4.17 2.49
-3.29 4.11 2.49
-3.38 4.04 2.49
-3.46 3.97 2.49
-3.54 3.91 2.49
-3.61 3.84 2.49
-3.69 3.76 2.49
-3.77 3.69 2.49
-3.84 3.62 2.49
-3.91 3.54 2.49
-3.98 3.46 2.49
-4.05 3.38 2.49
-4.12 3.30 2.49
-4.19 3.22 2.49
-4.25 3.14 2.49
-4.31 3.05 2.49
-4.37 2.97 2.49
-4.43 2.88 2.49
-4.49 2.79 2.49
-4.54 2.70 2.49
-4.60 2.61 2.49
-4.65 2.52 2.49
-4.70 2.42 2.49
-4.75 2.33 2.49
-4.79 2.23 2.49
-4.83 2.14 2.49
-4.88 2.04 2.49
-4.92 1.94 2.49
-4.95 1.85 2.49
-4.99 1.75 2.49
-5.02 1.65 2.49
-5.05 1.55 2.49
-5.08 1.45 2.49
-5.11 1.34 2.49
-5.13 1.24 2.49
-5.16 1.14 2.49
-5.18 1.04 2.49
-5.20 0.93 2.49
-5.21 0.83 2.49
-5.23 0.72 2.49
-5.24 0.62 2.49
-5.25 0.51 2.49
-5.26 0.41 2.49
-5.26 0.30 2.49
-5.27 0.20 2.49
-5.27 0.09 2.49
-5.27 -0.01 2.49
-5.26 -0.12 2.49
-5.26 -0.22 2.49
-5.25 -0.32 2.49
-5.24 -0.43 2.49
-5.23 -0.53 2.49
-5.22 -0.64 2.49
-5.20 -0.74 2.49
-5.18 -0.84 2.49
-5.16 -0.95 2.49
-5.14 -1.05 2.49
-5.12 -1.15 2.49
-5.09 -1.25 2.49
-5.06 -1.35 2.49
-5.03 -1.45 2.49
-5.00 -1.55 2.49
-4.96 -1.65 2.49
-4.93 -1.75 2.49
-4.89 -1.85 2.49
-4.85 -1.94 2.49
-4.80 -2.04 2.49
-4.76 -2.13 2.49
-4.71 -2.22 2.49
-4.67 -2.32 2.49
-4.62 -2.41 2.49
-4.56 -2.50 2.49
-4.51 -2.59 2.49
-4.45 -2.68 2.49
-4.40 -2.76 2.49
-4.34 -2.85 2.49
-4.28 -2.93 2.49
-4.22 -3.01 2.49
-4.15 -3.10 2.49
-4.09 -3.18 2.49
-4.02 -3.26 2.49
-3.95 -3.33 2.49
-3.88 -3.41 2.49
-3.81 -3.48 2.49
-3.73 -3.56 2.49
-3.66 -3.63 2.49
-3.58 -3.70 2.49
-3.51 -3.77 2.49
-3.43 -3.83 2.49
-3.35 -3.90 2.49
-3.27 -3.96 2.49
-3.18 -4.02 2.49
-3.10 -4.08 2.49
-3.02 -4.14 2.49
-2.93 -4.20 2.49
-2.84 -4.25 2.49
-2.76 -4.30 2.49
-2.67 -4.35 2.49
-2.58 -4.40 2.49
-2.49 -4.45 2.49
-2.39 -4.50 2.49
-2.30 -4.54 2.49
-2.21 -4.58 2.49
-2.11 -4.62 2.49
-2.02 -4.66 2.49
-1.92 -4.69 2.49
-1.83 -4.73 2.49
-1.73 -4.76 2.49
-1.63 -4.79 2.49
-1.54 -4.82 2.49
-1.44 -4.85 2.49
-1.34 -4.87 2.49
-1.24 -4.89 2.49
-1.14 -4.91 2.49
-1.04 -4.93 2.49
-0.94 -4.95 2.49
-0.84 -4.96 2.49
-0.74 -4.97 2.49
-0.64 -4.98 2.49
-0.54 -4.99 2.49
-0.44 -5.00 2.49
-0.34 -5.00 2.49
-0.24 -5.00 2.49
-0.14 -5.00 2.49
-0.03 -4.73 2.49
0.06 -4.73 2.49
0.16 -4.72 2.49
0.25 -4.72 2.49
0.35 -4.71 2.49
0.44 -4.70 2.49
0.53 -4.68 2.49
0.63 -4.67 2.49
0.72 -4.65 2.49
0.81 -4.63 2.49
0.91 -4.61 2.49
1.00 -4.59 2.49
1.09 -4.57 2.49
1.18 -4.54 2.49
1.27 -4.51 2.49
1.36 -4.48 2.49
1.45 -4.45 2.49
1.54 -4.42 2.49
1.58 -4.25 2.42
1.65 -4.17 2.39
1.73 -4.13 2.39
1.78 -4.04 2.35
1.59 -3.41 2.01
1.61 -3.27 1.95
1.58 -3.07 1.84
1.59 -2.92 1.78
1.87 -3.29 2.02
2.29 -3.84 2.39
2.36 -3.79 2.39
1.76 -2.70 1.73
2.51 -3.69 2.39
2.58 -3.63 2.39
2.66 -3.58 2.39
2.73 -3.52 2.39
2.80 -3.47 2.39
2.87 -3.41 2.39
2.93 -3.35 2.39
3.00 -3.29 2.39
3.06 -3.23 2.39
3.13 -3.16 2.39
3.19 -3.10 2.39
3.25 -3.03 2.39
3.31 -2.96 2.39
3.37 -2.90 2.39
3.43 -2.83 2.39
3.48 -2.76 2.39
3.54 -2.68 2.39
3.59 -2.61 2.39
3.64 -2.54 2.39
3.69 -2.46 2.39
3.74 -2.39 2.39
3.79 -2.31 2.39
3.83 -2.23 2.39
3.88 -2.16 2.39
3.92 -2.08 2.39
3.96 -2.00 2.39
4.00 -1.92 2.39
4.04 -1.84 2.39
4.08 -1.75 2.39
4.11 -1.67 2.39
4.14 -1.59 2.39
4.18 -1.50 2.39
4.20 -1.42 2.39
4.23 -1.33 2.39
4.26 -1.25 2.39
4.28 -1.16 2.39
4.31 -1.07 2.39
4.33 -0.99 2.39
4.35 -0.90 2.39
4.37 -0.81 2.39
4.38 -0.72 2.39
4.40 -0.63 2.39
4.41 -0.55 2.39
4.42 -0.46 2.39
4.43 -0.37 2.39
4.44 -0.28 2.39
4.44 -0.19 2.39
4.45 -0.10 2.39
4.45 -0.01 2.39
4.45 0.08 2.39
4.45 0.17 2.39
4.45 0.26 2.39
4.44 0.35 2.39
4.44 0.44 2.39
4.43 0.53 2.39
4.42 0.62 2.39
4.41 0.71 2.39
4.39 0.80 2.39
4.38 0.89 2.39
4.36 0.98 2.39
4.34 1.07 2.39
4.32 1.16 2.39
4.30 1.24 2.39
4.28 1.33 2.39
4.25 1.42 2.39
4.22 1.50 2.39
4.19 1.59 2.39
4.16 1.67 2.39
4.13 1.76 2.39
4.10 1.84 2.39
4.06 1.93 2.39
4.02 2.01 2.39
3.99 2.09 2.39
3.94 2.17 2.39
3.90 2.25 2.39
3.86 2.33 2.39
3.81 2.41 2.39
3.77 2.49 2.39
3.72 2.57 2.39
3.67 2.64 2.39
3.62 2.72 2.39
3.56 2.79 2.39
3.51 2.86 2.39
3.45 2.94 2.39
3.39 3.01 2.39
3.34 3.08 2.39
3.28 3.15 2.39
3.21 3.21 2.39
3.15 3.28 2.39
3.09 3.35 2.39
3.02 3.41 2.39
2.95 3.47 2.39
2.88 3.53 2.39
2.82 3.59 2.39
2.74 3.65 2.39
2.67 3.71 2.39
2.60 3.76 2.39
2.52 3.82 2.39
2.45 3.87 2.39
2.37 3.92 2.39
2.30 3.97 2.39
2.22 4.02 2.39
2.14 4.07 2.39
1.73 3.46 2.01
1.46 3.07 1.76
1.43 3.18 1.81
1.46 3.41 1.92
1.43 3.54 1.98
1.62 4.26 2.36
1.55 4.35 2.39
1.47 4.38 2.39
1.38 4.42 2.39
1.35 4.64 2.49
1.26 4.67 2.49
1.16 4.70 2.49
1.07 4.72 2.49
0.98 4.74 2.49
0.88 4.77 2.49
0.79 4.79 2.49
0.69 4.81 2.49
0.60 4.82 2.49
0.50 4.84 2.49
0.40 4.85 2.49
0.31 4.86 2.49
0.21 4.87 2.49
0.11 4.87 2.49
0.01 4.88 2.49
-0.08 4.88 2.49
-0.18 4.88 2.49
-0.28 4.88 2.49
-0.38 4.88 2.49
-0.48 4.87 2.49
-0.57 4.87 2.49
-0.67 4.86 2.49
-0.77 4.85 2.49
-0.87 4.83 2.49
-0.96 4.82 2.49
-1.06 4.80 2.49
-1.16 4.78 2.49
-1.25 4.76 2.49
-1.35 4.74 2.49
-1.44 4.71 2.49
-1.54 4.68 2.49
-1.63 4.65 2.49
-1.72 4.62 2.49
-1.82 4.59 2.49
-1.91 4.56 2.49
-2.00 4.52 2.49
-2.09 4.48 2.49
-2.18 4.44 2.49
-2.27 4.40 2.49
-2.36 4.35 2.49
-2.45 4.31 2.49
-2.53 4.26 2.49
-2.62 4.21 2.49
-2.70 4.16 2.49
-2.79 4.11 2.49
-2.87 4.05 2.49
-2.95 4.00 2.49
-3.03 3.94 2.49
-3.11 3.88 2.49
-3.19 3.82 2.49
-3.26 3.75 2.49
-3.34 3.69 2.49
-3.41 3.62 2.49
-3.49 3.55 2.49
-3.56 3.49 2.49
-3.63 3.41 2.49
-3.70 3.34 2.49
-3.76 3.27 2.49
-3.83 3.19 2.49
-3.89 3.12 2.49
-3.95 3.04 2.49
-4.01 2.96 2.49
-4.07 2.88 2.49
-4.13 2.80 2.49
-4.18 2.72 2.49
-4.24 2.63 2.49
-4.29 2.55 2.49
-4.34 2.46 2.49
-4.39 2.38 2.49
-4.44 2.29 2.49
-4.48 2.20 2.49
-4.52 2.11 2.49
-4.57 2.02 2.49
-4.60 1.93 2.49
-4.64 1.84 2.49
-4.68 1.74 2.49
-4.71 1.65 2.49
-4.74 1.56 2.49
-4.77 1.46 2.49
-4.80 1.37 2.49
-4.83 1.27 2.49
-4.85 1.17 2.49
-4.87 1.08 2.49
-4.89 0.98 2.49
-4.91 0.88 2.49
-4.92 0.78 2.49
-4.94 0.68 2.49
-4.95 0.59 2.49
-4.96 0.49 2.49
-4.97 0.39 2.49
-4.97 0.29 2.49
-4.97 0.19 2.49
-4.98 0.09 2.49
-4.97 -0.01 2.49
-4.97 -0.11 2.49
-4.97 -0.21 2.49
-4.96 -0.31 2.49
-4.95 -0.40 2.49
-4.94 -0.50 2.49
-4.93 -0.60 2.49
-4.91 -0.70 2.49
-4.90 -0.80 2.49
-4.88 -0.89 2.49
-4.86 -0.99 2.49
-4.83 -1.09 2.49
-4.81 -1.18 2.49
-4.78 -1.28 2.49
-4.75 -1.37 2.49
-4.72 -1.47 2.49
-4.69 -1.56 2.49
-4.65 -1.65 2.49
-4.62 -1.74 2.49
-4.58 -1.83 2.49
-4.54 -1.92 2.49
-4.50 -2.01 2.49
-4.45 -2.10 2.49
-4.41 -2.19 2.49
-4.36 -2.27 2.49
-4.31 -2.36 2.49
-4.26 -2.44 2.49
-4.21 -2.53 2.49
-4.16 -2.61 2.49
-4.10 -2.69 2.49
-4.04 -2.77 2.49
-3.98 -2.85 2.49
-3.92 -2.92 2.49
-3.86 -3.00 2.49
-3.80 -3.07 2.49
-3.73 -3.15 2.49
-3.67 -3.22 2.49
-3.60 -3.29 2.49
-3.53 -3.36 2.49
-3.46 -3.43 2.49
-3.39 -3.49 2.49
-3.32 -3.56 2.49
-3.24 -3.62 2.49
-3.17 -3.68 2.49
-3.09 -3.74 2.49
-3.01 -3.80 2.49
-2.93 -3.86 2.49
-2.85 -3.91 2.49
-2.77 -3.97 2.49
-2.69 -4.02 2.49
-2.61 -4.07 2.49
-2.52 -4.12 2.49
-2.44 -4.16 2.49
-2.35 -4.21 2.49
-2.27 -4.25 2.49
-2.18 -4.29 2.49
-2.09 -4.33 2.49
-2.00 -4.37 2.49
-1.91 -4.40 2.49
-1.82 -4.44 2.49
-1.73 -4.47 2.49
-1.64 -4.50 2.49
-1.55 -4.53 2.49
-1.45 -4.56 2.49
-1.36 -4.58 2.49
-1.27 -4.60 2.49
-1.17 -4.63 2.49
-1.08 -4.64 2.49
-0.99 -4.66 2.49
-0.89 -4.68 2.49
-0.80 -4.69 2.49
-0.70 -4.70 2.49
-0.61 -4.71 2.49
-0.51 -4.72 2.49
-0.42 -4.73 2.49
-0.32 -4.73 2.49
-0.23 -4.73 2.49
-0.13 -4.73 2.49
-0.03 -4.48 2.49
0.06 -4.48 2.49
0.15 -4.48 2.49
0.24 -4.47 2.49
0.33 -4.46 2.49
0.42 -4.45 2.49
0.50 -4.44 2.49
0.59 -4.42 2.49
0.68 -4.41 2.49
0.77 -4.39 2.49
0.86 -4.37 2.49
0.95 -4.35 2.49
1.03 -4.33 2.49
1.12 -4.30 2.49
1.21 -4.28 2.49
1.29 -4.25 2.49
1.38 -4.22 2.49
1.46 -4.19 2.49
1.54 -4.16 2.49
1.57 -3.99 2.41
1.64 -3.92 2.39
1.72 -3.88 2.39
1.79 -3.85 2.39
1.58 -3.23 2.03
1.60 -3.09 1.96
1.61 -2.97 1.90
1.57 -2.77 1.80
1.60 -2.68 1.76
1.66 -2.67 1.77
1.74 -2.67 1.80
1.83 -2.68 1.83
2.45 -3.45 2.39
2.52 -3.39 2.39
2.59 -3.34 2.39
2.65 -3.29 2.39
2.72 -3.23 2.39
2.78 -3.18 2.39
2.84 -3.12 2.39
2.90 -3.06 2.39
2.97 -3.00 2.39
3.02 -2.94 2.39
3.08 -2.87 2.39
3.14 -2.81 2.39
3.20 -2.75 2.39
3.25 -2.68 2.39
3.30 -2.61 2.39
3.35 -2.55 2.39
3.40 -2.48 2.39
3.45 -2.41 2.39
3.50 -2.34 2.39
3.55 -2.27 2.39
3.59 -2.19 2.39
3.64 -2.12 2.39
3.68 -2.05 2.39
3.72 -1.97 2.39
3.76 -1.89 2.39
3.79 -1.82 2.39
3.83 -1.74 2.39
3.86 -1.66 2.39
3.90 -1.58 2.39
3.93 -1.51 2.39
3.96 -1.43 2.39
3.99 -1.34 2.39
4.01 -1.26 2.39
4.04 -1.18 2.39
4.06 -1.10 2.39
4.08 -1.02 2.39
4.10 -0.94 2.39
4.12 -0.85 2.39
4.14 -0.77 2.39
4.16 -0.69 2.39
4.17 -0.60 2.39
4.18 -0.52 2.39
4.19 -0.43 2.39
4.20 -0.35 2.39
4.21 -0.26 2.39
4.21 -0.18 2.39
4.22 -0.09 2.39
4.22 -0.01 2.39
4.22 0.08 2.39
4.22 0.16 2.39
4.22 0.25 2.39
4.21 0.34 2.39
4.21 0.42 2.39
4.20 0.51 2.39
4.19 0.59 2.39
4.18 0.68 2.39
4.17 0.76 2.39
4.15 0.84 2.39
4.13 0.93 2.39
4.12 1.01 2.39
4.10 1.10 2.39
4.08 1.18 2.39
4.05 1.26 2.39
4.03 1.34 2.39
4.00 1.43 2.39
3.98 1.51 2.39
3.95 1.59 2.39
3.92 1.67 2.39
3.88 1.75 2.39
3.85 1.83 2.39
3.81 1.91 2.39
3.78 1.98 2.39
3.74 2.06 2.39
3.70 2.14 2.39
3.66 2.21 2.39
3.61 2.29 2.39
3.57 2.36 2.39
3.52 2.43 2.39
3.47 2.51 2.39
3.43 2.58 2.39
3.38 2.65 2.39
3.32 2.72 2.39
3.27 2.78 2.39
3.22 2.85 2.39
3.16 2.92 2.39
3.10 2.98 2.39
3.04 3.05 2.39
2.98 3.11 2.39
2.92 3.17 2.39
2.86 3.23 2.39
2.80 3.29 2.39
2.73 3.35 2.39
2.67 3.41 2.39
2.60 3.46 2.39
2.53 3.51 2.39
2.46 3.57 2.39
2.39 3.62 2.39
2.32 3.67 2.39
2.25 3.72 2.39
2.17 3.76 2.39
2.10 3.81 2.39
2.02 3.85 2.39
1.45 2.90 1.78
1.44 3.02 1.83
1.46 3.23 1.94
1.43 3.35 1.99
1.63 4.05 2.39
1.55 4.09 2.39
1.47 4.12 2.39
1.39 4.15 2.39
1.36 4.36 2.49
1.28 4.39 2.49
1.19 4.42 2.49
1.10 4.45 2.49
1.01 4.47 2.49
0.92 4.49 2.49
0.83 4.51 2.49
0.74 4.53 2.49
0.65 4.55 2.49
0.56 4.57 2.49
0.47 4.58 2.49
0.38 4.59 2.49
0.29 4.60 2.49
0.20 4.61 2.49
0.10 4.62 2.49
0.01 4.62 2.49
-0.08 4.62 2.49
-0.17 4.62 2.49
-0.27 4.62 2.49
-0.36 4.62 2.49
-0.45 4.61 2.49
-0.54 4.61 2.49
-0.64 4.60 2.49
-0.73 4.59 2.49
-0.82 4.57 2.49
-0.91 4.56 2.49
-1.00 4.54 2.49
-1.10 4.52 2.49
-1.19 4.50 2.49
-1.28 4.48 2.49
-1.37 4.46 2.49
-1.46 4.43 2.49
-1.54 4.41 2.49
-1.63 4.38 2.49
-1.72 4.34 2.49
-1.81 4.31 2.49
-1.90 4.28 2.49
-1.98 4.24 2.49
-2.07 4.20 2.49
-2.15 4.16 2.49
-2.23 4.12 2.49
-2.32 4.08 2.49
-2.40 4.03 2.49
-2.48 3.98 2.49
-2.56 3.94 2.49
-2.64 3.89 2.49
-2.72 3.83 2.49
-2.79 3.78 2.49
-2.87 3.72 2.49
-2.94 3.67 2.49
-3.02 3.61 2.49
-3.09 3.55 2.49
-3.16 3.49 2.49
-3.23 3.43 2.49
-3.30 3.36 2.49
-3.37 3.30 2.49
-3.43 3.23 2.49
