ply
format ascii 1.0
element vertex 2939
property float32 x
property float32 y
property float32 z
end_header
-11.19 -7.45 1.60
-10.61 -7.38 1.54
-10.57 -7.66 1.55
-10.53 -7.96 1.57
-10.56 -8.33 1.60
-10.55 -8.66 1.62
-10.65 -9.11 1.67
-10.63 -9.47 1.69
-10.55 -9.79 1.71
-10.53 -10.17 1.74
-10.56 -10.62 1.78
-10.75 -11.25 1.85
-10.48 -11.41 1.84
-10.40 -11.80 1.87
-10.40 -12.29 1.91
-10.78 -13.27 2.03
-10.10 -12.95 1.95
-9.84 -13.15 1.95
-9.84 -13.72 2.00
-9.84 -14.32 2.06
-9.85 -14.97 2.13
-9.86 -15.66 2.19
-9.89 -16.43 2.27
-10.02 -17.42 2.38
-9.67 -17.62 2.38
-9.31 -17.81 2.38
-8.95 -18.00 2.38
-8.59 -18.18 2.38
-8.23 -18.35 2.38
-7.86 -18.51 2.38
-7.49 -18.67 2.38
-7.11 -18.82 2.38
-6.80 -19.14 2.41
-6.63 -19.92 2.49
-6.23 -20.05 2.49
-5.82 -20.18 2.49
-5.42 -20.29 2.49
-5.01 -20.40 2.49
-4.60 -20.50 2.49
-4.19 -20.59 2.49
-3.77 -20.67 2.49
-3.36 -20.74 2.49
-2.94 -20.81 2.49
-2.52 -20.87 2.49
-2.10 -20.92 2.49
-1.68 -20.96 2.49
-1.26 -20.99 2.49
-0.84 -21.01 2.49
-0.42 -21.03 2.49
0.00 -17.62 2.49
0.36 -17.62 2.49
0.71 -17.61 2.49
1.06 -17.59 2.49
1.42 -17.57 2.49
1.77 -17.54 2.49
2.05 -16.96 2.41
2.36 -16.65 2.37
2.70 -16.68 2.38
3.04 -16.63 2.38
3.37 -16.56 2.38
3.70 -16.49 2.38
4.03 -16.42 2.38
4.36 -16.33 2.38
4.69 -16.24 2.38
5.02 -16.15 2.38
5.34 -16.04 2.38
5.66 -15.93 2.38
5.98 -15.82 2.38
5.82 -14.51 2.20
5.86 -13.79 2.11
5.86 -13.06 2.02
5.86 -12.39 1.93
5.86 -11.77 1.85
5.86 -11.20 1.78
5.86 -10.67 1.72
5.80 -10.08 1.64
5.86 -9.72 1.60
5.86 -9.30 1.55
5.86 -8.90 1.50
5.86 -8.52 1.46
5.86 -8.16 1.42
5.86 -7.83 1.38
5.86 -7.51 1.34
5.86 -7.20 1.31
5.86 -6.92 1.28
5.86 -6.64 1.25
5.86 -6.38 1.22
5.81 -6.07 1.18
5.86 -5.89 1.17
5.86 -5.65 1.15
5.86 -5.43 1.13
5.86 -5.22 1.10
5.86 -5.01 1.09
5.86 -4.81 1.07
5.86 -4.62 1.05
5.86 -4.43 1.03
5.86 -4.25 1.02
5.86 -4.07 1.00
5.86 -3.90 0.99
5.86 -3.73 0.98
5.86 -3.57 0.97
5.86 -3.41 0.95
5.86 -3.25 0.94
5.86 -3.10 0.93
5.86 -2.95 0.92
5.86 -2.80 0.91
5.86 -2.66 0.91
5.86 -2.52 0.90
5.86 -2.38 0.89
5.86 -2.25 0.88
5.80 -2.09 0.87
5.86 -1.98 0.87
5.86 -1.85 0.87
5.86 -1.72 0.86
5.86 -1.60 0.86
5.86 -1.47 0.85
5.86 -1.35 0.85
5.86 -1.22 0.84
5.86 -1.10 0.84
5.86 -0.98 0.84
5.86 -0.86 0.83
5.86 -0.74 0.83
5.86 -0.62 0.83
5.86 -0.50 0.83
5.86 -0.38 0.83
5.86 -0.27 0.83
5.86 -0.15 0.83
5.86 -0.03 0.83
5.86 0.09 0.83
5.86 0.21 0.83
4.26 0.24 0.60
4.28 0.32 0.61
5.86 0.56 0.83
5.86 0.68 0.83
5.86 0.80 0.83
5.86 0.92 0.84
5.86 1.04 0.84
5.86 1.16 0.84
5.86 1.28 0.85
5.86 1.41 0.85
5.86 1.53 0.85
5.86 1.66 0.86
5.83 1.78 0.86
5.79 1.89 0.86
5.86 2.05 0.88
5.86 2.18 0.88
5.86 2.31 0.89
5.86 2.45 0.90
5.86 2.59 0.91
5.86 2.73 0.91
5.86 2.88 0.92
5.86 3.02 0.93
5.86 3.17 0.94
5.86 3.33 0.95
5.86 3.49 0.96
5.86 3.65 0.98
2.75 1.79 0.46
2.69 1.83 0.46
5.86 4.16 1.02
5.86 4.33 1.03
5.86 4.52 1.05
5.86 4.71 1.06
5.86 4.91 1.08
5.86 5.11 1.10
5.86 5.32 1.12
5.86 5.54 1.14
5.86 5.78 1.17
5.86 6.00 1.19
5.86 6.25 1.21
5.86 6.51 1.24
5.86 6.78 1.27
5.86 7.06 1.30
5.86 7.35 1.33
5.86 7.66 1.37
5.86 7.99 1.40
5.86 8.34 1.44
5.86 8.70 1.49
5.86 9.09 1.53
5.86 9.51 1.58
5.79 9.83 1.62
5.86 10.42 1.70
5.86 10.93 1.76
5.86 11.48 1.83
5.86 12.07 1.90
5.86 12.71 1.99
5.28 12.10 1.87
5.04 12.20 1.87
4.82 12.38 1.89
5.78 15.76 2.38
4.94 14.35 2.15
4.93 15.33 2.29
4.82 16.07 2.38
4.49 16.16 2.38
4.17 16.25 2.38
3.84 16.33 2.38
3.51 16.40 2.38
3.18 16.46 2.38
2.85 16.52 2.38
2.52 16.58 2.38
2.18 16.62 2.38
1.93 17.38 2.49
1.58 17.41 2.49
1.23 17.44 2.49
0.88 17.46 2.49
0.53 17.47 2.49
0.18 17.48 2.49
-0.17 17.48 2.49
-0.52 17.47 2.49
-0.88 17.45 2.49
-1.23 17.43 2.49
-1.57 17.40 2.49
-1.92 17.37 2.49
-2.27 17.32 2.49
-2.62 17.27 2.49
-2.96 17.21 2.49
-3.31 17.15 2.49
-3.65 17.08 2.49
-3.99 17.00 2.49
-4.34 16.92 2.49
-4.67 16.83 2.49
-5.01 16.73 2.49
-5.34 16.62 2.49
-5.68 16.51 2.49
-5.98 16.32 2.48
-6.07 15.59 2.38
-6.38 15.47 2.38
-6.69 15.34 2.38
-7.00 15.20 2.38
-7.30 15.05 2.38
-7.60 14.90 2.38
-7.90 14.75 2.38
-8.19 14.58 2.38
-8.48 14.42 2.38
-8.77 14.24 2.38
-9.06 14.06 2.38
-9.34 13.88 2.38
-8.68 12.36 2.15
-8.81 12.03 2.12
-7.16 9.38 1.68
-7.31 9.17 1.67
-7.57 9.12 1.69
-9.84 11.39 2.14
-9.84 10.93 2.10
-9.40 10.04 1.96
-9.41 9.65 1.92
-9.51 9.37 1.90
-9.77 9.25 1.92
-10.16 9.23 1.96
-10.68 9.33 2.02
-12.41 10.40 2.31
-13.12 10.55 2.40
-10.12 7.81 1.82
-10.05 7.44 1.78
-10.00 7.10 1.75
-10.32 7.02 1.78
-10.55 6.87 1.79
-11.08 6.90 1.86
-11.68 6.95 1.94
-12.34 7.02 2.02
-12.63 6.85 2.05
-13.08 6.76 2.10
-14.24 7.00 2.26
-14.60 6.81 2.29
-15.07 6.67 2.35
-14.13 5.91 2.18
-14.22 5.62 2.18
-14.31 5.32 2.17
-14.39 5.03 2.17
-14.46 4.73 2.17
-14.54 4.43 2.16
-14.60 4.14 2.16
-14.66 3.84 2.16
-14.72 3.54 2.16
-14.78 3.24 2.15
-14.82 2.94 2.15
-14.87 2.64 2.15
-14.91 2.34 2.15
-14.95 2.04 2.15
-14.98 1.74 2.15
-9.78 0.93 1.40
-9.62 0.72 1.37
-16.13 0.89 2.30
-16.14 0.57 2.30
-16.15 0.24 2.30
-15.10 -0.08 2.15
-15.10 -0.38 2.15
-15.09 -0.68 2.15
-13.79 -0.90 1.97
-13.81 -1.18 1.97
-13.66 -1.45 1.95
-13.67 -1.73 1.96
-14.99 -2.20 2.15
-14.95 -2.50 2.16
-14.92 -2.80 2.16
-14.87 -3.11 2.16
-14.82 -3.41 2.16
-13.85 -3.48 2.03
-13.78 -3.76 2.03
-14.65 -4.31 2.17
-15.46 -4.89 2.30
-15.34 -5.19 2.30
-15.01 -5.42 2.27
-14.68 -5.64 2.23
-14.43 -5.87 2.21
-14.20 -6.12 2.20
-14.14 -6.43 2.20
-14.02 -6.72 2.21
-9.59 -4.83 1.52
-9.48 -5.02 1.52
-10.57 -5.87 1.72
-10.55 -6.14 1.73
-10.58 -6.45 1.76
-10.60 -6.75 1.78
-11.18 -7.44 1.91
-10.79 -7.50 1.86
-10.57 -7.66 1.85
-10.56 -7.99 1.88
-10.56 -8.33 1.91
-10.55 -8.67 1.94
-10.66 -9.12 1.99
-10.71 -9.55 2.03
-10.08 -9.35 1.95
-9.89 -9.55 1.95
-9.84 -9.89 1.98
-9.85 -10.31 2.02
-9.85 -10.73 2.06
-9.85 -11.17 2.11
-9.85 -11.63 2.16
-9.85 -12.12 2.21
-9.85 -12.63 2.27
-9.85 -13.16 2.33
-9.81 -13.68 2.38
-9.54 -13.88 2.38
-9.26 -14.07 2.38
-8.97 -14.25 2.38
-8.69 -14.43 2.38
-8.40 -14.60 2.38
-8.10 -14.77 2.38
-7.80 -14.93 2.38
-7.50 -15.09 2.38
-7.20 -15.24 2.38
-6.89 -15.38 2.38
-6.59 -15.52 2.38
-6.27 -15.65 2.38
-6.00 -15.88 2.40
-5.89 -16.58 2.49
-5.55 -16.69 2.49
-5.22 -16.80 2.49
-4.88 -16.91 2.49
-4.54 -17.00 2.49
-4.20 -17.09 2.49
-3.85 -17.18 2.49
-3.51 -17.25 2.49
-3.16 -17.32 2.49
-2.81 -17.38 2.49
-2.46 -17.44 2.49
-2.11 -17.48 2.49
-1.76 -17.52 2.49
-1.41 -17.56 2.49
-1.06 -17.58 2.49
-0.71 -17.60 2.49
-0.35 -17.62 2.49
0.00 -15.15 2.49
0.31 -15.14 2.49
0.61 -15.14 2.49
0.91 -15.12 2.49
1.22 -15.10 2.49
1.52 -15.08 2.49
1.82 -15.04 2.49
2.05 -14.50 2.40
2.32 -14.34 2.38
2.61 -14.29 2.38
2.90 -14.24 2.38
3.18 -14.18 2.38
3.47 -14.11 2.38
3.75 -14.04 2.38
4.03 -13.96 2.38
4.31 -13.88 2.38
4.59 -13.79 2.38
4.86 -13.70 2.38
5.14 -13.60 2.38
5.41 -13.49 2.38
5.68 -13.38 2.38
5.95 -13.26 2.38
5.80 -11.66 2.14
5.86 -11.20 2.07
5.86 -10.67 2.00
5.80 -10.08 1.91
5.86 -9.72 1.86
5.86 -9.30 1.80
5.86 -8.90 1.75
5.86 -8.52 1.69
5.86 -8.16 1.65
5.86 -7.83 1.60
5.86 -7.51 1.56
5.86 -7.20 1.52
5.86 -6.92 1.49
5.86 -6.64 1.45
5.86 -6.38 1.42
5.81 -6.07 1.38
5.86 -5.89 1.36
5.86 -5.65 1.33
5.86 -5.43 1.31
5.86 -5.22 1.29
5.86 -5.01 1.26
5.86 -4.81 1.24
5.86 -4.62 1.22
5.86 -4.43 1.20
5.86 -4.25 1.19
5.86 -4.07 1.17
5.86 -3.90 1.15
5.86 -3.73 1.14
5.86 -3.57 1.12
5.86 -3.41 1.11
5.86 -3.25 1.10
5.86 -3.10 1.09
5.86 -2.95 1.08
5.86 -2.80 1.06
5.86 -2.66 1.05
5.86 -2.52 1.05
5.86 -2.38 1.04
5.86 -2.25 1.03
5.80 -2.09 1.01
5.86 -1.98 1.01
5.86 -1.85 1.01
5.86 -1.72 1.00
5.86 -1.60 1.00
5.86 -1.47 0.99
5.86 -1.35 0.99
5.86 -1.22 0.98
5.86 -1.10 0.98
5.86 -0.98 0.97
5.86 -0.86 0.97
5.86 -0.74 0.97
5.86 -0.62 0.97
5.86 -0.50 0.96
5.86 -0.38 0.96
5.86 -0.27 0.96
5.86 -0.15 0.96
5.86 -0.03 0.96
4.18 0.06 0.69
4.11 0.14 0.67
4.08 0.23 0.67
4.08 0.31 0.67
4.11 0.39 0.68
4.22 0.49 0.70
5.86 0.80 0.97
5.86 0.92 0.97
5.86 1.04 0.98
5.86 1.16 0.98
5.86 1.28 0.98
5.86 1.41 0.99
5.86 1.53 0.99
5.86 1.66 1.00
5.83 1.78 1.00
5.79 1.89 1.00
5.86 2.05 1.02
5.86 2.18 1.03
5.86 2.31 1.04
5.86 2.45 1.04
5.86 2.59 1.05
5.86 2.73 1.06
5.86 2.88 1.07
5.86 3.02 1.08
5.86 3.17 1.10
5.86 3.33 1.11
5.86 3.49 1.12
5.86 3.65 1.13
2.75 1.79 0.54
2.69 1.83 0.54
5.86 4.16 1.18
5.86 4.33 1.20
5.86 4.52 1.22
5.86 4.71 1.24
5.86 4.91 1.26
5.86 5.11 1.28
5.86 5.32 1.30
5.86 5.54 1.33
5.87 5.78 1.36
5.86 6.00 1.38
5.86 6.25 1.41
5.86 6.51 1.44
5.86 6.78 1.48
5.86 7.06 1.51
5.86 7.35 1.55
5.86 7.66 1.59
5.86 7.99 1.63
5.86 8.34 1.68
5.86 8.70 1.73
5.86 9.09 1.78
5.86 9.51 1.84
5.79 9.83 1.88
5.86 10.42 1.97
5.86 10.93 2.05
5.83 11.43 2.12
5.80 11.95 2.19
5.15 11.18 2.03
4.88 11.18 2.01
5.12 12.40 2.21
5.24 13.45 2.38
4.97 13.56 2.38
4.70 13.65 2.38
4.42 13.74 2.38
4.14 13.83 2.38
3.87 13.91 2.38
3.59 13.98 2.38
3.30 14.05 2.38
3.02 14.11 2.38
2.74 14.17 2.38
2.45 14.22 2.38
2.17 14.26 2.38
1.96 14.92 2.49
1.66 14.96 2.49
1.36 14.99 2.49
1.06 15.01 2.49
0.76 15.03 2.49
0.45 15.04 2.49
0.15 15.04 2.49
-0.15 15.04 2.49
-0.45 15.03 2.49
-0.75 15.02 2.49
-1.05 15.00 2.49
-1.36 14.98 2.49
-1.66 14.94 2.49
-1.95 14.91 2.49
-2.25 14.86 2.49
-2.55 14.82 2.49
-2.85 14.76 2.49
-3.14 14.70 2.49
-3.44 14.63 2.49
-3.73 14.56 2.49
-4.02 14.48 2.49
-4.31 14.40 2.49
-4.60 14.31 2.49
-4.89 14.21 2.49
-5.17 14.11 2.49
-5.45 14.00 2.49
-5.73 13.89 2.49
-5.98 13.71 2.48
-6.02 13.08 2.38
-6.28 12.96 2.38
-6.54 12.83 2.38
-6.80 12.69 2.38
-7.05 12.55 2.38
-7.30 12.41 2.38
-7.55 12.26 2.38
-7.79 12.11 2.38
-8.04 11.95 2.38
-8.27 11.78 2.38
-8.51 11.61 2.38
-7.16 9.38 1.95
-7.31 9.17 1.94
-7.57 9.12 1.96
-9.41 10.89 2.38
-9.63 10.70 2.38
-9.43 10.07 2.28
-9.38 9.62 2.22
-9.51 9.36 2.21
-9.78 9.26 2.23
-9.84 8.94 2.20
-9.84 8.59 2.16
-9.84 8.25 2.13
-9.84 7.92 2.09
-9.84 7.60 2.06
-9.95 7.37 2.05
-10.12 7.18 2.05
-10.35 7.04 2.07
-10.53 6.86 2.08
-10.99 6.84 2.14
-11.63 6.92 2.24
-12.37 7.03 2.36
-12.59 6.82 2.37
-12.87 6.65 2.40
-13.00 6.39 2.40
-12.42 5.79 2.27
-12.51 5.53 2.26
-12.60 5.27 2.26
-12.68 5.01 2.26
-12.76 4.75 2.25
-12.83 4.48 2.25
-12.90 4.22 2.25
-12.96 3.95 2.24
-13.02 3.69 2.24
-13.08 3.42 2.24
-13.13 3.15 2.23
-13.18 2.89 2.23
-13.22 2.62 2.23
-13.26 2.35 2.23
-13.29 2.08 2.23
-13.33 1.82 2.22
-9.47 1.10 1.58
-9.75 0.93 1.62
-9.62 0.72 1.60
-9.46 0.52 1.57
-14.37 0.50 2.38
-14.38 0.22 2.38
-13.44 -0.07 2.22
-13.44 -0.34 2.22
-13.43 -0.61 2.22
-13.42 -0.88 2.22
-13.41 -1.15 2.22
-13.39 -1.42 2.23
-13.37 -1.69 2.23
-13.34 -1.96 2.23
-13.31 -2.23 2.23
-13.27 -2.49 2.23
-13.23 -2.76 2.23
-13.19 -3.03 2.24
-13.14 -3.30 2.24
-13.08 -3.57 2.24
-13.03 -3.83 2.24
-12.96 -4.10 2.25
-12.90 -4.36 2.25
-13.34 -4.82 2.34
-13.15 -5.05 2.33
-13.09 -5.33 2.33
-13.03 -5.61 2.34
-12.96 -5.89 2.35
-12.89 -6.17 2.36
-9.47 -4.77 1.75
-9.37 -4.96 1.75
-10.59 -5.88 2.00
-10.55 -6.14 2.01
-10.09 -6.15 1.95
-9.96 -6.35 1.95
-9.84 -6.55 1.95
-9.84 -6.84 1.98
-9.85 -7.14 2.01
-9.85 -7.45 2.04
-9.85 -7.76 2.07
-9.85 -8.09 2.10
-9.85 -8.43 2.14
-9.85 -8.78 2.17
-9.85 -9.14 2.21
-9.85 -9.51 2.26
-9.85 -9.90 2.30
-9.85 -10.31 2.35
-9.78 -10.66 2.38
-9.57 -10.85 2.38
-9.35 -11.05 2.38
-9.13 -11.23 2.38
-8.90 -11.41 2.38
-8.67 -11.59 2.38
-8.44 -11.76 2.38
-8.20 -11.93 2.38
-7.96 -12.10 2.38
-7.72 -12.25 2.38
-7.47 -12.41 2.38
-7.22 -12.56 2.38
-6.97 -12.70 2.38
-6.71 -12.84 2.38
-6.45 -12.97 2.38
-6.19 -13.10 2.38
-5.97 -13.32 2.40
-5.91 -13.92 2.49
-5.63 -14.04 2.49
-5.34 -14.15 2.49
-5.06 -14.25 2.49
-4.77 -14.35 2.49
-4.48 -14.45 2.49
-4.19 -14.54 2.49
-3.90 -14.62 2.49
-3.61 -14.70 2.49
-3.31 -14.77 2.49
-3.02 -14.83 2.49
-2.72 -14.89 2.49
-2.42 -14.94 2.49
-2.12 -14.99 2.49
-1.82 -15.03 2.49
-1.52 -15.06 2.49
-1.21 -15.09 2.49
-0.91 -15.12 2.49
-0.61 -15.13 2.49
-0.30 -15.14 2.49
0.00 -13.27 2.49
0.27 -13.27 2.49
0.53 -13.26 2.49
0.80 -13.25 2.49
1.07 -13.23 2.49
1.33 -13.21 2.49
1.60 -13.18 2.49
1.86 -13.14 2.49
2.05 -12.65 2.40
2.29 -12.52 2.38
2.54 -12.47 2.38
2.79 -12.42 2.38
3.04 -12.36 2.38
3.29 -12.30 2.38
3.53 -12.23 2.38
3.78 -12.16 2.38
4.02 -12.08 2.38
4.26 -12.00 2.38
4.50 -11.91 2.38
4.74 -11.82 2.38
4.98 -11.72 2.38
5.21 -11.62 2.38
5.44 -11.51 2.38
5.67 -11.40 2.38
5.90 -11.28 2.38
5.80 -10.08 2.18
5.83 -9.69 2.12
5.86 -9.30 2.06
5.86 -8.90 1.99
5.86 -8.52 1.93
5.86 -8.16 1.88
5.86 -7.83 1.83
5.86 -7.51 1.78
5.86 -7.20 1.74
5.86 -6.92 1.70
5.86 -6.64 1.66
5.86 -6.38 1.62
5.81 -6.07 1.57
5.86 -5.89 1.55
5.86 -5.65 1.52
5.86 -5.43 1.49
5.86 -5.22 1.47
5.86 -5.01 1.44
5.86 -4.81 1.42
5.86 -4.62 1.40
5.86 -4.43 1.37
5.86 -4.25 1.35
5.86 -4.07 1.33
5.86 -3.90 1.32
5.86 -3.73 1.30
5.86 -3.57 1.28
5.86 -3.41 1.27
5.86 -3.25 1.25
5.86 -3.10 1.24
5.86 -2.95 1.23
5.86 -2.80 1.22
5.86 -2.66 1.20
5.86 -2.52 1.19
5.86 -2.38 1.18
5.86 -2.25 1.17
5.80 -2.09 1.15
5.86 -1.98 1.16
5.86 -1.85 1.15
5.86 -1.72 1.14
5.86 -1.60 1.14
5.86 -1.47 1.13
5.86 -1.35 1.13
5.86 -1.22 1.12
5.86 -1.10 1.12
5.86 -0.98 1.11
5.86 -0.86 1.11
5.86 -0.74 1.11
5.86 -0.62 1.10
5.86 -0.50 1.10
5.86 -0.38 1.10
5.86 -0.27 1.10
5.86 -0.15 1.10
4.18 -0.02 0.78
4.08 0.06 0.76
4.03 0.14 0.75
4.01 0.22 0.75
4.00 0.30 0.75
4.03 0.38 0.76
4.08 0.47 0.77
5.86 0.80 1.11
5.86 0.92 1.11
5.86 1.04 1.11
5.86 1.16 1.12
5.86 1.28 1.12
5.86 1.41 1.13
5.86 1.53 1.14
5.86 1.66 1.14
5.83 1.78 1.14
5.79 1.89 1.14
5.86 2.05 1.16
5.86 2.18 1.17
5.86 2.31 1.18
5.86 2.45 1.19
5.86 2.59 1.20
5.86 2.73 1.21
5.86 2.88 1.22
5.86 3.02 1.24
5.86 3.17 1.25
5.86 3.33 1.26
5.86 3.49 1.28
5.86 3.65 1.30
2.75 1.79 0.62
2.69 1.83 0.61
5.86 4.16 1.35
5.86 4.33 1.37
5.86 4.52 1.39
5.86 4.71 1.41
5.86 4.91 1.44
5.86 5.11 1.46
5.86 5.32 1.49
5.86 5.54 1.51
5.87 5.78 1.55
5.86 6.00 1.58
5.86 6.25 1.61
5.86 6.51 1.65
5.86 6.77 1.68
5.86 7.06 1.72
5.86 7.35 1.77
5.86 7.66 1.81
5.86 7.99 1.86
5.86 8.34 1.92
5.86 8.70 1.97
5.86 9.09 2.03
5.86 9.50 2.10
5.79 9.83 2.15
11.01 19.58 4.23
5.98 11.16 2.38
5.76 11.28 2.38
5.53 11.39 2.38
5.30 11.50 2.38
4.98 11.42 2.34
4.83 11.70 2.38
4.60 11.80 2.38
4.36 11.88 2.38
4.12 11.97 2.38
3.88 12.05 2.38
3.63 12.12 2.38
3.39 12.19 2.38
3.14 12.26 2.38
2.90 12.32 2.38
2.65 12.37 2.38
2.40 12.42 2.38
2.15 12.46 2.38
1.98 13.05 2.49
1.72 13.08 2.49
1.46 13.11 2.49
1.19 13.14 2.49
0.93 13.16 2.49
0.66 13.17 2.49
0.40 13.18 2.49
0.13 13.19 2.49
-0.13 13.19 2.49
-0.40 13.18 2.49
-0.66 13.17 2.49
-0.92 13.15 2.49
-1.19 13.13 2.49
-1.45 13.10 2.49
-1.71 13.07 2.49
-1.98 13.03 2.49
-2.24 12.99 2.49
-2.50 12.94 2.49
-2.76 12.89 2.49
-3.01 12.83 2.49
-3.27 12.77 2.49
-3.53 12.70 2.49
-3.78 12.62 2.49
-4.03 12.55 2.49
-4.28 12.46 2.49
-4.53 12.37 2.49
-4.78 12.28 2.49
-5.03 12.18 2.49
-5.27 12.08 2.49
-5.51 11.97 2.49
-5.75 11.85 2.49
-5.98 11.73 2.48
-5.99 11.18 2.39
-6.18 11.01 2.38
-6.40 10.88 2.38
-6.62 10.75 2.38
-6.84 10.62 2.38
-7.05 10.48 2.38
-7.26 10.33 2.38
-7.46 10.18 2.38
-7.25 9.49 2.26
-7.35 9.23 2.23
-8.06 9.72 2.38
-8.25 9.55 2.38
-8.44 9.38 2.38
-8.63 9.21 2.38
-8.81 9.04 2.38
-8.99 8.86 2.38
-9.17 8.68 2.38
-9.34 8.49 2.38
-9.51 8.30 2.38
-9.68 8.11 2.38
-9.84 7.91 2.38
-9.84 7.60 2.35
-9.95 7.37 2.34
-10.15 7.20 2.35
-10.32 7.02 2.36
-10.55 6.87 2.38
-10.79 6.72 2.40
-10.92 6.50 2.40
-11.05 6.28 2.40
-10.89 5.90 2.34
-10.99 5.67 2.33
-11.08 5.44 2.33
-11.17 5.21 2.33
-11.25 4.98 2.32
-11.33 4.74 2.32
-11.41 4.51 2.32
-11.48 4.27 2.31
-11.55 4.04 2.31
-11.61 3.80 2.31
-11.67 3.56 2.30
-11.73 3.32 2.30
-11.78 3.08 2.30
-11.83 2.84 2.30
-11.88 2.60 2.29
-11.92 2.36 2.29
-11.95 2.12 2.29
-11.99 1.88 2.29
-12.02 1.64 2.29
-9.48 1.10 1.80
-9.50 0.91 1.80
-9.50 0.72 1.80
-9.48 0.52 1.79
-12.71 0.45 2.40
-12.71 0.19 2.40
-12.10 -0.06 2.28
-12.10 -0.31 2.28
-12.10 -0.55 2.28
-12.09 -0.79 2.28
-12.07 -1.03 2.28
-12.06 -1.28 2.29
-12.03 -1.52 2.29
-12.01 -1.76 2.29
-11.98 -2.00 2.29
-11.95 -2.25 2.29
-11.91 -2.49 2.29
-11.87 -2.73 2.29
-11.82 -2.97 2.30
-11.78 -3.21 2.30
-11.72 -3.45 2.30
-11.67 -3.69 2.30
-11.61 -3.93 2.31
-11.54 -4.17 2.31
-11.47 -4.40 2.31
-11.80 -4.80 2.40
-11.70 -5.04 2.40
-11.60 -5.27 2.40
-11.49 -5.51 2.40
-9.48 -4.78 2.00
-9.38 -4.97 2.00
-10.57 -5.87 2.28
-9.85 -5.73 2.14
-9.85 -6.00 2.17
-9.85 -6.27 2.20
-9.85 -6.56 2.23
-9.85 -6.85 2.26
-9.85 -7.14 2.29
-9.85 -7.45 2.32
-9.85 -7.76 2.36
-9.79 -8.04 2.38
-9.63 -8.24 2.38
-9.46 -8.43 2.38
-9.29 -8.62 2.38
-9.12 -8.81 2.38
-8.94 -8.99 2.38
-8.76 -9.17 2.38
-8.57 -9.34 2.38
-8.39 -9.51 2.38
-8.19 -9.68 2.38
-8.00 -9.84 2.38
-7.80 -10.00 2.38
-7.60 -10.16 2.38
-7.39 -10.31 2.38
-7.19 -10.46 2.38
-6.98 -10.60 2.38
-6.76 -10.74 2.38
-6.55 -10.87 2.38
-6.33 -11.00 2.38
-6.10 -11.13 2.38
-5.97 -11.42 2.42
-5.90 -11.86 2.49
-5.66 -11.98 2.49
-5.42 -12.09 2.49
-5.18 -12.20 2.49
-4.93 -12.30 2.49
-4.68 -12.40 2.49
-4.43 -12.49 2.49
-4.18 -12.58 2.49
-3.93 -12.66 2.49
-3.67 -12.74 2.49
-3.42 -12.81 2.49
-3.16 -12.88 2.49
-2.90 -12.94 2.49
-2.64 -12.99 2.49
-2.38 -13.05 2.49
-2.12 -13.09 2.49
-1.86 -13.13 2.49
-1.59 -13.17 2.49
-1.33 -13.20 2.49
-1.06 -13.22 2.49
-0.80 -13.24 2.49
-0.53 -13.26 2.49
-0.26 -13.27 2.49
0.00 -11.80 2.49
0.24 -11.79 2.49
0.47 -11.79 2.49
0.71 -11.78 2.49
0.95 -11.76 2.49
1.18 -11.74 2.49
1.42 -11.71 2.49
1.65 -11.68 2.49
1.89 -11.65 2.49
2.05 -11.21 2.40
2.26 -11.10 2.39
2.48 -11.04 2.38
2.70 -10.99 2.38
2.92 -10.93 2.38
3.14 -10.87 2.38
3.36 -10.81 2.38
3.57 -10.74 2.38
3.79 -10.66 2.38
4.00 -10.59 2.38
4.21 -10.50 2.38
4.42 -10.42 2.38
4.63 -10.33 2.38
4.84 -10.23 2.38
5.04 -10.13 2.38
5.25 -10.03 2.38
5.45 -9.92 2.38
5.64 -9.81 2.38
5.84 -9.70 2.38
6.03 -9.58 2.38
5.80 -8.44 2.16
5.84 -8.15 2.11
5.86 -7.83 2.06
5.86 -7.51 2.00
5.86 -7.20 1.95
5.86 -6.92 1.91
5.86 -6.64 1.86
5.86 -6.38 1.82
5.81 -6.07 1.77
5.86 -5.89 1.75
5.86 -5.65 1.71
5.86 -5.43 1.68
5.86 -5.22 1.65
5.86 -5.01 1.62
5.86 -4.81 1.60
5.86 -4.62 1.57
5.86 -4.43 1.55
5.86 -4.25 1.52
5.86 -4.07 1.50
5.86 -3.90 1.48
5.86 -3.73 1.46
5.86 -3.57 1.44
5.86 -3.41 1.43
5.86 -3.25 1.41
5.86 -3.10 1.40
5.86 -2.95 1.38
5.86 -2.81 1.37
5.86 -2.66 1.35
5.86 -2.52 1.34
5.86 -2.38 1.33
5.86 -2.25 1.32
5.80 -2.09 1.30
5.86 -1.98 1.30
5.86 -1.85 1.29
5.86 -1.72 1.29
5.86 -1.60 1.28
5.86 -1.47 1.27
5.86 -1.35 1.27
5.86 -1.22 1.26
5.86 -1.10 1.26
5.86 -0.98 1.25
5.86 -0.86 1.25
5.86 -0.74 1.24
5.86 -0.62 1.24
5.86 -0.50 1.24
5.86 -0.38 1.24
5.86 -0.27 1.24
5.86 -0.15 1.23
4.11 -0.02 0.87
4.03 0.06 0.85
3.98 0.14 0.84
3.96 0.22 0.84
3.96 0.30 0.84
3.98 0.38 0.84
4.03 0.47 0.85
4.14 0.56 0.88
5.86 0.92 1.25
5.86 1.04 1.25
5.86 1.16 1.26
5.86 1.28 1.26
5.86 1.41 1.27
5.86 1.53 1.28
5.86 1.66 1.28
5.83 1.78 1.29
5.79 1.89 1.29
5.86 2.05 1.31
5.86 2.18 1.32
5.86 2.31 1.33
5.86 2.45 1.34
5.86 2.59 1.35
5.86 2.73 1.36
5.86 2.88 1.38
5.86 3.02 1.39
5.86 3.17 1.41
5.86 3.33 1.42
5.86 3.48 1.44
5.86 3.65 1.46
2.75 1.79 0.69
2.69 1.83 0.69
5.86 4.16 1.52
5.86 4.33 1.54
5.86 4.52 1.56
5.86 4.71 1.59
5.86 4.91 1.61
5.86 5.11 1.64
5.86 5.32 1.67
5.86 5.54 1.70
5.87 5.78 1.74
5.86 6.00 1.77
5.86 6.25 1.81
5.86 6.51 1.85
5.86 6.77 1.89
5.86 7.06 1.94
5.86 7.35 1.99
5.86 7.66 2.04
5.86 7.99 2.09
5.80 8.26 2.14
5.82 8.66 2.21
11.11 17.25 4.34
5.91 9.59 2.38
5.72 9.71 2.38
5.52 9.82 2.38
5.32 9.93 2.38
5.12 10.03 2.38
4.92 10.13 2.38
4.71 10.23 2.38
4.51 10.32 2.38
4.30 10.41 2.38
4.09 10.49 2.38
3.88 10.57 2.38
3.66 10.64 2.38
3.45 10.71 2.38
3.23 10.78 2.38
3.01 10.84 2.38
2.80 10.90 2.38
2.58 10.95 2.38
2.36 11.00 2.38
2.13 11.05 2.38
1.99 11.57 2.49
1.76 11.60 2.49
1.53 11.64 2.49
1.29 11.66 2.49
1.06 11.69 2.49
0.83 11.70 2.49
0.59 11.72 2.49
0.35 11.73 2.49
0.12 11.73 2.49
-0.12 11.73 2.49
-0.35 11.72 2.49
-0.59 11.71 2.49
-0.82 11.70 2.49
-1.06 11.68 2.49
-1.29 11.66 2.49
-1.52 11.63 2.49
-1.76 11.59 2.49
-1.99 11.56 2.49
-2.22 11.51 2.49
-2.45 11.47 2.49
-2.68 11.41 2.49
-2.91 11.36 2.49
-3.14 11.30 2.49
-3.36 11.23 2.49
-3.59 11.16 2.49
-3.81 11.09 2.49
-4.03 11.01 2.49
-4.25 10.92 2.49
-4.47 10.83 2.49
-4.69 10.74 2.49
-4.90 10.65 2.49
-5.11 10.54 2.49
-5.33 10.44 2.49
-5.53 10.33 2.49
-5.74 10.22 2.49
-5.94 10.10 2.49
-5.98 9.72 2.42
-6.08 9.44 2.38
-6.27 9.32 2.38
-6.45 9.19 2.38
-6.64 9.06 2.38
-6.82 8.92 2.38
-7.00 8.79 2.38
-7.17 8.64 2.38
-7.34 8.50 2.38
-7.51 8.35 2.38
-7.68 8.20 2.38
-7.84 8.04 2.38
-8.00 7.88 2.38
-8.16 7.72 2.38
-8.25 7.50 2.37
-8.40 7.33 2.37
-8.55 7.16 2.37
-8.69 6.99 2.37
-8.89 6.86 2.38
-9.03 6.68 2.38
-9.16 6.50 2.38
-9.29 6.32 2.38
-9.41 6.13 2.38
-9.53 5.94 2.38
-9.65 5.75 2.38
-9.76 5.55 2.38
-9.87 5.35 2.38
-9.97 5.15 2.38
-10.06 4.94 2.38
-10.14 4.73 2.37
-10.22 4.52 2.37
-10.29 4.31 2.37
-10.36 4.09 2.36
-10.43 3.88 2.36
-10.49 3.67 2.36
-10.55 3.45 2.36
-10.61 3.24 2.35
-10.66 3.02 2.35
-10.71 2.80 2.35
-10.75 2.58 2.35
-10.80 2.37 2.34
-10.83 2.15 2.34
-10.87 1.93 2.34
-10.90 1.71 2.34
-10.93 1.49 2.34
-9.48 1.10 2.02
-9.50 0.91 2.02
-9.50 0.72 2.02
-9.48 0.52 2.01
-11.31 0.40 2.40
-11.32 0.17 2.40
-11.01 -0.06 2.33
-11.00 -0.28 2.33
-11.00 -0.50 2.33
-10.99 -0.72 2.33
-10.98 -0.94 2.34
-10.96 -1.16 2.34
-10.94 -1.38 2.34
-10.92 -1.60 2.34
-10.89 -1.82 2.34
-10.86 -2.04 2.34
-10.83 -2.26 2.34
-10.79 -2.48 2.34
-10.75 -2.70 2.35
-10.70 -2.92 2.35
-10.65 -3.13 2.35
-10.60 -3.35 2.35
-10.54 -3.57 2.36
-10.48 -3.78 2.36
-10.42 -4.00 2.36
-10.35 -4.21 2.37
-10.28 -4.43 2.37
-10.32 -4.69 2.40
-10.22 -4.90 2.40
-9.49 -4.79 2.25
-9.39 -4.97 2.25
-9.85 -5.47 2.38
-9.73 -5.67 2.38
-9.62 -5.86 2.38
-9.50 -6.05 2.38
-9.38 -6.24 2.38
-9.25 -6.43 2.38
-9.12 -6.61 2.38
-8.99 -6.80 2.38
-8.85 -6.98 2.38
-8.71 -7.15 2.38
-8.56 -7.33 2.38
-8.42 -7.50 2.38
-8.26 -7.67 2.38
-8.11 -7.83 2.38
-7.95 -7.99 2.38
-7.79 -8.15 2.38
-7.62 -8.31 2.38
-7.46 -8.46 2.38
-7.29 -8.61 2.38
-7.11 -8.75 2.38
-6.94 -8.89 2.38
-6.76 -9.03 2.38
-6.57 -9.17 2.38
-6.39 -9.30 2.38
-6.20 -9.43 2.38
-6.01 -9.55 2.38
-5.97 -9.91 2.44
-5.87 -10.21 2.49
-5.66 -10.32 2.49
-5.45 -10.44 2.49
-5.24 -10.55 2.49
-5.03 -10.65 2.49
-4.82 -10.75 2.49
-4.60 -10.84 2.49
-4.38 -10.94 2.49
-4.16 -11.02 2.49
-3.94 -11.10 2.49
-3.72 -11.18 2.49
-3.49 -11.25 2.49
-3.27 -11.32 2.49
-3.04 -11.39 2.49
-2.81 -11.45 2.49
-2.58 -11.50 2.49
-2.35 -11.55 2.49
-2.12 -11.60 2.49
-1.88 -11.64 2.49
-1.65 -11.67 2.49
-1.42 -11.71 2.49
-1.18 -11.73 2.49
-0.94 -11.76 2.49
-0.71 -11.77 2.49
-0.47 -11.79 2.49
-0.24 -11.79 2.49
0.00 -10.61 2.49
0.21 -10.61 2.49
0.43 -10.60 2.49
0.64 -10.59 2.49
0.85 -10.57 2.49
1.06 -10.56 2.49
1.28 -10.53 2.49
1.49 -10.51 2.49
1.70 -10.47 2.49
1.91 -10.44 2.49
2.05 -10.05 2.40
2.23 -9.93 2.38
2.43 -9.88 2.38
2.63 -9.83 2.38
2.82 -9.77 2.38
3.02 -9.72 2.38
3.21 -9.65 2.38
3.41 -9.59 2.38
3.60 -9.52 2.38
3.79 -9.44 2.38
3.98 -9.37 2.38
4.16 -9.28 2.38
4.35 -9.20 2.38
4.53 -9.11 2.38
4.72 -9.02 2.38
4.90 -8.92 2.38
5.07 -8.82 2.38
5.25 -8.72 2.38
5.42 -8.61 2.38
5.60 -8.50 2.38
5.77 -8.39 2.38
5.93 -8.27 2.38
5.80 -7.13 2.15
5.84 -6.89 2.12
5.86 -6.64 2.07
5.86 -6.38 2.03
5.81 -6.07 1.97
5.86 -5.89 1.94
5.86 -5.65 1.91
5.86 -5.43 1.87
5.86 -5.22 1.84
5.86 -5.01 1.80
5.86 -4.81 1.77
5.86 -4.62 1.75
5.86 -4.43 1.72
5.86 -4.25 1.69
5.86 -4.07 1.67
5.86 -3.90 1.65
5.86 -3.73 1.63
5.86 -3.57 1.61
5.86 -3.41 1.59
5.86 -3.25 1.57
5.86 -3.10 1.55
5.86 -2.95 1.54
5.86 -2.81 1.52
5.86 -2.66 1.51
5.86 -2.52 1.49
5.86 -2.38 1.48
5.86 -2.25 1.47
5.80 -2.09 1.44
5.86 -1.98 1.45
5.86 -1.85 1.44
5.86 -1.72 1.43
5.86 -1.60 1.42
5.86 -1.47 1.41
5.86 -1.35 1.41
5.86 -1.22 1.40
5.86 -1.10 1.40
5.86 -0.98 1.39
5.86 -0.86 1.39
5.86 -0.74 1.38
5.86 -0.62 1.38
5.86 -0.50 1.38
5.86 -0.38 1.38
5.86 -0.27 1.37
5.86 -0.15 1.37
4.10 -0.02 0.96
4.01 0.06 0.94
3.97 0.14 0.93
3.95 0.22 0.93
3.95 0.30 0.93
3.97 0.38 0.93
4.01 0.46 0.95
4.13 0.56 0.98
5.86 0.92 1.39
5.86 1.04 1.39
5.86 1.16 1.40
5.86 1.28 1.41
5.86 1.41 1.41
5.86 1.53 1.42
5.86 1.66 1.43
5.83 1.78 1.43
5.79 1.89 1.43
5.86 2.05 1.46
5.86 2.18 1.47
5.86 2.31 1.48
5.86 2.45 1.49
5.86 2.59 1.50
5.86 2.73 1.52
5.86 2.88 1.53
5.86 3.02 1.55
5.86 3.17 1.56
5.86 3.33 1.58
5.86 3.48 1.60
5.86 3.65 1.62
2.75 1.79 0.77
2.69 1.83 0.76
5.86 4.16 1.69
5.86 4.33 1.71
5.86 4.52 1.74
5.86 4.71 1.77
5.86 4.91 1.79
5.86 5.11 1.83
5.86 5.32 1.86
5.86 5.54 1.89
5.87 5.78 1.93
5.86 6.00 1.97
5.86 6.25 2.01
5.86 6.51 2.06
5.86 6.77 2.10
5.80 6.99 2.14
5.80 7.28 2.19
5.99 8.18 2.38
5.83 8.29 2.38
5.66 8.41 2.38
5.49 8.52 2.38
5.32 8.63 2.38
5.14 8.73 2.38
4.96 8.83 2.38
4.79 8.93 2.38
4.61 9.02 2.38
4.42 9.11 2.38
4.24 9.20 2.38
4.05 9.28 2.38
3.87 9.36 2.38
3.68 9.44 2.38
3.49 9.51 2.38
3.29 9.57 2.38
3.10 9.64 2.38
2.91 9.70 2.38
2.71 9.75 2.38
2.52 9.81 2.38
2.32 9.85 2.38
2.12 9.90 2.38
2.00 10.37 2.49
1.79 10.41 2.49
1.59 10.44 2.49
1.38 10.47 2.49
1.16 10.49 2.49
0.95 10.51 2.49
0.74 10.53 2.49
0.53 10.54 2.49
0.32 10.55 2.49
0.11 10.55 2.49
-0.10 10.55 2.49
-0.32 10.55 2.49
-0.53 10.54 2.49
-0.74 10.53 2.49
-0.95 10.51 2.49
-1.16 10.49 2.49
-1.37 10.46 2.49
-1.58 10.43 2.49
-1.79 10.40 2.49
-2.00 10.36 2.49
-2.21 10.32 2.49
-2.41 10.27 2.49
-2.62 10.22 2.49
-2.82 10.16 2.49
-3.03 10.10 2.49
-3.23 10.04 2.49
-3.43 9.97 2.49
-3.63 9.90 2.49
-3.83 9.83 2.49
-4.02 9.75 2.49
-4.22 9.66 2.49
-4.41 9.58 2.49
-4.60 9.49 2.49
-4.79 9.39 2.49
-4.98 9.29 2.49
-5.16 9.19 2.49
-5.35 9.09 2.49
-5.53 8.98 2.49
-5.71 8.86 2.49
-5.88 8.75 2.49
-5.98 8.52 2.45
-5.99 8.18 2.39
-6.13 8.03 2.38
-6.29 7.91 2.38
-6.45 7.78 2.38
-6.61 7.65 2.38
-6.76 7.51 2.38
-6.91 7.37 2.38
-7.05 7.23 2.38
-7.20 7.09 2.38
-7.34 6.95 2.38
-7.48 6.80 2.38
-7.61 6.64 2.38
-7.74 6.49 2.38
-7.87 6.33 2.38
-8.00 6.17 2.38
-8.12 6.01 2.38
-8.24 5.85 2.38
-8.36 5.68 2.38
-8.47 5.51 2.38
-8.58 5.34 2.38
-8.68 5.17 2.38
-8.79 4.99 2.38
-8.88 4.82 2.38
-8.98 4.64 2.38
-9.07 4.46 2.38
-9.16 4.27 2.38
-9.24 4.09 2.38
-9.32 3.90 2.38
-9.40 3.71 2.38
-9.47 3.53 2.38
-9.54 3.33 2.38
-9.61 3.14 2.38
-9.67 2.95 2.38
-9.73 2.75 2.38
-9.78 2.56 2.38
-9.83 2.36 2.38
-9.88 2.16 2.38
-9.92 1.97 2.38
-9.96 1.77 2.38
-9.99 1.56 2.38
-10.01 1.36 2.38
-9.48 1.10 2.25
-9.50 0.91 2.25
-9.50 0.72 2.25
-9.48 0.52 2.24
-10.18 0.36 2.40
-10.18 0.15 2.40
-10.08 -0.05 2.38
-10.08 -0.25 2.38
-10.08 -0.46 2.38
-10.07 -0.66 2.38
-10.06 -0.86 2.38
-10.04 -1.06 2.38
-10.02 -1.27 2.38
-10.00 -1.47 2.38
-9.97 -1.67 2.38
-9.95 -1.87 2.38
-9.91 -2.07 2.38
-9.86 -2.27 2.38
-9.82 -2.47 2.38
-9.77 -2.66 2.38
-9.71 -2.86 2.38
-9.65 -3.05 2.38
-9.59 -3.25 2.38
-9.52 -3.44 2.38
-9.45 -3.63 2.38
-9.38 -3.82 2.38
-9.30 -4.01 2.38
-9.22 -4.19 2.38
-9.13 -4.38 2.38
-9.04 -4.56 2.38
-8.95 -4.74 2.38
-8.86 -4.92 2.38
-8.76 -5.10 2.38
-8.65 -5.27 2.38
-8.55 -5.44 2.38
-8.43 -5.62 2.38
-8.32 -5.78 2.38
-8.20 -5.95 2.38
-8.08 -6.11 2.38
-7.96 -6.28 2.38
-7.83 -6.43 2.38
-7.70 -6.59 2.38
-7.57 -6.74 2.38
-7.43 -6.90 2.38
-7.29 -7.04 2.38
-7.15 -7.19 2.38
-7.01 -7.33 2.38
-6.86 -7.47 2.38
-6.71 -7.61 2.38
-6.55 -7.74 2.38
-6.40 -7.87 2.38
-6.24 -8.00 2.38
-6.08 -8.12 2.38
-5.97 -8.32 2.41
-5.97 -8.68 2.47
-5.82 -8.84 2.49
-5.64 -8.96 2.49
-5.46 -9.07 2.49
-5.28 -9.18 2.49
-5.09 -9.29 2.49
-4.91 -9.39 2.49
-4.72 -9.48 2.49
-4.53 -9.58 2.49
-4.33 -9.67 2.49
-4.14 -9.75 2.49
-3.94 -9.83 2.49
-3.74 -9.91 2.49
-3.54 -9.99 2.49
-3.34 -10.06 2.49
-3.14 -10.12 2.49
-2.94 -10.18 2.49
-2.73 -10.24 2.49
-2.53 -10.29 2.49
-2.32 -10.34 2.49
-2.11 -10.39 2.49
-1.90 -10.43 2.49
-1.69 -10.47 2.49
-1.48 -10.50 2.49
-1.27 -10.53 2.49
-1.06 -10.55 2.49
-0.85 -10.57 2.49
-0.64 -10.59 2.49
-0.42 -10.60 2.49
-0.21 -10.60 2.49
0.00 -9.63 2.49
0.19 -9.62 2.49
0.39 -9.62 2.49
0.58 -9.61 2.49
0.77 -9.60 2.49
0.97 -9.58 2.49
1.16 -9.56 2.49
1.35 -9.53 2.49
1.54 -9.51 2.49
1.73 -9.47 2.49
1.92 -9.44 2.49
2.05 -9.11 2.41
2.20 -8.96 2.38
2.38 -8.92 2.38
2.56 -8.87 2.38
2.74 -8.82 2.38
2.92 -8.76 2.38
3.09 -8.70 2.38
3.27 -8.64 2.38
3.44 -8.57 2.38
3.61 -8.50 2.38
3.78 -8.43 2.38
3.95 -8.35 2.38
4.11 -8.27 2.38
4.28 -8.18 2.38
4.44 -8.10 2.38
4.60 -8.01 2.38
4.76 -7.91 2.38
4.92 -7.81 2.38
5.08 -7.71 2.38
5.23 -7.61 2.38
5.38 -7.50 2.38
5.53 -7.39 2.38
5.68 -7.28 2.38
5.83 -7.17 2.38
5.97 -7.05 2.38
5.80 -6.07 2.17
5.82 -5.85 2.13
5.86 -5.65 2.10
5.86 -5.43 2.06
5.86 -5.22 2.02
5.86 -5.01 1.99
5.86 -4.81 1.96
5.86 -4.62 1.92
5.86 -4.43 1.89
5.86 -4.25 1.87
5.86 -4.07 1.84
5.86 -3.90 1.82
5.86 -3.73 1.79
5.86 -3.57 1.77
5.86 -3.41 1.75
5.86 -3.25 1.73
5.86 -3.10 1.71
5.86 -2.95 1.69
5.86 -2.81 1.68
5.86 -2.66 1.66
5.86 -2.52 1.65
5.86 -2.38 1.63
5.86 -2.25 1.62
5.80 -2.09 1.59
5.86 -1.98 1.60
5.86 -1.85 1.59
5.86 -1.72 1.58
5.86 -1.60 1.57
5.86 -1.47 1.56
5.86 -1.35 1.55
5.86 -1.22 1.54
5.86 -1.10 1.54
5.86 -0.98 1.53
5.86 -0.86 1.53
5.86 -0.74 1.52
5.86 -0.62 1.52
5.86 -0.50 1.52
5.86 -0.38 1.52
5.86 -0.27 1.51
5.86 -0.15 1.51
4.10 -0.02 1.06
4.01 0.06 1.04
3.97 0.14 1.03
3.95 0.22 1.02
3.95 0.30 1.02
3.97 0.38 1.03
4.01 0.46 1.04
4.13 0.56 1.08
5.86 0.92 1.53
5.86 1.04 1.54
5.86 1.16 1.54
5.86 1.28 1.55
5.86 1.41 1.56
5.86 1.53 1.56
5.86 1.66 1.57
5.83 1.78 1.57
5.79 1.89 1.58
5.86 2.05 1.60
5.86 2.18 1.62
5.86 2.31 1.63
5.86 2.45 1.64
5.86 2.59 1.66
5.86 2.73 1.67
5.86 2.88 1.69
5.86 3.02 1.70
5.86 3.17 1.72
5.86 3.33 1.74
5.86 3.48 1.76
5.86 3.65 1.78
2.75 1.79 0.85
2.69 1.83 0.84
5.86 4.15 1.86
5.86 4.33 1.89
5.86 4.52 1.91
5.86 4.71 1.94
5.86 4.91 1.98
5.86 5.11 2.01
5.86 5.32 2.05
5.86 5.54 2.09
5.83 5.74 2.12
5.80 5.94 2.15
5.82 6.21 2.20
6.02 6.96 2.38
5.88 7.08 2.38
5.73 7.20 2.38
5.59 7.31 2.38
5.44 7.42 2.38
5.29 7.53 2.38
5.14 7.63 2.38
4.98 7.73 2.38
4.83 7.83 2.38
4.67 7.93 2.38
4.51 8.02 2.38
4.34 8.11 2.38
4.18 8.19 2.38
4.02 8.27 2.38
3.85 8.35 2.38
3.68 8.43 2.38
3.51 8.50 2.38
3.34 8.57 2.38
3.17 8.63 2.38
2.99 8.69 2.38
2.82 8.75 2.38
2.64 8.80 2.38
2.46 8.85 2.38
2.28 8.90 2.38
2.10 8.95 2.38
2.01 9.37 2.49
1.82 9.41 2.49
1.63 9.45 2.49
1.44 9.48 2.49
1.25 9.50 2.49
1.06 9.53 2.49
0.87 9.54 2.49
0.67 9.56 2.49
0.48 9.57 2.49
0.29 9.58 2.49
0.10 9.58 2.49
-0.09 9.58 2.49
-0.29 9.58 2.49
-0.48 9.57 2.49
-0.67 9.56 2.49
-0.86 9.54 2.49
-1.05 9.52 2.49
-1.25 9.50 2.49
-1.44 9.47 2.49
-1.63 9.44 2.49
-1.81 9.40 2.49
-2.00 9.37 2.49
-2.19 9.32 2.49
-2.38 9.28 2.49
-2.56 9.23 2.49
-2.75 9.17 2.49
-2.93 9.12 2.49
-3.11 9.06 2.49
-3.29 8.99 2.49
-3.47 8.92 2.49
-3.65 8.85 2.49
-3.83 8.78 2.49
-4.00 8.70 2.49
-4.18 8.61 2.49
-4.35 8.53 2.49
-4.52 8.44 2.49
-4.69 8.35 2.49
-4.86 8.25 2.49
-5.02 8.15 2.49
-5.18 8.05 2.49
-5.34 7.94 2.49
-5.50 7.83 2.49
-5.66 7.72 2.49
-5.81 7.61 2.49
-5.96 7.49 2.49
-5.98 7.21 2.43
-6.00 6.94 2.38
-6.14 6.82 2.38
-6.27 6.70 2.38
-6.41 6.57 2.38
-6.54 6.44 2.38
-6.66 6.31 2.38
-6.79 6.17 2.38
-6.91 6.03 2.38
-7.03 5.89 2.38
-7.15 5.75 2.38
-7.26 5.61 2.38
-7.37 5.46 2.38
-7.48 5.31 2.38
-7.59 5.16 2.38
-7.69 5.01 2.38
-7.79 4.85 2.38
-7.88 4.69 2.38
-7.98 4.53 2.38
-8.07 4.37 2.38
-8.15 4.21 2.38
-8.24 4.05 2.38
-8.32 3.88 2.38
-8.39 3.71 2.38
-8.47 3.54 2.38
-8.53 3.37 2.38
-8.60 3.20 2.38
-8.66 3.03 2.38
-8.72 2.85 2.38
-8.78 2.68 2.38
-8.83 2.50 2.38
-8.88 2.32 2.38
-8.92 2.14 2.38
-8.97 1.96 2.38
-9.00 1.78 2.38
-9.04 1.60 2.38
-9.07 1.42 2.38
-9.10 1.24 2.38
-9.12 1.06 2.38
-9.14 0.87 2.38
-9.16 0.69 2.38
-9.17 0.51 2.38
-9.18 0.32 2.38
-9.18 0.14 2.38
-9.18 -0.05 2.38
-9.18 -0.23 2.38
-9.17 -0.42 2.38
-9.16 -0.60 2.38
-9.15 -0.78 2.38
-9.13 -0.97 2.38
-9.11 -1.15 2.38
-9.09 -1.33 2.38
-9.06 -1.52 2.38
-9.03 -1.70 2.38
-8.99 -1.88 2.38
-8.95 -2.06 2.38
-8.91 -2.24 2.38
-8.87 -2.42 2.38
-8.82 -2.59 2.38
-8.76 -2.77 2.38
-8.71 -2.95 2.38
-8.65 -3.12 2.38
-8.58 -3.29 2.38
-8.51 -3.47 2.38
-8.44 -3.64 2.38
-8.37 -3.81 2.38
-8.29 -3.97 2.38
-8.21 -4.14 2.38
-8.13 -4.30 2.38
-8.04 -4.47 2.38
-7.95 -4.63 2.38
-7.85 -4.79 2.38
-7.76 -4.94 2.38
-7.66 -5.10 2.38
-7.55 -5.25 2.38
-7.45 -5.40 2.38
-7.34 -5.55 2.38
-7.22 -5.70 2.38
-7.11 -5.84 2.38
-6.99 -5.98 2.38
-6.87 -6.12 2.38
-6.75 -6.26 2.38
-6.62 -6.39 2.38
-6.49 -6.53 2.38
-6.36 -6.66 2.38
-6.22 -6.78 2.38
-6.09 -6.91 2.38
-5.97 -7.06 2.39
-5.97 -7.34 2.45
-5.91 -7.58 2.49
-5.75 -7.69 2.49
-5.60 -7.81 2.49
-5.44 -7.92 2.49
-5.28 -8.03 2.49
-5.12 -8.13 2.49
-4.96 -8.23 2.49
-4.79 -8.33 2.49
-4.62 -8.43 2.49
-4.45 -8.52 2.49
-4.28 -8.61 2.49
-4.11 -8.69 2.49
-3.93 -8.77 2.49
-3.76 -8.85 2.49
-3.58 -8.93 2.49
-3.40 -9.00 2.49
-3.22 -9.06 2.49
-3.03 -9.13 2.49
-2.85 -9.19 2.49
-2.67 -9.24 2.49
-2.48 -9.29 2.49
-2.29 -9.34 2.49
-2.11 -9.39 2.49
-1.92 -9.43 2.49
-1.73 -9.47 2.49
-1.54 -9.50 2.49
-1.35 -9.53 2.49
-1.15 -9.55 2.49
-0.96 -9.58 2.49
-0.77 -9.59 2.49
-0.58 -9.61 2.49
-0.38 -9.62 2.49
-0.19 -9.62 2.49
0.00 -8.80 2.49
0.18 -8.80 2.49
0.35 -8.80 2.49
0.53 -8.79 2.49
0.71 -8.78 2.49
0.88 -8.76 2.49
1.06 -8.74 2.49
1.23 -8.72 2.49
1.41 -8.69 2.49
1.58 -8.66 2.49
1.76 -8.63 2.49
1.93 -8.59 2.49
2.05 -8.33 2.42
2.18 -8.16 2.38
2.34 -8.11 2.38
2.50 -8.06 2.38
2.67 -8.01 2.38
2.83 -7.96 2.38
2.99 -7.90 2.38
3.14 -7.84 2.38
3.30 -7.77 2.38
3.46 -7.70 2.38
3.61 -7.63 2.38
3.76 -7.56 2.38
3.91 -7.48 2.38
4.06 -7.40 2.38
4.21 -7.32 2.38
4.36 -7.23 2.38
4.50 -7.15 2.38
4.64 -7.05 2.38
4.78 -6.96 2.38
4.92 -6.86 2.38
5.06 -6.76 2.38
5.19 -6.66 2.38
5.33 -6.55 2.38
5.46 -6.45 2.38
5.59 -6.33 2.38
5.71 -6.22 2.38
5.82 -6.09 2.38
5.96 -5.99 2.38
6.08 -5.87 2.38
5.80 -5.17 2.19
5.80 -4.96 2.15
5.82 -4.78 2.13
5.86 -4.62 2.10
5.86 -4.43 2.07
5.86 -4.25 2.04
5.86 -4.07 2.01
5.86 -3.90 1.99
5.86 -3.73 1.96
5.86 -3.57 1.94
5.86 -3.41 1.91
5.86 -3.25 1.89
5.86 -3.10 1.87
5.86 -2.95 1.85
5.86 -2.81 1.83
5.86 -2.66 1.82
5.86 -2.52 1.80
5.86 -2.38 1.78
5.86 -2.25 1.77
5.80 -2.09 1.74
5.86 -1.98 1.75
5.86 -1.85 1.73
5.86 -1.72 1.72
5.86 -1.60 1.71
5.86 -1.47 1.70
5.86 -1.35 1.70
5.86 -1.22 1.69
5.86 -1.10 1.68
5.86 -0.98 1.68
5.86 -0.86 1.67
5.86 -0.74 1.67
5.86 -0.62 1.66
5.86 -0.50 1.66
5.86 -0.38 1.66
5.86 -0.27 1.66
5.86 -0.15 1.65
4.10 -0.02 1.16
4.01 0.06 1.13
3.97 0.14 1.12
3.95 0.22 1.12
3.95 0.30 1.12
3.97 0.38 1.13
4.01 0.46 1.14
4.13 0.56 1.18
5.86 0.92 1.67
5.86 1.04 1.68
5.86 1.16 1.69
5.86 1.28 1.69
5.86 1.41 1.70
5.86 1.53 1.71
5.86 1.66 1.72
5.83 1.78 1.72
5.79 1.89 1.72
5.86 2.05 1.75
5.86 2.18 1.77
5.86 2.31 1.78
5.86 2.45 1.79
5.86 2.59 1.81
5.86 2.73 1.83
5.86 2.88 1.84
5.86 3.02 1.86
5.86 3.17 1.88
5.86 3.33 1.90
5.86 3.48 1.93
5.86 3.65 1.95
2.75 1.79 0.93
2.69 1.83 0.92
5.86 4.15 2.03
5.86 4.33 2.06
5.86 4.52 2.09
5.83 4.69 2.12
5.80 4.86 2.14
5.80 5.06 2.18
5.87 5.78 2.33
5.88 6.03 2.38
5.76 6.14 2.38
5.63 6.26 2.38
5.51 6.37 2.38
5.38 6.48 2.38
5.24 6.58 2.38
5.11 6.69 2.38
4.98 6.79 2.38
4.84 6.89 2.38
4.70 6.98 2.38
4.56 7.07 2.38
4.41 7.16 2.38
4.27 7.25 2.38
4.12 7.33 2.38
3.97 7.41 2.38
3.82 7.49 2.38
3.67 7.57 2.38
3.52 7.64 2.38
3.37 7.71 2.38
3.21 7.77 2.38
3.05 7.84 2.38
2.90 7.89 2.38
2.74 7.95 2.38
2.58 8.00 2.38
2.41 8.05 2.38
2.27 8.17 2.40
2.09 8.14 2.38
2.01 8.54 2.49
1.84 8.58 2.49
1.66 8.61 2.49
1.49 8.64 2.49
1.32 8.67 2.49
1.14 8.69 2.49
0.97 8.71 2.49
0.79 8.73 2.49
0.62 8.74 2.49
0.44 8.75 2.49
0.27 8.76 2.49
0.09 8.76 2.49
-0.09 8.76 2.49
-0.26 8.76 2.49
-0.44 8.75 2.49
-0.61 8.74 2.49
-0.79 8.73 2.49
-0.96 8.71 2.49
-1.14 8.69 2.49
-1.31 8.66 2.49
-1.49 8.63 2.49
-1.66 8.60 2.49
-1.83 8.57 2.49
-2.00 8.53 2.49
-2.17 8.49 2.49
-2.34 8.44 2.49
-2.51 8.39 2.49
-2.68 8.34 2.49
-2.85 8.28 2.49
-3.01 8.22 2.49
-3.18 8.16 2.49
-3.34 8.10 2.49
-3.50 8.03 2.49
-3.66 7.96 2.49
-3.82 7.88 2.49
-3.98 7.80 2.49
-4.14 7.72 2.49
-4.29 7.64 2.49
-4.44 7.55 2.49
-4.59 7.46 2.49
-4.74 7.36 2.49
-4.89 7.27 2.49
-5.03 7.17 2.49
-5.18 7.06 2.49
-5.32 6.96 2.49
-5.45 6.85 2.49
-5.59 6.74 2.49
-5.73 6.63 2.49
-5.86 6.51 2.49
-5.98 6.39 2.48
-5.98 6.13 2.43
-5.99 5.90 2.39
-6.10 5.77 2.38
-6.21 5.65 2.38
-6.32 5.52 2.38
-6.43 5.39 2.38
-6.54 5.26 2.38
-6.64 5.13 2.38
-6.75 4.99 2.38
-6.84 4.86 2.38
-6.94 4.72 2.38
-7.03 4.58 2.38
-7.13 4.44 2.38
-7.21 4.29 2.38
-7.30 4.15 2.38
-7.38 4.00 2.38
-7.46 3.85 2.38
-7.53 3.70 2.38
-7.61 3.55 2.38
-7.68 3.40 2.38
-7.74 3.24 2.38
-7.81 3.09 2.38
-7.87 2.93 2.38
-7.93 2.77 2.38
-7.98 2.61 2.38
-8.03 2.45 2.38
-8.08 2.29 2.38
-8.12 2.12 2.38
-8.16 1.96 2.38
-8.20 1.80 2.38
-8.24 1.63 2.38
-8.27 1.47 2.38
-8.30 1.30 2.38
-8.32 1.13 2.38
-8.34 0.97 2.38
-8.36 0.80 2.38
-8.38 0.63 2.38
-8.39 0.46 2.38
-8.39 0.29 2.38
-8.40 0.13 2.38
-8.40 -0.04 2.38
-8.40 -0.21 2.38
-8.39 -0.38 2.38
-8.38 -0.55 2.38
-8.37 -0.72 2.38
-8.36 -0.89 2.38
-8.34 -1.05 2.38
-8.31 -1.22 2.38
-8.29 -1.39 2.38
-8.26 -1.55 2.38
-8.23 -1.72 2.38
-8.19 -1.88 2.38
-8.15 -2.05 2.38
-8.11 -2.21 2.38
-8.06 -2.37 2.38
-8.02 -2.54 2.38
-7.96 -2.70 2.38
-7.91 -2.86 2.38
-7.85 -3.01 2.38
-7.79 -3.17 2.38
-7.72 -3.33 2.38
-7.66 -3.48 2.38
-7.58 -3.63 2.38
-7.51 -3.79 2.38
-7.43 -3.94 2.38
-7.35 -4.08 2.38
-7.27 -4.23 2.38
-7.18 -4.38 2.38
-7.10 -4.52 2.38
-7.00 -4.66 2.38
-6.91 -4.80 2.38
-6.81 -4.94 2.38
-6.71 -5.08 2.38
-6.61 -5.21 2.38
-6.50 -5.34 2.38
-6.39 -5.47 2.38
-6.28 -5.60 2.38
-6.17 -5.73 2.38
-6.05 -5.85 2.38
-5.97 -6.00 2.40
-5.97 -6.25 2.45
-5.94 -6.47 2.49
-5.81 -6.59 2.49
-5.68 -6.71 2.49
-5.54 -6.82 2.49
-5.40 -6.93 2.49
-5.26 -7.04 2.49
-5.12 -7.14 2.49
-4.98 -7.24 2.49
-4.83 -7.34 2.49
-4.68 -7.44 2.49
-4.53 -7.53 2.49
-4.38 -7.62 2.49
-4.23 -7.71 2.49
-4.07 -7.79 2.49
-3.91 -7.87 2.49
-3.76 -7.95 2.49
-3.60 -8.02 2.49
-3.43 -8.09 2.49
-3.27 -8.16 2.49
-3.11 -8.23 2.49
-2.94 -8.29 2.49
-2.77 -8.35 2.49
-2.61 -8.40 2.49
-2.44 -8.45 2.49
-2.27 -8.50 2.49
-2.10 -8.54 2.49
-1.93 -8.58 2.49
-1.75 -8.62 2.49
-1.58 -8.66 2.49
-1.41 -8.69 2.49
-1.23 -8.71 2.49
-1.06 -8.74 2.49
-0.88 -8.76 2.49
-0.70 -8.77 2.49
-0.53 -8.79 2.49
-0.35 -8.79 2.49
-0.18 -8.80 2.49
0.00 -8.10 2.49
0.16 -8.10 2.49
0.33 -8.09 2.49
0.49 -8.09 2.49
0.65 -8.08 2.49
0.81 -8.06 2.49
0.97 -8.04 2.49
1.14 -8.02 2.49
1.30 -8.00 2.49
1.46 -7.97 2.49
1.62 -7.94 2.49
1.78 -7.91 2.49
1.93 -7.87 2.49
2.05 -7.66 2.43
2.16 -7.46 2.38
2.31 -7.42 2.38
2.45 -7.37 2.38
2.60 -7.32 2.38
2.75 -7.27 2.38
2.89 -7.21 2.38
3.04 -7.15 2.38
3.18 -7.09 2.38
3.32 -7.02 2.38
3.46 -6.96 2.38
3.60 -6.89 2.38
3.74 -6.81 2.38
3.87 -6.74 2.38
4.01 -6.66 2.38
4.14 -6.58 2.38
4.27 -6.49 2.38
4.40 -6.40 2.38
4.53 -6.31 2.38
4.66 -6.22 2.38
4.78 -6.13 2.38
4.90 -6.03 2.38
5.02 -5.93 2.38
5.14 -5.83 2.38
5.26 -5.72 2.38
5.37 -5.62 2.38
5.48 -5.51 2.38
5.59 -5.40 2.38
5.70 -5.28 2.38
5.80 -5.17 2.38
5.91 -5.05 2.38
6.01 -4.93 2.38
5.82 -4.22 2.21
5.80 -4.03 2.17
5.80 -3.86 2.14
5.83 -3.71 2.12
5.86 -3.57 2.10
5.86 -3.41 2.08
5.86 -3.25 2.05
5.86 -3.10 2.03
5.86 -2.95 2.01
5.86 -2.81 1.99
5.86 -2.66 1.97
5.86 -2.52 1.96
5.86 -2.38 1.94
5.86 -2.25 1.92
5.80 -2.09 1.89
5.86 -1.98 1.90
5.86 -1.85 1.88
5.86 -1.72 1.87
5.86 -1.60 1.86
5.86 -1.47 1.85
5.86 -1.35 1.84
5.86 -1.22 1.84
5.86 -1.10 1.83
5.86 -0.98 1.82
5.86 -0.86 1.82
5.86 -0.74 1.81
5.86 -0.62 1.81
5.86 -0.50 1.80
5.86 -0.38 1.80
5.86 -0.27 1.80
5.86 -0.15 1.80
4.10 -0.02 1.26
4.01 0.06 1.23
3.97 0.14 1.22
3.95 0.22 1.21
3.95 0.30 1.22
3.97 0.38 1.22
4.01 0.46 1.24
4.13 0.56 1.28
5.86 0.92 1.82
5.86 1.04 1.83
5.86 1.16 1.83
5.86 1.28 1.84
5.86 1.41 1.85
5.86 1.53 1.86
5.86 1.66 1.87
5.83 1.78 1.87
5.79 1.89 1.87
5.86 2.05 1.91
5.86 2.18 1.92
5.86 2.31 1.93
5.86 2.45 1.95
5.86 2.59 1.97
5.86 2.73 1.99
5.86 2.88 2.00
5.86 3.02 2.03
5.86 3.17 2.05
5.86 3.33 2.07
5.86 3.48 2.09
5.84 3.63 2.11
2.75 1.79 1.01
2.69 1.83 1.00
5.80 4.11 2.19
6.04 4.86 2.38
5.94 4.98 2.38
5.84 5.10 2.38
5.74 5.21 2.38
5.63 5.33 2.38
5.52 5.44 2.38
5.41 5.55 2.38
5.30 5.65 2.38
5.18 5.76 2.38
5.07 5.86 2.38
4.95 5.96 2.38
4.83 6.06 2.38
4.70 6.15 2.38
4.58 6.25 2.38
4.45 6.34 2.38
4.32 6.43 2.38
4.19 6.51 2.38
4.06 6.59 2.38
3.93 6.67 2.38
3.79 6.75 2.38
3.66 6.82 2.38
3.52 6.90 2.38
3.38 6.96 2.38
3.24 7.03 2.38
3.10 7.09 2.38
2.95 7.15 2.38
2.81 7.21 2.38
2.67 7.27 2.38
2.52 7.32 2.38
2.37 7.37 2.38
2.22 7.41 2.38
2.08 7.47 2.39
2.01 7.82 2.49
1.85 7.86 2.49
1.69 7.89 2.49
1.53 7.93 2.49
1.37 7.95 2.49
1.21 7.98 2.49
1.05 8.00 2.49
0.89 8.02 2.49
0.73 8.04 2.49
0.57 8.05 2.49
0.41 8.06 2.49
0.24 8.07 2.49
0.08 8.07 2.49
-0.08 8.07 2.49
-0.24 8.06 2.49
-0.40 8.06 2.49
-0.56 8.05 2.49
-0.73 8.03 2.49
-0.89 8.02 2.49
-1.05 8.00 2.49
-1.21 7.97 2.49
-1.37 7.95 2.49
-1.53 7.92 2.49
-1.69 7.89 2.49
-1.84 7.85 2.49
-2.00 7.81 2.49
-2.16 7.77 2.49
-2.31 7.73 2.49
-2.47 7.68 2.49
-2.62 7.63 2.49
-2.77 7.57 2.49
-2.93 7.51 2.49
-3.08 7.45 2.49
-3.22 7.39 2.49
-3.37 7.32 2.49
-3.52 7.25 2.49
-3.66 7.18 2.49
-3.81 7.11 2.49
-3.95 7.03 2.49
-4.09 6.95 2.49
-4.23 6.86 2.49
-4.36 6.78 2.49
-4.50 6.69 2.49
-4.63 6.60 2.49
-4.76 6.50 2.49
-4.89 6.41 2.49
-5.02 6.31 2.49
-5.15 6.20 2.49
-5.27 6.10 2.49
-5.39 5.99 2.49
-5.51 5.88 2.49
-5.63 5.77 2.49
-5.74 5.66 2.49
-5.86 5.54 2.49
-5.97 5.42 2.49
-5.98 5.22 2.45
-5.99 5.02 2.41
-6.02 4.84 2.38
-6.12 4.72 2.38
-6.21 4.60 2.38
-6.30 4.47 2.38
-6.39 4.34 2.38
-6.48 4.22 2.38
-6.56 4.09 2.38
-6.64 3.95 2.38
-6.72 3.82 2.38
-6.79 3.68 2.38
-6.87 3.55 2.38
-6.94 3.41 2.38
-7.00 3.27 2.38
-7.07 3.13 2.38
-7.13 2.98 2.38
-7.19 2.84 2.38
-7.24 2.70 2.38
-7.30 2.55 2.38
-7.35 2.40 2.38
-7.39 2.25 2.38
-7.44 2.11 2.38
-7.48 1.96 2.38
-7.52 1.81 2.38
-7.55 1.65 2.38
-7.58 1.50 2.38
-7.61 1.35 2.38
-7.64 1.20 2.38
-7.66 1.04 2.38
-7.68 0.89 2.38
-7.70 0.73 2.38
-7.71 0.58 2.38
-7.72 0.43 2.38
-7.73 0.27 2.38
-7.73 0.12 2.38
-7.73 -0.04 2.38
-7.73 -0.20 2.38
-7.73 -0.35 2.38
-7.72 -0.51 2.38
-7.71 -0.66 2.38
-7.69 -0.82 2.38
-7.67 -0.97 2.38
-7.65 -1.12 2.38
-7.63 -1.28 2.38
-7.60 -1.43 2.38
-7.57 -1.58 2.38
-7.54 -1.73 2.38
-7.50 -1.89 2.38
-7.47 -2.04 2.38
-7.42 -2.19 2.38
-7.38 -2.33 2.38
-7.33 -2.48 2.38
-7.28 -2.63 2.38
-7.23 -2.77 2.38
-7.17 -2.92 2.38
-7.11 -3.06 2.38
-7.05 -3.20 2.38
-6.98 -3.35 2.38
-6.91 -3.49 2.38
-6.84 -3.62 2.38
-6.77 -3.76 2.38
-6.69 -3.90 2.38
-6.61 -4.03 2.38
-6.53 -4.16 2.38
-6.45 -4.29 2.38
-6.36 -4.42 2.38
-6.27 -4.55 2.38
-6.18 -4.67 2.38
-6.08 -4.80 2.38
-5.99 -4.92 2.39
-5.98 -5.12 2.42
-5.98 -5.33 2.46
-5.93 -5.50 2.49
-5.81 -5.62 2.49
-5.70 -5.73 2.49
-5.58 -5.85 2.49
-5.47 -5.96 2.49
-5.35 -6.07 2.49
-5.22 -6.17 2.49
-5.10 -6.28 2.49
-4.97 -6.38 2.49
-4.84 -6.48 2.49
-4.71 -6.57 2.49
-4.58 -6.67 2.49
-4.45 -6.76 2.49
-4.31 -6.85 2.49
-4.17 -6.93 2.49
-4.03 -7.01 2.49
-3.89 -7.09 2.49
-3.75 -7.17 2.49
-3.60 -7.24 2.49
-3.46 -7.32 2.49
-3.31 -7.38 2.49
-3.16 -7.45 2.49
-3.01 -7.51 2.49
-2.86 -7.57 2.49
-2.71 -7.63 2.49
-2.55 -7.68 2.49
-2.40 -7.73 2.49
-2.24 -7.78 2.49
-2.09 -7.82 2.49
-1.93 -7.86 2.49
-1.77 -7.90 2.49
-1.61 -7.93 2.49
-1.45 -7.97 2.49
-1.29 -7.99 2.49
-1.13 -8.02 2.49
-0.97 -8.04 2.49
-0.81 -8.06 2.49
-0.65 -8.07 2.49
-0.49 -8.08 2.49
-0.32 -8.09 2.49
-0.16 -8.10 2.49
0.00 -7.49 2.49
0.15 -7.49 2.49
0.30 -7.49 2.49
0.45 -7.48 2.49
0.60 -7.47 2.49
0.75 -7.46 2.49
0.90 -7.44 2.49
1.05 -7.42 2.49
1.20 -7.40 2.49
1.35 -7.37 2.49
1.50 -7.35 2.49
1.64 -7.32 2.49
1.79 -7.28 2.49
1.94 -7.24 2.49
2.05 -7.09 2.45
2.13 -6.86 2.38
2.27 -6.82 2.38
2.41 -6.77 2.38
2.54 -6.72 2.38
2.68 -6.67 2.38
2.81 -6.62 2.38
2.94 -6.56 2.38
3.07 -6.50 2.38
3.20 -6.44 2.38
3.33 -6.37 2.38
3.46 -6.30 2.38
3.58 -6.23 2.38
3.71 -6.16 2.38
3.83 -6.08 2.38
3.95 -6.00 2.38
4.07 -5.92 2.38
4.19 -5.84 2.38
4.31 -5.76 2.38
4.42 -5.67 2.38
4.53 -5.58 2.38
4.65 -5.49 2.38
4.76 -5.39 2.38
4.86 -5.30 2.38
4.97 -5.20 2.38
5.07 -5.10 2.38
5.17 -4.99 2.38
5.27 -4.89 2.38
5.37 -4.78 2.38
5.46 -4.67 2.38
5.56 -4.56 2.38
5.65 -4.45 2.38
5.73 -4.34 2.38
5.82 -4.22 2.38
5.90 -4.10 2.38
5.98 -3.98 2.38
6.06 -3.86 2.38
5.83 -3.24 2.21
5.80 -3.07 2.18
5.80 -2.92 2.15
5.81 -2.78 2.13
5.83 -2.65 2.12
5.85 -2.52 2.11
5.86 -2.38 2.10
5.86 -2.25 2.08
5.80 -2.09 2.04
5.86 -1.98 2.05
5.86 -1.85 2.04
5.86 -1.72 2.02
5.86 -1.60 2.01
5.86 -1.47 2.00
5.86 -1.35 1.99
5.86 -1.22 1.98
5.86 -1.10 1.98
5.86 -0.98 1.97
5.86 -0.86 1.96
5.86 -0.74 1.96
5.86 -0.62 1.95
5.86 -0.50 1.95
5.86 -0.38 1.95
4.11 -0.19 1.37
5.86 -0.15 1.94
4.10 -0.02 1.36
4.01 0.06 1.33
3.97 0.14 1.32
3.95 0.22 1.31
3.95 0.30 1.31
3.97 0.38 1.32
4.01 0.46 1.34
4.13 0.56 1.38
5.86 0.92 1.97
5.86 1.04 1.97
5.86 1.16 1.98
5.86 1.28 1.99
5.86 1.41 2.00
5.86 1.53 2.01
5.86 1.66 2.02
5.83 1.78 2.02
5.79 1.89 2.02
5.86 2.05 2.06
5.86 2.18 2.07
5.86 2.31 2.09
5.86 2.45 2.11
5.83 2.58 2.12
5.81 2.71 2.13
5.80 2.85 2.15
5.80 2.99 2.17
5.80 3.14 2.19
2.75 1.79 1.09
2.69 1.83 1.08
5.85 4.15 2.38
5.77 4.27 2.38
5.68 4.38 2.38
5.59 4.49 2.38
5.50 4.61 2.38
5.40 4.71 2.38
5.31 4.82 2.38
5.21 4.93 2.38
5.11 5.03 2.38
5.01 5.13 2.38
4.90 5.23 2.38
4.80 5.33 2.38
4.69 5.42 2.38
4.58 5.52 2.38
4.47 5.61 2.38
4.35 5.69 2.38
4.24 5.78 2.38
4.12 5.86 2.38
4.00 5.95 2.38
3.88 6.02 2.38
3.76 6.10 2.38
3.64 6.17 2.38
3.51 6.25 2.38
3.39 6.31 2.38
3.26 6.38 2.38
3.13 6.44 2.38
3.00 6.51 2.38
2.87 6.56 2.38
2.73 6.62 2.38
2.60 6.67 2.38
2.47 6.72 2.38
2.33 6.77 2.38
2.19 6.82 2.38
2.07 6.91 2.40
2.00 7.20 2.49
1.86 7.24 2.49
1.71 7.27 2.49
1.56 7.30 2.49
1.42 7.33 2.49
1.27 7.36 2.49
1.12 7.38 2.49
0.97 7.41 2.49
0.82 7.42 2.49
0.68 7.44 2.49
0.53 7.45 2.49
0.38 7.46 2.49
0.23 7.46 2.49
0.08 7.47 2.49
-0.07 7.47 2.49
-0.22 7.46 2.49
-0.37 7.46 2.49
-0.52 7.45 2.49
-0.67 7.44 2.49
-0.82 7.42 2.49
-0.97 7.40 2.49
-1.12 7.38 2.49
-1.27 7.36 2.49
-1.41 7.33 2.49
-1.56 7.30 2.49
-1.71 7.27 2.49
-1.85 7.23 2.49
-2.00 7.19 2.49
-2.14 7.15 2.49
-2.28 7.10 2.49
-2.43 7.06 2.49
-2.57 7.01 2.49
-2.71 6.95 2.49
-2.85 6.90 2.49
-2.98 6.84 2.49
-3.12 6.78 2.49
-3.26 6.71 2.49
-3.39 6.65 2.49
-3.52 6.58 2.49
-3.65 6.51 2.49
-3.78 6.43 2.49
-3.91 6.35 2.49
-4.04 6.27 2.49
-4.16 6.19 2.49
-4.29 6.11 2.49
-4.41 6.02 2.49
-4.53 5.93 2.49
-4.65 5.84 2.49
-4.76 5.74 2.49
-4.88 5.65 2.49
-4.99 5.55 2.49
-5.10 5.44 2.49
-5.21 5.34 2.49
-5.31 5.24 2.49
-5.42 5.13 2.49
-5.52 5.02 2.49
-5.62 4.91 2.49
-5.72 4.79 2.49
-5.81 4.68 2.49
-5.91 4.56 2.49
-5.98 4.43 2.48
-5.98 4.25 2.44
-5.99 4.07 2.41
-5.99 3.90 2.38
-6.07 3.78 2.38
-6.15 3.66 2.38
-6.22 3.53 2.38
-6.29 3.41 2.38
-6.35 3.28 2.38
-6.42 3.15 2.38
-6.48 3.02 2.38
-6.54 2.89 2.38
-6.60 2.76 2.38
-6.65 2.63 2.38
-6.70 2.49 2.38
-6.75 2.36 2.38
-6.80 2.22 2.38
-6.84 2.09 2.38
-6.88 1.95 2.38
-6.92 1.81 2.38
-6.96 1.67 2.38
-6.99 1.53 2.38
-7.02 1.39 2.38
-7.04 1.25 2.38
-7.07 1.11 2.38
-7.09 0.97 2.38
-7.11 0.82 2.38
-7.12 0.68 2.38
-7.14 0.54 2.38
-7.14 0.39 2.38
-7.15 0.25 2.38
-7.16 0.11 2.38
-7.16 -0.04 2.38
-7.15 -0.18 2.38
-7.15 -0.32 2.38
-7.14 -0.47 2.38
-7.13 -0.61 2.38
-7.12 -0.75 2.38
-7.10 -0.90 2.38
-7.08 -1.04 2.38
-7.06 -1.18 2.38
-7.04 -1.32 2.38
-7.01 -1.46 2.38
-6.98 -1.60 2.38
-6.94 -1.74 2.38
-6.91 -1.88 2.38
-6.87 -2.02 2.38
-6.83 -2.16 2.38
-6.78 -2.30 2.38
-6.74 -2.43 2.38
-6.69 -2.57 2.38
-6.63 -2.70 2.38
-6.58 -2.83 2.38
-6.52 -2.97 2.38
-6.46 -3.10 2.38
-6.40 -3.23 2.38
-6.33 -3.35 2.38
-6.26 -3.48 2.38
-6.19 -3.60 2.38
-6.12 -3.73 2.38
-6.04 -3.85 2.38
-5.99 -3.99 2.39
-5.98 -4.16 2.42
-5.98 -4.34 2.46
-5.96 -4.51 2.49
-5.87 -4.63 2.49
-5.78 -4.75 2.49
-5.68 -4.86 2.49
-5.58 -4.98 2.49
-5.48 -5.09 2.49
-5.38 -5.20 2.49
-5.27 -5.30 2.49
-5.17 -5.41 2.49
-5.06 -5.51 2.49
-4.95 -5.61 2.49
-4.83 -5.71 2.49
-4.72 -5.81 2.49
-4.60 -5.90 2.49
-4.48 -5.99 2.49
-4.36 -6.08 2.49
-4.24 -6.17 2.49
-4.11 -6.25 2.49
-3.99 -6.33 2.49
-3.86 -6.41 2.49
-3.73 -6.49 2.49
-3.60 -6.56 2.49
-3.47 -6.63 2.49
-3.33 -6.70 2.49
-3.20 -6.77 2.49
-3.06 -6.83 2.49
-2.92 -6.89 2.49
-2.79 -6.95 2.49
-2.65 -7.01 2.49
-2.50 -7.06 2.49
-2.36 -7.11 2.49
-2.22 -7.15 2.49
-2.08 -7.20 2.49
-1.93 -7.24 2.49
-1.79 -7.27 2.49
-1.64 -7.31 2.49
-1.49 -7.34 2.49
-1.34 -7.37 2.49
-1.20 -7.40 2.49
-1.05 -7.42 2.49
-0.90 -7.44 2.49
-0.75 -7.46 2.49
-0.60 -7.47 2.49
-0.45 -7.48 2.49
-0.30 -7.49 2.49
-0.15 -7.49 2.49
0.00 -6.97 2.49
0.14 -6.96 2.49
0.28 -6.96 2.49
0.42 -6.95 2.49
0.56 -6.94 2.49
0.70 -6.93 2.49
0.84 -6.92 2.49
0.98 -6.90 2.49
1.12 -6.88 2.49
1.25 -6.85 2.49
1.39 -6.83 2.49
1.53 -6.80 2.49
1.66 -6.77 2.49
1.80 -6.73 2.49
1.93 -6.70 2.49
2.05 -6.60 2.46
2.11 -6.34 2.38
2.24 -6.29 2.38
2.36 -6.25 2.38
2.49 -6.20 2.38
2.61 -6.15 2.38
2.73 -6.10 2.38
2.86 -6.04 2.38
2.98 -5.98 2.38
3.10 -5.92 2.38
3.21 -5.86 2.38
3.33 -5.79 2.38
3.45 -5.72 2.38
3.56 -5.65 2.38
3.67 -5.58 2.38
3.79 -5.51 2.38
3.89 -5.43 2.38
4.00 -5.35 2.38
4.11 -5.27 2.38
4.21 -5.18 2.38
4.32 -5.10 2.38
4.42 -5.01 2.38
4.52 -4.92 2.38
4.62 -4.83 2.38
4.71 -4.74 2.38
4.81 -4.64 2.38
4.90 -4.54 2.38
4.99 -4.44 2.38
5.08 -4.34 2.38
5.16 -4.24 2.38
5.25 -4.14 2.38
5.33 -4.03 2.38
5.41 -3.92 2.38
5.49 -3.81 2.38
5.56 -3.70 2.38
5.64 -3.59 2.38
5.71 -3.48 2.38
5.77 -3.36 2.38
5.84 -3.24 2.38
5.90 -3.13 2.38
5.97 -3.01 2.38
6.03 -2.89 2.38
6.08 -2.76 2.38
5.80 -2.09 2.20
5.80 -1.96 2.18
5.80 -1.83 2.17
5.80 -1.71 2.16
5.80 -1.58 2.14
5.80 -1.46 2.14
5.81 -1.34 2.13
5.82 -1.22 2.12
5.83 -1.10 2.12
5.84 -0.98 2.11
5.86 -0.86 2.11
5.86 -0.74 2.11
5.86 -0.62 2.10
5.86 -0.50 2.10
5.86 -0.38 2.09
5.86 -0.27 2.09
5.86 -0.15 2.09
4.10 -0.02 1.46
4.01 0.06 1.43
3.97 0.14 1.42
3.95 0.22 1.41
3.95 0.30 1.41
3.97 0.38 1.42
4.01 0.46 1.44
4.13 0.56 1.49
5.84 0.92 2.11
5.84 1.03 2.12
5.83 1.15 2.12
5.82 1.27 2.13
5.81 1.39 2.13
5.80 1.52 2.14
5.80 1.64 2.15
5.83 1.78 2.18
5.79 1.89 2.18
5.81 2.03 2.20
6.05 2.82 2.38
