ply
format ascii 1.0
element vertex 2690
property float32 x
property float32 y
property float32 z
end_header
18.66 21.62 -3.17
18.49 22.31 -3.21
18.31 23.02 -3.26
18.35 24.06 -3.35
18.25 24.95 -3.41
18.46 26.33 -3.55
18.74 27.90 -3.70
18.87 29.34 -3.84
19.46 31.65 -4.08
19.42 33.04 -4.21
19.34 34.47 -4.34
20.15 37.68 -4.68
20.53 40.31 -4.95
6.44 14.00 -1.68
6.19 14.21 -1.69
7.55 25.26 -2.85
2.31 9.05 -1.01
7.98 46.52 -5.07
-14.24 29.30 -3.37
-13.44 26.31 -3.05
-13.49 25.14 -2.94
-13.67 24.31 -2.87
-14.15 24.01 -2.87
-14.63 23.72 -2.87
-14.80 22.96 -2.81
-14.93 22.17 -2.74
-15.03 21.38 -2.68
-15.02 20.48 -2.60
-15.19 19.87 -2.56
-15.20 19.06 -2.49
-15.21 18.32 -2.43
-15.28 17.66 -2.38
-15.26 16.94 -2.33
-15.22 16.23 -2.27
-15.09 15.46 -2.20
-15.05 14.81 -2.15
-14.96 14.15 -2.09
-14.75 13.39 -2.02
-14.62 12.76 -1.97
-14.61 12.24 -1.93
-14.61 11.75 -1.90
-14.62 11.27 -1.87
-14.62 10.82 -1.84
-14.61 10.36 -1.81
-14.54 9.88 -1.78
-14.45 9.41 -1.74
-14.37 8.95 -1.71
-14.30 8.51 -1.68
-14.27 8.11 -1.66
-14.21 7.70 -1.63
-14.14 7.30 -1.60
-14.12 6.93 -1.59
-11.53 5.38 -1.28
-11.25 4.98 -1.24
-11.39 4.77 -1.24
-14.00 5.53 -1.51
-13.96 5.19 -1.50
-13.91 4.86 -1.48
-13.87 4.54 -1.47
-13.83 4.22 -1.45
-13.78 3.90 -1.44
-13.72 3.59 -1.43
-13.69 3.29 -1.42
-13.67 3.00 -1.41
-13.64 2.70 -1.40
-13.62 2.42 -1.39
-13.59 2.13 -1.38
-13.57 1.85 -1.38
-13.55 1.57 -1.37
-13.52 1.29 -1.37
-13.53 1.02 -1.36
-13.53 0.75 -1.36
-13.54 0.48 -1.36
-13.54 0.21 -1.36
-13.55 -0.07 -1.36
-13.57 -0.34 -1.37
-13.60 -0.61 -1.37
-13.61 -0.89 -1.37
-13.62 -1.16 -1.38
-13.62 -1.44 -1.38
-13.63 -1.72 -1.38
-13.64 -2.00 -1.39
-13.62 -2.27 -1.39
-13.61 -2.55 -1.40
-13.59 -2.83 -1.40
-13.59 -3.12 -1.41
-13.59 -3.41 -1.42
-13.59 -3.70 -1.42
-13.60 -3.99 -1.43
-13.60 -4.30 -1.44
-13.61 -4.60 -1.46
-13.62 -4.91 -1.47
-13.64 -5.23 -1.48
-13.65 -5.55 -1.50
-13.67 -5.88 -1.51
-13.75 -6.24 -1.54
-13.91 -6.66 -1.57
-13.97 -7.03 -1.59
-14.00 -7.40 -1.61
-14.03 -7.78 -1.64
-14.05 -8.16 -1.66
-13.99 -8.51 -1.67
-13.94 -8.87 -1.69
-13.91 -9.25 -1.71
-13.88 -9.63 -1.73
-13.84 -10.03 -1.75
-13.81 -10.43 -1.78
-13.79 -10.85 -1.80
-13.78 -11.30 -1.83
-13.80 -11.79 -1.87
-13.86 -12.33 -1.91
-14.01 -12.98 -1.97
-14.20 -13.69 -2.04
-14.42 -14.47 -2.11
-14.51 -15.17 -2.17
-14.58 -15.86 -2.23
-14.70 -16.65 -2.30
-14.68 -17.31 -2.36
-14.65 -18.00 -2.41
-7.24 -9.27 -1.22
-14.61 -19.51 -2.54
-14.63 -20.36 -2.62
-14.77 -21.46 -2.72
-15.13 -22.96 -2.88
-16.04 -25.42 -3.15
-16.09 -26.68 -3.27
-15.76 -27.36 -3.32
-15.43 -28.08 -3.37
5.83 -16.44 -1.54
6.19 -16.40 -1.54
18.95 -30.12 -3.18
18.15 -27.60 -2.95
16.80 -24.47 -2.65
16.20 -22.61 -2.49
15.79 -21.12 -2.36
15.32 -19.66 -2.24
15.25 -18.77 -2.17
15.27 -18.04 -2.13
15.28 -17.35 -2.08
15.38 -16.77 -2.05
15.58 -16.31 -2.03
15.76 -15.85 -2.02
15.93 -15.39 -2.00
15.85 -14.71 -1.95
15.68 -13.97 -1.90
15.50 -13.26 -1.85
15.46 -12.70 -1.81
15.42 -12.16 -1.78
15.38 -11.64 -1.75
15.35 -11.13 -1.72
15.35 -10.67 -1.70
15.25 -10.16 -1.67
15.16 -9.66 -1.64
15.07 -9.18 -1.61
15.01 -8.73 -1.58
14.94 -8.30 -1.56
14.92 -7.90 -1.54
14.91 -7.51 -1.52
14.89 -7.14 -1.51
14.95 -6.80 -1.50
15.01 -6.47 -1.49
15.08 -6.14 -1.49
15.14 -5.81 -1.48
15.20 -5.48 -1.48
15.25 -5.16 -1.47
15.24 -4.82 -1.46
15.19 -4.47 -1.45
15.18 -4.14 -1.44
15.29 -3.84 -1.44
15.40 -3.54 -1.45
15.52 -3.24 -1.45
15.60 -2.93 -1.45
15.59 -2.61 -1.45
15.68 -2.30 -1.45
15.77 -1.99 -1.46
15.87 -1.68 -1.46
15.97 -1.36 -1.47
16.07 -1.05 -1.47
16.13 -0.73 -1.48
16.19 -0.40 -1.48
16.25 -0.08 -1.49
6.14 0.09 -0.56
6.18 0.22 -0.56
16.40 0.91 -1.50
16.41 1.24 -1.50
16.45 1.58 -1.51
16.48 1.91 -1.51
16.51 2.25 -1.52
16.55 2.60 -1.53
16.56 2.94 -1.53
16.61 3.30 -1.54
16.67 3.66 -1.55
16.73 4.03 -1.57
16.79 4.40 -1.58
16.88 4.79 -1.59
16.98 5.18 -1.61
17.05 5.58 -1.63
17.12 5.99 -1.64
17.18 6.40 -1.66
17.22 6.81 -1.68
17.23 7.22 -1.69
17.21 7.62 -1.70
17.19 8.03 -1.71
17.22 8.47 -1.73
17.43 9.01 -1.77
17.86 9.69 -1.83
18.07 10.28 -1.87
18.29 10.90 -1.91
18.43 11.49 -1.95
18.57 12.10 -1.99
18.77 12.78 -2.03
19.20 13.64 -2.11
19.56 14.50 -2.18
19.60 15.14 -2.21
19.60 15.78 -2.24
19.59 16.43 -2.28
19.56 17.09 -2.31
19.35 17.60 -2.32
19.10 18.09 -2.34
18.86 18.60 -2.35
18.61 19.11 -2.36
18.37 19.63 -2.38
18.20 20.25 -2.40
18.08 20.94 -2.44
17.91 21.62 -2.47
17.71 22.26 -2.50
17.50 22.94 -2.53
17.50 23.91 -2.60
17.61 25.10 -2.69
17.93 26.68 -2.81
18.21 28.32 -2.94
18.39 29.90 -3.06
18.95 32.24 -3.26
18.87 33.63 -3.35
18.79 35.13 -3.46
19.67 38.62 -3.76
20.33 41.98 -4.04
6.42 13.96 -1.33
6.19 14.21 -1.34
7.55 25.24 -2.25
2.31 9.05 -0.80
7.98 46.49 -3.99
-13.05 37.89 -3.26
-12.98 35.36 -3.06
-13.01 33.35 -2.90
-12.88 31.16 -2.73
-12.58 28.79 -2.54
-12.90 27.97 -2.49
-12.87 26.50 -2.38
-13.08 25.61 -2.32
-13.14 24.49 -2.24
-13.36 23.75 -2.19
-13.62 23.11 -2.15
-14.03 22.76 -2.14
-14.20 22.03 -2.10
-14.41 21.40 -2.06
-14.47 20.59 -2.01
-14.63 19.95 -1.97
-14.79 19.35 -1.94
-14.81 18.58 -1.89
-14.89 17.93 -1.85
-14.95 17.29 -1.81
-14.94 16.60 -1.77
-14.85 15.84 -1.72
-14.72 15.09 -1.67
-14.69 14.46 -1.63
-14.53 13.74 -1.58
-14.33 13.02 -1.53
-14.19 12.38 -1.48
-14.20 11.89 -1.46
-14.20 11.42 -1.43
-14.21 10.97 -1.41
-14.22 10.52 -1.39
-14.19 10.07 -1.37
-14.12 9.59 -1.34
-14.05 9.14 -1.31
-14.01 8.72 -1.29
-13.97 8.32 -1.27
-13.96 7.93 -1.26
-13.95 7.56 -1.24
-13.93 7.19 -1.22
-13.91 6.83 -1.21
-11.53 5.38 -0.99
-11.25 4.98 -0.96
-11.38 4.76 -0.96
-13.79 5.45 -1.16
-13.75 5.12 -1.14
-13.71 4.79 -1.13
-13.67 4.47 -1.12
-13.64 4.16 -1.11
-13.58 3.85 -1.10
-13.53 3.54 -1.09
-13.48 3.24 -1.08
-13.46 2.95 -1.07
-13.43 2.66 -1.07
-13.41 2.38 -1.06
-13.39 2.10 -1.05
-13.37 1.82 -1.05
-13.34 1.55 -1.05
-13.32 1.27 -1.04
-13.30 1.00 -1.04
-13.31 0.74 -1.04
-13.31 0.47 -1.04
-13.32 0.20 -1.04
-13.33 -0.07 -1.04
-13.35 -0.33 -1.04
-13.37 -0.60 -1.04
-13.39 -0.87 -1.05
-13.40 -1.14 -1.05
-13.41 -1.42 -1.05
-13.42 -1.69 -1.06
-13.42 -1.97 -1.06
-13.41 -2.24 -1.06
-13.39 -2.51 -1.07
-13.38 -2.79 -1.07
-13.36 -3.07 -1.07
-13.35 -3.35 -1.08
-13.36 -3.64 -1.09
-13.36 -3.93 -1.09
-13.36 -4.22 -1.10
-13.37 -4.52 -1.11
-13.38 -4.82 -1.12
-13.39 -5.13 -1.13
-13.40 -5.45 -1.14
-13.41 -5.77 -1.15
-13.44 -6.10 -1.17
-13.59 -6.50 -1.19
-13.75 -6.92 -1.22
-13.78 -7.29 -1.24
-13.81 -7.66 -1.25
-13.85 -8.05 -1.27
-13.80 -8.40 -1.28
-13.75 -8.75 -1.30
-13.69 -9.10 -1.31
-13.66 -9.48 -1.33
-13.62 -9.87 -1.34
-13.59 -10.26 -1.36
-13.56 -10.68 -1.38
-13.53 -11.10 -1.40
-13.51 -11.55 -1.43
-13.52 -12.04 -1.46
-13.64 -12.64 -1.50
-13.79 -13.30 -1.54
-13.97 -14.03 -1.60
-14.21 -14.85 -1.66
-14.27 -15.53 -1.71
-14.35 -16.26 -1.76
-14.48 -17.09 -1.82
-14.45 -17.77 -1.86
-7.24 -9.27 -0.96
-14.36 -19.17 -1.95
-14.37 -20.01 -2.01
-14.34 -20.84 -2.07
-14.56 -22.10 -2.17
-14.94 -23.69 -2.30
-15.11 -25.06 -2.40
-15.15 -26.31 -2.50
-14.97 -27.25 -2.56
-14.85 -28.37 -2.64
-16.33 -32.78 -3.03
5.83 -16.44 -1.14
6.19 -16.40 -1.15
16.99 -32.53 -2.43
17.07 -31.13 -2.35
17.31 -30.13 -2.31
17.31 -28.77 -2.23
17.02 -27.04 -2.13
16.31 -24.80 -1.98
15.80 -22.99 -1.86
15.33 -21.38 -1.76
14.97 -20.02 -1.67
14.81 -18.99 -1.62
14.87 -18.31 -1.58
14.90 -17.61 -1.55
14.90 -16.91 -1.52
15.00 -16.35 -1.50
15.20 -15.91 -1.49
15.40 -15.49 -1.48
15.46 -14.93 -1.45
15.27 -14.17 -1.41
15.09 -13.45 -1.37
15.04 -12.87 -1.34
15.05 -12.36 -1.32
15.02 -11.84 -1.30
14.99 -11.34 -1.28
14.99 -10.88 -1.26
15.03 -10.45 -1.25
14.95 -9.95 -1.23
14.86 -9.47 -1.20
14.79 -9.01 -1.18
14.73 -8.57 -1.17
14.67 -8.15 -1.15
14.64 -7.75 -1.13
14.62 -7.37 -1.12
14.63 -7.01 -1.11
14.69 -6.68 -1.11
14.76 -6.36 -1.10
14.83 -6.04 -1.10
14.89 -5.71 -1.10
14.95 -5.39 -1.09
15.01 -5.08 -1.09
14.97 -4.73 -1.08
14.92 -4.39 -1.07
14.87 -4.05 -1.06
14.91 -3.74 -1.06
15.02 -3.45 -1.06
15.12 -3.16 -1.06
15.18 -2.85 -1.06
15.17 -2.54 -1.06
15.17 -2.22 -1.06
15.23 -1.92 -1.06
15.32 -1.62 -1.06
15.42 -1.32 -1.06
15.51 -1.01 -1.07
15.59 -0.70 -1.07
15.69 -0.39 -1.08
15.81 -0.08 -1.09
6.14 0.09 -0.42
6.17 0.22 -0.42
16.15 0.89 -1.11
16.19 1.22 -1.11
16.22 1.55 -1.12
16.25 1.89 -1.12
16.28 2.22 -1.13
16.32 2.56 -1.13
16.35 2.90 -1.14
16.39 3.25 -1.14
16.44 3.61 -1.15
16.50 3.97 -1.16
16.56 4.34 -1.17
16.62 4.71 -1.18
16.72 5.10 -1.19
16.79 5.50 -1.20
16.85 5.89 -1.21
16.92 6.30 -1.23
16.97 6.71 -1.24
17.01 7.12 -1.25
16.98 7.52 -1.26
16.96 7.92 -1.27
16.94 8.33 -1.28
16.98 8.78 -1.29
17.26 9.37 -1.32
17.69 10.06 -1.37
17.89 10.66 -1.40
18.06 11.26 -1.43
18.12 11.81 -1.45
18.26 12.43 -1.48
18.40 13.07 -1.51
18.72 13.87 -1.55
19.16 14.80 -1.61
19.17 15.43 -1.64
19.16 16.07 -1.66
19.15 16.73 -1.69
19.06 17.33 -1.71
18.82 17.82 -1.71
18.58 18.31 -1.72
18.33 18.81 -1.73
18.09 19.32 -1.74
17.84 19.84 -1.75
17.59 20.37 -1.76
17.37 20.95 -1.78
17.20 21.62 -1.80
16.99 22.25 -1.82
16.82 22.98 -1.85
16.76 23.89 -1.90
16.93 25.18 -1.97
17.39 27.03 -2.08
17.67 28.71 -2.18
17.93 30.49 -2.28
18.35 32.69 -2.41
18.36 34.31 -2.50
18.27 35.86 -2.58
18.76 38.71 -2.75
6.40 13.92 -0.98
6.20 14.21 -0.99
7.54 25.22 -1.65
7.13 25.70 -1.67
2.31 9.05 -0.58
7.99 46.46 -2.92
-14.07 43.69 -2.70
-12.66 36.76 -2.28
-12.68 34.55 -2.16
-12.26 31.45 -1.97
-11.70 28.31 -1.79
-12.10 27.71 -1.76
-12.33 26.74 -1.71
-12.58 25.91 -1.67
-12.74 24.95 -1.62
-12.89 24.03 -1.58
-13.12 23.34 -1.54
-13.36 22.69 -1.52
-13.54 21.98 -1.48
-13.72 21.29 -1.45
-13.93 20.69 -1.43
-14.07 20.03 -1.40
-14.27 19.46 -1.38
-14.42 18.86 -1.35
-14.47 18.16 -1.32
-14.58 17.56 -1.30
-14.64 16.94 -1.27
-14.63 16.25 -1.24
-14.49 15.46 -1.20
-14.38 14.74 -1.16
-14.30 14.08 -1.13
-14.11 13.35 -1.09
-13.94 12.66 -1.06
-13.85 12.08 -1.03
-13.86 11.62 -1.01
-13.88 11.16 -1.00
-13.89 10.72 -0.98
-13.91 10.29 -0.97
-13.88 9.85 -0.95
-13.84 9.41 -0.93
-13.80 8.98 -0.92
-13.77 8.57 -0.90
-13.73 8.17 -0.89
-13.75 7.82 -0.88
-13.74 7.45 -0.87
-13.72 7.09 -0.86
-13.71 6.73 -0.85
-11.54 5.38 -0.71
-11.26 4.98 -0.68
-11.37 4.76 -0.68
-13.59 5.37 -0.81
-13.55 5.04 -0.80
-13.51 4.72 -0.79
-13.48 4.41 -0.78
-13.44 4.10 -0.78
-13.39 3.79 -0.77
-13.34 3.49 -0.76
-13.29 3.19 -0.75
-13.25 2.91 -0.75
-13.23 2.62 -0.74
-13.21 2.34 -0.74
-13.19 2.07 -0.74
-13.17 1.80 -0.73
-13.15 1.52 -0.73
-13.13 1.26 -0.73
-13.11 0.99 -0.73
-13.09 0.72 -0.72
-13.10 0.46 -0.72
-13.10 0.20 -0.72
-13.12 -0.06 -0.72
-13.13 -0.33 -0.73
-13.15 -0.59 -0.73
-13.17 -0.86 -0.73
-13.19 -1.13 -0.73
-13.20 -1.40 -0.74
-13.21 -1.66 -0.74
-13.22 -1.94 -0.74
-13.20 -2.21 -0.74
-13.19 -2.48 -0.75
-13.17 -2.75 -0.75
-13.15 -3.02 -0.75
-13.14 -3.29 -0.76
-13.13 -3.57 -0.76
-13.13 -3.86 -0.76
-13.13 -4.15 -0.77
-13.14 -4.44 -0.78
-13.15 -4.74 -0.78
-13.15 -5.04 -0.79
-13.16 -5.35 -0.80
-13.17 -5.67 -0.81
-13.18 -5.99 -0.82
-13.29 -6.36 -0.83
-13.44 -6.77 -0.85
-13.58 -7.18 -0.87
-13.60 -7.55 -0.88
-13.63 -7.93 -0.90
-13.61 -8.28 -0.91
-13.56 -8.63 -0.92
-13.50 -8.98 -0.92
-13.45 -9.34 -0.94
-13.41 -9.71 -0.95
-13.37 -10.10 -0.96
-13.34 -10.50 -0.97
-13.30 -10.92 -0.99
-13.27 -11.34 -1.01
-13.24 -11.79 -1.02
-13.28 -12.31 -1.05
-13.42 -12.95 -1.08
-13.57 -13.63 -1.12
-13.76 -14.38 -1.16
-13.98 -15.21 -1.20
-14.03 -15.90 -1.24
-14.28 -16.85 -1.29
-14.26 -17.53 -1.33
-7.23 -9.27 -0.69
-14.15 -18.89 -1.39
-14.11 -19.66 -1.43
-14.10 -20.50 -1.47
-14.05 -21.33 -1.51
-14.42 -22.88 -1.61
-14.73 -24.45 -1.70
-14.80 -25.72 -1.77
-14.68 -26.72 -1.82
-14.44 -27.59 -1.87
-14.65 -29.41 -1.97
-15.17 -32.06 -2.13
-15.41 -34.32 -2.27
5.84 -16.45 -0.75
6.20 -16.41 -0.75
15.69 -33.20 -1.59
15.64 -31.44 -1.53
15.99 -30.60 -1.50
16.21 -29.56 -1.47
16.31 -28.37 -1.43
16.20 -26.92 -1.38
15.72 -24.97 -1.30
15.39 -23.39 -1.23
14.57 -21.21 -1.14
14.61 -20.38 -1.11
14.34 -19.17 -1.06
14.45 -18.53 -1.05
14.52 -17.87 -1.03
14.55 -17.19 -1.01
14.53 -16.48 -0.98
14.64 -15.95 -0.97
14.83 -15.53 -0.96
14.97 -15.05 -0.96
14.86 -14.35 -0.93
14.69 -13.63 -0.90
14.59 -13.00 -0.88
14.63 -12.52 -0.87
14.66 -12.04 -0.86
14.64 -11.54 -0.85
14.62 -11.06 -0.83
14.66 -10.63 -0.82
14.70 -10.21 -0.82
14.66 -9.75 -0.80
14.58 -9.29 -0.79
14.51 -8.84 -0.78
14.46 -8.42 -0.77
14.41 -8.00 -0.76
14.36 -7.60 -0.75
14.35 -7.23 -0.74
14.38 -6.89 -0.73
14.45 -6.57 -0.73
14.52 -6.25 -0.73
14.59 -5.94 -0.73
14.65 -5.62 -0.72
14.71 -5.31 -0.72
14.76 -4.99 -0.72
14.71 -4.65 -0.71
14.66 -4.31 -0.71
14.62 -3.98 -0.70
14.57 -3.66 -0.69
14.65 -3.37 -0.70
14.75 -3.08 -0.70
14.78 -2.78 -0.70
14.78 -2.47 -0.69
14.78 -2.17 -0.69
14.77 -1.86 -0.69
14.81 -1.57 -0.69
14.90 -1.27 -0.69
14.99 -0.98 -0.69
15.07 -0.68 -0.70
15.15 -0.38 -0.70
15.23 -0.08 -0.70
6.15 0.09 -0.28
6.16 0.22 -0.28
15.56 0.86 -0.72
15.65 1.18 -0.72
15.69 1.50 -0.73
15.76 1.83 -0.73
15.82 2.16 -0.73
15.89 2.49 -0.74
15.96 2.83 -0.74
16.04 3.18 -0.75
16.20 3.55 -0.76
16.28 3.92 -0.77
16.34 4.28 -0.77
16.40 4.65 -0.78
16.47 5.03 -0.78
16.54 5.41 -0.79
16.60 5.80 -0.80
16.66 6.21 -0.81
16.73 6.62 -0.81
16.77 7.02 -0.82
16.76 7.42 -0.83
16.74 7.81 -0.83
16.71 8.22 -0.84
16.69 8.62 -0.84
16.74 9.08 -0.85
17.15 9.76 -0.88
17.51 10.43 -0.91
17.71 11.04 -0.93
17.76 11.57 -0.94
17.82 12.13 -0.96
17.95 12.75 -0.97
18.01 13.34 -0.99
17.94 13.86 -1.00
18.76 15.10 -1.06
18.75 15.72 -1.07
18.73 16.36 -1.09
18.68 16.99 -1.10
18.54 17.55 -1.11
18.30 18.04 -1.12
18.06 18.53 -1.12
17.81 19.03 -1.13
17.57 19.53 -1.13
17.32 20.05 -1.14
17.07 20.58 -1.15
16.81 21.12 -1.15
16.64 21.79 -1.17
16.50 22.54 -1.19
16.36 23.31 -1.21
16.25 24.17 -1.23
16.38 25.45 -1.27
16.33 26.52 -1.31
17.07 29.02 -1.41
17.46 31.09 -1.49
17.74 33.14 -1.56
17.84 35.00 -1.63
17.78 36.68 -1.68
6.39 13.88 -0.63
6.20 14.22 -0.64
7.54 25.20 -1.06
7.12 25.66 -1.07
2.32 9.05 -0.37
7.99 46.44 -1.86
-13.27 44.25 -1.68
-12.36 38.42 -1.46
-12.31 35.77 -1.37
-12.34 33.64 -1.29
-11.19 28.72 -1.11
-11.35 27.49 -1.06
-11.73 26.87 -1.05
-11.99 26.01 -1.02
-12.31 25.36 -1.00
-12.43 24.34 -0.97
-12.65 23.61 -0.94
-12.90 22.94 -0.92
-13.12 22.29 -0.91
-13.27 21.54 -0.88
-13.42 20.83 -0.86
-13.54 20.12 -0.84
-13.73 19.54 -0.83
-13.93 19.00 -0.81
-14.06 18.39 -0.80
-14.17 17.79 -0.78
-14.28 17.21 -0.77
-14.35 16.60 -0.75
-14.27 15.86 -0.73
-14.15 15.10 -0.70
-14.05 14.40 -0.68
-13.90 13.69 -0.66
-13.77 13.03 -0.64
-13.66 12.41 -0.62
-13.60 11.87 -0.61
-13.62 11.41 -0.60
-13.63 10.97 -0.59
-13.65 10.54 -0.58
-13.66 10.11 -0.57
-13.63 9.67 -0.56
-13.59 9.24 -0.55
-13.56 8.83 -0.54
-13.53 8.43 -0.53
-13.52 8.05 -0.52
-13.54 7.70 -0.51
-13.54 7.34 -0.51
-13.53 6.98 -0.50
-13.51 6.64 -0.50
-11.54 5.38 -0.42
-11.26 4.98 -0.40
-11.36 4.75 -0.40
-13.39 5.29 -0.47
-13.36 4.97 -0.47
-13.32 4.66 -0.46
-13.29 4.35 -0.46
-13.25 4.04 -0.45
-13.20 3.74 -0.45
-13.15 3.44 -0.44
-13.11 3.15 -0.44
-13.06 2.86 -0.44
-13.04 2.58 -0.43
-13.02 2.31 -0.43
-13.00 2.04 -0.43
-12.98 1.77 -0.43
-12.96 1.50 -0.43
-12.94 1.24 -0.42
-12.92 0.97 -0.42
-12.90 0.71 -0.42
-12.89 0.45 -0.42
-12.90 0.19 -0.42
-12.91 -0.06 -0.42
-12.93 -0.32 -0.42
-12.94 -0.58 -0.42
-12.96 -0.85 -0.43
-12.98 -1.11 -0.43
-13.00 -1.37 -0.43
-13.01 -1.64 -0.43
-13.01 -1.91 -0.43
-13.01 -2.17 -0.43
-12.99 -2.44 -0.44
-12.97 -2.71 -0.44
-12.95 -2.97 -0.44
-12.94 -3.25 -0.44
-12.92 -3.52 -0.45
-12.91 -3.80 -0.45
-12.91 -4.08 -0.45
-12.92 -4.37 -0.46
-12.92 -4.66 -0.46
-12.93 -4.96 -0.46
-12.93 -5.26 -0.47
-12.94 -5.57 -0.47
-12.94 -5.88 -0.48
-13.00 -6.22 -0.49
-13.14 -6.62 -0.50
-13.28 -7.03 -0.51
-13.40 -7.44 -0.52
-13.42 -7.81 -0.53
-13.43 -8.17 -0.54
-13.37 -8.51 -0.54
-13.32 -8.86 -0.55
-13.26 -9.21 -0.56
-13.20 -9.57 -0.57
-13.16 -9.95 -0.57
-13.12 -10.34 -0.58
-13.09 -10.74 -0.59
-13.05 -11.16 -0.60
-13.01 -11.59 -0.61
-12.98 -12.03 -0.62
-13.07 -12.61 -0.64
-13.20 -13.27 -0.66
-13.35 -13.96 -0.69
-13.55 -14.75 -0.72
-13.74 -15.57 -0.74
-13.81 -16.30 -0.77
-14.08 -17.31 -0.81
-7.23 -9.26 -0.43
-13.97 -18.66 -0.85
-13.88 -19.34 -0.87
-13.87 -20.16 -0.90
-13.82 -20.98 -0.92
-13.82 -21.94 -0.95
-14.25 -23.64 -1.02
-14.47 -25.15 -1.08
-14.48 -26.38 -1.12
-14.19 -27.13 -1.14
-13.90 -27.92 -1.17
-14.42 -30.48 -1.27
-14.91 -33.22 -1.37
-15.18 -35.74 -1.47
-12.51 -33.06 -1.35
3.63 -45.23 -0.84
5.49 -16.50 -0.35
5.84 -16.45 -0.35
6.20 -16.41 -0.36
13.93 -32.82 -0.73
14.01 -31.25 -0.71
14.42 -30.51 -0.70
14.90 -29.95 -0.70
15.22 -29.12 -0.69
15.37 -28.02 -0.68
15.32 -26.64 -0.65
14.88 -24.72 -0.62
14.26 -22.65 -0.57
13.88 -21.09 -0.54
13.99 -20.36 -0.53
13.95 -19.45 -0.52
14.00 -18.71 -0.51
14.11 -18.10 -0.50
14.18 -17.45 -0.50
14.18 -16.75 -0.49
14.17 -16.07 -0.48
14.29 -15.57 -0.47
14.47 -15.14 -0.47
14.39 -14.46 -0.46
14.30 -13.81 -0.45
14.16 -13.13 -0.44
14.21 -12.66 -0.43
14.25 -12.19 -0.43
14.29 -11.74 -0.42
14.28 -11.25 -0.42
14.30 -10.81 -0.41
14.34 -10.40 -0.41
14.38 -9.99 -0.40
14.37 -9.57 -0.40
14.30 -9.11 -0.39
14.25 -8.68 -0.39
14.21 -8.27 -0.38
14.16 -7.86 -0.38
14.11 -7.47 -0.37
14.09 -7.10 -0.37
14.15 -6.78 -0.37
14.22 -6.46 -0.37
14.29 -6.15 -0.37
14.35 -5.84 -0.36
14.42 -5.53 -0.36
14.48 -5.22 -0.36
14.50 -4.91 -0.36
14.46 -4.57 -0.36
14.41 -4.24 -0.36
14.37 -3.92 -0.35
14.33 -3.60 -0.35
14.30 -3.28 -0.35
14.40 -3.00 -0.35
14.41 -2.71 -0.35
14.40 -2.41 -0.35
14.40 -2.11 -0.35
14.40 -1.82 -0.34
14.40 -1.52 -0.34
14.42 -1.23 -0.34
14.50 -0.95 -0.34
14.58 -0.66 -0.35
14.65 -0.37 -0.35
14.73 -0.07 -0.35
6.15 0.09 -0.14
6.16 0.22 -0.15
15.00 0.83 -0.35
15.10 1.14 -0.36
15.14 1.45 -0.36
15.18 1.76 -0.36
15.22 2.08 -0.36
15.28 2.40 -0.36
15.34 2.72 -0.36
15.41 3.06 -0.37
15.49 3.40 -0.37
15.57 3.74 -0.37
15.74 4.12 -0.38
15.91 4.51 -0.38
16.09 4.91 -0.39
16.26 5.32 -0.39
16.35 5.72 -0.40
16.41 6.11 -0.40
16.48 6.51 -0.40
16.54 6.93 -0.41
16.54 7.32 -0.41
16.52 7.71 -0.41
16.49 8.11 -0.41
16.47 8.51 -0.41
16.44 8.92 -0.42
16.60 9.44 -0.42
17.04 10.15 -0.44
17.33 10.80 -0.45
17.45 11.37 -0.46
17.47 11.88 -0.46
17.53 12.44 -0.47
17.65 13.07 -0.47
17.61 13.59 -0.48
17.53 14.11 -0.48
17.98 15.07 -0.50
17.94 15.66 -0.50
17.81 16.19 -0.51
17.73 16.78 -0.51
17.70 17.44 -0.52
17.80 18.25 -0.53
17.55 18.74 -0.53
17.31 19.24 -0.53
17.06 19.75 -0.53
16.81 20.26 -0.53
16.55 20.79 -0.54
16.29 21.33 -0.54
16.20 22.11 -0.55
16.05 22.86 -0.55
15.91 23.66 -0.56
15.78 24.51 -0.57
15.79 25.64 -0.59
15.60 26.51 -0.59
15.60 27.78 -0.61
15.46 28.86 -0.62
15.52 30.43 -0.65
17.12 35.29 -0.74
6.37 13.83 -0.28
6.20 14.22 -0.29
18.16 44.01 -0.88
7.54 25.18 -0.47
7.12 25.63 -0.47
2.32 9.04 -0.16
7.99 46.40 -0.80
-12.69 45.64 -0.66
-12.38 41.30 -0.60
-12.07 37.53 -0.54
-12.02 34.95 -0.50
-12.04 32.84 -0.47
-10.85 27.86 -0.40
-11.13 26.97 -0.39
-11.40 26.12 -0.37
-11.73 25.47 -0.37
-12.02 24.77 -0.36
-12.20 23.91 -0.34
-12.43 23.20 -0.33
-12.68 22.56 -0.33
-12.86 21.85 -0.32
-13.01 21.12 -0.31
-13.16 20.43 -0.30
-13.25 19.69 -0.29
-13.43 19.13 -0.28
-13.61 18.58 -0.28
-13.77 18.01 -0.27
-13.88 17.43 -0.26
-14.00 16.87 -0.26
-14.05 16.26 -0.25
-13.94 15.49 -0.24
-13.82 14.75 -0.23
-13.73 14.08 -0.22
-13.61 13.40 -0.22
-13.49 12.77 -0.21
-13.39 12.17 -0.20
-13.36 11.66 -0.20
-13.38 11.21 -0.19
-13.40 10.78 -0.19
-13.42 10.36 -0.18
-13.41 9.93 -0.18
-13.39 9.50 -0.18
-13.36 9.08 -0.17
-13.33 8.68 -0.17
-13.30 8.28 -0.17
-13.31 7.92 -0.16
-13.33 7.58 -0.16
-13.34 7.23 -0.16
-13.33 6.89 -0.16
-13.32 6.55 -0.15
-11.54 5.38 -0.13
-11.26 4.98 -0.13
-11.35 4.75 -0.13
-11.90 4.70 -0.13
-13.17 4.90 -0.14
-13.14 4.59 -0.14
-13.11 4.29 -0.14
-13.07 3.99 -0.14
-13.02 3.69 -0.14
-12.98 3.40 -0.14
-12.93 3.11 -0.13
-12.88 2.82 -0.13
-12.85 2.55 -0.13
-12.83 2.28 -0.13
-12.81 2.01 -0.13
-12.79 1.74 -0.13
-12.77 1.48 -0.13
-12.75 1.22 -0.13
-12.73 0.96 -0.13
-12.72 0.70 -0.13
-12.70 0.45 -0.13
-12.70 0.19 -0.13
-12.71 -0.06 -0.13
-12.72 -0.32 -0.13
-12.74 -0.58 -0.13
-12.76 -0.83 -0.13
-12.78 -1.09 -0.13
-12.79 -1.35 -0.13
-12.81 -1.62 -0.13
-12.82 -1.88 -0.13
-12.81 -2.14 -0.14
-12.79 -2.40 -0.14
-12.78 -2.67 -0.14
-12.76 -2.93 -0.14
-12.74 -3.20 -0.14
-12.72 -3.47 -0.14
-12.71 -3.74 -0.14
-12.70 -4.01 -0.14
-12.70 -4.30 -0.15
-12.70 -4.58 -0.15
-12.71 -4.87 -0.15
-12.71 -5.17 -0.15
-12.71 -5.47 -0.15
-12.72 -5.78 -0.16
-12.72 -6.09 -0.16
-12.85 -6.48 -0.16
-12.99 -6.87 -0.17
-13.13 -7.29 -0.17
-13.22 -7.69 -0.18
-13.24 -8.06 -0.18
-13.19 -8.40 -0.19
-13.14 -8.74 -0.19
-13.08 -9.09 -0.19
-13.02 -9.44 -0.20
-12.96 -9.80 -0.20
-12.91 -10.18 -0.20
-12.88 -10.57 -0.21
-12.84 -10.98 -0.21
-12.80 -11.40 -0.22
-12.76 -11.83 -0.22
-12.74 -12.29 -0.23
-12.86 -12.92 -0.24
-12.99 -13.58 -0.25
-13.13 -14.30 -0.26
-13.35 -15.13 -0.27
-13.50 -15.94 -0.28
-13.73 -16.89 -0.29
-7.23 -9.26 -0.16
-13.80 -18.44 -0.32
-13.71 -19.10 -0.33
-13.62 -19.82 -0.34
-13.59 -20.64 -0.35
-13.53 -21.47 -0.36
-13.64 -22.65 -0.38
-14.04 -24.40 -0.41
-14.16 -25.81 -0.43
-14.00 -26.78 -0.45
-13.70 -27.53 -0.46
-13.39 -28.32 -0.47
-14.00 -31.20 -0.52
-14.52 -34.19 -0.57
-12.50 -33.05 -0.55
-11.82 -33.27 -0.56
1.98 -49.17 0.21
2.85 -47.19 0.19
3.62 -44.97 0.18
8.13 -39.95 0.13
8.31 -37.01 0.12
8.95 -36.44 0.11
9.62 -36.01 0.10
10.09 -34.94 0.10
10.65 -34.29 0.09
5.49 -16.50 0.04
5.85 -16.46 0.04
6.21 -16.42 0.04
11.95 -29.80 0.07
12.55 -29.55 0.06
12.90 -28.77 0.06
12.77 -27.00 0.05
12.96 -26.04 0.05
13.15 -25.15 0.04
13.08 -23.83 0.04
13.15 -22.86 0.03
13.03 -21.63 0.03
13.19 -20.93 0.03
13.33 -20.25 0.02
13.46 -19.58 0.02
13.55 -18.88 0.02
13.67 -18.27 0.02
13.79 -17.68 0.01
13.84 -17.03 0.01
13.84 -16.34 0.01
13.83 -15.69 0.01
13.96 -15.20 0.00
13.92 -14.56 0.00
13.85 -13.92 0.00
13.79 -13.31 -0.00
13.79 -12.79 -0.00
13.84 -12.33 -0.00
13.89 -11.88 -0.00
13.93 -11.44 -0.01
13.95 -10.99 -0.01
13.99 -10.58 -0.01
14.03 -10.17 -0.01
14.08 -9.78 -0.01
14.10 -9.39 -0.01
14.05 -8.94 -0.01
14.00 -8.53 -0.01
13.96 -8.12 -0.01
13.92 -7.73 -0.01
13.88 -7.34 -0.01
13.85 -6.98 -0.01
13.92 -6.67 -0.01
13.99 -6.36 -0.01
14.06 -6.05 -0.02
14.13 -5.75 -0.02
14.19 -5.45 -0.02
14.25 -5.14 -0.02
14.26 -4.82 -0.02
14.22 -4.49 -0.02
14.17 -4.17 -0.02
14.13 -3.85 -0.02
14.09 -3.54 -0.02
14.06 -3.23 -0.02
14.05 -2.93 -0.02
14.05 -2.64 -0.02
14.05 -2.35 -0.02
14.05 -2.06 -0.02
14.05 -1.77 -0.02
14.05 -1.49 -0.02
14.05 -1.20 -0.02
14.05 -0.92 -0.02
14.12 -0.64 -0.02
14.19 -0.36 -0.02
14.26 -0.07 -0.02
6.15 0.09 -0.01
6.15 0.22 -0.01
14.49 0.80 -0.01
14.58 1.10 -0.01
14.62 1.40 -0.01
14.66 1.70 -0.01
14.69 2.00 -0.01
14.73 2.31 -0.01
14.78 2.62 -0.01
14.83 2.94 -0.01
14.90 3.27 -0.01
14.97 3.60 -0.01
15.05 3.94 -0.01
15.14 4.29 -0.01
15.29 4.67 -0.01
15.46 5.06 -0.01
15.49 5.42 -0.01
15.50 5.77 -0.00
15.67 6.19 -0.00
15.97 6.68 -0.00
16.30 7.21 -0.00
16.24 7.58 0.00
16.18 7.95 0.00
16.12 8.33 0.00
16.06 8.71 0.01
16.00 9.10 0.01
15.92 9.48 0.01
16.93 10.55 0.01
17.15 11.17 0.01
17.17 11.67 0.02
17.18 12.20 0.02
17.23 12.76 0.02
17.28 13.34 0.02
17.21 13.84 0.02
17.13 14.35 0.03
17.16 14.98 0.03
17.20 15.63 0.03
17.05 16.14 0.04
16.91 16.66 0.04
16.76 17.19 0.04
16.83 17.96 0.05
16.93 18.82 0.05
16.80 19.45 0.05
16.56 19.96 0.06
16.30 20.47 0.06
16.05 21.00 0.07
15.84 21.62 0.07
15.75 22.42 0.07
15.60 23.19 0.08
15.46 24.01 0.08
15.32 24.87 0.09
15.20 25.83 0.10
15.00 26.69 0.10
14.72 27.47 0.11
14.49 28.40 0.11
14.31 29.50 0.12
6.36 13.80 0.06
6.21 14.22 0.06
16.12 39.05 0.17
16.57 42.55 0.19
7.54 25.16 0.13
7.11 25.59 0.13
2.32 9.04 0.05
7.99 46.37 0.26
-11.91 42.88 0.38
-11.57 38.62 0.35
-11.72 36.45 0.34
-11.72 34.09 0.32
-10.65 29.06 0.28
-10.64 27.33 0.27
-10.92 26.47 0.27
-11.15 25.55 0.26
-11.49 24.94 0.26
-11.75 24.22 0.26
-11.99 23.50 0.26
-12.22 22.81 0.25
-12.44 22.15 0.25
-12.61 21.42 0.25
-12.76 20.72 0.25
-12.86 19.97 0.24
-12.97 19.28 0.24
-13.15 18.73 0.24
-13.30 18.15 0.24
-13.40 17.55 0.23
-13.56 17.02 0.23
-13.70 16.52 0.23
-13.69 15.85 0.23
-13.56 15.07 0.22
-13.43 14.34 0.22
-13.44 13.78 0.21
-13.33 13.13 0.21
-13.22 12.51 0.21
-13.16 11.96 0.20
-13.13 11.47 0.20
-13.15 11.02 0.20
-13.17 10.60 0.20
-13.19 10.19 0.19
-13.17 9.76 0.19
-13.15 9.34 0.19
-13.13 8.93 0.19
-13.11 8.53 0.19
-13.08 8.15 0.18
-13.11 7.80 0.18
-13.13 7.47 0.18
-13.16 7.13 0.18
-13.15 6.79 0.18
-13.14 6.46 0.18
-11.54 5.39 0.16
-11.26 4.98 0.15
-11.33 4.75 0.15
-11.89 4.70 0.16
-12.99 4.83 0.17
-12.96 4.53 0.17
-12.93 4.23 0.17
-12.89 3.93 0.17
-12.85 3.64 0.17
-12.80 3.35 0.16
-12.76 3.07 0.16
-12.71 2.79 0.16
-12.67 2.51 0.16
-12.64 2.24 0.16
-12.63 1.98 0.16
-12.61 1.72 0.16
-12.59 1.46 0.16
-12.57 1.20 0.16
-12.56 0.95 0.16
-12.54 0.69 0.16
-12.52 0.44 0.16
-12.50 0.19 0.15
-12.51 -0.06 0.15
-12.53 -0.31 0.15
-12.54 -0.57 0.15
-12.56 -0.82 0.15
-12.58 -1.08 0.15
-12.60 -1.33 0.15
-12.61 -1.59 0.15
-12.63 -1.85 0.15
-12.63 -2.11 0.15
-12.61 -2.37 0.15
-12.59 -2.63 0.15
-12.57 -2.89 0.15
-12.55 -3.15 0.15
-12.53 -3.42 0.15
-12.52 -3.68 0.15
-12.50 -3.95 0.15
-12.49 -4.23 0.15
-12.49 -4.51 0.15
-12.49 -4.79 0.15
-12.49 -5.08 0.15
-12.50 -5.38 0.15
-12.50 -5.68 0.15
-12.50 -5.99 0.16
-12.58 -6.34 0.16
-12.71 -6.73 0.16
-12.84 -7.13 0.16
-12.98 -7.55 0.16
-13.04 -7.94 0.16
-13.02 -8.29 0.16
-12.96 -8.63 0.16
-12.90 -8.97 0.16
-12.85 -9.31 0.16
-12.78 -9.67 0.16
-12.72 -10.03 0.17
-12.67 -10.41 0.17
-12.63 -10.81 0.17
-12.59 -11.21 0.17
-12.54 -11.63 0.17
-12.50 -12.07 0.17
-12.51 -12.57 0.17
-12.63 -13.22 0.17
-12.76 -13.90 0.18
-12.93 -14.67 0.18
-13.14 -15.52 0.18
-13.29 -16.35 0.19
-7.22 -9.26 0.10
-13.62 -18.21 0.20
-13.54 -18.87 0.20
-13.44 -19.55 0.20
-13.37 -20.32 0.20
-13.30 -21.12 0.21
-13.23 -21.97 0.21
-13.51 -23.50 0.22
-13.77 -25.10 0.22
-13.82 -26.44 0.23
-13.52 -27.18 0.23
-13.20 -27.92 0.23
-12.97 -28.92 0.23
-13.56 -31.95 0.25
-14.13 -35.23 0.27
-12.49 -33.04 0.24
-11.81 -33.25 0.24
1.98 -49.16 1.32
2.85 -47.18 1.26
1.40 -17.36 0.46
6.84 -37.43 0.98
7.19 -35.30 0.93
7.53 -33.50 0.88
8.17 -33.23 0.87
8.62 -32.24 0.84
8.98 -31.09 0.81
8.44 -27.16 0.71
5.49 -16.51 0.43
5.85 -16.46 0.43
6.21 -16.42 0.43
9.60 -23.93 0.63
9.96 -23.46 0.62
10.30 -22.96 0.61
10.70 -22.63 0.61
11.02 -22.14 0.60
11.35 -21.70 0.59
11.63 -21.18 0.58
11.99 -20.84 0.57
12.35 -20.50 0.57
12.59 -19.98 0.56
12.74 -19.35 0.54
12.94 -18.82 0.53
13.14 -18.31 0.53
13.32 -17.80 0.52
13.49 -17.28 0.51
13.51 -16.61 0.49
13.51 -15.95 0.48
13.48 -15.28 0.47
13.37 -14.56 0.45
13.25 -13.86 0.44
13.14 -13.21 0.42
13.14 -12.68 0.41
13.22 -12.26 0.40
13.31 -11.86 0.40
13.40 -11.46 0.39
13.49 -11.08 0.39
13.57 -10.70 0.38
13.67 -10.33 0.38
13.74 -9.96 0.37
13.78 -9.58 0.37
13.83 -9.20 0.36
13.80 -8.79 0.36
13.74 -8.37 0.35
13.66 -7.95 0.34
13.58 -7.54 0.34
13.51 -7.15 0.33
13.45 -6.78 0.33
13.50 -6.46 0.32
13.65 -6.20 0.32
13.80 -5.94 0.32
13.91 -5.66 0.32
13.97 -5.36 0.32
14.04 -5.06 0.32
14.02 -4.74 0.32
13.98 -4.42 0.31
13.94 -4.10 0.31
13.85 -3.77 0.31
13.74 -3.45 0.30
13.64 -3.13 0.30
13.53 -2.82 0.29
13.42 -2.52 0.29
13.32 -2.23 0.29
13.31 -1.95 0.29
13.30 -1.68 0.29
13.28 -1.41 0.29
13.27 -1.14 0.28
13.26 -0.87 0.28
13.24 -0.60 0.28
13.22 -0.33 0.28
13.20 -0.07 0.28
6.15 0.09 0.13
6.15 0.22 0.13
13.81 0.76 0.30
14.05 1.06 0.30
14.13 1.35 0.31
14.17 1.64 0.31
14.20 1.94 0.31
14.24 2.23 0.31
14.27 2.53 0.32
14.31 2.84 0.32
14.35 3.14 0.32
14.42 3.46 0.32
14.49 3.79 0.33
14.55 4.12 0.33
14.62 4.46 0.34
14.72 4.81 0.34
14.84 5.19 0.35
14.85 5.53 0.35
14.85 5.87 0.36
14.86 6.22 0.36
14.86 6.57 0.37
15.10 7.04 0.38
15.81 7.77 0.40
15.75 8.13 0.40
15.69 8.50 0.41
15.62 8.88 0.41
15.56 9.26 0.42
15.47 9.63 0.42
15.38 10.01 0.42
16.87 11.47 0.47
16.88 11.98 0.48
16.89 12.51 0.49
16.94 13.07 0.50
16.89 13.59 0.51
16.81 14.09 0.52
16.73 14.60 0.53
16.63 15.11 0.54
16.50 15.61 0.55
16.36 16.11 0.56
16.22 16.63 0.56
16.08 17.16 0.57
16.10 17.89 0.59
16.17 18.71 0.61
16.20 19.52 0.63
16.06 20.17 0.64
15.81 20.68 0.65
15.55 21.21 0.66
15.39 21.91 0.68
15.29 22.72 0.69
15.15 23.52 0.71
15.01 24.36 0.73
14.78 25.10 0.75
14.51 25.82 0.77
14.24 26.57 0.78
13.95 27.33 0.80
13.68 28.18 0.82
6.36 13.80 0.40
6.21 14.22 0.41
12.94 31.34 0.90
14.07 36.12 1.04
15.71 42.83 1.23
15.66 45.52 1.30
7.54 25.14 0.72
7.11 25.56 0.73
2.32 9.04 0.26
7.99 46.33 1.32
-11.30 44.13 1.41
-11.20 40.35 1.30
-11.31 37.77 1.23
-11.40 35.48 1.17
-10.40 30.25 1.01
-10.25 27.99 0.94
-10.44 26.82 0.91
-10.60 25.69 0.88
-10.90 25.00 0.87
-11.24 24.42 0.86
-11.54 23.80 0.85
-11.78 23.10 0.84
-12.02 22.44 0.82
-12.20 21.72 0.81
-12.36 21.01 0.79
-12.52 20.34 0.78
-12.57 19.52 0.76
-12.70 18.88 0.75
-12.88 18.35 0.74
-12.93 17.66 0.72
-13.06 17.10 0.71
-13.21 16.60 0.71
-13.33 16.08 0.70
-13.30 15.39 0.68
-13.18 14.65 0.66
-13.13 14.02 0.65
-13.16 13.50 0.63
-13.06 12.87 0.62
-12.96 12.27 0.60
-12.93 11.76 0.59
-12.91 11.27 0.58
-12.93 10.84 0.57
-12.95 10.42 0.57
-12.96 10.01 0.56
-12.94 9.59 0.55
-12.93 9.18 0.54
-12.91 8.78 0.54
-12.89 8.39 0.53
-12.89 8.03 0.52
-12.91 7.69 0.52
-12.94 7.36 0.51
-12.97 7.03 0.51
-12.97 6.70 0.51
-12.96 6.37 0.50
-11.54 5.39 0.44
-11.26 4.98 0.43
-11.32 4.74 0.43
-11.88 4.70 0.45
-12.81 4.77 0.48
-12.79 4.47 0.47
-12.76 4.17 0.47
-12.72 3.88 0.46
-12.68 3.59 0.46
-12.63 3.31 0.46
-12.59 3.03 0.45
-12.55 2.75 0.45
-12.51 2.48 0.45
-12.47 2.21 0.44
-12.45 1.95 0.44
-12.43 1.69 0.44
-12.42 1.44 0.44
-12.40 1.19 0.44
-12.38 0.93 0.43
-12.37 0.68 0.43
-12.35 0.43 0.43
-12.33 0.19 0.43
-12.31 -0.06 0.43
-12.33 -0.31 0.43
-12.35 -0.56 0.43
-12.37 -0.81 0.43
-12.38 -1.06 0.43
-12.40 -1.31 0.43
-12.42 -1.57 0.43
-12.44 -1.82 0.44
-12.44 -2.08 0.44
-12.42 -2.33 0.44
-12.40 -2.59 0.44
-12.38 -2.85 0.44
-12.36 -3.10 0.44
-12.34 -3.36 0.44
-12.32 -3.62 0.44
-12.29 -3.89 0.44
-12.28 -4.16 0.44
-12.28 -4.43 0.45
-12.28 -4.71 0.45
-12.28 -5.00 0.45
-12.28 -5.29 0.45
-12.28 -5.58 0.46
-12.28 -5.88 0.46
-12.29 -6.19 0.46
-12.37 -6.55 0.47
-12.54 -6.97 0.48
-12.69 -7.39 0.49
-12.83 -7.81 0.50
-12.85 -8.19 0.51
-12.79 -8.52 0.51
-12.73 -8.85 0.51
-12.67 -9.19 0.52
-12.59 -9.52 0.52
-12.51 -9.87 0.52
-12.45 -10.22 0.53
-12.43 -10.63 0.53
-12.38 -11.03 0.54
-12.34 -11.45 0.54
-12.29 -11.87 0.55
-12.25 -12.32 0.56
-12.28 -12.86 0.57
-12.40 -13.51 0.58
-12.52 -14.20 0.60
-12.64 -14.93 0.62
-12.93 -15.91 0.65
-7.22 -9.26 0.37
-13.45 -17.98 0.70
-13.37 -18.64 0.71
-13.27 -19.31 0.73
-7.51 -11.42 0.42
-7.20 -11.43 0.42
-12.95 -21.52 0.77
-12.81 -22.29 0.78
-13.36 -24.35 0.84
-13.50 -25.83 0.88
-13.34 -26.83 0.90
-13.01 -27.53 0.91
-12.65 -28.23 0.92
-12.73 -30.01 0.97
-13.03 -32.52 1.04
-12.48 -33.03 1.04
-11.79 -33.23 1.03
-11.83 -38.12 1.16
-2.23 -37.11 1.02
0.02 -44.36 2.20
0.73 -35.52 1.76
1.96 -48.47 2.39
1.40 -17.36 0.85
5.70 -46.99 2.31
5.43 -38.33 1.88
5.68 -35.01 1.72
5.88 -32.14 1.58
6.18 -30.31 1.49
6.48 -28.83 1.42
6.79 -27.61 1.36
7.15 -26.75 1.33
7.56 -26.17 1.30
7.83 -25.19 1.26
5.50 -16.51 0.83
5.85 -16.47 0.83
6.21 -16.43 0.83
9.05 -22.54 1.14
9.41 -22.15 1.13
9.80 -21.84 1.12
10.13 -21.41 1.11
10.45 -20.99 1.09
10.80 -20.63 1.08
11.17 -20.34 1.08
11.53 -20.03 1.07
11.87 -19.71 1.06
12.05 -19.12 1.04
12.28 -18.64 1.03
12.50 -18.17 1.01
12.68 -17.67 1.00
12.87 -17.19 0.98
12.76 -16.35 0.95
12.76 -15.69 0.92
12.73 -15.03 0.90
12.58 -14.26 0.86
12.48 -13.59 0.84
12.42 -12.98 0.81
12.44 -12.50 0.80
12.47 -12.04 0.78
12.55 -11.63 0.77
12.64 -11.26 0.76
12.73 -10.88 0.75
12.80 -10.51 0.74
12.88 -10.15 0.73
12.97 -9.81 0.73
13.07 -9.47 0.72
13.16 -9.14 0.71
13.31 -8.86 0.71
13.39 -8.53 0.71
13.32 -8.11 0.69
13.25 -7.71 0.68
13.18 -7.32 0.67
13.12 -6.94 0.66
13.07 -6.59 0.65
13.03 -6.24 0.64
13.14 -5.97 0.64
13.28 -5.72 0.64
13.43 -5.46 0.64
13.57 -5.21 0.64
13.69 -4.94 0.64
13.61 -4.60 0.63
13.51 -4.27 0.62
13.41 -3.94 0.61
13.31 -3.63 0.61
13.21 -3.32 0.60
13.12 -3.01 0.59
13.02 -2.72 0.58
12.92 -2.43 0.58
12.82 -2.14 0.57
12.72 -1.86 0.56
12.62 -1.59 0.56
12.57 -1.33 0.55
12.56 -1.07 0.55
12.55 -0.82 0.55
12.53 -0.57 0.55
12.52 -0.31 0.55
12.50 -0.06 0.55
6.15 0.09 0.27
6.14 0.22 0.27
12.44 0.69 0.55
12.54 0.94 0.55
12.68 1.21 0.56
12.68 1.47 0.56
12.68 1.73 0.57
12.68 1.99 0.57
12.68 2.25 0.57
12.67 2.51 0.57
12.71 2.79 0.58
12.81 3.08 0.59
12.83 3.36 0.59
12.82 3.63 0.59
12.80 3.90 0.60
12.78 4.18 0.60
12.75 4.46 0.60
14.24 5.30 0.68
14.24 5.62 0.69
14.23 5.96 0.69
14.23 6.29 0.70
14.22 6.63 0.71
14.21 6.98 0.72
14.55 7.51 0.74
15.33 8.31 0.79
15.26 8.67 0.80
15.20 9.04 0.81
15.12 9.41 0.81
15.03 9.78 0.82
14.94 10.16 0.83
14.85 10.53 0.84
14.75 10.92 0.84
16.61 12.81 0.97
16.59 13.34 0.98
16.33 13.68 0.99
16.04 14.00 0.99
15.76 14.31 0.99
15.47 14.63 0.99
15.18 14.95 1.00
14.89 15.26 1.00
15.57 16.61 1.07
15.42 17.13 1.09
15.41 17.82 1.11
15.47 18.64 1.15
15.50 19.45 1.18
15.41 20.16 1.21
15.31 20.89 1.23
15.05 21.42 1.25
14.95 22.20 1.28
14.78 22.94 1.31
14.54 23.58 1.33
14.30 24.28 1.36
14.02 24.94 1.39
13.74 25.63 1.41
13.47 26.39 1.44
13.20 27.18 1.48
6.36 13.80 0.74
6.21 14.22 0.76
12.33 29.84 1.59
12.11 31.06 1.65
11.90 32.44 1.71
11.94 34.67 1.82
13.63 42.34 2.21
7.54 25.13 1.31
7.10 25.53 1.33
2.32 9.04 0.47
7.99 46.30 2.38
7.07 46.49 2.39
6.12 46.49 2.39
5.17 46.48 2.39
4.22 46.45 2.39
3.28 46.41 2.39
2.44 48.34 2.49
1.47 48.25 2.49
0.50 48.15 2.49
-0.47 48.02 2.49
-1.43 47.88 2.49
-2.38 47.72 2.49
-3.33 47.54 2.49
-4.27 47.34 2.49
-4.99 45.18 2.39
-5.88 44.96 2.39
-6.77 44.72 2.39
-7.65 44.46 2.39
-5.87 30.48 1.65
-9.88 46.26 2.52
-10.41 44.35 2.43
-10.20 39.85 2.20
-10.48 37.78 2.10
-11.06 36.96 2.07
-9.83 30.61 1.73
-10.06 29.27 1.67
-10.00 27.31 1.57
-10.24 26.31 1.53
-10.33 25.05 1.47
-10.67 24.47 1.45
-10.87 23.61 1.42
-11.23 23.17 1.41
-11.58 22.71 1.40
-11.79 22.02 1.37
-11.96 21.30 1.34
-12.13 20.62 1.32
-12.23 19.87 1.29
-12.28 19.08 1.26
-12.44 18.50 1.24
-12.54 17.87 1.21
-12.59 17.19 1.19
-12.73 16.67 1.17
-12.87 16.17 1.15
-12.96 15.63 1.14
-12.92 14.96 1.11
-12.82 14.25 1.08
-12.86 13.73 1.06
-12.89 13.22 1.04
-12.80 12.61 1.01
-12.73 12.05 0.99
-12.72 11.56 0.97
-12.70 11.09 0.95
-12.71 10.66 0.94
-12.74 10.25 0.93
-12.73 9.83 0.91
-12.72 9.42 0.90
-12.71 9.03 0.89
-12.70 8.64 0.87
-12.68 8.26 0.86
-12.69 7.91 0.85
-12.72 7.58 0.85
-12.75 7.25 0.84
-12.78 6.93 0.83
-12.79 6.61 0.82
-12.79 6.28 0.82
-11.55 5.39 0.73
-11.26 4.98 0.71
-11.31 4.74 0.70
-11.87 4.69 0.73
-12.64 4.71 0.77
-12.61 4.41 0.77
-12.59 4.12 0.76
-12.55 3.83 0.75
-12.51 3.54 0.75
-12.47 3.26 0.74
-12.43 2.99 0.74
-12.39 2.72 0.73
-12.35 2.45 0.72
-12.31 2.18 0.72
-12.27 1.92 0.71
-12.25 1.67 0.71
-12.23 1.42 0.71
-12.20 1.17 0.71
-12.18 0.92 0.70
-12.16 0.67 0.70
-12.13 0.43 0.70
-12.11 0.18 0.70
-12.09 -0.06 0.69
-12.12 -0.31 0.70
-12.14 -0.55 0.70
-12.15 -0.80 0.70
-12.17 -1.04 0.70
-12.18 -1.29 0.70
-12.20 -1.54 0.70
-12.22 -1.79 0.71
-12.23 -2.05 0.71
-12.23 -2.30 0.71
-12.21 -2.55 0.71
-12.19 -2.80 0.71
-12.16 -3.06 0.71
-12.14 -3.31 0.72
-12.12 -3.57 0.72
-12.10 -3.83 0.72
-12.08 -4.09 0.72
-12.08 -4.36 0.73
-12.08 -4.64 0.73
-12.08 -4.92 0.74
-12.08 -5.20 0.74
-12.08 -5.49 0.75
-12.07 -5.79 0.75
-12.07 -6.09 0.76
-12.09 -6.40 0.77
-12.16 -6.75 0.78
-12.33 -7.18 0.80
-12.50 -7.62 0.82
-12.67 -8.08 0.84
-12.62 -8.40 0.84
-12.54 -8.72 0.85
-12.47 -9.04 0.85
-12.39 -9.37 0.86
-12.31 -9.71 0.87
-12.23 -10.05 0.87
-12.20 -10.44 0.88
-12.18 -10.86 0.90
-12.14 -11.26 0.91
-12.09 -11.68 0.92
-12.03 -12.10 0.93
-12.03 -12.59 0.95
-12.05 -13.14 0.97
-12.16 -13.80 1.00
-12.23 -14.46 1.03
-12.32 -15.16 1.06
-7.22 -9.26 0.63
-13.11 -17.53 1.18
-13.20 -18.42 1.22
-13.10 -19.08 1.24
-7.51 -11.42 0.73
-7.19 -11.43 0.72
-12.64 -21.00 1.30
-12.49 -21.74 1.33
-12.37 -22.57 1.36
-12.84 -24.59 1.46
-13.06 -26.28 1.55
-12.82 -27.14 1.58
-12.47 -27.83 1.60
-12.14 -28.63 1.63
-12.33 -30.78 1.73
-12.43 -32.91 1.83
-11.78 -33.20 1.83
-14.57 -43.85 2.39
-11.82 -38.12 2.06
-12.87 -44.64 2.39
-12.53 -46.97 2.50
-11.61 -47.35 2.50
-10.69 -47.71 2.50
-9.76 -48.05 2.50
-8.82 -48.38 2.50
-7.87 -48.66 2.50
-6.90 -48.93 2.50
-5.94 -49.18 2.50
-4.96 -49.42 2.49
-2.93 -36.55 1.84
-2.21 -36.92 1.85
-1.46 -36.65 1.83
-0.95 -48.11 2.39
0.02 -34.56 2.49
0.68 -33.19 2.39
1.35 -33.23 2.39
2.02 -33.26 2.39
1.41 -17.42 1.25
3.37 -33.28 2.39
3.99 -32.87 2.36
4.52 -31.83 2.29
4.96 -30.53 2.20
5.29 -28.91 2.09
5.62 -27.54 1.99
5.94 -26.38 1.91
6.33 -25.70 1.87
6.75 -25.21 1.84
7.13 -24.67 1.81
7.44 -23.91 1.76
5.50 -16.52 1.22
5.86 -16.47 1.22
6.22 -16.43 1.23
8.69 -21.63 1.63
9.01 -21.21 1.60
9.34 -20.81 1.59
9.68 -20.46 1.57
10.02 -20.12 1.56
10.37 -19.81 1.55
10.73 -19.53 1.54
11.08 -19.25 1.53
1.71 -2.84 0.23
1.76 -2.80 0.23
1.85 -2.80 0.23
1.93 -2.80 0.23
2.02 -2.81 0.24
12.12 -16.18 1.38
12.05 -15.44 1.34
12.00 -14.76 1.30
11.88 -14.02 1.25
11.77 -13.34 1.21
11.75 -12.79 1.18
11.79 -12.33 1.16
11.83 -11.88 1.14
11.87 -11.45 1.12
11.94 -11.07 1.10
12.02 -10.70 1.09
12.10 -10.35 1.07
12.18 -10.00 1.06
12.25 -9.65 1.05
12.34 -9.33 1.04
12.44 -9.01 1.03
12.61 -8.76 1.03
12.78 -8.50 1.03
12.96 -8.25 1.03
12.92 -7.87 1.01
12.86 -7.48 1.00
12.80 -7.10 0.98
12.75 -6.75 0.96
12.72 -6.41 0.95
12.69 -6.07 0.94
12.66 -5.75 0.93
12.80 -5.51 0.93
12.94 -5.26 0.93
13.07 -5.01 0.93
13.06 -4.71 0.92
13.02 -4.40 0.91
12.97 -4.10 0.91
12.90 -3.79 0.89
12.81 -3.49 0.88
12.73 -3.19 0.87
12.64 -2.90 0.86
12.55 -2.62 0.85
12.45 -2.34 0.84
12.36 -2.07 0.83
12.27 -1.80 0.82
12.18 -1.54 0.82
12.09 -1.28 0.81
12.01 -1.03 0.80
11.91 -0.78 0.79
11.89 -0.54 0.79
11.87 -0.30 0.79
11.85 -0.06 0.79
6.15 0.09 0.41
6.13 0.22 0.41
11.79 0.65 0.79
11.77 0.89 0.79
11.75 1.12 0.79
11.73 1.36 0.79
11.72 1.60 0.79
11.72 1.84 0.79
11.72 2.08 0.80
11.72 2.32 0.80
11.71 2.57 0.80
11.71 2.81 0.81
11.70 3.06 0.81
11.74 3.32 0.82
11.82 3.60 0.83
11.82 3.86 0.84
11.81 4.13 0.84
11.81 4.39 0.85
11.80 4.66 0.86
11.79 4.93 0.86
11.79 5.21 0.87
11.79 5.50 0.88
13.44 6.60 1.02
13.43 6.93 1.03
13.42 7.27 1.04
13.44 7.63 1.05
13.46 8.00 1.07
14.79 9.20 1.19
14.70 9.56 1.20
14.61 9.93 1.21
14.51 10.29 1.22
14.37 10.63 1.23
14.13 10.90 1.23
13.89 11.17 1.23
13.69 11.46 1.23
13.51 11.79 1.24
13.34 12.11 1.24
13.16 12.44 1.25
12.97 12.77 1.26
12.81 13.13 1.27
13.01 13.88 1.32
13.32 14.80 1.39
13.25 15.33 1.41
13.37 16.10 1.46
14.79 18.55 1.66
14.83 19.39 1.71
14.68 20.01 1.74
14.46 20.57 1.77
14.24 21.14 1.80
14.08 21.84 1.84
13.91 22.55 1.88
13.64 23.16 1.91
13.41 23.83 1.94
13.20 24.61 1.99
12.99 25.43 2.04
12.66 26.07 2.07
6.37 13.80 1.09
6.21 14.22 1.11
11.77 28.48 2.21
11.53 29.57 2.28
11.29 30.75 2.36
10.99 31.91 2.44
10.62 32.97 2.51
7.53 25.11 1.90
7.10 25.49 1.92
2.32 9.04 0.68
8.43 35.77 2.68
7.61 35.49 2.65
6.21 32.08 2.39
5.55 32.13 2.39
4.90 32.18 2.39
4.24 32.21 2.39
3.59 32.23 2.39
2.94 32.23 2.39
2.38 33.62 2.49
1.70 33.60 2.49
1.03 33.56 2.49
0.35 33.52 2.49
-0.32 33.46 2.49
-0.99 33.38 2.49
-1.66 33.30 2.49
-2.32 33.20 2.49
-2.98 33.08 2.49
-3.64 32.96 2.49
-4.29 32.82 2.49
-4.94 32.67 2.49
-5.45 31.73 2.43
-3.67 19.04 1.47
-3.75 17.55 1.36
-3.79 16.17 1.26
-4.03 15.74 1.24
-4.37 15.75 1.25
-4.71 15.76 1.26
-9.62 29.95 2.41
-9.66 28.13 2.28
-9.76 26.68 2.18
-9.91 25.49 2.10
-10.11 24.52 2.04
-10.32 23.67 1.99
-10.57 22.97 1.95
-10.92 22.54 1.94
-11.16 21.90 1.90
-11.52 21.52 1.89
-11.73 20.90 1.86
-11.89 20.22 1.82
-11.95 19.42 1.78
-12.01 18.67 1.73
-12.15 18.07 1.70
-12.21 17.39 1.66
-12.26 16.75 1.62
-12.42 16.27 1.60
-12.51 15.73 1.58
-12.61 15.21 1.55
-12.57 14.55 1.51
-12.55 13.96 1.48
-12.59 13.45 1.45
-12.63 12.96 1.43
-12.55 12.37 1.39
-12.52 11.85 1.36
-12.50 11.37 1.34
-12.49 10.91 1.31
-12.50 10.48 1.29
-12.52 10.08 1.28
-12.52 9.67 1.26
-12.51 9.27 1.24
-12.50 8.88 1.22
-12.49 8.50 1.20
-12.48 8.13 1.19
-12.51 7.79 1.17
-12.54 7.47 1.16
-12.57 7.15 1.15
-12.60 6.83 1.14
-12.62 6.52 1.13
-12.62 6.20 1.12
-11.55 5.39 1.02
-11.26 4.99 0.99
-11.30 4.73 0.98
-11.86 4.69 1.02
-12.48 4.65 1.07
-12.45 4.35 1.06
-12.42 4.07 1.05
-12.38 3.78 1.04
-12.34 3.50 1.03
-12.31 3.22 1.02
-12.27 2.95 1.01
-12.20 2.67 1.00
-12.13 2.40 0.99
-12.05 2.14 0.98
-12.03 1.89 0.98
-12.03 1.64 0.97
-12.01 1.39 0.97
-11.99 1.15 0.97
-11.96 0.90 0.96
-11.94 0.66 0.96
-11.92 0.42 0.96
-11.90 0.18 0.95
-11.88 -0.06 0.95
-11.91 -0.30 0.95
-11.93 -0.54 0.96
-11.94 -0.78 0.96
-11.96 -1.02 0.96
-11.97 -1.27 0.96
-11.99 -1.51 0.97
-12.01 -1.76 0.97
-12.02 -2.01 0.97
-12.02 -2.26 0.98
-12.02 -2.51 0.98
-12.00 -2.76 0.98
-11.97 -3.01 0.98
-11.95 -3.26 0.99
-11.93 -3.51 0.99
-11.91 -3.77 0.99
-11.88 -4.02 1.00
-11.88 -4.29 1.00
-11.88 -4.56 1.01
-11.88 -4.84 1.02
-11.88 -5.12 1.02
-11.88 -5.40 1.03
-11.87 -5.69 1.04
-11.87 -5.98 1.05
-11.87 -6.29 1.06
-11.89 -6.61 1.07
-11.95 -6.96 1.09
-12.11 -7.38 1.11
-12.28 -7.83 1.14
-12.40 -8.26 1.17
-12.35 -8.59 1.18
-12.27 -8.90 1.18
-12.19 -9.22 1.19
-12.11 -9.55 1.20
-12.03 -9.89 1.21
-11.95 -10.23 1.22
-11.96 -10.66 1.24
-11.94 -11.08 1.26
-11.89 -11.49 1.28
-11.84 -11.91 1.30
-11.80 -12.35 1.32
-11.80 -12.86 1.34
-11.82 -13.42 1.38
-11.92 -14.10 1.42
-11.94 -14.71 1.45
-7.22 -9.26 0.90
-12.22 -16.34 1.56
-13.01 -18.15 1.70
-12.87 -18.74 1.73
-12.66 -19.25 1.75
-12.44 -19.77 1.77
-12.21 -20.31 1.80
-12.18 -21.20 1.85
-12.04 -21.96 1.89
-11.95 -22.87 1.95
-12.21 -24.57 2.07
-12.23 -25.90 2.15
-12.25 -27.36 2.25
-11.93 -28.14 2.29
-11.74 -29.33 2.36
-11.31 -29.98 2.39
-10.73 -30.25 2.39
-10.14 -30.52 2.39
-9.54 -30.77 2.39
-8.94 -31.02 2.39
-8.33 -31.25 2.39
-7.71 -31.47 2.39
-7.40 -33.04 2.49
-6.75 -33.24 2.49
-6.09 -33.43 2.49
-5.43 -33.61 2.49
-4.76 -33.78 2.49
-4.09 -33.93 2.49
-3.41 -34.07 2.49
-2.73 -34.20 2.49
-2.05 -34.31 2.49
-1.37 -34.41 2.49
-0.68 -34.49 2.49
0.02 -26.30 2.49
0.55 -26.33 2.49
1.03 -25.26 2.39
1.54 -25.27 2.39
1.41 -17.42 1.65
2.56 -25.26 2.39
3.07 -25.24 2.39
3.58 -25.21 2.39
4.09 -25.17 2.39
4.60 -25.11 2.39
5.15 -25.22 2.41
5.50 -24.43 2.34
5.82 -23.64 2.27
6.24 -23.31 2.25
6.64 -22.95 2.22
7.04 -22.64 2.20
5.51 -16.52 1.62
5.86 -16.48 1.62
6.22 -16.44 1.63
8.30 -20.66 2.06
8.57 -20.16 2.02
8.93 -19.89 2.01
9.29 -19.63 2.00
9.62 -19.31 1.98
9.96 -19.02 1.97
10.22 -18.60 1.95
1.62 -2.82 0.30
1.69 -2.80 0.30
1.77 -2.80 0.30
1.85 -2.81 0.31
1.93 -2.81 0.31
2.02 -2.81 0.32
2.11 -2.81 0.32
11.20 -14.34 1.65
11.04 -13.57 1.59
10.93 -12.90 1.53
10.96 -12.42 1.50
11.02 -11.99 1.48
11.08 -11.58 1.45
11.14 -11.19 1.43
11.22 -10.82 1.41
11.32 -10.49 1.39
11.41 -10.16 1.38
11.51 -9.84 1.36
11.60 -9.52 1.35
11.68 -9.20 1.34
11.79 -8.91 1.33
11.96 -8.67 1.33
12.13 -8.42 1.33
12.30 -8.18 1.32
12.46 -7.93 1.32
12.54 -7.64 1.32
12.49 -7.26 1.29
12.44 -6.90 1.27
12.41 -6.57 1.26
12.38 -6.24 1.24
12.35 -5.91 1.22
12.32 -5.60 1.21
12.35 -5.31 1.20
12.48 -5.08 1.20
12.53 -4.81 1.20
12.50 -4.51 1.19
12.46 -4.21 1.17
12.42 -3.92 1.16
12.38 -3.64 1.15
12.34 -3.36 1.14
12.27 -3.08 1.13
12.19 -2.80 1.11
12.10 -2.53 1.10
12.02 -2.26 1.09
11.92 -1.99 1.08
11.81 -1.73 1.06
11.70 -1.48 1.05
11.59 -1.23 1.04
11.48 -0.98 1.03
11.40 -0.75 1.02
11.34 -0.51 1.01
11.28 -0.28 1.01
11.23 -0.06 1.00
6.15 0.09 0.55
6.13 0.21 0.55
11.16 0.62 1.00
11.14 0.84 1.00
11.12 1.06 1.00
11.10 1.29 1.00
11.09 1.51 1.00
11.08 1.74 1.00
11.06 1.96 1.01
11.05 2.19 1.01
11.04 2.42 1.01
11.03 2.65 1.02
11.02 2.88 1.02
11.01 3.12 1.03
11.04 3.37 1.04
11.13 3.64 1.05
11.21 3.91 1.07
11.28 4.19 1.08
11.27 4.45 1.09
11.26 4.71 1.10
11.25 4.97 1.11
11.23 5.24 1.12
11.23 5.51 1.13
11.23 5.80 1.14
11.23 6.09 1.16
12.69 7.21 1.32
12.69 7.55 1.34
12.70 7.90 1.36
12.70 8.26 1.38
12.71 8.63 1.40
13.88 9.84 1.55
13.65 10.10 1.55
13.42 10.35 1.55
13.19 10.60 1.55
12.96 10.85 1.55
12.73 11.10 1.55
12.51 11.36 1.55
12.36 11.69 1.56
12.23 12.03 1.58
12.09 12.38 1.59
11.95 12.74 1.61
11.80 13.10 1.63
11.68 13.51 1.65
11.67 14.06 1.69
11.77 14.76 1.75
11.88 15.53 1.81
11.81 16.10 1.86
11.84 16.84 1.92
11.94 17.73 1.99
12.00 18.61 2.07
11.98 19.43 2.13
11.89 20.18 2.19
12.24 21.76 2.34
12.03 22.42 2.39
11.80 23.09 2.44
11.54 23.75 2.48
6.37 13.81 1.43
6.22 14.22 1.46
10.64 25.73 2.63
10.37 26.57 2.70
10.07 27.43 2.77
9.77 28.34 2.85
9.44 29.30 2.93
7.53 25.09 2.49
7.09 25.46 2.52
2.32 9.04 0.89
5.74 24.35 2.39
5.24 24.42 2.39
4.74 24.49 2.39
4.24 24.54 2.39
3.75 24.59 2.39
3.25 24.62 2.39
2.75 24.65 2.39
2.35 25.73 2.49
1.83 25.73 2.49
1.31 25.73 2.49
0.79 25.71 2.49
0.27 25.69 2.49
-0.24 25.65 2.49
-0.75 25.60 2.49
-1.27 25.55 2.49
-1.78 25.48 2.49
-2.29 25.41 2.49
-2.79 25.32 2.49
-3.29 25.23 2.49
-3.79 25.12 2.49
-4.29 25.01 2.49
-3.43 17.82 1.79
-3.48 16.31 1.64
-3.63 15.50 1.57
-3.97 15.51 1.58
-4.30 15.52 1.59
-4.64 15.53 1.61
-4.99 15.55 1.62
-7.82 22.77 2.39
-8.26 22.58 2.39
-8.70 22.39 2.39
-9.14 22.18 2.39
-9.57 21.97 2.39
-10.28 22.35 2.46
-10.45 21.57 2.40
-10.70 21.01 2.36
-11.05 20.64 2.35
-11.37 20.27 2.33
-11.52 19.60 2.28
-11.68 18.98 2.24
-11.76 18.28 2.19
-11.82 17.59 2.14
-11.89 16.94 2.09
-11.96 16.34 2.04
-12.08 15.82 2.01
-12.18 15.30 1.98
-12.27 14.80 1.95
-12.24 14.18 1.90
-12.29 13.67 1.86
-12.33 13.18 1.83
-12.38 12.70 1.80
-12.32 12.14 1.76
-12.31 11.66 1.72
-12.30 11.19 1.69
-12.29 10.74 1.66
-12.30 10.32 1.64
-12.31 9.91 1.61
-12.30 9.50 1.59
-12.30 9.11 1.56
-12.29 8.73 1.54
-12.29 8.36 1.52
-12.29 8.01 1.50
-12.33 7.68 1.49
-12.36 7.36 1.47
-12.39 7.05 1.46
-12.42 6.74 1.45
-12.45 6.43 1.44
-12.45 6.12 1.42
-11.55 5.39 1.31
-11.27 4.99 1.27
-11.29 4.73 1.26
-11.85 4.68 1.31
-12.31 4.59 1.35
-12.29 4.30 1.34
-12.26 4.01 1.33
-12.22 3.73 1.31
-12.15 3.44 1.30
-12.07 3.16 1.28
-12.00 2.88 1.27
-11.93 2.62 1.26
-11.86 2.35 1.24
-11.79 2.09 1.23
-11.79 1.85 1.23
-11.80 1.61 1.23
-11.80 1.37 1.22
-11.78 1.13 1.22
-11.75 0.89 1.21
-11.73 0.65 1.21
-11.71 0.41 1.20
-11.69 0.17 1.20
-11.67 -0.06 1.20
-11.70 -0.30 1.20
-11.72 -0.53 1.21
-11.74 -0.77 1.21
-11.76 -1.01 1.21
-11.77 -1.25 1.21
-11.78 -1.49 1.22
-11.80 -1.73 1.22
-11.81 -1.98 1.23
-11.82 -2.22 1.23
-11.81 -2.47 1.24
-11.81 -2.72 1.24
-11.79 -2.96 1.24
-11.77 -3.21 1.25
-11.74 -3.46 1.25
-11.72 -3.71 1.26
-11.70 -3.96 1.26
-11.68 -4.22 1.27
-11.69 -4.49 1.28
-11.69 -4.76 1.29
-11.69 -5.04 1.30
-11.68 -5.31 1.31
-11.68 -5.60 1.32
-11.67 -5.89 1.33
-11.67 -6.18 1.34
-11.68 -6.49 1.35
-11.69 -6.81 1.37
-11.74 -7.16 1.39
-11.90 -7.58 1.43
-12.06 -8.03 1.46
-12.09 -8.41 1.49
-12.08 -8.77 1.50
-12.00 -9.08 1.52
-11.92 -9.40 1.53
-11.83 -9.73 1.54
-11.75 -10.06 1.55
-11.72 -10.45 1.57
-11.71 -10.87 1.60
-11.70 -11.31 1.63
-11.64 -11.71 1.65
-11.58 -12.13 1.67
-11.57 -12.61 1.71
-11.57 -13.13 1.74
-11.59 -13.70 1.79
-11.66 -14.37 1.84
-7.22 -9.26 1.17
-11.67 -15.61 1.93
-11.82 -16.50 2.01
-11.80 -17.18 2.06
-12.31 -18.73 2.21
-12.16 -19.34 2.25
-11.94 -19.85 2.28
-11.72 -20.40 2.31
-11.68 -21.32 2.39
-11.28 -21.60 2.39
-10.86 -21.86 2.39
-10.43 -22.10 2.39
-10.00 -22.33 2.39
-9.56 -22.56 2.39
-9.12 -22.78 2.39
-8.67 -22.99 2.39
-8.22 -23.19 2.39
-7.76 -23.39 2.39
-7.42 -23.95 2.43
-7.13 -24.77 2.49
-6.64 -24.94 2.49
-6.15 -25.11 2.49
-5.65 -25.26 2.49
-5.15 -25.41 2.49
-4.65 -25.54 2.49
-4.14 -25.67 2.49
-3.63 -25.78 2.49
-3.12 -25.89 2.49
-2.60 -25.98 2.49
-2.08 -26.07 2.49
-1.56 -26.14 2.49
-1.04 -26.20 2.49
-0.51 -26.26 2.49
0.02 -21.21 2.49
0.44 -21.23 2.49
0.83 -20.36 2.39
1.24 -20.36 2.39
1.42 -17.42 2.05
2.06 -20.34 2.39
2.48 -20.32 2.39
2.89 -20.29 2.39
3.30 -20.25 2.39
3.71 -20.20 2.39
4.12 -20.15 2.39
4.52 -20.08 2.39
5.27 -21.37 2.55
5.66 -21.14 2.54
6.11 -21.09 2.54
6.55 -21.04 2.55
5.51 -16.53 2.01
5.87 -16.48 2.02
6.23 -16.44 2.03
7.86 -19.55 2.43
8.21 -19.30 2.41
8.55 -19.04 2.40
8.79 -18.55 2.36
9.09 -18.24 2.34
9.40 -17.94 2.32
1.57 -2.86 0.37
1.61 -2.79 0.37
1.69 -2.80 0.37
1.77 -2.80 0.38
1.85 -2.81 0.38
1.93 -2.81 0.39
2.02 -2.81 0.39
2.11 -2.81 0.40
10.12 -12.96 1.87
10.17 -12.49 1.83
10.21 -12.05 1.79
10.25 -11.61 1.76
10.32 -11.23 1.73
10.40 -10.87 1.70
10.51 -10.55 1.68
10.61 -10.24 1.67
10.71 -9.92 1.65
10.81 -9.62 1.63
10.90 -9.32 1.62
10.99 -9.02 1.60
11.07 -8.72 1.59
11.14 -8.42 1.57
11.37 -8.24 1.58
11.63 -8.07 1.59
11.84 -7.87 1.60
12.00 -7.64 1.60
12.16 -7.40 1.60
12.14 -7.06 1.58
12.11 -6.72 1.56
12.09 -6.39 1.53
12.06 -6.07 1.51
12.04 -5.76 1.50
12.01 -5.46 1.48
11.99 -5.16 1.46
12.03 -4.89 1.46
12.00 -4.60 1.44
11.97 -4.32 1.43
11.94 -4.04 1.41
11.91 -3.76 1.40
11.86 -3.49 1.38
11.81 -3.22 1.37
11.75 -2.95 1.36
11.70 -2.69 1.34
11.60 -2.42 1.33
11.50 -2.16 1.31
11.40 -1.91 1.29
11.30 -1.66 1.28
11.20 -1.41 1.26
11.10 -1.17 1.25
11.00 -0.94 1.24
10.93 -0.71 1.23
10.87 -0.49 1.22
10.82 -0.27 1.21
10.77 -0.06 1.21
6.15 0.09 0.69
6.12 0.21 0.69
10.61 0.58 1.19
10.58 0.80 1.19
10.56 1.01 1.19
10.54 1.22 1.19
10.53 1.43 1.19
10.51 1.65 1.19
10.50 1.86 1.20
10.48 2.07 1.20
10.46 2.29 1.20
10.44 2.51 1.21
10.42 2.72 1.21
10.40 2.94 1.22
10.39 3.16 1.22
10.42 3.40 1.23
10.49 3.66 1.25
10.56 3.92 1.27
10.63 4.19 1.29
10.70 4.47 1.31
10.75 4.75 1.33
10.74 5.00 1.34
10.72 5.26 1.35
10.71 5.53 1.37
10.71 5.80 1.38
10.70 6.08 1.40
10.69 6.36 1.41
10.69 6.65 1.43
11.49 7.47 1.56
11.49 7.80 1.58
11.49 8.14 1.60
11.45 8.47 1.62
11.41 8.80 1.64
11.37 9.13 1.67
11.41 9.55 1.70
11.57 10.09 1.76
11.52 10.45 1.78
11.43 10.81 1.80
11.35 11.16 1.83
11.27 11.54 1.85
11.21 11.95 1.88
11.15 12.38 1.92
11.08 12.80 1.95
10.93 13.15 1.97
10.80 13.55 2.00
10.77 14.08 2.05
10.74 14.63 2.10
10.70 15.21 2.15
