ply
format ascii 1.0
element vertex 2954
property float32 x
property float32 y
property float32 z
end_header
-7.07 -19.93 2.39
-6.67 -20.08 2.39
-6.27 -20.22 2.39
-5.95 -20.64 2.43
-5.70 -21.36 2.49
-5.27 -21.48 2.49
-4.84 -21.59 2.49
-4.41 -21.69 2.49
-3.97 -21.79 2.49
-3.54 -21.87 2.49
-3.10 -21.94 2.49
-2.66 -22.01 2.49
-2.22 -22.07 2.49
-1.78 -22.11 2.49
-1.33 -22.15 2.49
-0.89 -22.18 2.49
-0.44 -22.20 2.49
0.00 -18.45 2.49
0.37 -18.45 2.49
0.74 -18.44 2.49
1.11 -18.43 2.49
1.48 -18.40 2.49
1.85 -18.37 2.49
2.13 -17.57 2.39
2.48 -17.53 2.39
2.83 -17.47 2.39
3.18 -17.41 2.39
3.53 -17.35 2.39
3.88 -17.27 2.39
4.22 -17.19 2.39
4.57 -17.10 2.39
4.91 -17.00 2.39
4.97 -16.00 2.26
5.27 -15.84 2.26
5.61 -15.81 2.27
5.98 -15.83 2.29
5.58 -13.92 2.03
5.67 -13.35 1.96
5.94 -13.25 1.96
6.27 -13.27 1.99
6.61 -13.30 2.01
6.96 -13.31 2.03
6.22 -11.35 1.75
6.35 -11.05 1.73
6.59 -10.95 1.73
6.84 -10.87 1.74
7.15 -10.87 1.76
7.47 -10.88 1.79
7.82 -10.90 1.82
8.18 -10.94 1.86
8.58 -11.01 1.90
8.82 -10.86 1.90
9.16 -10.82 1.93
9.59 -10.88 1.97
10.03 -10.94 2.02
10.50 -10.99 2.07
10.76 -10.83 2.08
11.14 -10.77 2.11
11.48 -10.65 2.14
12.09 -10.78 2.21
12.50 -10.71 2.25
12.04 -9.90 2.13
5.88 -4.64 1.03
12.37 -9.37 2.12
12.53 -9.10 2.12
12.69 -8.83 2.12
12.84 -8.55 2.12
12.98 -8.28 2.11
4.31 -2.63 0.69
4.26 -2.48 0.68
4.28 -2.38 0.67
4.34 -2.30 0.68
4.45 -2.25 0.69
13.75 -6.60 2.10
13.86 -6.31 2.10
13.96 -6.02 2.10
14.06 -5.73 2.10
14.59 -5.61 2.16
13.48 -4.87 1.98
13.48 -4.57 1.97
9.87 -3.13 1.43
9.88 -2.91 1.43
9.90 -2.70 1.42
9.91 -2.50 1.42
9.92 -2.29 1.42
9.93 -2.08 1.41
9.95 -1.88 1.41
9.96 -1.67 1.41
9.97 -1.47 1.41
9.98 -1.27 1.41
9.99 -1.07 1.41
10.00 -0.86 1.41
10.02 -0.66 1.41
10.02 -0.46 1.41
10.06 -0.26 1.41
10.22 -0.06 1.44
13.64 0.19 1.92
13.51 0.46 1.90
13.18 0.72 1.86
13.18 0.98 1.86
13.51 1.28 1.92
13.51 1.55 1.92
11.82 1.60 1.69
11.30 1.76 1.62
11.31 2.00 1.63
11.31 2.23 1.63
6.96 1.52 1.01
6.84 1.64 1.00
6.80 1.77 1.00
6.78 1.91 1.00
6.75 2.05 1.00
6.79 2.21 1.02
6.79 2.37 1.03
6.80 2.52 1.04
6.81 2.68 1.05
6.89 2.88 1.07
6.90 3.04 1.08
7.33 3.41 1.16
6.97 3.42 1.11
6.82 3.51 1.10
6.79 3.67 1.11
6.79 3.85 1.12
6.76 4.02 1.13
6.80 4.22 1.15
6.82 4.43 1.17
6.82 4.63 1.19
6.84 4.85 1.21
6.91 5.11 1.24
6.99 5.39 1.28
6.87 5.52 1.28
6.79 5.68 1.28
6.77 5.90 1.30
6.80 6.17 1.33
6.79 6.41 1.36
6.87 6.76 1.40
7.05 7.22 1.47
6.80 7.25 1.45
6.71 7.44 1.46
6.67 7.71 1.49
6.69 8.05 1.53
6.68 8.37 1.56
6.75 8.82 1.62
6.74 9.19 1.67
6.71 9.54 1.71
6.64 9.86 1.74
6.65 10.31 1.80
6.67 10.81 1.86
6.77 11.49 1.96
6.89 12.25 2.06
6.30 11.74 1.96
6.15 12.04 1.99
6.27 12.90 2.11
6.81 14.76 2.39
6.51 14.89 2.39
6.20 15.01 2.39
5.90 15.13 2.39
5.59 15.23 2.39
5.28 15.34 2.39
4.97 15.43 2.39
4.66 15.52 2.39
4.34 15.61 2.39
4.03 15.69 2.39
2.71 11.51 1.75
3.54 16.51 2.49
3.20 16.57 2.49
2.87 16.62 2.49
2.53 16.67 2.49
2.20 16.72 2.49
1.86 16.75 2.49
1.52 16.78 2.49
1.19 16.81 2.49
0.85 16.82 2.49
0.51 16.83 2.49
0.17 16.84 2.49
-0.17 16.83 2.49
-0.50 16.83 2.49
-0.84 16.81 2.49
-1.18 16.79 2.49
-1.52 16.76 2.49
-1.85 16.72 2.49
-2.19 16.68 2.49
-2.52 16.64 2.49
-2.86 16.58 2.49
-3.19 16.52 2.49
-3.52 16.45 2.49
-3.85 16.38 2.49
-4.18 16.30 2.49
-4.51 16.21 2.49
-4.83 16.12 2.49
-5.16 16.02 2.49
-5.48 15.92 2.49
-5.74 15.66 2.47
-5.86 15.04 2.39
-6.07 14.71 2.36
-6.06 13.88 2.24
-5.80 12.58 2.05
-5.81 11.96 1.97
-5.83 11.41 1.90
-7.64 14.25 2.39
-5.94 10.57 1.79
-8.21 13.94 2.39
-8.49 13.77 2.39
-8.77 13.60 2.39
-9.04 13.43 2.39
-9.31 13.25 2.39
-9.58 13.07 2.39
-9.51 11.46 2.20
-9.52 11.00 2.14
-7.40 8.21 1.63
-7.51 8.01 1.62
-7.75 7.94 1.63
-9.58 9.43 1.98
-9.58 9.06 1.94
-9.58 8.70 1.90
-9.58 8.36 1.87
-9.59 8.03 1.83
-9.59 7.70 1.80
-9.59 7.39 1.77
-9.59 7.09 1.75
-9.59 6.80 1.72
-9.59 6.52 1.70
-9.53 6.20 1.66
-9.60 5.97 1.65
-9.60 5.71 1.63
-9.60 5.45 1.61
-9.60 5.20 1.59
-9.60 4.95 1.57
-9.60 4.71 1.56
-9.61 4.47 1.54
-9.61 4.24 1.53
-9.61 4.01 1.51
-9.61 3.79 1.50
-9.61 3.57 1.49
-9.61 3.35 1.48
-9.61 3.14 1.46
-9.61 2.92 1.45
-9.61 2.71 1.44
-9.62 2.51 1.44
-9.56 2.29 1.42
-9.62 2.10 1.42
-9.62 1.90 1.41
-9.62 1.70 1.41
-9.62 1.50 1.40
-9.62 1.30 1.40
-9.62 1.11 1.39
-9.62 0.91 1.39
-9.63 0.72 1.38
-9.63 0.52 1.38
-9.63 0.33 1.38
-9.63 0.14 1.38
-9.63 -0.06 1.38
-9.63 -0.25 1.37
-9.63 -0.44 1.37
-9.63 -0.64 1.37
-9.63 -0.83 1.38
-9.63 -1.03 1.38
-9.64 -1.22 1.38
-9.64 -1.42 1.38
-9.64 -1.62 1.39
-9.58 -1.81 1.38
-9.64 -2.02 1.39
-9.64 -2.22 1.40
-9.64 -2.43 1.40
-9.64 -2.64 1.41
-9.64 -2.85 1.42
-9.65 -3.06 1.43
-9.65 -3.27 1.43
-9.65 -3.49 1.44
-9.65 -3.71 1.45
-9.65 -3.94 1.46
-9.65 -4.16 1.47
-9.65 -4.40 1.49
-9.65 -4.63 1.50
-9.66 -4.88 1.51
-9.66 -5.12 1.53
-9.66 -5.37 1.54
-9.66 -5.63 1.56
-9.66 -5.89 1.58
-9.66 -6.16 1.60
-9.66 -6.44 1.62
-9.67 -6.73 1.64
-9.67 -7.02 1.66
-9.67 -7.32 1.68
-9.67 -7.63 1.71
-9.67 -7.96 1.73
-9.67 -8.29 1.76
-6.49 -5.79 1.20
-9.68 -8.99 1.82
-9.68 -9.36 1.86
-9.63 -9.69 1.88
-9.68 -10.15 1.93
-9.69 -10.56 1.97
-9.69 -11.00 2.02
-9.69 -11.46 2.06
-9.69 -11.94 2.11
-9.64 -12.37 2.15
-9.67 -12.94 2.22
-9.88 -14.39 2.39
-9.59 -14.60 2.39
-9.31 -14.80 2.39
-9.01 -14.99 2.39
-8.72 -15.18 2.39
-8.42 -15.36 2.39
-8.11 -15.53 2.39
-7.80 -15.70 2.39
-7.49 -15.86 2.39
-7.17 -16.02 2.39
-6.85 -16.17 2.39
-6.53 -16.31 2.39
-6.21 -16.45 2.39
-5.93 -16.73 2.41
-5.79 -17.42 2.49
-5.44 -17.54 2.49
-5.09 -17.65 2.49
-4.74 -17.76 2.49
-4.38 -17.86 2.49
-4.02 -17.95 2.49
-3.66 -18.03 2.49
-3.30 -18.11 2.49
-2.94 -18.18 2.49
-2.57 -18.24 2.49
-2.21 -18.29 2.49
-1.84 -18.34 2.49
-1.47 -18.38 2.49
-1.11 -18.41 2.49
-0.74 -18.43 2.49
-0.37 -18.44 2.49
0.00 -15.77 2.49
0.32 -15.77 2.49
0.64 -15.76 2.49
0.95 -15.75 2.49
1.27 -15.72 2.49
1.58 -15.70 2.49
1.90 -15.66 2.49
2.14 -15.09 2.41
2.42 -14.93 2.39
2.72 -14.88 2.39
3.02 -14.82 2.39
3.31 -14.76 2.39
3.61 -14.69 2.39
3.90 -14.61 2.39
4.19 -14.53 2.39
4.48 -14.44 2.39
4.77 -14.35 2.39
5.06 -14.25 2.39
5.34 -14.14 2.39
5.54 -13.82 2.36
5.66 -13.35 2.29
5.93 -13.24 2.30
6.00 -12.70 2.22
6.00 -12.07 2.13
6.00 -11.49 2.05
6.23 -11.36 2.05
6.33 -11.02 2.01
6.61 -10.99 2.03
6.83 -10.86 2.04
7.14 -10.85 2.06
7.50 -10.92 2.10
7.82 -10.91 2.13
8.21 -10.99 2.18
8.59 -11.02 2.22
8.80 -10.84 2.22
9.15 -10.82 2.25
9.53 -10.82 2.29
9.97 -10.87 2.35
10.43 -10.92 2.40
9.81 -9.87 2.22
9.96 -9.63 2.21
10.11 -9.39 2.20
10.26 -9.15 2.19
10.40 -8.91 2.19
5.75 -4.72 1.19
5.89 -4.65 1.20
10.81 -8.19 2.17
10.94 -7.94 2.16
11.07 -7.70 2.16
11.20 -7.46 2.15
11.32 -7.22 2.15
4.17 -2.55 0.78
4.17 -2.43 0.77
4.20 -2.34 0.77
4.25 -2.26 0.77
4.34 -2.19 0.78
4.50 -2.16 0.80
12.04 -5.49 2.13
12.99 -5.61 2.28
13.08 -5.34 2.28
13.17 -5.07 2.28
13.25 -4.79 2.27
9.94 -3.37 1.70
9.85 -3.12 1.67
10.01 -2.96 1.69
9.88 -2.70 1.66
9.89 -2.49 1.65
9.90 -2.29 1.65
9.92 -2.08 1.64
9.93 -1.87 1.64
9.94 -1.67 1.64
9.95 -1.47 1.64
9.96 -1.27 1.63
9.97 -1.06 1.63
9.98 -0.86 1.63
9.99 -0.66 1.63
10.15 -0.47 1.66
10.01 -0.26 1.64
10.10 -0.06 1.65
10.74 0.15 1.76
13.51 0.46 2.21
13.18 0.71 2.16
13.18 0.98 2.17
13.51 1.28 2.23
13.51 1.55 2.23
11.83 1.60 1.96
11.30 1.76 1.88
11.31 1.99 1.89
11.31 2.23 1.90
6.98 1.52 1.18
6.83 1.63 1.16
6.80 1.77 1.16
6.79 1.91 1.17
6.75 2.05 1.17
6.78 2.21 1.18
6.80 2.37 1.19
6.81 2.53 1.21
6.82 2.69 1.22
6.89 2.88 1.24
6.90 3.04 1.25
7.19 3.35 1.32
6.86 3.36 1.27
6.84 3.53 1.28
6.79 3.67 1.29
6.80 3.85 1.30
6.77 4.02 1.32
6.82 4.24 1.34
6.81 4.43 1.36
6.82 4.63 1.38
6.85 4.85 1.41
6.91 5.11 1.44
6.99 5.39 1.48
6.86 5.51 1.48
6.79 5.68 1.49
6.77 5.90 1.51
6.80 6.17 1.54
6.80 6.42 1.57
6.82 6.71 1.61
7.04 7.21 1.70
6.80 7.24 1.68
6.70 7.43 1.69
6.67 7.71 1.72
6.69 8.04 1.77
6.73 8.43 1.82
6.75 8.82 1.88
6.88 9.38 1.97
6.67 9.48 1.96
6.65 9.87 2.02
6.25 9.70 1.96
6.11 9.91 1.98
6.13 10.39 2.05
6.14 10.90 2.13
6.14 11.45 2.21
6.16 12.05 2.30
6.14 12.65 2.39
5.89 12.76 2.39
5.63 12.87 2.39
5.36 12.98 2.39
5.10 13.08 2.39
4.83 13.17 2.39
4.57 13.26 2.39
4.30 13.34 2.39
4.03 13.42 2.39
3.76 13.50 2.39
3.48 13.56 2.39
2.71 11.50 2.02
2.93 13.68 2.39
2.66 13.74 2.39
2.48 14.38 2.49
2.19 14.42 2.49
1.90 14.46 2.49
1.61 14.49 2.49
1.32 14.52 2.49
1.03 14.54 2.49
0.73 14.55 2.49
0.44 14.56 2.49
0.15 14.57 2.49
-0.14 14.56 2.49
-0.44 14.56 2.49
-0.73 14.54 2.49
-1.02 14.53 2.49
-1.31 14.50 2.49
-1.60 14.47 2.49
-1.89 14.43 2.49
-2.18 14.39 2.49
-2.47 14.35 2.49
-2.76 14.29 2.49
-3.05 14.24 2.49
-3.33 14.17 2.49
-3.62 14.10 2.49
-3.90 14.03 2.49
-4.18 13.95 2.49
-4.46 13.86 2.49
-4.74 13.77 2.49
-5.02 13.68 2.49
-5.29 13.57 2.49
-5.56 13.47 2.49
-5.76 13.18 2.46
-5.85 12.69 2.39
-6.10 12.57 2.39
-6.03 11.81 2.27
-6.61 12.32 2.39
-5.95 10.57 2.07
-7.10 12.05 2.39
-7.34 11.91 2.39
-7.58 11.77 2.39
-7.82 11.61 2.39
-8.06 11.46 2.39
-8.29 11.30 2.39
-8.51 11.13 2.39
-8.74 10.96 2.39
-8.96 10.79 2.39
-9.18 10.61 2.39
-7.40 8.21 1.88
-7.52 8.01 1.87
-7.75 7.94 1.89
-9.53 8.65 2.19
-9.53 8.31 2.15
-9.57 8.01 2.12
-9.59 7.70 2.09
-9.59 7.39 2.05
-9.59 7.09 2.02
-9.59 6.80 1.99
-9.59 6.51 1.96
-9.53 6.20 1.92
-9.60 5.97 1.91
-9.60 5.70 1.89
-9.60 5.45 1.87
-9.60 5.20 1.84
-9.60 4.95 1.82
-9.60 4.71 1.80
-9.61 4.47 1.79
-9.61 4.24 1.77
-9.61 4.01 1.75
-9.61 3.79 1.74
-9.61 3.57 1.72
-9.61 3.35 1.71
-9.61 3.13 1.70
-9.61 2.92 1.69
-9.61 2.71 1.67
-9.62 2.51 1.66
-9.56 2.29 1.65
-9.62 2.10 1.65
-9.62 1.90 1.64
-9.62 1.70 1.63
-9.62 1.50 1.63
-9.62 1.30 1.62
-9.62 1.11 1.61
-9.62 0.91 1.61
-9.63 0.72 1.61
-9.63 0.52 1.60
-9.63 0.33 1.60
-9.63 0.13 1.60
-9.63 -0.06 1.60
-9.63 -0.25 1.60
-9.63 -0.45 1.60
-9.63 -0.64 1.60
-9.63 -0.83 1.60
-9.63 -1.03 1.60
-9.64 -1.23 1.60
-9.64 -1.42 1.61
-9.64 -1.62 1.61
-9.58 -1.81 1.61
-9.64 -2.02 1.62
-9.64 -2.23 1.63
-9.64 -2.43 1.63
-9.64 -2.64 1.64
-9.64 -2.85 1.65
-9.65 -3.06 1.66
-9.65 -3.27 1.67
-9.65 -3.49 1.68
-9.65 -3.71 1.69
-9.65 -3.94 1.70
-9.65 -4.17 1.72
-9.65 -4.40 1.73
-9.65 -4.64 1.75
-9.66 -4.88 1.76
-9.66 -5.12 1.78
-9.66 -5.38 1.80
-9.66 -5.63 1.82
-9.66 -5.90 1.84
-9.66 -6.17 1.86
-9.66 -6.44 1.88
-9.67 -6.73 1.91
-9.67 -7.02 1.93
-9.67 -7.32 1.96
-9.67 -7.64 1.99
-9.67 -7.96 2.02
-9.67 -8.29 2.06
-6.46 -5.76 1.40
-9.66 -8.97 2.12
-9.62 -9.31 2.16
-9.63 -9.69 2.20
-9.84 -11.18 2.39
-9.62 -11.38 2.39
-9.39 -11.58 2.39
-9.17 -11.77 2.39
-8.93 -11.96 2.39
-8.70 -12.14 2.39
-8.46 -12.32 2.39
-8.21 -12.50 2.39
-7.97 -12.67 2.39
-7.71 -12.83 2.39
-7.46 -12.99 2.39
-7.20 -13.14 2.39
-6.94 -13.29 2.39
-6.67 -13.44 2.39
-6.41 -13.57 2.39
-6.14 -13.71 2.39
-5.92 -13.96 2.41
-5.83 -14.56 2.49
-5.54 -14.68 2.49
-5.24 -14.79 2.49
-4.95 -14.90 2.49
-4.65 -15.00 2.49
-4.35 -15.10 2.49
-4.05 -15.19 2.49
-3.74 -15.27 2.49
-3.44 -15.35 2.49
-3.13 -15.42 2.49
-2.82 -15.48 2.49
-2.51 -15.54 2.49
-2.20 -15.59 2.49
-1.89 -15.64 2.49
-1.57 -15.67 2.49
-1.26 -15.71 2.49
-0.94 -15.73 2.49
-0.63 -15.75 2.49
-0.31 -15.76 2.49
0.00 -13.75 2.49
0.28 -13.75 2.49
0.55 -13.75 2.49
0.83 -13.73 2.49
1.11 -13.72 2.49
1.38 -13.69 2.49
1.65 -13.66 2.49
1.93 -13.63 2.49
2.14 -13.22 2.43
2.37 -12.98 2.39
2.63 -12.93 2.39
2.89 -12.87 2.39
3.15 -12.81 2.39
3.40 -12.75 2.39
3.66 -12.67 2.39
3.91 -12.60 2.39
4.16 -12.51 2.39
4.41 -12.43 2.39
4.66 -12.33 2.39
4.90 -12.24 2.39
5.15 -12.13 2.39
5.39 -12.03 2.39
5.63 -11.91 2.39
5.86 -11.80 2.39
6.00 -11.49 2.35
6.22 -11.35 2.35
6.35 -11.05 2.32
6.59 -10.96 2.32
6.82 -10.84 2.33
7.13 -10.84 2.36
7.49 -10.91 2.41
7.71 -10.76 2.41
7.92 -10.60 2.41
8.13 -10.43 2.41
7.98 -9.82 2.30
8.14 -9.63 2.30
8.30 -9.43 2.29
8.46 -9.23 2.28
8.62 -9.03 2.28
8.77 -8.82 2.27
8.91 -8.61 2.26
9.05 -8.40 2.26
9.18 -8.19 2.25
9.32 -7.98 2.24
5.86 -4.82 1.39
5.88 -4.64 1.37
6.03 -4.56 1.38
9.80 -7.12 2.22
9.91 -6.90 2.21
10.01 -6.68 2.21
4.20 -2.68 0.91
4.13 -2.52 0.89
4.13 -2.41 0.88
4.16 -2.32 0.87
4.22 -2.24 0.88
4.30 -2.17 0.89
4.41 -2.12 0.90
11.58 -5.28 2.34
11.66 -5.03 2.34
11.73 -4.79 2.34
11.80 -4.54 2.33
11.04 -4.00 2.17
11.10 -3.77 2.17
9.93 -3.15 1.93
9.99 -2.95 1.93
9.87 -2.70 1.89
9.87 -2.49 1.89
9.88 -2.28 1.88
9.90 -2.08 1.88
9.91 -1.87 1.87
9.92 -1.67 1.87
9.93 -1.47 1.87
9.94 -1.27 1.86
9.95 -1.06 1.86
9.96 -0.86 1.86
10.14 -0.67 1.89
10.12 -0.47 1.89
10.16 -0.27 1.90
10.10 -0.06 1.89
11.51 0.16 2.15
11.50 0.39 2.15
12.26 0.66 2.30
12.21 0.91 2.29
12.16 1.15 2.29
12.11 1.39 2.29
11.85 1.60 2.24
11.30 1.76 2.15
11.31 1.99 2.16
7.19 1.42 1.38
6.91 1.51 1.33
6.82 1.63 1.32
6.83 1.78 1.33
6.79 1.91 1.33
6.76 2.05 1.33
6.81 2.22 1.35
6.80 2.37 1.36
6.80 2.52 1.37
6.80 2.68 1.38
6.84 2.85 1.40
6.90 3.04 1.43
7.19 3.34 1.50
6.91 3.39 1.46
6.86 3.53 1.47
6.80 3.68 1.47
6.80 3.85 1.49
6.82 4.05 1.51
6.82 4.24 1.53
6.82 4.43 1.55
6.80 4.61 1.57
6.86 4.85 1.60
6.91 5.10 1.64
6.99 5.39 1.69
6.88 5.52 1.69
6.79 5.68 1.69
6.77 5.90 1.72
6.79 6.16 1.76
6.82 6.44 1.80
6.87 6.75 1.85
7.04 7.21 1.93
6.85 7.30 1.92
6.77 7.51 1.94
6.71 7.75 1.97
6.69 8.05 2.01
6.34 7.95 1.96
6.18 8.07 1.96
6.11 8.32 1.99
6.12 8.70 2.05
6.12 9.08 2.11
6.12 9.49 2.18
6.12 9.92 2.25
6.13 10.39 2.33
6.07 10.79 2.39
5.85 10.91 2.39
5.63 11.02 2.39
5.41 11.12 2.39
5.18 11.23 2.39
4.95 11.32 2.39
4.72 11.42 2.39
4.49 11.50 2.39
4.26 11.59 2.39
4.02 11.67 2.39
3.78 11.74 2.39
3.55 11.81 2.39
3.31 11.88 2.39
3.07 11.94 2.39
2.71 11.50 2.29
2.58 12.04 2.39
2.34 12.09 2.39
2.19 12.66 2.49
1.93 12.69 2.49
1.68 12.73 2.49
1.42 12.76 2.49
1.16 12.78 2.49
0.90 12.80 2.49
0.65 12.81 2.49
0.39 12.82 2.49
0.13 12.82 2.49
-0.13 12.82 2.49
-0.38 12.82 2.49
-0.64 12.80 2.49
-0.90 12.79 2.49
-1.16 12.77 2.49
-1.41 12.74 2.49
-1.67 12.71 2.49
-1.92 12.67 2.49
-2.18 12.63 2.49
-2.43 12.58 2.49
-2.68 12.53 2.49
-2.93 12.48 2.49
-3.18 12.42 2.49
-3.43 12.35 2.49
-3.68 12.28 2.49
-3.93 12.20 2.49
-4.17 12.12 2.49
-4.42 12.04 2.49
-4.66 11.95 2.49
-4.90 11.86 2.49
-5.14 11.76 2.49
-5.37 11.65 2.49
-5.61 11.54 2.49
-5.77 11.29 2.46
-5.82 10.85 2.39
-5.95 10.57 2.36
-6.25 10.61 2.39
-6.46 10.48 2.39
-6.68 10.35 2.39
-6.88 10.22 2.39
-7.09 10.08 2.39
-7.29 9.94 2.39
-7.49 9.80 2.39
-7.69 9.65 2.39
-7.89 9.49 2.39
-8.08 9.34 2.39
-7.41 8.23 2.14
-7.53 8.02 2.13
-7.78 7.96 2.15
-8.82 8.67 2.39
-8.99 8.50 2.39
-9.16 8.32 2.39
-9.33 8.13 2.39
-9.50 7.95 2.39
-9.66 7.76 2.39
-9.53 6.20 2.19
-9.54 5.93 2.16
-9.56 5.68 2.14
-9.59 5.44 2.12
-9.60 5.19 2.10
-9.60 4.95 2.07
-9.60 4.71 2.05
-9.61 4.47 2.03
-9.61 4.24 2.01
-9.61 4.01 1.99
-9.61 3.79 1.98
-9.61 3.57 1.96
-9.61 3.35 1.95
-9.61 3.13 1.93
-9.61 2.92 1.92
-9.61 2.71 1.91
-9.62 2.50 1.90
-9.56 2.29 1.87
-9.62 2.10 1.88
-9.62 1.90 1.87
-9.62 1.70 1.86
-9.62 1.50 1.85
-9.62 1.30 1.85
-9.62 1.10 1.84
-9.62 0.91 1.83
-9.63 0.71 1.83
-9.63 0.52 1.83
-9.63 0.33 1.82
-9.63 0.13 1.82
-9.63 -0.06 1.82
-9.63 -0.25 1.82
-9.63 -0.45 1.82
-9.63 -0.64 1.82
-9.63 -0.84 1.82
-9.63 -1.03 1.83
-9.64 -1.23 1.83
-9.64 -1.42 1.83
-9.64 -1.62 1.84
-9.58 -1.81 1.83
-9.64 -2.02 1.85
-9.64 -2.23 1.86
-9.64 -2.43 1.86
-9.64 -2.64 1.87
-9.64 -2.85 1.88
-9.65 -3.06 1.89
-9.65 -3.28 1.90
-9.65 -3.49 1.92
-9.65 -3.72 1.93
-9.65 -3.94 1.94
-9.65 -4.17 1.96
-9.65 -4.40 1.98
-9.65 -4.64 1.99
-9.66 -4.88 2.01
-9.66 -5.13 2.03
-9.66 -5.38 2.05
-9.66 -5.63 2.08
-9.66 -5.90 2.10
-9.65 -6.16 2.12
-9.61 -6.41 2.14
-9.61 -6.69 2.17
-9.61 -6.98 2.20
-9.84 -8.43 2.39
-6.46 -5.77 1.60
-9.50 -8.83 2.39
-9.33 -9.03 2.39
-9.15 -9.22 2.39
-8.97 -9.40 2.39
-8.79 -9.59 2.39
-8.60 -9.77 2.39
-8.40 -9.94 2.39
-8.21 -10.12 2.39
-8.01 -10.28 2.39
-7.80 -10.45 2.39
-7.60 -10.61 2.39
-7.39 -10.76 2.39
-7.17 -10.92 2.39
-6.96 -11.06 2.39
-6.74 -11.21 2.39
-6.51 -11.34 2.39
-6.29 -11.48 2.39
-6.06 -11.61 2.39
-5.91 -11.89 2.42
-5.83 -12.36 2.49
-5.59 -12.48 2.49
-5.34 -12.60 2.49
-5.09 -12.71 2.49
-4.83 -12.81 2.49
-4.58 -12.91 2.49
-4.32 -13.00 2.49
-4.06 -13.09 2.49
-3.80 -13.17 2.49
-3.53 -13.25 2.49
-3.27 -13.32 2.49
-3.00 -13.39 2.49
-2.73 -13.45 2.49
-2.46 -13.51 2.49
-2.19 -13.56 2.49
-1.92 -13.60 2.49
-1.65 -13.64 2.49
-1.37 -13.67 2.49
-1.10 -13.70 2.49
-0.82 -13.72 2.49
-0.55 -13.74 2.49
-0.27 -13.75 2.49
0.00 -12.18 2.49
0.25 -12.18 2.49
0.49 -12.18 2.49
0.74 -12.17 2.49
0.98 -12.15 2.49
1.22 -12.13 2.49
1.47 -12.10 2.49
1.71 -12.07 2.49
1.95 -12.03 2.49
2.15 -11.75 2.44
2.34 -11.49 2.40
2.56 -11.40 2.39
2.79 -11.35 2.39
3.01 -11.29 2.39
3.24 -11.23 2.39
3.46 -11.16 2.39
3.69 -11.09 2.39
3.91 -11.01 2.39
4.13 -10.93 2.39
4.34 -10.84 2.39
4.56 -10.75 2.39
4.77 -10.66 2.39
4.99 -10.56 2.39
5.20 -10.45 2.39
5.40 -10.34 2.39
5.61 -10.23 2.39
5.81 -10.11 2.39
6.01 -9.99 2.39
6.20 -9.85 2.39
6.37 -9.69 2.38
6.54 -9.53 2.37
6.71 -9.36 2.36
6.87 -9.19 2.36
7.03 -9.02 2.35
7.18 -8.85 2.34
7.34 -8.67 2.34
7.48 -8.50 2.33
7.63 -8.32 2.32
7.77 -8.14 2.32
7.91 -7.96 2.31
8.04 -7.77 2.30
8.17 -7.59 2.30
5.67 -5.06 1.57
5.80 -4.97 1.57
5.89 -4.84 1.57
5.87 -4.64 1.54
5.99 -4.53 1.55
6.25 -4.54 1.59
6.27 -4.37 1.58
9.08 -6.05 2.26
4.20 -2.68 1.03
4.12 -2.52 1.00
4.12 -2.40 0.99
4.15 -2.31 0.98
4.21 -2.23 0.99
4.29 -2.17 1.00
4.41 -2.12 1.02
10.47 -4.77 2.39
10.55 -4.56 2.39
9.89 -4.04 2.22
9.95 -3.83 2.22
10.01 -3.63 2.21
10.07 -3.42 2.21
10.12 -3.21 2.21
9.87 -2.92 2.14
10.21 -2.79 2.21
10.25 -2.59 2.20
10.28 -2.38 2.20
10.32 -2.17 2.20
10.35 -1.96 2.20
10.37 -1.75 2.20
10.40 -1.54 2.20
10.41 -1.33 2.20
10.43 -1.12 2.20
10.44 -0.91 2.20
10.45 -0.70 2.20
9.99 -0.46 2.10
10.46 -0.28 2.20
10.45 -0.07 2.20
10.45 0.14 2.20
10.44 0.35 2.20
11.10 0.60 2.34
11.00 0.81 2.32
10.85 1.02 2.30
10.73 1.23 2.28
10.62 1.43 2.26
10.51 1.63 2.25
10.39 1.83 2.23
7.18 1.41 1.55
6.88 1.50 1.49
6.82 1.63 1.48
6.83 1.78 1.49
6.79 1.91 1.50
6.81 2.07 1.51
6.81 2.22 1.52
6.80 2.37 1.53
6.81 2.52 1.54
6.81 2.68 1.56
6.84 2.85 1.58
9.70 4.27 2.26
7.18 3.34 1.69
6.89 3.37 1.64
6.81 3.51 1.63
6.80 3.68 1.65
6.79 3.85 1.67
6.76 4.01 1.68
6.82 4.23 1.72
6.83 4.44 1.74
6.77 4.59 1.75
6.86 4.86 1.80
6.91 5.10 1.84
7.12 5.48 1.93
6.92 5.55 1.90
6.80 5.68 1.90
6.80 5.92 1.94
6.79 6.16 1.97
6.79 6.41 2.01
6.81 6.69 2.06
6.35 6.50 1.96
6.22 6.62 1.96
6.10 6.77 1.96
6.11 7.06 2.01
6.11 7.35 2.06
6.12 7.66 2.12
6.12 7.99 2.17
6.12 8.34 2.23
6.12 8.70 2.30
6.12 9.08 2.37
5.99 9.29 2.39
5.80 9.40 2.39
5.61 9.52 2.39
5.42 9.62 2.39
5.22 9.73 2.39
5.02 9.82 2.39
4.82 9.92 2.39
4.62 10.01 2.39
4.42 10.10 2.39
4.21 10.18 2.39
4.00 10.26 2.39
3.80 10.34 2.39
3.59 10.41 2.39
3.38 10.47 2.39
3.16 10.54 2.39
2.95 10.59 2.39
2.74 10.65 2.39
2.52 10.70 2.39
2.30 10.74 2.39
2.18 11.25 2.49
1.95 11.29 2.49
1.72 11.33 2.49
1.50 11.36 2.49
1.27 11.38 2.49
1.04 11.40 2.49
0.81 11.42 2.49
0.58 11.43 2.49
0.35 11.44 2.49
0.12 11.44 2.49
-0.11 11.44 2.49
-0.34 11.44 2.49
-0.57 11.43 2.49
-0.80 11.41 2.49
-1.03 11.39 2.49
-1.26 11.37 2.49
-1.49 11.34 2.49
-1.72 11.31 2.49
-1.94 11.27 2.49
-2.17 11.23 2.49
-2.39 11.18 2.49
-2.62 11.13 2.49
-2.84 11.08 2.49
-3.06 11.02 2.49
-3.28 10.96 2.49
-3.50 10.89 2.49
-3.72 10.82 2.49
-3.94 10.74 2.49
-4.16 10.66 2.49
-4.37 10.58 2.49
-4.58 10.49 2.49
-4.79 10.40 2.49
-5.00 10.30 2.49
-5.21 10.20 2.49
-5.41 10.09 2.49
-5.62 9.99 2.49
-5.77 9.80 2.48
-5.78 9.38 2.40
-5.96 9.24 2.39
-6.14 9.12 2.39
-6.33 9.00 2.39
-6.51 8.87 2.39
-6.69 8.74 2.39
-6.86 8.60 2.39
-7.04 8.47 2.39
-7.21 8.33 2.39
-7.37 8.18 2.39
-7.54 8.04 2.39
-7.70 7.89 2.39
-7.86 7.73 2.39
-8.02 7.58 2.39
-8.17 7.42 2.39
-8.32 7.25 2.39
-8.47 7.09 2.39
-8.61 6.92 2.39
-8.76 6.75 2.39
-8.89 6.57 2.39
-9.03 6.39 2.39
-9.16 6.21 2.39
-9.29 6.03 2.39
-9.41 5.85 2.39
-9.53 5.66 2.39
-9.65 5.47 2.39
-9.76 5.28 2.39
-9.57 3.77 2.21
-9.55 3.54 2.19
-9.55 3.33 2.17
-9.56 3.11 2.16
-9.56 2.90 2.14
-9.58 2.70 2.13
-9.60 2.50 2.12
-9.56 2.28 2.10
-9.62 2.10 2.11
-9.62 1.89 2.10
-9.62 1.69 2.09
-9.62 1.50 2.08
-9.62 1.30 2.07
-9.62 1.10 2.07
-9.62 0.91 2.06
-9.63 0.71 2.06
-9.63 0.52 2.05
-9.63 0.33 2.05
-9.63 0.13 2.05
-9.63 -0.06 2.05
-9.63 -0.25 2.05
-9.63 -0.45 2.05
-9.63 -0.64 2.05
-9.63 -0.84 2.05
-9.63 -1.03 2.05
-9.64 -1.23 2.06
-9.64 -1.43 2.06
-9.64 -1.62 2.07
-9.58 -1.81 2.06
-9.64 -2.03 2.08
-9.64 -2.23 2.09
-9.64 -2.43 2.10
-9.64 -2.64 2.11
-9.64 -2.85 2.12
-9.62 -3.06 2.13
-9.61 -3.27 2.13
-9.59 -3.48 2.15
-9.59 -3.70 2.16
-9.59 -3.92 2.18
-9.60 -4.15 2.19
-9.63 -4.39 2.22
-9.88 -5.77 2.39
-9.77 -5.97 2.39
-9.65 -6.16 2.39
-9.53 -6.36 2.39
-9.41 -6.55 2.39
-9.28 -6.75 2.39
-9.15 -6.93 2.39
-9.01 -7.12 2.39
-8.87 -7.30 2.39
-8.73 -7.49 2.39
-6.46 -5.77 1.80
-8.43 -7.84 2.39
-8.28 -8.01 2.39
-8.12 -8.18 2.39
-7.96 -8.34 2.39
-7.79 -8.51 2.39
-7.63 -8.67 2.39
-7.45 -8.82 2.39
-7.28 -8.97 2.39
-7.10 -9.12 2.39
-6.92 -9.27 2.39
-6.74 -9.41 2.39
-6.55 -9.55 2.39
-6.36 -9.68 2.39
-6.17 -9.81 2.39
-5.97 -9.94 2.39
-5.89 -10.27 2.44
-5.81 -10.62 2.49
-5.60 -10.73 2.49
-5.39 -10.85 2.49
-5.17 -10.96 2.49
-4.95 -11.06 2.49
-4.73 -11.17 2.49
-4.51 -11.26 2.49
-4.28 -11.35 2.49
-4.05 -11.44 2.49
-3.83 -11.52 2.49
-3.60 -11.60 2.49
-3.36 -11.68 2.49
-3.13 -11.74 2.49
-2.89 -11.81 2.49
-2.66 -11.87 2.49
-2.42 -11.92 2.49
-2.18 -11.97 2.49
-1.94 -12.01 2.49
-1.70 -12.05 2.49
-1.46 -12.09 2.49
-1.22 -12.12 2.49
-0.97 -12.14 2.49
-0.73 -12.16 2.49
-0.49 -12.17 2.49
-0.24 -12.18 2.49
0.00 -10.93 2.49
0.22 -10.93 2.49
0.44 -10.92 2.49
0.66 -10.91 2.49
0.88 -10.89 2.49
1.10 -10.88 2.49
1.31 -10.85 2.49
1.53 -10.82 2.49
1.75 -10.79 2.49
1.96 -10.75 2.49
2.15 -10.58 2.46
2.29 -10.23 2.39
2.50 -10.18 2.39
2.70 -10.12 2.39
2.90 -10.07 2.39
3.11 -10.01 2.39
3.31 -9.94 2.39
3.50 -9.87 2.39
3.70 -9.80 2.39
3.90 -9.72 2.39
4.09 -9.64 2.39
4.28 -9.56 2.39
4.47 -9.47 2.39
4.66 -9.37 2.39
4.85 -9.28 2.39
5.03 -9.18 2.39
5.21 -9.07 2.39
5.39 -8.96 2.39
5.57 -8.85 2.39
5.74 -8.74 2.39
5.92 -8.62 2.39
6.09 -8.49 2.39
6.24 -8.35 2.39
6.39 -8.20 2.38
6.53 -8.04 2.37
6.67 -7.89 2.37
6.81 -7.73 2.36
6.94 -7.57 2.35
7.07 -7.41 2.35
7.20 -7.24 2.34
7.32 -7.08 2.34
7.44 -6.91 2.33
5.68 -5.07 1.75
5.70 -4.88 1.72
5.70 -4.69 1.70
5.68 -4.49 1.66
5.78 -4.38 1.67
6.05 -4.40 1.72
6.29 -4.38 1.77
8.28 -5.52 2.29
4.20 -2.68 1.15
4.12 -2.52 1.11
4.12 -2.41 1.10
4.15 -2.31 1.10
4.21 -2.23 1.10
4.29 -2.17 1.11
4.42 -2.12 1.13
8.91 -4.06 2.26
8.97 -3.88 2.26
9.04 -3.69 2.26
9.09 -3.50 2.26
9.15 -3.31 2.25
9.20 -3.13 2.25
9.25 -2.94 2.25
9.29 -2.75 2.25
9.33 -2.56 2.25
9.37 -2.37 2.24
9.40 -2.17 2.24
9.44 -1.98 2.24
9.46 -1.79 2.24
9.49 -1.60 2.24
9.51 -1.41 2.24
9.53 -1.22 2.24
9.54 -1.02 2.24
9.55 -0.83 2.24
9.56 -0.64 2.24
9.57 -0.45 2.24
9.57 -0.25 2.24
9.57 -0.06 2.24
9.56 0.13 2.24
9.55 0.32 2.24
10.08 0.54 2.36
9.99 0.74 2.35
9.90 0.93 2.33
9.80 1.12 2.31
9.71 1.31 2.30
9.67 1.50 2.30
9.65 1.70 2.30
7.18 1.41 1.72
6.88 1.50 1.66
6.85 1.63 1.66
6.84 1.78 1.67
6.78 1.91 1.66
6.75 2.05 1.66
6.81 2.22 1.69
6.82 2.37 1.71
6.82 2.53 1.72
6.81 2.68 1.73
6.85 2.86 1.76
6.90 3.04 1.78
7.42 3.45 1.94
7.09 3.47 1.87
6.84 3.52 1.82
6.80 3.68 1.83
6.79 3.85 1.85
6.80 4.03 1.88
6.81 4.23 1.90
6.81 4.42 1.93
6.90 4.68 1.98
6.91 4.89 2.01
6.91 5.10 2.05
7.12 5.48 2.14
6.88 5.52 2.10
6.30 5.26 1.96
6.19 5.39 1.96
6.10 5.53 1.96
6.11 5.76 2.00
6.11 6.00 2.05
6.11 6.25 2.09
6.11 6.51 2.13
6.11 6.78 2.18
6.11 7.06 2.23
6.11 7.35 2.29
6.12 7.66 2.35
6.07 7.92 2.39
5.91 8.04 2.39
5.74 8.15 2.39
5.57 8.27 2.39
5.40 8.37 2.39
5.23 8.48 2.39
5.06 8.58 2.39
4.88 8.67 2.39
4.71 8.77 2.39
4.53 8.86 2.39
4.35 8.94 2.39
4.17 9.02 2.39
3.98 9.10 2.39
3.80 9.18 2.39
3.61 9.25 2.39
3.42 9.32 2.39
3.23 9.38 2.39
3.04 9.44 2.39
2.85 9.50 2.39
2.66 9.55 2.39
2.47 9.60 2.39
2.27 9.65 2.39
2.17 10.11 2.49
1.96 10.15 2.49
1.76 10.18 2.49
1.55 10.21 2.49
1.35 10.24 2.49
1.14 10.26 2.49
0.94 10.28 2.49
0.73 10.30 2.49
0.52 10.31 2.49
0.31 10.32 2.49
0.11 10.32 2.49
-0.10 10.32 2.49
-0.31 10.31 2.49
-0.52 10.31 2.49
-0.72 10.29 2.49
-0.93 10.28 2.49
-1.14 10.25 2.49
-1.34 10.23 2.49
-1.55 10.20 2.49
-1.75 10.17 2.49
-1.96 10.13 2.49
-2.16 10.09 2.49
-2.36 10.04 2.49
-2.56 9.99 2.49
-2.76 9.94 2.49
-2.96 9.88 2.49
-3.16 9.82 2.49
-3.36 9.76 2.49
-3.55 9.69 2.49
-3.75 9.62 2.49
-3.94 9.54 2.49
-4.13 9.46 2.49
-4.32 9.38 2.49
-4.51 9.29 2.49
-4.70 9.20 2.49
-4.88 9.10 2.49
-5.07 9.01 2.49
-5.25 8.90 2.49
-5.43 8.80 2.49
-5.60 8.69 2.49
-5.78 8.58 2.49
-5.78 8.22 2.42
-5.87 8.00 2.39
-6.03 7.88 2.39
-6.19 7.76 2.39
-6.34 7.63 2.39
-6.50 7.51 2.39
-6.65 7.38 2.39
-6.80 7.24 2.39
-6.94 7.11 2.39
-7.09 6.97 2.39
-7.23 6.83 2.39
-7.37 6.68 2.39
-7.50 6.54 2.39
-7.64 6.39 2.39
-7.77 6.23 2.39
-7.89 6.08 2.39
-8.02 5.92 2.39
-8.14 5.76 2.39
-8.25 5.60 2.39
-8.37 5.44 2.39
-8.48 5.27 2.39
-8.59 5.10 2.39
-8.69 4.93 2.39
-8.79 4.75 2.39
-8.89 4.58 2.39
-8.99 4.40 2.39
-9.08 4.22 2.39
-9.16 4.04 2.39
-9.25 3.86 2.39
-9.33 3.67 2.39
-9.40 3.49 2.39
-9.48 3.30 2.39
-9.55 3.11 2.39
-9.61 2.92 2.39
-9.67 2.73 2.39
-9.73 2.53 2.39
-9.56 2.28 2.34
-9.83 2.14 2.39
-9.58 -1.81 2.29
-9.84 -2.70 2.39
-9.79 -2.90 2.39
-9.73 -3.09 2.39
-9.68 -3.29 2.39
-9.61 -3.49 2.39
-9.55 -3.68 2.39
-9.48 -3.87 2.39
-9.40 -4.06 2.39
-9.32 -4.25 2.39
-9.24 -4.44 2.39
-9.16 -4.63 2.39
-9.07 -4.82 2.39
-8.97 -5.00 2.39
-8.88 -5.18 2.39
-8.78 -5.36 2.39
-8.67 -5.54 2.39
-8.56 -5.72 2.39
-8.45 -5.89 2.39
-8.34 -6.06 2.39
-8.22 -6.23 2.39
-8.09 -6.40 2.39
-7.97 -6.56 2.39
-7.84 -6.72 2.39
-6.46 -5.77 2.00
-7.57 -7.04 2.39
-7.43 -7.19 2.39
-7.29 -7.34 2.39
-7.14 -7.49 2.39
-7.00 -7.64 2.39
-6.84 -7.78 2.39
-6.69 -7.92 2.39
-6.53 -8.06 2.39
-6.37 -8.19 2.39
-6.21 -8.32 2.39
-6.04 -8.45 2.39
-5.89 -8.59 2.40
-5.89 -8.96 2.47
-5.77 -9.18 2.49
-5.59 -9.30 2.49
-5.40 -9.42 2.49
-5.22 -9.53 2.49
-5.03 -9.63 2.49
-4.83 -9.73 2.49
-4.64 -9.83 2.49
-4.44 -9.93 2.49
-4.24 -10.02 2.49
-4.04 -10.10 2.49
-3.84 -10.19 2.49
-3.64 -10.26 2.49
-3.43 -10.34 2.49
-3.22 -10.41 2.49
-3.02 -10.47 2.49
-2.81 -10.53 2.49
-2.59 -10.59 2.49
-2.38 -10.64 2.49
-2.17 -10.69 2.49
-1.95 -10.73 2.49
-1.74 -10.77 2.49
-1.52 -10.81 2.49
-1.31 -10.84 2.49
-1.09 -10.86 2.49
-0.87 -10.89 2.49
-0.65 -10.90 2.49
-0.43 -10.92 2.49
-0.22 -10.92 2.49
0.00 -9.89 2.49
0.20 -9.89 2.49
0.40 -9.89 2.49
0.60 -9.88 2.49
0.80 -9.87 2.49
0.99 -9.85 2.49
1.19 -9.83 2.49
1.39 -9.80 2.49
1.58 -9.77 2.49
1.78 -9.74 2.49
1.97 -9.70 2.49
2.16 -9.61 2.48
2.26 -9.22 2.39
2.45 -9.17 2.39
2.63 -9.12 2.39
2.81 -9.06 2.39
2.99 -9.00 2.39
3.17 -8.94 2.39
3.35 -8.87 2.39
3.53 -8.80 2.39
3.70 -8.73 2.39
3.88 -8.65 2.39
4.05 -8.57 2.39
4.22 -8.49 2.39
4.39 -8.40 2.39
4.55 -8.31 2.39
4.72 -8.22 2.39
4.88 -8.12 2.39
5.04 -8.02 2.39
5.20 -7.91 2.39
5.36 -7.80 2.39
5.51 -7.69 2.39
5.66 -7.58 2.39
5.81 -7.46 2.39
5.96 -7.34 2.39
6.10 -7.22 2.39
6.23 -7.08 2.39
6.36 -6.94 2.38
6.48 -6.79 2.38
6.60 -6.64 2.37
6.71 -6.49 2.37
6.82 -6.34 2.36
5.68 -5.07 1.93
5.70 -4.89 1.90
5.70 -4.69 1.87
5.68 -4.49 1.84
5.78 -4.38 1.84
6.05 -4.40 1.90
6.29 -4.38 1.95
7.88 -5.26 2.41
4.20 -2.68 1.27
4.12 -2.52 1.23
4.12 -2.41 1.21
4.15 -2.31 1.21
4.21 -2.23 1.21
4.29 -2.17 1.22
4.42 -2.12 1.25
8.19 -3.74 2.30
8.25 -3.57 2.29
8.31 -3.39 2.29
8.36 -3.22 2.29
8.42 -3.05 2.29
8.46 -2.88 2.28
8.51 -2.70 2.28
8.55 -2.53 2.28
8.59 -2.35 2.28
8.62 -2.18 2.28
8.66 -2.00 2.28
8.69 -1.83 2.28
8.71 -1.65 2.27
8.74 -1.47 2.27
8.76 -1.30 2.27
8.77 -1.12 2.27
8.79 -0.94 2.27
8.80 -0.77 2.27
8.81 -0.59 2.27
8.81 -0.41 2.27
8.81 -0.24 2.27
8.81 -0.06 2.27
8.81 0.12 2.27
8.80 0.29 2.27
8.79 0.47 2.27
9.17 0.68 2.37
9.12 0.86 2.37
9.10 1.04 2.37
6.11 0.82 1.59
5.80 0.90 1.52
5.78 1.02 1.52
5.83 1.15 1.54
7.09 1.54 1.88
6.85 1.63 1.83
6.85 1.78 1.84
6.78 1.91 1.83
6.79 2.06 1.84
6.80 2.21 1.86
6.80 2.36 1.87
6.80 2.52 1.89
6.82 2.68 1.91
6.89 2.87 1.94
6.90 3.04 1.96
7.38 3.43 2.12
7.04 3.45 2.04
6.86 3.53 2.01
6.87 3.71 2.04
6.80 3.85 2.04
6.80 4.03 2.07
6.36 3.95 1.96
6.28 4.07 1.96
6.19 4.20 1.96
6.10 4.32 1.96
6.09 4.49 1.98
6.10 4.70 2.02
6.10 4.89 2.05
6.10 5.10 2.09
6.10 5.31 2.12
6.11 5.53 2.16
6.11 5.76 2.21
6.11 6.00 2.25
6.11 6.25 2.30
6.11 6.50 2.35
6.09 6.75 2.39
5.95 6.87 2.39
5.81 6.98 2.39
5.66 7.09 2.39
5.52 7.20 2.39
5.37 7.31 2.39
5.22 7.41 2.39
5.07 7.51 2.39
4.91 7.61 2.39
4.76 7.71 2.39
4.60 7.80 2.39
4.44 7.89 2.39
4.28 7.97 2.39
4.12 8.05 2.39
3.95 8.13 2.39
3.79 8.21 2.39
3.62 8.28 2.39
3.45 8.35 2.39
3.28 8.41 2.39
3.11 8.48 2.39
2.94 8.53 2.39
2.77 8.59 2.39
2.60 8.64 2.39
2.42 8.69 2.39
2.25 8.76 2.40
2.16 9.15 2.49
1.97 9.19 2.49
1.79 9.23 2.49
1.60 9.26 2.49
1.41 9.29 2.49
1.23 9.32 2.49
1.04 9.34 2.49
0.85 9.36 2.49
0.66 9.37 2.49
0.47 9.38 2.49
0.29 9.39 2.49
0.10 9.39 2.49
-0.09 9.39 2.49
-0.28 9.38 2.49
-0.47 9.38 2.49
-0.66 9.36 2.49
-0.85 9.35 2.49
-1.03 9.33 2.49
-1.22 9.31 2.49
-1.41 9.28 2.49
-1.59 9.25 2.49
-1.78 9.22 2.49
-1.96 9.18 2.49
-2.15 9.14 2.49
-2.33 9.09 2.49
-2.51 9.04 2.49
-2.70 8.99 2.49
-2.88 8.94 2.49
-3.06 8.88 2.49
-3.23 8.81 2.49
-3.41 8.75 2.49
-3.59 8.68 2.49
-3.76 8.61 2.49
-3.93 8.53 2.49
-4.10 8.45 2.49
-4.27 8.37 2.49
-4.44 8.28 2.49
-4.61 8.19 2.49
-4.77 8.10 2.49
-4.94 8.00 2.49
-5.10 7.90 2.49
-5.26 7.80 2.49
-5.41 7.70 2.49
-5.57 7.59 2.49
-5.72 7.48 2.49
-5.78 7.25 2.46
-5.79 6.97 2.40
-5.91 6.83 2.39
-6.05 6.71 2.39
-6.18 6.59 2.39
-6.32 6.46 2.39
-6.45 6.34 2.39
-6.58 6.21 2.39
-6.70 6.08 2.39
-6.82 5.94 2.39
-6.94 5.81 2.39
-7.06 5.67 2.39
-7.18 5.53 2.39
-7.29 5.38 2.39
-7.40 5.24 2.39
-7.51 5.09 2.39
-7.61 4.94 2.39
-7.71 4.79 2.39
-7.81 4.63 2.39
-7.90 4.48 2.39
-7.99 4.32 2.39
-8.08 4.16 2.39
-8.17 4.00 2.39
-8.25 3.84 2.39
-8.33 3.67 2.39
-8.40 3.50 2.39
-8.48 3.34 2.39
-8.55 3.17 2.39
-8.61 3.00 2.39
-8.67 2.82 2.39
-8.73 2.65 2.39
-8.79 2.48 2.39
-8.84 2.30 2.39
-8.89 2.12 2.39
-8.94 1.94 2.39
-8.98 1.77 2.39
-9.01 1.59 2.39
-9.05 1.40 2.39
-9.08 1.22 2.39
-9.11 1.04 2.39
-9.13 0.86 2.39
-9.15 0.68 2.39
-9.17 0.49 2.39
-9.18 0.31 2.39
-9.19 0.12 2.39
-9.19 -0.06 2.39
-9.20 -0.25 2.39
-9.19 -0.43 2.39
-9.19 -0.62 2.39
-9.18 -0.80 2.39
-9.17 -0.99 2.39
-9.15 -1.17 2.39
-9.13 -1.35 2.39
-9.11 -1.54 2.39
-9.08 -1.72 2.39
-9.05 -1.90 2.39
-9.01 -2.09 2.39
-8.97 -2.27 2.39
-8.93 -2.45 2.39
-8.88 -2.63 2.39
-8.83 -2.81 2.39
-8.78 -2.99 2.39
-8.72 -3.16 2.39
-8.66 -3.34 2.39
-8.60 -3.51 2.39
-8.53 -3.69 2.39
-8.46 -3.86 2.39
-8.38 -4.03 2.39
-8.31 -4.20 2.39
-8.22 -4.37 2.39
-8.14 -4.54 2.39
-8.05 -4.70 2.39
-7.96 -4.86 2.39
-7.86 -5.02 2.39
-7.76 -5.18 2.39
-7.66 -5.34 2.39
-7.56 -5.50 2.39
-7.45 -5.65 2.39
-7.34 -5.80 2.39
-7.22 -5.95 2.39
-7.11 -6.10 2.39
-6.45 -5.77 2.21
-6.86 -6.38 2.39
-6.74 -6.52 2.39
-6.61 -6.66 2.39
-6.47 -6.79 2.39
-6.34 -6.92 2.39
-6.20 -7.05 2.39
-6.06 -7.18 2.39
-5.92 -7.30 2.39
-5.88 -7.56 2.44
-5.87 -7.86 2.49
-5.71 -7.98 2.49
-5.55 -8.10 2.49
-5.39 -8.21 2.49
-5.23 -8.32 2.49
-5.06 -8.43 2.49
-4.89 -8.53 2.49
-4.72 -8.63 2.49
-4.55 -8.73 2.49
-4.38 -8.82 2.49
-4.20 -8.91 2.49
-4.02 -8.99 2.49
-3.84 -9.07 2.49
-3.66 -9.15 2.49
-3.48 -9.23 2.49
-3.29 -9.30 2.49
-3.11 -9.36 2.49
-2.92 -9.43 2.49
-2.73 -9.49 2.49
-2.54 -9.54 2.49
-2.35 -9.59 2.49
-2.16 -9.64 2.49
-1.96 -9.68 2.49
-1.77 -9.72 2.49
-1.58 -9.76 2.49
-1.38 -9.79 2.49
-1.18 -9.82 2.49
-0.99 -9.84 2.49
-0.79 -9.86 2.49
-0.59 -9.87 2.49
-0.39 -9.88 2.49
-0.20 -9.89 2.49
0.00 -9.03 2.49
0.18 -9.03 2.49
0.36 -9.03 2.49
0.55 -9.02 2.49
0.73 -9.00 2.49
0.91 -8.99 2.49
1.09 -8.97 2.49
1.27 -8.95 2.49
1.45 -8.92 2.49
1.62 -8.89 2.49
1.80 -8.85 2.49
1.98 -8.82 2.49
2.15 -8.77 2.49
2.23 -8.37 2.39
2.40 -8.32 2.39
2.57 -8.27 2.39
2.73 -8.22 2.39
2.90 -8.16 2.39
3.06 -8.10 2.39
3.22 -8.04 2.39
3.38 -7.97 2.39
3.54 -7.90 2.39
3.70 -7.83 2.39
3.85 -7.75 2.39
4.00 -7.67 2.39
4.16 -7.59 2.39
4.31 -7.50 2.39
4.46 -7.41 2.39
4.60 -7.32 2.39
4.75 -7.22 2.39
4.89 -7.13 2.39
5.03 -7.02 2.39
5.17 -6.92 2.39
5.31 -6.81 2.39
5.44 -6.71 2.39
5.57 -6.59 2.39
5.70 -6.48 2.39
5.83 -6.36 2.39
5.95 -6.24 2.39
6.08 -6.12 2.39
6.19 -5.99 2.39
6.30 -5.85 2.39
5.68 -5.07 2.11
5.70 -4.89 2.08
5.70 -4.69 2.05
5.68 -4.49 2.01
5.78 -4.38 2.02
6.05 -4.40 2.08
6.29 -4.38 2.13
7.20 -4.80 2.41
4.20 -2.68 1.39
4.12 -2.52 1.35
4.12 -2.41 1.33
4.15 -2.31 1.32
4.21 -2.23 1.33
4.29 -2.17 1.34
4.42 -2.12 1.37
7.58 -3.46 2.33
7.63 -3.30 2.32
7.69 -3.14 2.32
7.74 -2.98 2.32
7.79 -2.82 2.32
7.83 -2.66 2.31
7.87 -2.50 2.31
7.91 -2.34 2.31
7.95 -2.18 2.31
7.98 -2.02 2.31
8.01 -1.86 2.31
8.04 -1.69 2.31
8.07 -1.53 2.30
8.09 -1.37 2.30
8.11 -1.20 2.30
8.13 -1.04 2.30
8.14 -0.88 2.30
8.15 -0.71 2.30
8.16 -0.55 2.30
8.16 -0.38 2.30
8.16 -0.22 2.30
8.16 -0.06 2.30
8.16 0.11 2.30
8.15 0.27 2.30
8.15 0.44 2.30
8.50 0.63 2.41
8.49 0.80 2.41
8.46 0.97 2.41
5.69 0.76 1.62
5.57 0.86 1.60
5.58 0.98 1.60
5.58 1.09 1.61
5.83 1.27 1.69
6.85 1.63 2.00
6.86 1.78 2.01
6.79 1.91 2.00
6.79 2.06 2.02
6.81 2.21 2.03
6.81 2.37 2.05
6.81 2.52 2.06
6.81 2.68 2.08
6.35 2.64 1.96
6.29 2.77 1.96
6.23 2.89 1.96
6.17 3.02 1.96
6.10 3.14 1.96
6.08 3.28 1.97
6.09 3.45 2.00
6.09 3.61 2.02
6.10 3.78 2.05
6.10 3.95 2.08
6.10 4.13 2.11
6.10 4.31 2.14
6.10 4.50 2.17
6.10 4.69 2.20
6.10 4.89 2.24
6.10 5.10 2.28
6.10 5.31 2.32
6.11 5.53 2.36
6.06 5.72 2.39
5.94 5.84 2.39
5.82 5.95 2.39
5.70 6.07 2.39
5.58 6.18 2.39
5.45 6.29 2.39
5.32 6.39 2.39
5.19 6.50 2.39
5.05 6.60 2.39
4.92 6.69 2.39
4.78 6.79 2.39
4.64 6.88 2.39
4.50 6.97 2.39
4.36 7.06 2.39
4.22 7.14 2.39
4.07 7.22 2.39
3.92 7.30 2.39
3.77 7.38 2.39
3.62 7.45 2.39
3.47 7.52 2.39
3.32 7.58 2.39
3.17 7.65 2.39
3.01 7.71 2.39
2.85 7.76 2.39
2.70 7.82 2.39
2.54 7.87 2.39
2.38 7.92 2.39
2.24 8.03 2.41
2.15 8.35 2.49
1.98 8.39 2.49
1.81 8.42 2.49
1.64 8.46 2.49
1.47 8.49 2.49
1.30 8.51 2.49
1.13 8.54 2.49
0.95 8.56 2.49
0.78 8.57 2.49
0.61 8.59 2.49
0.44 8.59 2.49
0.26 8.60 2.49
0.09 8.60 2.49
-0.08 8.60 2.49
-0.26 8.60 2.49
-0.43 8.59 2.49
-0.60 8.58 2.49
-0.77 8.57 2.49
-0.95 8.55 2.49
-1.12 8.53 2.49
-1.29 8.50 2.49
-1.46 8.48 2.49
-1.63 8.44 2.49
-1.80 8.41 2.49
-1.97 8.37 2.49
-2.14 8.33 2.49
-2.30 8.29 2.49
-2.47 8.24 2.49
-2.64 8.19 2.49
-2.80 8.13 2.49
-2.96 8.08 2.49
-3.13 8.02 2.49
-3.29 7.95 2.49
-3.45 7.89 2.49
-3.60 7.82 2.49
-3.76 7.74 2.49
-3.92 7.67 2.49
-4.07 7.59 2.49
-4.22 7.51 2.49
-4.37 7.42 2.49
-4.52 7.33 2.49
-4.67 7.24 2.49
-4.82 7.15 2.49
-4.96 7.05 2.49
-5.10 6.95 2.49
-5.24 6.85 2.49
-5.38 6.74 2.49
-5.51 6.63 2.49
-5.65 6.52 2.49
-5.78 6.41 2.49
-5.79 6.16 2.44
-5.80 5.93 2.40
-5.91 5.81 2.39
-6.02 5.69 2.39
-6.14 5.57 2.39
-6.25 5.44 2.39
-6.36 5.32 2.39
-6.47 5.19 2.39
-6.57 5.06 2.39
-6.68 4.93 2.39
-6.78 4.80 2.39
-6.87 4.66 2.39
-6.97 4.52 2.39
-7.06 4.38 2.39
-7.15 4.24 2.39
-7.24 4.10 2.39
-7.32 3.96 2.39
-7.40 3.81 2.39
-7.48 3.66 2.39
-7.55 3.51 2.39
-7.63 3.36 2.39
-7.70 3.21 2.39
-7.76 3.05 2.39
-7.82 2.90 2.39
-7.88 2.74 2.39
-7.94 2.58 2.39
-8.00 2.42 2.39
-8.05 2.26 2.39
-8.09 2.10 2.39
-8.14 1.94 2.39
-8.18 1.78 2.39
-8.22 1.61 2.39
-8.25 1.45 2.39
-8.28 1.28 2.39
-8.31 1.12 2.39
-8.33 0.95 2.39
-8.36 0.78 2.39
-8.37 0.62 2.39
-8.39 0.45 2.39
-8.40 0.28 2.39
-8.41 0.11 2.39
-8.41 -0.06 2.39
-8.41 -0.23 2.39
-8.41 -0.40 2.39
-8.41 -0.56 2.39
-8.40 -0.73 2.39
-8.38 -0.90 2.39
-8.37 -1.07 2.39
-8.35 -1.24 2.39
-8.33 -1.41 2.39
-8.30 -1.58 2.39
-8.27 -1.74 2.39
-8.24 -1.91 2.39
-8.20 -2.08 2.39
-8.16 -2.24 2.39
-8.12 -2.41 2.39
-8.08 -2.57 2.39
-8.03 -2.73 2.39
-7.97 -2.89 2.39
-7.92 -3.05 2.39
-7.86 -3.21 2.39
-7.80 -3.37 2.39
-7.73 -3.53 2.39
-7.66 -3.69 2.39
-7.59 -3.84 2.39
-7.52 -3.99 2.39
-7.44 -4.15 2.39
-7.36 -4.30 2.39
-7.27 -4.45 2.39
-7.19 -4.59 2.39
-7.10 -4.74 2.39
-7.00 -4.88 2.39
-6.91 -5.02 2.39
-6.81 -5.16 2.39
-6.70 -5.30 2.39
-6.60 -5.44 2.39
-6.49 -5.57 2.39
-6.38 -5.70 2.39
-6.27 -5.83 2.39
-6.15 -5.96 2.39
-6.03 -6.08 2.39
-5.91 -6.21 2.39
-5.88 -6.42 2.43
-5.87 -6.68 2.48
-5.78 -6.84 2.49
-5.64 -6.96 2.49
-5.50 -7.07 2.49
-5.36 -7.18 2.49
-5.22 -7.29 2.49
-5.07 -7.40 2.49
-4.92 -7.50 2.49
-4.77 -7.60 2.49
-4.62 -7.70 2.49
-4.47 -7.79 2.49
-4.31 -7.88 2.49
-4.16 -7.97 2.49
-4.00 -8.05 2.49
-3.84 -8.13 2.49
-3.67 -8.21 2.49
-3.51 -8.29 2.49
-3.34 -8.36 2.49
-3.17 -8.42 2.49
-3.01 -8.49 2.49
-2.84 -8.55 2.49
-2.66 -8.61 2.49
-2.49 -8.66 2.49
-2.32 -8.71 2.49
-2.14 -8.76 2.49
-1.97 -8.80 2.49
-1.79 -8.84 2.49
-1.62 -8.87 2.49
-1.44 -8.91 2.49
-1.26 -8.94 2.49
-1.08 -8.96 2.49
-0.90 -8.98 2.49
-0.72 -9.00 2.49
-0.54 -9.01 2.49
-0.36 -9.02 2.49
-0.18 -9.03 2.49
0.00 -8.30 2.49
0.17 -8.30 2.49
0.34 -8.29 2.49
0.50 -8.29 2.49
0.67 -8.27 2.49
0.83 -8.26 2.49
1.00 -8.24 2.49
1.16 -8.22 2.49
1.33 -8.19 2.49
1.49 -8.17 2.49
1.65 -8.13 2.49
1.82 -8.10 2.49
1.98 -8.06 2.49
2.14 -8.02 2.49
2.21 -7.65 2.39
2.36 -7.61 2.39
2.51 -7.55 2.39
2.66 -7.50 2.39
2.81 -7.44 2.39
2.96 -7.38 2.39
3.11 -7.32 2.39
3.25 -7.26 2.39
3.40 -7.19 2.39
3.54 -7.12 2.39
3.68 -7.05 2.39
3.82 -6.97 2.39
3.96 -6.89 2.39
4.09 -6.81 2.39
4.23 -6.73 2.39
4.36 -6.64 2.39
4.49 -6.55 2.39
4.62 -6.46 2.39
4.75 -6.36 2.39
4.88 -6.26 2.39
5.00 -6.16 2.39
5.12 -6.06 2.39
5.24 -5.95 2.39
5.36 -5.85 2.39
5.47 -5.74 2.39
5.58 -5.62 2.39
5.69 -5.51 2.39
5.80 -5.39 2.39
5.68 -5.07 2.30
5.70 -4.89 2.27
5.70 -4.69 2.23
5.68 -4.49 2.19
5.78 -4.38 2.19
6.05 -4.40 2.26
6.29 -4.38 2.32
6.62 -4.42 2.41
4.20 -2.68 1.51
4.08 -2.49 1.45
4.12 -2.41 1.45
4.15 -2.31 1.44
4.21 -2.23 1.44
4.29 -2.17 1.46
4.42 -2.12 1.49
7.04 -3.21 2.35
7.10 -3.07 2.35
7.15 -2.92 2.35
7.19 -2.77 2.34
7.24 -2.63 2.34
7.28 -2.48 2.34
7.32 -2.33 2.34
7.36 -2.18 2.34
7.39 -2.03 2.33
7.43 -1.88 2.33
7.45 -1.73 2.33
7.48 -1.58 2.33
7.50 -1.42 2.33
7.53 -1.27 2.33
7.54 -1.12 2.33
7.56 -0.97 2.33
7.57 -0.82 2.33
7.58 -0.66 2.33
7.59 -0.51 2.33
7.60 -0.36 2.33
7.60 -0.21 2.33
7.60 -0.05 2.33
7.59 0.10 2.33
7.59 0.25 2.33
7.58 0.40 2.33
7.58 0.56 2.33
7.81 0.73 2.41
7.79 0.89 2.41
5.73 0.77 1.78
5.60 0.87 1.74
5.60 0.98 1.75
5.60 1.10 1.76
6.85 1.49 2.16
6.79 1.62 2.15
6.85 1.78 2.18
6.11 1.72 1.96
6.08 1.84 1.96
6.08 1.97 1.97
6.08 2.11 1.99
6.09 2.25 2.00
6.09 2.39 2.02
6.09 2.54 2.04
6.09 2.68 2.06
6.09 2.83 2.08
6.09 2.98 2.10
6.09 3.13 2.12
6.09 3.29 2.14
6.09 3.45 2.17
6.09 3.61 2.20
6.10 3.78 2.23
6.10 3.95 2.25
6.10 4.13 2.29
6.10 4.31 2.32
6.10 4.50 2.36
6.10 4.69 2.39
6.00 4.81 2.39
5.90 4.93 2.39
5.80 5.04 2.39
5.69 5.16 2.39
5.59 5.27 2.39
5.48 5.38 2.39
5.37 5.48 2.39
5.25 5.59 2.39
5.14 5.69 2.39
5.02 5.79 2.39
4.90 5.89 2.39
4.78 5.98 2.39
4.66 6.08 2.39
4.53 6.17 2.39
4.41 6.26 2.39
4.28 6.34 2.39
4.15 6.42 2.39
4.02 6.50 2.39
3.88 6.58 2.39
3.75 6.66 2.39
3.62 6.73 2.39
3.48 6.80 2.39
3.34 6.86 2.39
3.20 6.93 2.39
3.06 6.99 2.39
2.92 7.05 2.39
2.77 7.10 2.39
2.63 7.16 2.39
2.49 7.21 2.39
2.34 7.25 2.39
2.24 7.44 2.44
2.13 7.65 2.49
1.98 7.69 2.49
1.82 7.73 2.49
1.67 7.77 2.49
1.51 7.80 2.49
1.35 7.82 2.49
1.20 7.85 2.49
1.04 7.87 2.49
0.88 7.89 2.49
0.72 7.90 2.49
0.56 7.91 2.49
0.40 7.92 2.49
0.24 7.93 2.49
0.08 7.93 2.49
-0.08 7.93 2.49
-0.24 7.93 2.49
-0.40 7.92 2.49
-0.56 7.91 2.49
-0.71 7.90 2.49
-0.87 7.88 2.49
-1.03 7.86 2.49
-1.19 7.84 2.49
-1.35 7.81 2.49
-1.50 7.78 2.49
-1.66 7.75 2.49
-1.82 7.72 2.49
-1.97 7.68 2.49
-2.12 7.64 2.49
-2.28 7.60 2.49
-2.43 7.55 2.49
-2.58 7.50 2.49
-2.73 7.45 2.49
-2.88 7.39 2.49
-3.03 7.33 2.49
-3.18 7.27 2.49
-3.32 7.21 2.49
-3.47 7.14 2.49
-3.61 7.07 2.49
-3.75 6.99 2.49
-3.89 6.92 2.49
-4.03 6.84 2.49
-4.17 6.76 2.49
-4.31 6.67 2.49
-4.44 6.59 2.49
-4.57 6.50 2.49
-4.70 6.41 2.49
-4.83 6.31 2.49
-4.96 6.21 2.49
-5.08 6.11 2.49
-5.21 6.01 2.49
-5.33 5.91 2.49
-5.45 5.80 2.49
-5.56 5.69 2.49
-5.68 5.58 2.49
-5.79 5.47 2.49
-5.79 5.25 2.45
-5.80 5.05 2.41
-5.86 4.90 2.39
-5.96 4.78 2.39
-6.06 4.66 2.39
-6.15 4.54 2.39
-6.24 4.42 2.39
-6.33 4.29 2.39
-6.42 4.17 2.39
-6.51 4.04 2.39
-6.59 3.91 2.39
-6.67 3.78 2.39
-6.74 3.64 2.39
-6.82 3.51 2.39
-6.89 3.37 2.39
-6.96 3.23 2.39
-7.03 3.09 2.39
-7.09 2.95 2.39
-7.15 2.81 2.39
-7.21 2.67 2.39
-7.26 2.52 2.39
-7.32 2.38 2.39
-7.36 2.23 2.39
-7.41 2.08 2.39
-7.45 1.94 2.39
-7.49 1.79 2.39
-7.53 1.64 2.39
-7.57 1.49 2.39
-7.60 1.33 2.39
-7.63 1.18 2.39
-7.65 1.03 2.39
-7.67 0.87 2.39
-7.69 0.72 2.39
-7.71 0.57 2.39
-7.72 0.41 2.39
-7.73 0.26 2.39
-7.74 0.10 2.39
-7.75 -0.05 2.39
-7.75 -0.21 2.39
-7.74 -0.37 2.39
-7.74 -0.52 2.39
-7.73 -0.68 2.39
-7.72 -0.83 2.39
-7.70 -0.99 2.39
-7.69 -1.14 2.39
-7.66 -1.30 2.39
-7.64 -1.45 2.39
-7.61 -1.60 2.39
-7.58 -1.76 2.39
-7.55 -1.91 2.39
-7.51 -2.06 2.39
-7.47 -2.21 2.39
-7.43 -2.36 2.39
-7.39 -2.51 2.39
-7.34 -2.66 2.39
-7.29 -2.81 2.39
-7.23 -2.96 2.39
-7.17 -3.10 2.39
-7.11 -3.25 2.39
-7.05 -3.39 2.39
-6.98 -3.54 2.39
-6.91 -3.68 2.39
-6.84 -3.82 2.39
-6.77 -3.95 2.39
-6.69 -4.09 2.39
-6.61 -4.23 2.39
-6.53 -4.36 2.39
-6.44 -4.49 2.39
-6.35 -4.62 2.39
-6.26 -4.75 2.39
-6.17 -4.88 2.39
-6.08 -5.01 2.39
-5.97 -5.12 2.39
-5.88 -5.25 2.40
-5.87 -5.46 2.43
-5.87 -5.68 2.48
-5.79 -5.84 2.49
-5.67 -5.95 2.49
-5.55 -6.07 2.49
-5.43 -6.18 2.49
-5.31 -6.29 2.49
-5.18 -6.40 2.49
-5.06 -6.50 2.49
-4.93 -6.60 2.49
-4.80 -6.70 2.49
-4.66 -6.80 2.49
-4.53 -6.90 2.49
-4.39 -6.99 2.49
-4.25 -7.08 2.49
-4.11 -7.16 2.49
-3.96 -7.25 2.49
-3.82 -7.33 2.49
-3.67 -7.40 2.49
-3.52 -7.48 2.49
-3.37 -7.55 2.49
-3.22 -7.62 2.49
-3.07 -7.68 2.49
-2.92 -7.74 2.49
-2.76 -7.80 2.49
-2.61 -7.86 2.49
-2.45 -7.91 2.49
-2.29 -7.96 2.49
-2.13 -8.00 2.49
-1.97 -8.05 2.49
-1.81 -8.09 2.49
-1.65 -8.12 2.49
-1.48 -8.16 2.49
-1.32 -8.18 2.49
-1.16 -8.21 2.49
-0.99 -8.23 2.49
-0.83 -8.25 2.49
-0.66 -8.27 2.49
-0.50 -8.28 2.49
-0.33 -8.29 2.49
-0.16 -8.30 2.49
0.00 -7.67 2.49
0.16 -7.67 2.49
0.31 -7.66 2.49
0.46 -7.66 2.49
0.62 -7.64 2.49
0.77 -7.63 2.49
0.92 -7.61 2.49
1.07 -7.59 2.49
1.23 -7.57 2.49
1.38 -7.55 2.49
1.53 -7.52 2.49
1.68 -7.48 2.49
1.83 -7.45 2.49
1.98 -7.41 2.49
2.13 -7.37 2.49
2.18 -7.03 2.40
2.32 -6.98 2.39
2.46 -6.93 2.39
2.60 -6.88 2.39
2.73 -6.82 2.39
2.87 -6.77 2.39
3.00 -6.71 2.39
3.14 -6.64 2.39
3.27 -6.58 2.39
3.40 -6.51 2.39
3.53 -6.44 2.39
3.66 -6.37 2.39
3.78 -6.29 2.39
3.91 -6.22 2.39
4.03 -6.13 2.39
4.15 -6.05 2.39
4.27 -5.97 2.39
4.39 -5.88 2.39
4.51 -5.79 2.39
4.62 -5.70 2.39
4.73 -5.60 2.39
4.84 -5.50 2.39
4.95 -5.40 2.39
5.06 -5.30 2.39
5.16 -5.20 2.39
5.26 -5.09 2.39
5.36 -4.99 2.39
5.46 -4.88 2.39
5.55 -4.76 2.39
5.65 -4.65 2.39
5.74 -4.53 2.39
5.83 -4.42 2.39
5.91 -4.30 2.39
5.99 -4.18 2.39
6.07 -4.06 2.39
4.20 -2.69 1.63
4.07 -2.49 1.56
4.12 -2.41 1.56
4.15 -2.31 1.56
4.21 -2.24 1.56
4.29 -2.17 1.58
4.42 -2.13 1.61
6.57 -3.00 2.37
6.62 -2.86 2.37
6.67 -2.73 2.37
6.72 -2.59 2.37
6.76 -2.45 2.36
6.80 -2.31 2.36
6.84 -2.17 2.36
6.87 -2.04 2.36
6.90 -1.90 2.36
6.93 -1.75 2.36
6.96 -1.61 2.36
6.99 -1.47 2.35
7.01 -1.33 2.35
7.03 -1.19 2.35
7.05 -1.05 2.35
7.06 -0.91 2.35
7.07 -0.76 2.35
7.08 -0.62 2.35
7.09 -0.48 2.35
7.10 -0.34 2.35
7.10 -0.19 2.35
7.10 -0.05 2.35
7.10 0.09 2.35
7.09 0.23 2.35
7.08 0.38 2.35
7.07 0.52 2.35
7.22 0.68 2.41
7.21 0.82 2.41
5.74 0.77 1.92
5.60 0.87 1.88
5.61 0.98 1.89
5.61 1.10 1.90
7.04 1.53 2.40
6.85 1.63 2.34
6.84 1.78 2.35
6.08 1.71 2.11
6.09 1.84 2.12
6.09 1.98 2.13
6.09 2.11 2.15
6.09 2.25 2.17
6.09 2.39 2.18
6.09 2.53 2.20
6.09 2.68 2.22
6.09 2.83 2.24
6.09 2.98 2.27
6.09 3.13 2.29
6.09 3.29 2.32
6.09 3.45 2.34
6.09 3.61 2.37
6.07 3.76 2.39
5.99 3.88 2.39
5.91 4.00 2.39
5.82 4.12 2.39
5.74 4.23 2.39
5.65 4.34 2.39
5.56 4.45 2.39
5.46 4.56 2.39
5.37 4.67 2.39
5.27 4.77 2.39
5.17 4.88 2.39
5.07 4.98 2.39
4.97 5.08 2.39
4.87 5.18 2.39
4.76 5.27 2.39
4.65 5.36 2.39
4.54 5.45 2.39
4.43 5.54 2.39
4.31 5.63 2.39
4.20 5.71 2.39
4.08 5.79 2.39
3.96 5.87 2.39
3.84 5.95 2.39
3.72 6.02 2.39
3.60 6.10 2.39
3.47 6.17 2.39
3.35 6.23 2.39
3.22 6.30 2.39
3.09 6.36 2.39
2.97 6.42 2.39
2.83 6.47 2.39
2.70 6.53 2.39
2.57 6.58 2.39
2.44 6.64 2.40
2.30 6.68 2.39
2.23 6.92 2.46
2.12 7.05 2.49
1.98 7.09 2.49
1.83 7.13 2.49
1.69 7.16 2.49
1.55 7.19 2.49
1.40 7.22 2.49
1.25 7.25 2.49
1.11 7.27 2.49
0.96 7.29 2.49
0.81 7.31 2.49
0.67 7.32 2.49
0.52 7.33 2.49
0.37 7.34 2.49
0.22 7.35 2.49
0.08 7.35 2.49
-0.07 7.35 2.49
-0.22 7.35 2.49
-0.37 7.34 2.49
-0.51 7.33 2.49
-0.66 7.32 2.49
-0.81 7.30 2.49
-0.96 7.28 2.49
-1.10 7.26 2.49
-1.25 7.24 2.49
-1.39 7.21 2.49
-1.54 7.18 2.49
-1.68 7.15 2.49
-1.83 7.12 2.49
-1.97 7.08 2.49
-2.11 7.04 2.49
-2.25 6.99 2.49
-2.39 6.95 2.49
-2.53 6.90 2.49
-2.67 6.85 2.49
-2.81 6.79 2.49
-2.94 6.74 2.49
-3.08 6.68 2.49
-3.21 6.61 2.49
-3.35 6.55 2.49
-3.48 6.48 2.49
-3.61 6.41 2.49
-3.74 6.34 2.49
-3.86 6.26 2.49
-3.99 6.18 2.49
-4.11 6.10 2.49
-4.24 6.02 2.49
-4.36 5.93 2.49
-4.48 5.85 2.49
-4.59 5.76 2.49
-4.71 5.66 2.49
-4.82 5.57 2.49
-4.94 5.47 2.49
-5.05 5.37 2.49
-5.15 5.27 2.49
-5.26 5.17 2.49
-5.37 5.06 2.49
-5.47 4.96 2.49
-5.57 4.85 2.49
-5.67 4.73 2.49
-5.76 4.62 2.49
-5.80 4.46 2.47
-5.80 4.28 2.43
-5.80 4.11 2.40
-5.87 3.98 2.39
-5.95 3.86 2.39
-6.03 3.74 2.39
-6.10 3.62 2.39
-6.18 3.50 2.39
-6.25 3.37 2.39
-6.32 3.25 2.39
-6.38 3.12 2.39
-6.45 2.99 2.39
-6.51 2.86 2.39
-6.57 2.73 2.39
-6.62 2.60 2.39
-6.67 2.47 2.39
-6.73 2.34 2.39
-6.77 2.20 2.39
-6.82 2.07 2.39
-6.86 1.93 2.39
-6.90 1.79 2.39
-6.94 1.65 2.39
-6.97 1.51 2.39
-7.01 1.37 2.39
-7.03 1.23 2.39
-7.06 1.09 2.39
-7.08 0.95 2.39
-7.10 0.81 2.39
-7.12 0.67 2.39
-7.14 0.52 2.39
-7.15 0.38 2.39
-7.16 0.24 2.39
-7.16 0.09 2.39
-7.17 -0.05 2.39
-7.17 -0.20 2.39
-7.17 -0.34 2.39
-7.16 -0.48 2.39
-7.15 -0.63 2.39
-7.14 -0.77 2.39
-7.13 -0.91 2.39
-7.11 -1.06 2.39
-7.09 -1.20 2.39
-7.07 -1.34 2.39
-7.04 -1.49 2.39
-7.02 -1.63 2.39
-6.99 -1.77 2.39
-6.95 -1.91 2.39
-6.91 -2.05 2.39
-6.87 -2.19 2.39
-6.83 -2.33 2.39
-6.79 -2.47 2.39
-6.74 -2.60 2.39
-6.69 -2.74 2.39
-6.64 -2.87 2.39
-6.58 -3.01 2.39
-6.52 -3.14 2.39
-6.46 -3.27 2.39
-6.39 -3.40 2.39
-6.33 -3.53 2.39
-6.26 -3.66 2.39
-6.19 -3.78 2.39
-6.11 -3.91 2.39
-6.03 -4.03 2.39
-5.95 -4.15 2.39
-5.87 -4.28 2.39
-5.87 -4.45 2.42
-5.86 -4.64 2.46
-5.85 -4.82 2.49
-5.76 -4.94 2.49
-5.66 -5.06 2.49
-5.56 -5.17 2.49
-5.46 -5.29 2.49
-5.35 -5.40 2.49
-5.24 -5.50 2.49
-5.13 -5.61 2.49
-5.02 -5.71 2.49
-4.91 -5.82 2.49
-4.79 -5.91 2.49
-4.67 -6.01 2.49
-4.55 -6.11 2.49
-4.43 -6.20 2.49
-4.31 -6.29 2.49
-4.18 -6.37 2.49
-4.06 -6.46 2.49
-3.93 -6.54 2.49
-3.80 -6.62 2.49
-3.66 -6.70 2.49
-3.53 -6.77 2.49
-3.39 -6.84 2.49
-3.26 -6.91 2.49
-3.12 -6.98 2.49
-2.98 -7.04 2.49
-2.84 -7.10 2.49
-2.70 -7.16 2.49
-2.55 -7.21 2.49
-2.41 -7.26 2.49
-2.26 -7.31 2.49
-2.12 -7.35 2.49
-1.97 -7.40 2.49
-1.82 -7.44 2.49
-1.67 -7.47 2.49
-1.52 -7.51 2.49
-1.37 -7.54 2.49
-1.22 -7.56 2.49
-1.07 -7.59 2.49
-0.92 -7.61 2.49
-0.76 -7.63 2.49
-0.61 -7.64 2.49
-0.46 -7.65 2.49
-0.30 -7.66 2.49
-0.15 -7.67 2.49
0.00 -7.12 2.49
0.15 -7.12 2.49
0.29 -7.11 2.49
0.43 -7.11 2.49
0.57 -7.10 2.49
0.71 -7.08 2.49
0.86 -7.07 2.49
1.00 -7.05 2.49
1.14 -7.03 2.49
1.28 -7.01 2.49
1.42 -6.98 2.49
1.56 -6.95 2.49
1.70 -6.92 2.49
1.84 -6.88 2.49
1.97 -6.84 2.49
2.11 -6.80 2.49
2.18 -6.55 2.42
2.28 -6.43 2.39
2.41 -6.38 2.39
2.54 -6.33 2.39
2.66 -6.28 2.39
2.79 -6.23 2.39
2.91 -6.17 2.39
3.03 -6.11 2.39
3.16 -6.05 2.39
3.28 -5.98 2.39
3.39 -5.91 2.39
3.51 -5.84 2.39
3.63 -5.77 2.39
3.74 -5.70 2.39
3.85 -5.62 2.39
3.97 -5.54 2.39
4.08 -5.46 2.39
4.18 -5.37 2.39
4.29 -5.29 2.39
4.39 -5.20 2.39
4.50 -5.11 2.39
4.60 -5.02 2.39
4.69 -4.92 2.39
4.79 -4.83 2.39
4.89 -4.73 2.39
4.98 -4.63 2.39
5.07 -4.53 2.39
5.16 -4.42 2.39
5.24 -4.32 2.39
5.33 -4.21 2.39
5.41 -4.10 2.39
5.49 -3.99 2.39
5.57 -3.88 2.39
5.64 -3.77 2.39
4.20 -2.69 1.76
4.12 -2.52 1.71
4.10 -2.39 1.67
4.15 -2.32 1.68
4.21 -2.24 1.68
4.29 -2.17 1.70
4.42 -2.13 1.73
6.15 -2.81 2.39
6.20 -2.68 2.39
6.25 -2.56 2.39
6.29 -2.43 2.39
6.33 -2.30 2.38
6.37 -2.17 2.38
6.40 -2.04 2.38
6.44 -1.91 2.38
6.47 -1.78 2.38
6.50 -1.65 2.38
6.52 -1.51 2.38
6.55 -1.38 2.37
6.57 -1.25 2.37
6.59 -1.12 2.37
6.60 -0.98 2.37
6.62 -0.85 2.37
6.63 -0.72 2.37
6.64 -0.58 2.37
6.65 -0.45 2.37
6.65 -0.32 2.37
6.65 -0.18 2.37
6.65 -0.05 2.37
6.65 0.09 2.37
6.65 0.22 2.37
6.64 0.35 2.37
6.63 0.48 2.37
6.71 0.63 2.41
6.70 0.76 2.41
5.76 0.77 2.07
5.61 0.87 2.03
5.61 0.98 2.04
5.61 1.10 2.05
6.57 1.43 2.41
6.54 1.56 2.41
6.51 1.69 2.41
6.08 1.71 2.26
6.09 1.84 2.28
6.09 1.98 2.29
6.09 2.11 2.31
6.09 2.25 2.33
6.09 2.39 2.35
6.09 2.53 2.37
6.09 2.68 2.39
6.04 2.80 2.39
5.98 2.92 2.39
5.91 3.04 2.39
5.85 3.15 2.39
5.78 3.27 2.39
5.71 3.38 2.39
5.64 3.50 2.39
5.57 3.61 2.39
5.49 3.72 2.39
5.41 3.83 2.39
5.33 3.93 2.39
5.25 4.04 2.39
5.17 4.14 2.39
5.08 4.24 2.39
4.99 4.34 2.39
4.90 4.44 2.39
4.81 4.54 2.39
4.72 4.63 2.39
4.62 4.72 2.39
4.53 4.81 2.39
4.43 4.90 2.39
4.33 4.99 2.39
4.22 5.07 2.39
4.12 5.16 2.39
4.01 5.24 2.39
3.91 5.31 2.39
3.80 5.39 2.39
3.69 5.46 2.39
3.58 5.53 2.39
3.46 5.60 2.39
3.35 5.67 2.39
3.23 5.74 2.39
3.12 5.80 2.39
3.00 5.86 2.39
2.88 5.92 2.39
2.76 5.97 2.39
2.64 6.02 2.39
2.52 6.07 2.39
2.39 6.12 2.39
2.27 6.17 2.39
2.23 6.46 2.49
2.11 6.52 2.49
1.97 6.56 2.49
1.84 6.60 2.49
1.71 6.63 2.49
1.57 6.67 2.49
1.44 6.69 2.49
1.30 6.72 2.49
1.17 6.74 2.49
1.03 6.77 2.49
0.90 6.78 2.49
0.76 6.80 2.49
0.62 6.81 2.49
0.48 6.82 2.49
0.35 6.83 2.49
0.21 6.84 2.49
0.07 6.84 2.49
-0.07 6.84 2.49
-0.20 6.84 2.49
-0.34 6.83 2.49
-0.48 6.82 2.49
-0.62 6.81 2.49
-0.75 6.80 2.49
-0.89 6.78 2.49
-1.03 6.76 2.49
