ply
format ascii 1.0
element vertex 2987
property float32 x
property float32 y
property float32 z
end_header
-4.27 6.57 2.50
-4.41 6.49 2.50
-4.54 6.41 2.50
-4.68 6.32 2.50
-4.81 6.23 2.50
-4.94 6.14 2.50
-5.07 6.05 2.50
-5.20 5.95 2.50
-5.32 5.85 2.50
-5.45 5.75 2.50
-5.51 5.58 2.47
-5.52 5.37 2.42
-5.57 5.20 2.39
-5.68 5.10 2.39
-5.79 4.99 2.39
-5.90 4.88 2.39
-6.01 4.77 2.39
-6.11 4.65 2.39
-6.22 4.53 2.39
-6.32 4.41 2.39
-6.42 4.29 2.39
-6.51 4.17 2.39
-6.61 4.05 2.39
-6.70 3.92 2.39
-6.79 3.79 2.39
-6.88 3.66 2.39
-6.96 3.53 2.39
-7.05 3.39 2.39
-7.13 3.25 2.39
-7.21 3.12 2.39
-7.29 2.98 2.39
-7.36 2.83 2.39
-7.43 2.69 2.39
-7.50 2.55 2.39
-7.57 2.40 2.39
-7.63 2.25 2.39
-7.69 2.10 2.39
-7.75 1.95 2.39
-7.81 1.80 2.39
-7.86 1.65 2.39
-7.91 1.49 2.39
-7.96 1.33 2.39
-8.00 1.18 2.39
-8.04 1.02 2.39
-8.08 0.86 2.39
-8.12 0.70 2.39
-8.15 0.53 2.39
-8.18 0.37 2.39
-8.21 0.21 2.39
-8.23 0.04 2.39
-8.25 -0.12 2.39
-8.27 -0.29 2.39
-8.28 -0.46 2.39
-8.29 -0.63 2.39
-8.30 -0.79 2.39
-8.30 -0.96 2.39
-8.31 -1.13 2.39
-8.30 -1.30 2.39
-8.30 -1.47 2.39
-8.29 -1.64 2.39
-8.28 -1.81 2.39
-8.26 -1.98 2.39
-8.24 -2.16 2.39
-8.22 -2.33 2.39
-8.19 -2.50 2.39
-8.16 -2.67 2.39
-8.13 -2.84 2.39
-8.09 -3.01 2.39
-8.05 -3.18 2.39
-8.01 -3.35 2.39
-7.96 -3.52 2.39
-7.91 -3.69 2.39
-7.86 -3.85 2.39
-7.80 -4.02 2.39
-7.74 -4.19 2.39
-7.67 -4.35 2.39
-7.60 -4.52 2.39
-7.53 -4.68 2.39
-7.45 -4.84 2.39
-7.38 -5.00 2.39
-7.29 -5.16 2.39
-7.21 -5.32 2.39
-7.12 -5.48 2.39
-7.02 -5.63 2.39
-6.93 -5.79 2.39
-6.83 -5.94 2.39
-6.72 -6.09 2.39
-6.62 -6.24 2.39
-6.51 -6.38 2.39
-6.39 -6.53 2.39
-6.28 -6.67 2.39
-6.16 -6.81 2.39
-6.09 -7.02 2.42
-6.10 -7.31 2.47
-6.03 -7.53 2.50
-5.89 -7.66 2.50
-5.75 -7.79 2.50
-5.60 -7.92 2.50
-5.45 -8.05 2.50
-5.30 -8.17 2.50
-5.15 -8.30 2.50
-4.99 -8.41 2.50
-4.83 -8.53 2.50
-4.67 -8.64 2.50
-4.51 -8.75 2.50
-4.34 -8.85 2.50
-4.17 -8.95 2.50
-4.00 -9.05 2.50
-3.82 -9.14 2.50
-3.65 -9.23 2.50
-3.47 -9.32 2.50
-3.29 -9.40 2.50
-3.10 -9.47 2.50
-2.92 -9.55 2.50
-2.73 -9.62 2.50
-2.54 -9.68 2.50
-2.35 -9.74 2.50
-2.16 -9.80 2.50
-1.97 -9.85 2.50
-1.77 -9.90 2.50
-1.58 -9.95 2.50
-1.38 -9.99 2.50
-1.18 -10.02 2.50
-0.98 -10.05 2.50
-0.78 -10.08 2.50
-0.58 -10.10 2.50
-0.38 -10.12 2.50
-0.18 -10.13 2.50
0.02 -9.24 2.50
0.20 -9.24 2.50
0.39 -9.24 2.50
0.57 -9.23 2.50
0.75 -9.22 2.50
0.94 -9.21 2.50
1.12 -9.19 2.50
1.30 -9.17 2.50
1.49 -9.14 2.50
1.67 -9.11 2.50
1.85 -9.08 2.50
1.94 -8.66 2.39
2.12 -8.62 2.39
2.29 -8.58 2.39
2.46 -8.53 2.39
2.62 -8.48 2.39
2.79 -8.42 2.39
2.96 -8.36 2.39
3.12 -8.29 2.39
2.32 -5.82 1.70
3.44 -8.16 2.39
3.60 -8.08 2.39
3.76 -8.00 2.39
3.92 -7.92 2.39
4.00 -7.70 2.35
4.01 -7.36 2.28
4.05 -7.10 2.22
4.18 -7.00 2.22
4.17 -6.67 2.14
4.25 -6.51 2.12
4.37 -6.41 2.12
3.86 -5.43 1.82
3.90 -5.26 1.79
3.95 -5.10 1.77
4.00 -4.97 1.75
4.02 -4.80 1.72
3.96 -4.54 1.65
3.93 -4.32 1.61
3.97 -4.19 1.59
4.01 -4.07 1.58
4.01 -3.92 1.55
4.12 -3.86 1.56
4.24 -3.83 1.58
4.33 -3.75 1.59
4.38 -3.64 1.58
4.41 -3.52 1.57
4.43 -3.40 1.56
4.46 -3.28 1.55
4.52 -3.19 1.55
4.58 -3.10 1.55
4.56 -2.95 1.53
4.55 -2.82 1.51
4.57 -2.71 1.50
4.63 -2.62 1.50
4.69 -2.53 1.51
4.78 -2.46 1.53
4.87 -2.38 1.54
4.98 -2.31 1.56
5.12 -2.25 1.60
5.30 -2.21 1.64
5.34 -2.10 1.65
5.45 -2.02 1.67
5.58 -1.94 1.70
5.69 -1.86 1.73
5.50 -1.67 1.66
5.42 -1.53 1.64
5.41 -1.41 1.63
5.45 -1.31 1.63
5.41 -1.18 1.62
5.22 -1.03 1.56
5.27 -0.93 1.57
5.34 -0.84 1.59
5.34 -0.73 1.59
5.40 -0.63 1.61
5.39 -0.52 1.61
5.34 -0.40 1.59
5.29 -0.29 1.58
5.20 -0.18 1.56
5.12 -0.08 1.54
5.19 0.02 1.56
5.27 0.13 1.59
5.74 0.26 1.73
5.29 0.34 1.61
5.25 0.45 1.60
5.19 0.55 1.59
5.18 0.65 1.59
5.31 0.78 1.64
5.51 0.92 1.71
5.61 1.05 1.75
5.58 1.16 1.75
5.54 1.27 1.76
5.49 1.37 1.75
5.44 1.48 1.75
5.29 1.55 1.72
5.23 1.65 1.71
5.24 1.77 1.73
5.21 1.88 1.74
5.16 1.98 1.74
5.11 2.08 1.74
5.06 2.18 1.74
5.01 2.27 1.74
4.94 2.37 1.74
4.99 2.51 1.78
5.31 2.81 1.91
5.46 3.03 1.99
5.50 3.20 2.04
5.42 3.30 2.04
5.33 3.39 2.03
5.22 3.48 2.02
5.16 3.58 2.03
5.46 3.96 2.18
5.53 4.18 2.25
5.46 4.30 2.26
5.42 4.46 2.29
5.57 4.77 2.39
5.46 4.87 2.39
5.35 4.97 2.39
5.24 5.07 2.39
5.13 5.16 2.39
5.01 5.25 2.39
4.89 5.34 2.39
4.78 5.43 2.39
4.66 5.52 2.39
4.54 5.60 2.39
4.41 5.68 2.39
4.29 5.76 2.39
4.17 5.83 2.39
4.04 5.91 2.39
3.91 5.98 2.39
3.79 6.04 2.39
3.66 6.11 2.39
3.53 6.17 2.39
3.40 6.23 2.39
3.27 6.29 2.39
3.13 6.35 2.39
3.00 6.40 2.39
2.87 6.47 2.40
2.73 6.50 2.39
2.61 6.59 2.41
2.56 6.87 2.50
2.42 6.91 2.50
2.28 6.95 2.50
2.13 6.99 2.50
1.99 7.03 2.50
1.85 7.06 2.50
1.70 7.09 2.50
1.55 7.11 2.50
1.41 7.14 2.50
1.26 7.16 2.50
1.12 7.18 2.50
0.97 7.19 2.50
0.82 7.20 2.50
0.68 7.21 2.50
0.53 7.22 2.50
0.38 7.23 2.50
0.24 7.23 2.50
0.09 7.23 2.50
-0.06 7.23 2.50
-0.20 7.22 2.50
-0.35 7.21 2.50
-0.50 7.20 2.50
-0.64 7.19 2.50
-0.79 7.17 2.50
-0.93 7.15 2.50
-1.08 7.13 2.50
-1.22 7.11 2.50
-1.37 7.08 2.50
-1.51 7.05 2.50
-1.65 7.02 2.50
-1.80 6.99 2.50
-1.94 6.95 2.50
-2.08 6.91 2.50
-2.22 6.87 2.50
-2.36 6.82 2.50
-2.50 6.78 2.50
-2.64 6.73 2.50
-2.77 6.67 2.50
-2.91 6.62 2.50
-3.04 6.56 2.50
-3.18 6.50 2.50
-3.31 6.44 2.50
-3.44 6.38 2.50
-3.58 6.31 2.50
-3.71 6.24 2.50
-3.83 6.17 2.50
-3.96 6.09 2.50
-4.09 6.02 2.50
-4.21 5.94 2.50
-4.34 5.86 2.50
-4.46 5.78 2.50
-4.58 5.69 2.50
-4.70 5.60 2.50
-4.82 5.51 2.50
-4.93 5.42 2.50
-5.05 5.32 2.50
-5.16 5.23 2.50
-5.27 5.13 2.50
-5.38 5.03 2.50
-5.49 4.92 2.50
-5.54 4.77 2.47
-5.56 4.59 2.43
-5.57 4.41 2.40
-5.66 4.30 2.39
-5.76 4.20 2.40
-5.85 4.08 2.39
-5.94 3.97 2.39
-6.03 3.86 2.39
-6.12 3.74 2.39
-6.20 3.62 2.39
-6.29 3.50 2.39
-6.37 3.38 2.39
-6.45 3.26 2.39
-6.52 3.13 2.39
-6.60 3.01 2.39
-6.67 2.88 2.39
-6.74 2.75 2.39
-6.81 2.62 2.39
-6.87 2.48 2.39
-6.93 2.35 2.39
-7.00 2.21 2.39
-7.05 2.08 2.39
-7.11 1.94 2.39
-7.16 1.80 2.39
-7.21 1.66 2.39
-7.26 1.51 2.39
-7.31 1.37 2.39
-7.35 1.23 2.39
-7.39 1.08 2.39
-7.42 0.93 2.39
-7.46 0.79 2.39
-7.49 0.64 2.39
-7.52 0.49 2.39
-7.55 0.34 2.39
-7.57 0.18 2.39
-7.59 0.03 2.39
-7.61 -0.12 2.39
-7.62 -0.27 2.39
-7.63 -0.43 2.39
-7.64 -0.58 2.39
-7.65 -0.74 2.39
-7.65 -0.89 2.39
-7.65 -1.05 2.39
-7.64 -1.21 2.39
-7.64 -1.36 2.39
-7.63 -1.52 2.39
-7.62 -1.68 2.39
-7.60 -1.83 2.39
-7.58 -1.99 2.39
-7.56 -2.15 2.39
-7.53 -2.30 2.39
-7.50 -2.46 2.39
-7.47 -2.62 2.39
-7.44 -2.77 2.39
-7.40 -2.93 2.39
-7.36 -3.08 2.39
-7.31 -3.24 2.39
-7.26 -3.39 2.39
-7.21 -3.55 2.39
-7.16 -3.70 2.39
-7.10 -3.85 2.39
-7.04 -4.00 2.39
-6.97 -4.15 2.39
-6.90 -4.30 2.39
-6.83 -4.45 2.39
-6.76 -4.60 2.39
-6.68 -4.74 2.39
-6.60 -4.88 2.39
-6.52 -5.03 2.39
-6.43 -5.17 2.39
-6.34 -5.31 2.39
-6.25 -5.45 2.39
-6.15 -5.58 2.39
-6.05 -5.72 2.39
-6.04 -5.93 2.43
-6.05 -6.18 2.48
-5.99 -6.37 2.50
-5.87 -6.50 2.50
-5.75 -6.63 2.50
-5.63 -6.76 2.50
-5.51 -6.89 2.50
-5.38 -7.01 2.50
-5.25 -7.13 2.50
-5.12 -7.25 2.50
-4.98 -7.36 2.50
-4.84 -7.47 2.50
-4.70 -7.58 2.50
-4.56 -7.69 2.50
-4.41 -7.79 2.50
-4.26 -7.89 2.50
-4.11 -7.99 2.50
-3.96 -8.08 2.50
-3.80 -8.17 2.50
-3.64 -8.26 2.50
-3.49 -8.35 2.50
-3.32 -8.43 2.50
-3.16 -8.50 2.50
-2.99 -8.58 2.50
-2.83 -8.65 2.50
-2.66 -8.71 2.50
-2.49 -8.77 2.50
-2.32 -8.83 2.50
-2.14 -8.89 2.50
-1.97 -8.94 2.50
-1.79 -8.99 2.50
-1.61 -9.03 2.50
-1.43 -9.07 2.50
-1.26 -9.10 2.50
-1.08 -9.13 2.50
-0.89 -9.16 2.50
-0.71 -9.19 2.50
-0.53 -9.20 2.50
-0.35 -9.22 2.50
-0.16 -9.23 2.50
0.02 -8.47 2.50
0.19 -8.48 2.50
0.36 -8.47 2.50
0.52 -8.47 2.50
0.69 -8.46 2.50
0.86 -8.45 2.50
1.03 -8.43 2.50
1.20 -8.41 2.50
1.36 -8.38 2.50
1.53 -8.36 2.50
1.69 -8.32 2.50
1.86 -8.29 2.50
1.94 -7.91 2.39
2.10 -7.87 2.39
2.25 -7.82 2.39
2.41 -7.78 2.39
2.56 -7.72 2.39
2.71 -7.67 2.39
2.86 -7.61 2.39
2.32 -5.83 1.85
3.16 -7.48 2.39
3.30 -7.42 2.39
3.45 -7.34 2.39
3.59 -7.27 2.39
3.73 -7.19 2.39
3.87 -7.11 2.39
4.01 -7.03 2.39
4.15 -6.94 2.39
4.13 -6.62 2.31
4.21 -6.46 2.29
4.33 -6.35 2.28
3.94 -5.54 2.02
3.90 -5.27 1.95
3.91 -5.06 1.90
3.79 -4.71 1.80
3.69 -4.40 1.71
3.72 -4.27 1.69
3.76 -4.14 1.67
3.81 -4.03 1.66
3.85 -3.92 1.65
3.90 -3.81 1.64
4.02 -3.77 1.66
4.14 -3.74 1.68
4.27 -3.70 1.71
4.34 -3.61 1.71
4.36 -3.49 1.69
4.39 -3.37 1.68
4.42 -3.26 1.67
4.48 -3.17 1.67
4.57 -3.09 1.68
4.55 -2.95 1.66
4.54 -2.81 1.63
4.51 -2.67 1.61
4.59 -2.60 1.62
4.66 -2.52 1.63
4.75 -2.45 1.65
4.86 -2.38 1.67
4.96 -2.31 1.70
5.32 -2.35 1.81
5.36 -2.24 1.81
5.40 -2.13 1.81
5.42 -2.01 1.80
5.49 -1.92 1.82
5.48 -1.79 1.81
5.37 -1.64 1.77
5.35 -1.52 1.75
5.36 -1.40 1.75
5.24 -1.26 1.70
5.23 -1.15 1.70
5.17 -1.03 1.67
5.17 -0.92 1.67
5.16 -0.81 1.67
5.13 -0.70 1.66
5.12 -0.60 1.65
5.12 -0.49 1.65
5.15 -0.39 1.66
5.21 -0.29 1.68
5.13 -0.19 1.66
5.07 -0.08 1.65
5.04 0.02 1.64
5.02 0.12 1.64
5.09 0.22 1.67
5.11 0.33 1.68
5.07 0.43 1.67
5.02 0.52 1.66
5.08 0.63 1.69
5.18 0.75 1.73
5.38 0.89 1.81
5.56 1.04 1.88
5.61 1.16 1.91
5.59 1.28 1.91
5.57 1.39 1.92
5.30 1.44 1.84
5.22 1.53 1.83
5.15 1.62 1.82
5.15 1.73 1.83
5.14 1.85 1.85
5.14 1.96 1.87
5.08 2.06 1.86
5.03 2.16 1.86
4.97 2.25 1.86
4.91 2.34 1.86
4.95 2.49 1.90
5.09 2.69 1.98
5.31 2.94 2.09
5.36 3.11 2.14
5.40 3.28 2.19
5.30 3.37 2.18
5.22 3.47 2.18
5.22 3.62 2.21
5.25 3.80 2.26
5.47 4.13 2.39
5.37 4.23 2.39
5.27 4.33 2.39
5.18 4.43 2.39
5.08 4.52 2.39
4.97 4.61 2.39
4.87 4.70 2.39
4.77 4.79 2.39
4.66 4.88 2.39
4.55 4.96 2.39
4.44 5.04 2.39
4.33 5.12 2.39
4.22 5.20 2.39
4.11 5.28 2.39
3.99 5.35 2.39
3.88 5.42 2.39
3.76 5.49 2.39
3.64 5.56 2.39
3.52 5.62 2.39
3.41 5.68 2.39
3.28 5.74 2.39
3.16 5.80 2.39
3.04 5.85 2.39
2.92 5.90 2.39
2.83 6.04 2.43
2.67 6.00 2.39
2.58 6.14 2.43
2.52 6.35 2.50
2.39 6.40 2.50
2.26 6.44 2.50
2.12 6.47 2.50
1.99 6.51 2.50
1.86 6.54 2.50
1.72 6.57 2.50
1.59 6.60 2.50
1.45 6.62 2.50
1.31 6.64 2.50
1.18 6.66 2.50
1.04 6.68 2.50
0.91 6.70 2.50
0.77 6.71 2.50
0.63 6.72 2.50
0.49 6.73 2.50
0.36 6.73 2.50
0.22 6.73 2.50
0.08 6.73 2.50
-0.05 6.73 2.50
-0.19 6.73 2.50
-0.33 6.72 2.50
-0.46 6.71 2.50
-0.60 6.70 2.50
-0.73 6.68 2.50
-0.87 6.66 2.50
-1.00 6.64 2.50
-1.14 6.62 2.50
-1.27 6.60 2.50
-1.41 6.57 2.50
-1.54 6.54 2.50
-1.67 6.51 2.50
-1.81 6.47 2.50
-1.94 6.44 2.50
-2.07 6.40 2.50
-2.20 6.36 2.50
-2.33 6.31 2.50
-2.46 6.27 2.50
-2.58 6.22 2.50
-2.71 6.17 2.50
-2.84 6.11 2.50
-2.96 6.06 2.50
-3.09 6.00 2.50
-3.21 5.94 2.50
-3.33 5.88 2.50
-3.45 5.81 2.50
-3.57 5.74 2.50
-3.69 5.67 2.50
-3.81 5.60 2.50
-3.93 5.53 2.50
-4.04 5.45 2.50
-4.15 5.38 2.50
-4.27 5.30 2.50
-4.38 5.21 2.50
-4.49 5.13 2.50
-4.60 5.04 2.50
-4.70 4.95 2.50
-4.81 4.86 2.50
-4.91 4.77 2.50
-5.01 4.68 2.50
-5.11 4.58 2.50
-5.21 4.48 2.50
-5.31 4.38 2.50
-5.40 4.28 2.50
-5.50 4.17 2.50
-5.58 4.06 2.49
-5.59 3.90 2.46
-5.60 3.74 2.43
-5.61 3.58 2.39
-5.69 3.47 2.39
-5.77 3.36 2.39
-5.85 3.25 2.39
-5.92 3.14 2.39
-5.99 3.02 2.39
-6.06 2.91 2.39
-6.13 2.79 2.39
-6.20 2.67 2.39
-6.26 2.55 2.39
-6.32 2.43 2.39
-6.38 2.30 2.39
-6.44 2.18 2.39
-6.50 2.05 2.39
-6.55 1.92 2.39
-6.60 1.79 2.39
-6.65 1.66 2.39
-6.70 1.53 2.39
-6.74 1.40 2.39
-6.78 1.27 2.39
-6.82 1.13 2.39
-6.85 1.00 2.39
-6.89 0.86 2.39
-6.92 0.72 2.39
-6.95 0.58 2.39
-6.97 0.45 2.39
-7.00 0.31 2.39
-7.02 0.17 2.39
-7.03 0.02 2.39
-7.05 -0.12 2.39
-7.06 -0.26 2.39
-7.07 -0.40 2.39
-7.08 -0.55 2.39
-7.08 -0.69 2.39
-7.08 -0.83 2.39
-7.08 -0.98 2.39
-7.08 -1.12 2.39
-7.07 -1.27 2.39
-7.06 -1.41 2.39
-7.04 -1.56 2.39
-7.03 -1.70 2.39
-7.01 -1.85 2.39
-6.99 -1.99 2.39
-6.96 -2.14 2.39
-6.93 -2.28 2.39
-6.90 -2.42 2.39
-6.87 -2.57 2.39
-6.83 -2.71 2.39
-6.79 -2.85 2.39
-6.75 -3.00 2.39
-6.71 -3.14 2.39
-6.66 -3.28 2.39
-6.60 -3.42 2.39
-6.55 -3.56 2.39
-6.49 -3.70 2.39
-6.43 -3.84 2.39
-6.37 -3.97 2.39
-6.30 -4.11 2.39
-6.23 -4.24 2.39
-6.16 -4.38 2.39
-6.09 -4.51 2.39
-6.01 -4.64 2.39
-5.99 -4.82 2.42
-5.99 -5.02 2.45
-6.00 -5.24 2.50
-5.91 -5.37 2.50
-5.81 -5.50 2.50
-5.72 -5.63 2.50
-5.61 -5.75 2.50
-5.51 -5.87 2.50
-5.40 -5.99 2.50
-5.29 -6.11 2.50
-5.18 -6.23 2.50
-5.06 -6.34 2.50
-4.95 -6.45 2.50
-4.83 -6.56 2.50
-4.70 -6.67 2.50
-4.58 -6.78 2.50
-4.45 -6.88 2.50
-4.32 -6.98 2.50
-4.19 -7.07 2.50
-4.05 -7.17 2.50
-3.91 -7.26 2.50
-3.78 -7.35 2.50
-3.63 -7.43 2.50
-3.49 -7.51 2.50
-3.35 -7.59 2.50
-3.20 -7.67 2.50
-3.05 -7.74 2.50
-2.90 -7.81 2.50
-2.75 -7.88 2.50
-2.59 -7.94 2.50
-2.44 -8.00 2.50
-2.28 -8.06 2.50
-2.12 -8.11 2.50
-1.96 -8.16 2.50
-1.80 -8.21 2.50
-1.64 -8.25 2.50
-1.48 -8.29 2.50
-1.31 -8.32 2.50
-1.15 -8.36 2.50
-0.98 -8.38 2.50
-0.82 -8.41 2.50
-0.65 -8.43 2.50
-0.48 -8.45 2.50
-0.32 -8.46 2.50
-0.15 -8.47 2.50
0.02 -7.82 2.50
0.17 -7.82 2.50
0.33 -7.82 2.50
0.48 -7.81 2.50
0.64 -7.81 2.50
0.79 -7.79 2.50
0.95 -7.78 2.50
1.10 -7.76 2.50
1.26 -7.74 2.50
1.41 -7.71 2.50
1.56 -7.68 2.50
1.72 -7.65 2.50
1.87 -7.61 2.50
1.96 -7.35 2.43
2.08 -7.22 2.39
2.22 -7.17 2.39
2.36 -7.13 2.39
2.50 -7.08 2.39
2.64 -7.02 2.39
2.32 -5.83 2.00
2.91 -6.91 2.39
3.05 -6.84 2.39
3.18 -6.78 2.39
3.31 -6.71 2.39
3.44 -6.64 2.39
3.57 -6.56 2.39
3.70 -6.49 2.39
3.82 -6.41 2.39
3.95 -6.33 2.39
4.07 -6.24 2.39
4.19 -6.15 2.39
3.63 -5.11 2.02
3.56 -4.81 1.93
3.50 -4.53 1.85
3.50 -4.36 1.81
3.53 -4.22 1.78
3.57 -4.09 1.76
3.62 -3.99 1.74
3.69 -3.91 1.74
3.76 -3.82 1.74
3.83 -3.75 1.74
3.93 -3.70 1.76
4.05 -3.66 1.78
4.17 -3.62 1.80
4.28 -3.57 1.82
4.34 -3.48 1.82
4.37 -3.36 1.81
4.40 -3.25 1.80
4.52 -3.20 1.82
4.60 -3.12 1.83
4.54 -2.95 1.79
4.46 -2.77 1.74
4.44 -2.64 1.71
4.53 -2.57 1.73
4.61 -2.49 1.74
4.71 -2.43 1.76
4.81 -2.36 1.79
4.92 -2.29 1.81
5.31 -2.35 1.95
5.29 -2.21 1.93
5.27 -2.08 1.91
5.28 -1.97 1.90
5.39 -1.89 1.93
5.36 -1.76 1.91
5.33 -1.63 1.89
5.33 -1.51 1.88
5.32 -1.40 1.87
5.17 -1.25 1.81
5.17 -1.14 1.81
5.15 -1.03 1.80
5.14 -0.92 1.79
5.13 -0.81 1.79
5.10 -0.70 1.78
5.08 -0.60 1.77
5.08 -0.49 1.77
5.09 -0.39 1.77
5.12 -0.29 1.78
5.08 -0.19 1.77
5.02 -0.09 1.75
4.98 0.02 1.74
4.96 0.11 1.74
4.94 0.21 1.74
4.96 0.31 1.75
4.94 0.41 1.75
4.97 0.51 1.77
5.01 0.62 1.79
5.11 0.74 1.84
5.39 0.89 1.95
5.43 1.01 1.97
5.56 1.15 2.03
5.76 1.31 2.12
5.79 1.44 2.15
5.20 1.40 1.94
5.14 1.50 1.93
5.06 1.59 1.92
5.04 1.69 1.93
5.10 1.83 1.97
5.04 1.92 1.96
5.05 2.04 1.99
4.99 2.14 1.99
4.93 2.23 1.98
4.90 2.34 2.00
4.92 2.46 2.03
5.01 2.64 2.09
5.07 2.80 2.14
5.13 2.97 2.20
5.39 3.27 2.34
5.33 3.38 2.35
5.31 3.52 2.37
5.27 3.65 2.39
5.19 3.75 2.39
5.10 3.84 2.39
5.01 3.94 2.39
4.92 4.03 2.39
4.83 4.12 2.39
4.74 4.21 2.39
4.64 4.30 2.39
4.55 4.38 2.39
4.45 4.47 2.39
4.35 4.55 2.39
4.25 4.63 2.39
4.15 4.70 2.39
4.05 4.78 2.39
3.94 4.85 2.39
3.84 4.92 2.39
3.73 4.99 2.39
3.62 5.06 2.39
3.51 5.12 2.39
3.40 5.18 2.39
3.29 5.24 2.39
3.18 5.30 2.39
3.07 5.36 2.39
2.96 5.41 2.39
2.84 5.46 2.39
2.73 5.51 2.39
2.61 5.56 2.39
2.56 5.74 2.45
2.48 5.89 2.50
2.36 5.93 2.50
2.24 5.97 2.50
2.11 6.01 2.50
1.99 6.05 2.50
1.86 6.08 2.50
1.74 6.11 2.50
1.61 6.14 2.50
1.48 6.17 2.50
1.36 6.19 2.50
1.23 6.21 2.50
1.10 6.23 2.50
0.98 6.25 2.50
0.85 6.26 2.50
0.72 6.27 2.50
0.59 6.28 2.50
0.46 6.29 2.50
0.34 6.29 2.50
0.21 6.30 2.50
0.08 6.30 2.50
-0.05 6.29 2.50
-0.18 6.29 2.50
-0.30 6.28 2.50
-0.43 6.27 2.50
-0.56 6.26 2.50
-0.69 6.25 2.50
-0.81 6.23 2.50
-0.94 6.21 2.50
-1.07 6.19 2.50
-1.19 6.17 2.50
-1.32 6.14 2.50
-1.44 6.11 2.50
-1.57 6.08 2.50
-1.69 6.05 2.50
-1.81 6.02 2.50
-1.93 5.98 2.50
-2.06 5.94 2.50
-2.18 5.90 2.50
-2.30 5.86 2.50
-2.42 5.81 2.50
-2.54 5.76 2.50
-2.65 5.71 2.50
-2.77 5.66 2.50
-2.89 5.61 2.50
-3.00 5.55 2.50
-3.12 5.49 2.50
-3.23 5.43 2.50
-3.34 5.37 2.50
-3.45 5.30 2.50
-3.56 5.24 2.50
-3.67 5.17 2.50
-3.78 5.09 2.50
-3.88 5.02 2.50
-3.99 4.95 2.50
-4.09 4.87 2.50
-4.19 4.79 2.50
-4.30 4.71 2.50
-4.39 4.63 2.50
-4.49 4.54 2.50
-4.59 4.45 2.50
-4.68 4.36 2.50
-4.78 4.27 2.50
-4.87 4.18 2.50
-4.96 4.09 2.50
-5.05 3.99 2.50
-5.14 3.89 2.50
-5.22 3.79 2.50
-5.30 3.69 2.50
-5.39 3.59 2.50
-5.46 3.48 2.50
-5.54 3.38 2.50
-5.61 3.27 2.50
-5.62 3.12 2.47
-5.63 2.98 2.44
-5.64 2.84 2.41
-5.66 2.71 2.39
-5.72 2.60 2.39
-5.78 2.49 2.39
-5.85 2.38 2.40
-5.90 2.26 2.39
-5.96 2.14 2.39
-6.01 2.02 2.39
-6.06 1.91 2.39
-6.11 1.79 2.39
-6.15 1.67 2.39
-6.20 1.55 2.39
-6.24 1.42 2.39
-6.28 1.30 2.39
-6.32 1.17 2.39
-6.35 1.05 2.39
-6.39 0.92 2.39
-6.42 0.80 2.39
-6.44 0.67 2.39
-6.47 0.54 2.39
-6.49 0.41 2.39
-6.51 0.28 2.39
-6.53 0.15 2.39
-6.55 0.02 2.39
-6.56 -0.12 2.39
-6.57 -0.25 2.39
-6.58 -0.38 2.39
-6.58 -0.51 2.39
-6.59 -0.65 2.39
-6.59 -0.78 2.39
-6.58 -0.92 2.39
-6.58 -1.05 2.39
-6.57 -1.18 2.39
-6.56 -1.32 2.39
-6.55 -1.45 2.39
-6.53 -1.59 2.39
-6.51 -1.72 2.39
-6.49 -1.86 2.39
-6.47 -1.99 2.39
-6.44 -2.12 2.39
-6.41 -2.26 2.39
-6.38 -2.39 2.39
-6.34 -2.52 2.39
-6.30 -2.66 2.39
-6.26 -2.79 2.39
-6.22 -2.92 2.39
-6.17 -3.05 2.39
-6.13 -3.18 2.39
-6.07 -3.31 2.39
-6.02 -3.44 2.39
-5.96 -3.56 2.39
-5.94 -3.71 2.41
-5.94 -3.88 2.43
-5.94 -4.05 2.46
-5.95 -4.24 2.50
-5.88 -4.36 2.50
-5.80 -4.49 2.50
-5.72 -4.61 2.50
-5.64 -4.74 2.50
-5.56 -4.86 2.50
-5.47 -4.98 2.50
-5.38 -5.10 2.50
-5.29 -5.21 2.50
-5.19 -5.33 2.50
-5.10 -5.44 2.50
-5.00 -5.55 2.50
-4.89 -5.66 2.50
-4.79 -5.77 2.50
-4.68 -5.87 2.50
-4.57 -5.98 2.50
-4.46 -6.08 2.50
-4.35 -6.17 2.50
-4.23 -6.27 2.50
-4.11 -6.36 2.50
-3.99 -6.45 2.50
-3.87 -6.54 2.50
-3.74 -6.63 2.50
-3.62 -6.71 2.50
-3.49 -6.79 2.50
-3.36 -6.87 2.50
-3.22 -6.95 2.50
-3.09 -7.02 2.50
-2.95 -7.09 2.50
-2.81 -7.15 2.50
-2.68 -7.22 2.50
-2.53 -7.28 2.50
-2.39 -7.34 2.50
-2.25 -7.39 2.50
-2.10 -7.44 2.50
-1.96 -7.49 2.50
-1.81 -7.54 2.50
-1.66 -7.58 2.50
-1.51 -7.62 2.50
-1.36 -7.65 2.50
-1.21 -7.68 2.50
-1.06 -7.71 2.50
-0.91 -7.74 2.50
-0.75 -7.76 2.50
-0.60 -7.78 2.50
-0.45 -7.80 2.50
-0.29 -7.81 2.50
-0.14 -7.82 2.50
0.02 -7.25 2.50
0.16 -7.25 2.50
0.31 -7.25 2.50
0.45 -7.25 2.50
0.59 -7.24 2.50
0.74 -7.23 2.50
0.88 -7.21 2.50
1.02 -7.19 2.50
1.17 -7.17 2.50
1.31 -7.15 2.50
1.45 -7.12 2.50
1.59 -7.09 2.50
1.73 -7.06 2.50
1.87 -7.02 2.50
1.98 -6.87 2.46
2.06 -6.65 2.39
2.20 -6.64 2.41
2.32 -6.56 2.39
2.45 -6.51 2.39
2.32 -5.83 2.16
2.70 -6.41 2.39
2.83 -6.35 2.39
2.95 -6.29 2.39
3.07 -6.22 2.39
3.19 -6.16 2.39
3.31 -6.09 2.39
3.43 -6.02 2.39
3.55 -5.95 2.39
3.66 -5.87 2.39
3.77 -5.79 2.39
3.88 -5.71 2.39
3.43 -4.83 2.06
3.37 -4.56 1.97
3.38 -4.38 1.93
3.41 -4.24 1.89
3.43 -4.11 1.87
3.47 -3.99 1.85
3.55 -3.91 1.84
3.62 -3.84 1.84
3.69 -3.76 1.84
3.76 -3.68 1.85
3.85 -3.63 1.86
3.96 -3.58 1.88
4.08 -3.54 1.90
4.19 -3.49 1.92
4.29 -3.44 1.94
4.35 -3.35 1.94
4.38 -3.23 1.92
4.50 -3.18 1.95
4.55 -3.08 1.95
4.48 -2.91 1.90
4.40 -2.74 1.85
4.41 -2.62 1.83
4.50 -2.55 1.85
4.58 -2.48 1.86
4.64 -2.40 1.87
4.74 -2.33 1.90
4.86 -2.27 1.93
4.93 -2.18 1.94
5.13 -2.15 2.01
5.11 -2.03 1.99
5.19 -1.94 2.01
5.30 -1.86 2.04
5.48 -1.80 2.10
5.32 -1.63 2.03
5.31 -1.51 2.01
5.25 -1.38 1.99
5.12 -1.24 1.93
5.09 -1.13 1.92
5.08 -1.02 1.91
5.09 -0.91 1.91
5.08 -0.81 1.90
5.08 -0.70 1.90
5.07 -0.60 1.90
5.08 -0.50 1.90
5.10 -0.40 1.91
5.15 -0.30 1.92
5.15 -0.20 1.93
5.08 -0.09 1.90
5.01 0.01 1.88
4.96 0.11 1.87
4.92 0.21 1.86
4.88 0.30 1.85
4.86 0.40 1.85
4.89 0.50 1.87
4.95 0.61 1.90
5.09 0.73 1.96
5.39 0.88 2.09
5.35 0.99 2.08
5.42 1.11 2.12
5.72 1.29 2.26
5.75 1.42 2.28
5.16 1.39 2.06
5.09 1.48 2.05
5.03 1.57 2.04
5.00 1.67 2.05
5.06 1.81 2.09
5.00 1.90 2.09
5.01 2.02 2.11
4.96 2.12 2.11
4.93 2.22 2.12
4.90 2.33 2.13
4.86 2.43 2.14
4.89 2.57 2.18
4.95 2.73 2.23
5.00 2.89 2.29
5.16 3.12 2.39
5.08 3.22 2.39
5.01 3.32 2.39
4.93 3.41 2.39
4.85 3.50 2.39
4.77 3.59 2.39
4.69 3.68 2.39
4.61 3.77 2.39
4.52 3.85 2.39
4.44 3.94 2.39
4.35 4.02 2.39
4.26 4.10 2.39
4.17 4.18 2.39
4.07 4.25 2.39
3.98 4.33 2.39
3.89 4.40 2.39
3.79 4.47 2.39
3.69 4.54 2.39
3.60 4.61 2.39
3.50 4.67 2.39
3.40 4.73 2.39
3.29 4.80 2.39
3.19 4.85 2.39
3.09 4.91 2.39
2.98 4.97 2.39
2.88 5.02 2.39
2.80 5.11 2.42
2.67 5.12 2.39
2.56 5.16 2.39
2.53 5.38 2.47
2.44 5.48 2.50
2.33 5.52 2.50
2.21 5.56 2.50
2.10 5.60 2.50
1.98 5.63 2.50
1.87 5.67 2.50
1.75 5.70 2.50
1.63 5.73 2.50
1.51 5.75 2.50
1.39 5.78 2.50
1.27 5.80 2.50
1.16 5.82 2.50
1.04 5.84 2.50
0.92 5.86 2.50
0.80 5.87 2.50
0.68 5.88 2.50
0.56 5.89 2.50
0.44 5.90 2.50
0.32 5.90 2.50
0.20 5.90 2.50
0.08 5.90 2.50
-0.04 5.90 2.50
-0.16 5.90 2.50
-0.28 5.89 2.50
-0.40 5.88 2.50
-0.52 5.87 2.50
-0.64 5.86 2.50
-0.76 5.84 2.50
-0.88 5.83 2.50
-1.00 5.81 2.50
-1.12 5.79 2.50
-1.23 5.76 2.50
-1.35 5.74 2.50
-1.47 5.71 2.50
-1.58 5.68 2.50
-1.70 5.64 2.50
-1.81 5.61 2.50
-1.93 5.57 2.50
-2.04 5.53 2.50
-2.16 5.49 2.50
-2.27 5.45 2.50
-2.38 5.40 2.50
-2.49 5.36 2.50
-2.60 5.31 2.50
-2.71 5.26 2.50
-2.82 5.20 2.50
-2.92 5.15 2.50
-3.03 5.09 2.50
-3.13 5.03 2.50
-3.24 4.97 2.50
-3.34 4.91 2.50
-3.44 4.84 2.50
-3.54 4.78 2.50
-3.64 4.71 2.50
-3.74 4.64 2.50
-3.84 4.56 2.50
-3.93 4.49 2.50
-4.03 4.41 2.50
-4.12 4.33 2.50
-4.21 4.25 2.50
-4.30 4.17 2.50
-4.39 4.09 2.50
-4.48 4.00 2.50
-4.56 3.92 2.50
-4.65 3.83 2.50
-4.73 3.74 2.50
-4.81 3.64 2.50
-4.89 3.55 2.50
-4.97 3.46 2.50
-5.05 3.36 2.50
-5.12 3.26 2.50
-5.19 3.16 2.50
-5.26 3.06 2.50
-5.33 2.96 2.50
-5.40 2.85 2.50
-5.46 2.75 2.50
-5.53 2.64 2.50
-5.59 2.53 2.50
-5.65 2.42 2.50
-5.66 2.29 2.48
-5.67 2.16 2.46
-5.68 2.04 2.44
-5.69 1.91 2.42
-5.68 1.78 2.40
-5.72 1.67 2.39
-5.76 1.55 2.39
-5.80 1.44 2.39
-5.84 1.33 2.39
-5.88 1.21 2.40
-5.91 1.09 2.39
-5.94 0.98 2.39
-5.97 0.86 2.39
-6.00 0.74 2.39
-6.02 0.62 2.39
-6.05 0.50 2.39
-6.07 0.38 2.39
-6.09 0.26 2.39
-6.10 0.13 2.39
-6.12 0.01 2.39
-6.13 -0.11 2.39
-6.14 -0.24 2.39
-6.14 -0.36 2.39
-6.15 -0.49 2.39
-6.15 -0.61 2.39
-6.15 -0.73 2.39
-6.15 -0.86 2.39
-6.14 -0.99 2.39
-6.13 -1.11 2.39
-6.12 -1.24 2.39
-6.11 -1.36 2.39
-6.09 -1.49 2.39
-6.07 -1.61 2.39
-6.05 -1.74 2.39
-6.03 -1.86 2.40
-6.00 -1.99 2.39
-5.98 -2.11 2.39
-5.94 -2.23 2.39
-5.91 -2.36 2.39
-5.88 -2.48 2.40
-5.88 -2.62 2.41
-5.88 -2.77 2.43
-5.89 -2.91 2.45
-5.90 -3.07 2.47
-5.90 -3.22 2.50
-5.85 -3.34 2.50
-5.79 -3.47 2.50
-5.73 -3.59 2.50
-5.67 -3.71 2.50
-5.61 -3.83 2.50
-5.54 -3.95 2.50
-5.47 -4.07 2.50
-5.40 -4.18 2.50
-5.32 -4.30 2.50
-5.25 -4.41 2.50
-5.17 -4.52 2.50
-5.09 -4.64 2.50
-5.00 -4.75 2.50
-4.92 -4.85 2.50
-4.83 -4.96 2.50
-4.74 -5.06 2.50
-4.64 -5.17 2.50
-4.55 -5.27 2.50
-4.45 -5.36 2.50
-4.35 -5.46 2.50
-4.25 -5.56 2.50
-4.14 -5.65 2.50
-4.04 -5.74 2.50
-3.93 -5.83 2.50
-3.82 -5.91 2.50
-3.70 -6.00 2.50
-3.59 -6.08 2.50
-3.47 -6.16 2.50
-3.35 -6.24 2.50
-3.23 -6.31 2.50
-3.11 -6.38 2.50
-2.99 -6.45 2.50
-2.86 -6.52 2.50
-2.74 -6.58 2.50
-2.61 -6.64 2.50
-2.48 -6.70 2.50
-2.35 -6.76 2.50
-2.22 -6.81 2.50
-2.08 -6.86 2.50
-1.95 -6.91 2.50
-1.81 -6.95 2.50
-1.68 -6.99 2.50
-1.54 -7.03 2.50
-1.40 -7.07 2.50
-1.26 -7.10 2.50
-1.12 -7.13 2.50
-0.98 -7.16 2.50
-0.84 -7.18 2.50
-0.70 -7.20 2.50
-0.55 -7.22 2.50
-0.41 -7.23 2.50
-0.27 -7.24 2.50
-0.12 -7.25 2.50
0.02 -6.75 2.50
0.15 -6.76 2.50
0.29 -6.75 2.50
0.42 -6.75 2.50
0.55 -6.74 2.50
0.69 -6.73 2.50
0.82 -6.72 2.50
0.95 -6.70 2.50
1.09 -6.68 2.50
1.22 -6.66 2.50
1.35 -6.63 2.50
1.48 -6.60 2.50
1.61 -6.57 2.50
1.74 -6.54 2.50
1.87 -6.50 2.50
2.00 -6.46 2.50
2.04 -6.16 2.39
2.16 -6.11 2.39
2.28 -6.07 2.39
2.32 -5.83 2.32
2.51 -5.97 2.39
2.63 -5.91 2.39
2.75 -5.86 2.39
2.86 -5.80 2.39
2.97 -5.74 2.39
3.08 -5.67 2.39
3.19 -5.61 2.39
3.30 -5.54 2.39
3.41 -5.47 2.39
3.51 -5.40 2.39
3.62 -5.32 2.39
3.29 -4.64 2.12
3.26 -4.41 2.04
3.29 -4.27 2.01
3.31 -4.13 1.98
3.34 -4.00 1.95
3.40 -3.91 1.94
3.48 -3.84 1.94
3.55 -3.77 1.94
3.62 -3.69 1.94
3.69 -3.62 1.95
3.79 -3.57 1.96
3.88 -3.51 1.97
3.99 -3.47 1.99
4.09 -3.42 2.01
4.19 -3.36 2.03
4.30 -3.31 2.05
4.35 -3.22 2.05
4.47 -3.17 2.08
4.48 -3.05 2.06
4.42 -2.88 2.01
4.39 -2.73 1.97
4.40 -2.62 1.96
4.48 -2.55 1.97
4.54 -2.46 1.98
4.60 -2.38 1.99
4.67 -2.30 2.00
4.78 -2.24 2.04
4.86 -2.16 2.05
4.92 -2.07 2.06
5.00 -1.99 2.08
5.11 -1.91 2.12
5.22 -1.83 2.15
5.44 -1.79 2.23
5.79 -1.78 2.37
5.28 -1.51 2.15
5.12 -1.35 2.07
5.07 -1.23 2.05
5.04 -1.12 2.03
5.00 -1.01 2.01
5.01 -0.91 2.01
5.03 -0.80 2.01
5.04 -0.70 2.02
5.05 -0.60 2.02
5.06 -0.50 2.02
5.10 -0.40 2.04
5.15 -0.30 2.06
5.20 -0.20 2.08
5.13 -0.10 2.06
5.05 0.01 2.03
4.98 0.11 2.00
4.92 0.20 1.98
4.87 0.30 1.97
4.81 0.39 1.95
4.80 0.49 1.96
4.88 0.60 2.00
5.00 0.71 2.05
5.09 0.83 2.11
5.22 0.96 2.17
5.27 1.08 2.20
5.69 1.28 2.39
5.16 1.27 2.19
5.10 1.37 2.18
5.07 1.47 2.18
5.02 1.56 2.18
4.99 1.66 2.18
5.04 1.80 2.22
4.97 1.88 2.21
5.02 2.02 2.26
4.97 2.12 2.26
4.94 2.22 2.27
4.89 2.32 2.27
4.83 2.41 2.27
4.84 2.54 2.30
4.87 2.68 2.35
4.91 2.83 2.39
4.84 2.92 2.39
4.77 3.02 2.39
4.70 3.11 2.39
4.63 3.19 2.39
4.56 3.28 2.39
4.48 3.37 2.39
4.40 3.45 2.39
4.33 3.53 2.39
4.25 3.61 2.39
4.17 3.69 2.39
4.08 3.77 2.39
4.00 3.84 2.39
3.91 3.92 2.39
3.83 3.99 2.39
3.74 4.06 2.39
3.65 4.13 2.39
3.56 4.20 2.39
3.47 4.26 2.39
3.38 4.32 2.39
3.29 4.39 2.39
3.19 4.44 2.39
3.10 4.50 2.39
3.00 4.56 2.39
2.90 4.61 2.39
2.81 4.66 2.39
2.71 4.71 2.39
2.61 4.76 2.39
2.53 4.85 2.41
2.51 5.06 2.50
2.41 5.11 2.50
2.30 5.15 2.50
2.19 5.19 2.50
2.08 5.23 2.50
1.97 5.26 2.50
1.87 5.29 2.50
1.76 5.33 2.50
1.65 5.36 2.50
1.53 5.38 2.50
1.42 5.41 2.50
1.31 5.43 2.50
1.20 5.45 2.50
1.09 5.47 2.50
0.98 5.49 2.50
0.86 5.51 2.50
0.75 5.52 2.50
0.64 5.53 2.50
0.53 5.54 2.50
0.41 5.54 2.50
0.30 5.55 2.50
0.19 5.55 2.50
0.07 5.55 2.50
-0.04 5.55 2.50
-0.15 5.55 2.50
-0.27 5.54 2.50
-0.38 5.53 2.50
-0.49 5.52 2.50
-0.60 5.51 2.50
-0.72 5.50 2.50
-0.83 5.48 2.50
-0.94 5.46 2.50
-1.05 5.44 2.50
-1.16 5.42 2.50
-1.27 5.39 2.50
-1.38 5.37 2.50
-1.49 5.34 2.50
-1.60 5.31 2.50
-1.71 5.28 2.50
-1.81 5.24 2.50
-1.92 5.20 2.50
-2.03 5.17 2.50
-2.13 5.12 2.50
-2.24 5.08 2.50
-2.34 5.04 2.50
-2.45 4.99 2.50
-2.55 4.94 2.50
-2.65 4.89 2.50
-2.75 4.84 2.50
-2.85 4.79 2.50
-2.95 4.73 2.50
-3.05 4.67 2.50
-3.14 4.61 2.50
-3.24 4.55 2.50
-3.33 4.49 2.50
-3.43 4.42 2.50
-3.52 4.36 2.50
-3.61 4.29 2.50
-3.70 4.22 2.50
-3.79 4.14 2.50
-3.88 4.07 2.50
-3.96 4.00 2.50
-4.05 3.92 2.50
-4.13 3.84 2.50
-4.21 3.76 2.50
-4.29 3.68 2.50
-4.37 3.59 2.50
-4.45 3.51 2.50
-4.52 3.42 2.50
-4.60 3.33 2.50
-4.67 3.24 2.50
-4.74 3.15 2.50
-4.81 3.06 2.50
-4.88 2.97 2.50
-4.95 2.87 2.50
-5.01 2.77 2.50
-5.07 2.68 2.50
-5.13 2.58 2.50
-5.19 2.48 2.50
-5.25 2.37 2.50
-5.31 2.27 2.50
-5.36 2.17 2.50
-5.41 2.06 2.50
-5.46 1.95 2.50
-5.51 1.85 2.50
-5.55 1.74 2.50
-5.60 1.63 2.50
-5.64 1.52 2.50
-5.68 1.41 2.50
-5.69 1.29 2.49
-5.69 1.17 2.47
-5.70 1.05 2.46
-5.71 0.93 2.45
-5.71 0.82 2.44
-5.72 0.70 2.43
-5.73 0.58 2.43
-5.73 0.47 2.42
-5.74 0.35 2.42
-5.75 0.24 2.41
-5.75 0.12 2.41
-5.76 0.00 2.41
-5.76 -0.11 2.40
-5.77 -0.23 2.40
-5.78 -0.34 2.40
-5.78 -0.46 2.40
-5.79 -0.58 2.41
-5.79 -0.70 2.41
-5.80 -0.82 2.41
-5.80 -0.94 2.42
-5.81 -1.06 2.42
-5.81 -1.18 2.43
-5.81 -1.30 2.43
-5.82 -1.43 2.44
-5.82 -1.55 2.45
-5.83 -1.68 2.46
-5.84 -1.81 2.48
-5.84 -1.94 2.49
-5.83 -2.07 2.50
-5.80 -2.19 2.50
-5.77 -2.31 2.50
-5.73 -2.43 2.50
-5.69 -2.54 2.50
-5.65 -2.66 2.50
-5.61 -2.78 2.50
-5.56 -2.90 2.50
-5.51 -3.02 2.50
-5.46 -3.13 2.50
-5.41 -3.25 2.50
-5.35 -3.36 2.50
-5.30 -3.47 2.50
-5.24 -3.58 2.50
-5.17 -3.69 2.50
-5.11 -3.80 2.50
-5.04 -3.91 2.50
-4.97 -4.02 2.50
-4.90 -4.13 2.50
-4.82 -4.23 2.50
-4.75 -4.33 2.50
-4.67 -4.43 2.50
-4.59 -4.53 2.50
-4.50 -4.63 2.50
-4.42 -4.73 2.50
-4.33 -4.83 2.50
-4.24 -4.92 2.50
-4.15 -5.01 2.50
-4.05 -5.10 2.50
-3.96 -5.19 2.50
-3.86 -5.27 2.50
-3.76 -5.36 2.50
-3.66 -5.44 2.50
-3.56 -5.52 2.50
-3.45 -5.60 2.50
-3.34 -5.67 2.50
-3.23 -5.75 2.50
-3.12 -5.82 2.50
-3.01 -5.89 2.50
-2.90 -5.95 2.50
-2.78 -6.02 2.50
-2.67 -6.08 2.50
-2.55 -6.14 2.50
-2.43 -6.19 2.50
-2.31 -6.25 2.50
-2.19 -6.30 2.50
-2.06 -6.35 2.50
-1.94 -6.39 2.50
-1.81 -6.44 2.50
-1.69 -6.48 2.50
-1.56 -6.52 2.50
-1.43 -6.55 2.50
-1.30 -6.58 2.50
-1.17 -6.61 2.50
-1.04 -6.64 2.50
-0.91 -6.67 2.50
-0.78 -6.69 2.50
-0.65 -6.71 2.50
-0.51 -6.72 2.50
-0.38 -6.73 2.50
-0.25 -6.74 2.50
-0.11 -6.75 2.50
0.02 -6.31 2.50
0.14 -6.31 2.50
0.27 -6.31 2.50
0.39 -6.31 2.50
0.52 -6.30 2.50
0.64 -6.29 2.50
0.77 -6.28 2.50
0.89 -6.26 2.50
1.02 -6.24 2.50
1.14 -6.22 2.50
1.26 -6.20 2.50
1.38 -6.17 2.50
1.51 -6.14 2.50
1.63 -6.11 2.50
1.75 -6.08 2.50
1.87 -6.04 2.50
1.99 -6.00 2.50
2.04 -5.77 2.42
2.13 -5.67 2.39
2.25 -5.64 2.40
2.35 -5.58 2.39
2.46 -5.53 2.39
2.57 -5.48 2.39
2.67 -5.42 2.39
2.78 -5.36 2.39
2.88 -5.30 2.39
2.98 -5.24 2.39
3.09 -5.18 2.39
3.19 -5.11 2.39
3.28 -5.05 2.39
3.38 -4.98 2.39
3.19 -4.50 2.20
3.19 -4.32 2.14
3.20 -4.16 2.09
3.22 -4.02 2.06
3.26 -3.91 2.03
3.33 -3.84 2.03
3.41 -3.77 2.03
3.48 -3.70 2.04
3.55 -3.62 2.04
3.63 -3.56 2.04
3.72 -3.51 2.06
3.81 -3.45 2.07
3.90 -3.40 2.09
4.00 -3.34 2.10
4.11 -3.30 2.13
4.25 -3.28 2.17
4.37 -3.24 2.21
4.49 -3.19 2.23
4.49 -3.05 2.21
4.42 -2.88 2.15
4.39 -2.74 2.11
4.39 -2.62 2.08
4.44 -2.53 2.09
4.50 -2.44 2.10
4.55 -2.36 2.10
4.61 -2.27 2.11
4.67 -2.19 2.12
4.75 -2.11 2.14
4.81 -2.03 2.16
4.92 -1.96 2.19
5.04 -1.89 2.23
5.18 -1.82 2.28
5.41 -1.79 2.37
5.50 -1.69 2.39
5.39 -1.55 2.34
5.13 -1.36 2.22
5.02 -1.23 2.16
5.00 -1.11 2.15
4.97 -1.00 2.13
4.99 -0.90 2.13
5.00 -0.80 2.14
5.01 -0.70 2.14
5.02 -0.60 2.14
5.04 -0.50 2.15
5.08 -0.41 2.16
5.14 -0.31 2.19
5.39 -0.21 2.30
5.29 -0.10 2.26
5.06 0.00 2.16
4.93 0.10 2.12
4.88 0.20 2.10
4.82 0.29 2.08
4.76 0.38 2.06
4.74 0.48 2.06
4.84 0.59 2.11
4.89 0.69 2.14
5.01 0.81 2.20
5.05 0.92 2.23
5.16 1.05 2.30
5.35 1.20 2.39
5.11 1.25 2.30
5.05 1.35 2.29
5.03 1.45 2.30
5.00 1.55 2.31
4.97 1.65 2.31
4.97 1.77 2.33
4.94 1.87 2.34
4.94 1.98 2.36
4.96 2.11 2.39
4.91 2.20 2.39
4.85 2.29 2.39
4.80 2.39 2.39
4.74 2.48 2.39
4.68 2.57 2.39
4.62 2.66 2.39
4.55 2.75 2.39
4.49 2.83 2.39
4.42 2.92 2.39
4.36 3.00 2.39
4.29 3.08 2.39
4.22 3.16 2.39
4.15 3.24 2.39
4.07 3.32 2.39
4.00 3.40 2.39
3.92 3.47 2.39
3.85 3.54 2.39
3.77 3.62 2.39
3.69 3.69 2.39
3.61 3.75 2.39
3.52 3.82 2.39
3.44 3.88 2.39
3.36 3.95 2.39
3.27 4.01 2.39
3.19 4.07 2.39
3.10 4.13 2.39
3.01 4.18 2.39
2.92 4.24 2.39
2.83 4.29 2.39
2.76 4.38 2.42
2.65 4.39 2.39
2.55 4.44 2.39
2.50 4.57 2.44
2.47 4.72 2.50
2.37 4.77 2.50
2.27 4.81 2.50
2.17 4.85 2.50
2.07 4.89 2.50
1.97 4.92 2.50
1.86 4.96 2.50
1.76 4.99 2.50
1.66 5.02 2.50
1.55 5.05 2.50
1.45 5.07 2.50
1.34 5.10 2.50
1.24 5.12 2.50
1.13 5.14 2.50
1.03 5.16 2.50
0.92 5.17 2.50
0.82 5.19 2.50
0.71 5.20 2.50
0.60 5.21 2.50
0.50 5.22 2.50
0.39 5.23 2.50
0.28 5.23 2.50
0.18 5.23 2.50
0.07 5.23 2.50
-0.04 5.23 2.50
-0.14 5.23 2.50
-0.25 5.22 2.50
-0.36 5.22 2.50
-0.46 5.21 2.50
-0.57 5.19 2.50
-0.67 5.18 2.50
-0.78 5.17 2.50
-0.89 5.15 2.50
-0.99 5.13 2.50
-1.09 5.11 2.50
-1.20 5.08 2.50
-1.30 5.06 2.50
-1.41 5.03 2.50
-1.51 5.00 2.50
-1.61 4.97 2.50
-1.71 4.94 2.50
-1.81 4.91 2.50
-1.91 4.87 2.50
-2.01 4.83 2.50
-2.11 4.79 2.50
-2.21 4.75 2.50
-2.31 4.70 2.50
-2.40 4.66 2.50
-2.50 4.61 2.50
-2.59 4.56 2.50
-2.69 4.51 2.50
-2.78 4.46 2.50
-2.87 4.40 2.50
-2.96 4.35 2.50
-3.05 4.29 2.50
-3.14 4.23 2.50
-3.23 4.17 2.50
-3.32 4.10 2.50
-3.40 4.04 2.50
-3.49 3.97 2.50
-3.57 3.90 2.50
-3.65 3.83 2.50
-3.73 3.76 2.50
-3.81 3.69 2.50
-3.89 3.62 2.50
-3.97 3.54 2.50
-4.05 3.46 2.50
-4.12 3.38 2.50
-4.19 3.30 2.50
-4.26 3.22 2.50
-4.33 3.14 2.50
-4.40 3.05 2.50
-4.47 2.97 2.50
-4.53 2.88 2.50
-4.60 2.79 2.50
-4.66 2.70 2.50
-4.72 2.61 2.50
-4.78 2.52 2.50
-4.83 2.42 2.50
-4.89 2.33 2.50
-4.94 2.23 2.50
-5.00 2.13 2.50
-5.05 2.03 2.50
-5.09 1.94 2.50
-5.14 1.83 2.50
-5.18 1.73 2.50
-5.23 1.63 2.50
-5.27 1.53 2.50
-5.31 1.42 2.50
-5.34 1.32 2.50
-5.38 1.21 2.50
-5.41 1.10 2.50
-5.44 1.00 2.50
-5.47 0.89 2.50
-5.49 0.78 2.50
-5.52 0.67 2.50
-5.54 0.56 2.50
-5.56 0.45 2.50
-5.58 0.34 2.50
-5.60 0.22 2.50
-5.61 0.11 2.50
-5.62 -0.00 2.50
-5.63 -0.11 2.50
-5.64 -0.23 2.50
-5.64 -0.34 2.50
-5.64 -0.46 2.50
-5.65 -0.57 2.50
-5.64 -0.68 2.50
-5.64 -0.80 2.50
-5.63 -0.91 2.50
-5.62 -1.03 2.50
-5.61 -1.14 2.50
-5.60 -1.26 2.50
-5.58 -1.37 2.50
-5.57 -1.49 2.50
-5.55 -1.60 2.50
-5.52 -1.72 2.50
-5.50 -1.83 2.50
-5.47 -1.94 2.50
-5.44 -2.06 2.50
-5.41 -2.17 2.50
-5.37 -2.28 2.50
-5.34 -2.39 2.50
-5.30 -2.50 2.50
-5.26 -2.61 2.50
-5.21 -2.72 2.50
-5.17 -2.83 2.50
-5.12 -2.94 2.50
-5.07 -3.05 2.50
-5.02 -3.15 2.50
-4.96 -3.26 2.50
-4.91 -3.36 2.50
-4.85 -3.47 2.50
-4.79 -3.57 2.50
-4.72 -3.67 2.50
-4.66 -3.77 2.50
-4.59 -3.87 2.50
-4.52 -3.97 2.50
-4.44 -4.06 2.50
-4.37 -4.16 2.50
-4.29 -4.25 2.50
-4.22 -4.34 2.50
-4.14 -4.43 2.50
-4.05 -4.52 2.50
-3.97 -4.61 2.50
-3.88 -4.69 2.50
-3.79 -4.78 2.50
-3.70 -4.86 2.50
-3.61 -4.94 2.50
-3.52 -5.02 2.50
-3.42 -5.09 2.50
-3.33 -5.17 2.50
-3.23 -5.24 2.50
-3.13 -5.31 2.50
-3.02 -5.38 2.50
-2.92 -5.45 2.50
-2.82 -5.51 2.50
-2.71 -5.57 2.50
-2.60 -5.63 2.50
-2.49 -5.69 2.50
-2.38 -5.74 2.50
-2.27 -5.79 2.50
-2.16 -5.84 2.50
-2.04 -5.89 2.50
-1.93 -5.94 2.50
-1.81 -5.98 2.50
-1.69 -6.02 2.50
-1.58 -6.06 2.50
-1.46 -6.09 2.50
-1.34 -6.13 2.50
-1.22 -6.16 2.50
-1.09 -6.19 2.50
-0.97 -6.21 2.50
-0.85 -6.23 2.50
-0.73 -6.25 2.50
-0.60 -6.27 2.50
-0.48 -6.28 2.50
-0.36 -6.30 2.50
-0.23 -6.30 2.50
-0.11 -6.31 2.50
0.02 -5.92 2.50
0.14 -5.92 2.50
0.25 -5.92 2.50
0.37 -5.91 2.50
0.49 -5.91 2.50
0.60 -5.90 2.50
0.72 -5.89 2.50
0.84 -5.87 2.50
0.95 -5.85 2.50
1.07 -5.83 2.50
1.18 -5.81 2.50
1.30 -5.79 2.50
1.41 -5.76 2.50
1.53 -5.73 2.50
1.64 -5.70 2.50
1.75 -5.66 2.50
1.86 -5.63 2.50
1.97 -5.59 2.50
2.04 -5.45 2.45
2.10 -5.27 2.39
2.20 -5.23 2.39
2.30 -5.18 2.39
2.41 -5.13 2.39
2.51 -5.08 2.39
2.60 -5.03 2.39
2.70 -4.98 2.39
2.80 -4.92 2.39
2.89 -4.86 2.39
2.99 -4.80 2.39
3.08 -4.73 2.39
3.17 -4.67 2.39
3.14 -4.43 2.31
3.15 -4.27 2.25
3.16 -4.11 2.20
3.18 -3.97 2.17
3.23 -3.88 2.15
3.31 -3.81 2.15
3.38 -3.74 2.15
3.45 -3.67 2.15
3.53 -3.61 2.16
3.62 -3.56 2.18
3.72 -3.51 2.19
3.82 -3.46 2.21
3.98 -3.47 2.27
4.13 -3.46 2.32
4.26 -3.43 2.36
4.38 -3.38 2.38
4.45 -3.30 2.39
4.51 -3.21 2.39
4.51 -3.07 2.36
4.43 -2.89 2.30
4.37 -2.73 2.24
4.34 -2.59 2.20
4.38 -2.50 2.20
4.43 -2.41 2.20
4.48 -2.33 2.21
4.54 -2.24 2.21
4.59 -2.16 2.22
4.64 -2.07 2.23
4.70 -1.99 2.24
4.83 -1.93 2.29
4.98 -1.87 2.34
5.11 -1.81 2.39
5.14 -1.70 2.39
5.16 -1.60 2.39
5.19 -1.49 2.39
5.21 -1.39 2.39
5.14 -1.26 2.36
5.07 -1.13 2.32
5.00 -1.01 2.28
5.01 -0.91 2.28
4.99 -0.81 2.27
5.00 -0.71 2.27
5.00 -0.61 2.27
5.03 -0.51 2.28
5.08 -0.41 2.30
5.17 -0.31 2.34
5.28 -0.21 2.39
5.25 -0.11 2.38
5.00 -0.00 2.27
4.89 0.10 2.23
4.84 0.19 2.21
4.79 0.28 2.19
4.75 0.38 2.18
4.73 0.47 2.18
4.79 0.58 2.22
4.83 0.68 2.25
4.86 0.78 2.27
4.90 0.89 2.30
4.99 1.01 2.36
5.03 1.12 2.39
5.00 1.22 2.39
4.97 1.32 2.39
4.93 1.42 2.39
4.89 1.51 2.39
4.85 1.61 2.39
4.81 1.70 2.39
4.77 1.80 2.39
4.72 1.89 2.39
4.67 1.98 2.39
4.62 2.07 2.39
4.57 2.16 2.39
4.52 2.25 2.39
4.47 2.33 2.39
4.41 2.42 2.39
4.35 2.50 2.39
4.30 2.59 2.39
4.24 2.67 2.39
4.17 2.75 2.39
4.11 2.83 2.39
4.05 2.90 2.39
3.98 2.98 2.39
3.91 3.06 2.39
3.84 3.13 2.39
3.77 3.20 2.39
3.70 3.27 2.39
3.63 3.34 2.39
3.56 3.41 2.39
3.48 3.47 2.39
3.41 3.54 2.39
3.33 3.60 2.39
3.25 3.66 2.39
3.17 3.72 2.39
3.09 3.78 2.39
3.01 3.84 2.39
2.93 3.89 2.39
2.84 3.95 2.39
2.76 4.00 2.39
2.67 4.05 2.39
2.59 4.10 2.39
2.50 4.14 2.40
2.48 4.31 2.46
2.43 4.41 2.50
2.33 4.46 2.50
2.24 4.50 2.50
2.14 4.54 2.50
2.05 4.58 2.50
1.95 4.61 2.50
1.86 4.65 2.50
1.76 4.68 2.50
1.66 4.71 2.50
1.57 4.74 2.50
1.47 4.77 2.50
1.37 4.79 2.50
1.27 4.81 2.50
1.17 4.83 2.50
1.07 4.85 2.50
0.97 4.87 2.50
0.87 4.89 2.50
0.77 4.90 2.50
0.67 4.91 2.50
0.57 4.92 2.50
0.47 4.93 2.50
0.37 4.94 2.50
0.27 4.94 2.50
0.17 4.94 2.50
0.07 4.94 2.50
-0.03 4.94 2.50
-0.14 4.94 2.50
-0.24 4.93 2.50
-0.34 4.93 2.50
-0.44 4.92 2.50
-0.54 4.91 2.50
-0.64 4.89 2.50
-0.74 4.88 2.50
-0.84 4.86 2.50
-0.94 4.85 2.50
-1.03 4.83 2.50
-1.13 4.80 2.50
-1.23 4.78 2.50
-1.33 4.75 2.50
-1.42 4.73 2.50
-1.52 4.70 2.50
-1.62 4.67 2.50
-1.71 4.63 2.50
-1.81 4.60 2.50
-1.90 4.56 2.50
-1.99 4.52 2.50
-2.09 4.48 2.50
-2.18 4.44 2.50
-2.27 4.40 2.50
-2.36 4.35 2.50
-2.45 4.31 2.50
-2.54 4.26 2.50
-2.63 4.21 2.50
-2.71 4.16 2.50
-2.80 4.10 2.50
-2.89 4.05 2.50
-2.97 3.99 2.50
-3.05 3.93 2.50
-3.14 3.87 2.50
-3.22 3.81 2.50
-3.30 3.75 2.50
-3.37 3.68 2.50
-3.45 3.62 2.50
-3.53 3.55 2.50
-3.60 3.48 2.50
-3.68 3.41 2.50
-3.75 3.34 2.50
-3.82 3.27 2.50
-3.89 3.19 2.50
-3.96 3.11 2.50
-4.03 3.04 2.50
-4.09 2.96 2.50
-4.16 2.88 2.50
-4.22 2.80 2.50
-4.28 2.71 2.50
-4.34 2.63 2.50
-4.40 2.54 2.50
-4.46 2.46 2.50
-4.51 2.37 2.50
-4.56 2.28 2.50
-4.62 2.19 2.50
-4.67 2.10 2.50
-4.71 2.01 2.50
-4.76 1.92 2.50
-4.81 1.82 2.50
-4.85 1.73 2.50
-4.89 1.63 2.50
-4.93 1.53 2.50
-4.97 1.44 2.50
-5.00 1.34 2.50
-5.04 1.24 2.50
-5.07 1.14 2.50
-5.10 1.04 2.50
-5.13 0.94 2.50
-5.16 0.83 2.50
-5.18 0.73 2.50
-5.20 0.63 2.50
-5.22 0.52 2.50
-5.24 0.42 2.50
-5.26 0.31 2.50
-5.27 0.21 2.50
-5.29 0.10 2.50
-5.30 -0.01 2.50
-5.30 -0.11 2.50
-5.31 -0.22 2.50
-5.31 -0.33 2.50
-5.32 -0.43 2.50
-5.32 -0.54 2.50
-5.31 -0.65 2.50
-5.31 -0.76 2.50
-5.30 -0.87 2.50
-5.29 -0.97 2.50
-5.28 -1.08 2.50
-5.27 -1.19 2.50
-5.26 -1.30 2.50
-5.24 -1.41 2.50
-5.22 -1.51 2.50
-5.20 -1.62 2.50
-5.17 -1.73 2.50
-5.15 -1.83 2.50
-5.12 -1.94 2.50
-5.09 -2.05 2.50
-5.06 -2.15 2.50
-5.02 -2.26 2.50
-4.98 -2.36 2.50
-4.94 -2.46 2.50
-4.90 -2.57 2.50
-4.86 -2.67 2.50
-4.81 -2.77 2.50
-4.77 -2.87 2.50
-4.72 -2.97 2.50
-4.66 -3.07 2.50
-4.61 -3.17 2.50
-4.55 -3.26 2.50
-4.50 -3.36 2.50
-4.43 -3.45 2.50
-4.37 -3.55 2.50
-4.31 -3.64 2.50
-4.24 -3.73 2.50
-4.17 -3.82 2.50
-4.10 -3.91 2.50
-4.03 -4.00 2.50
-3.96 -4.08 2.50
-3.88 -4.17 2.50
-3.80 -4.25 2.50
-3.72 -4.33 2.50
-3.64 -4.41 2.50
-3.56 -4.49 2.50
-3.47 -4.57 2.50
-3.39 -4.64 2.50
-3.30 -4.71 2.50
-3.21 -4.78 2.50
-3.12 -4.85 2.50
-3.03 -4.92 2.50
-2.93 -4.99 2.50
-2.84 -5.05 2.50
-2.74 -5.11 2.50
-2.64 -5.17 2.50
-2.54 -5.23 2.50
-2.44 -5.28 2.50
-2.34 -5.34 2.50
-2.23 -5.39 2.50
-2.13 -5.44 2.50
-2.02 -5.49 2.50
-1.91 -5.53 2.50
-1.81 -5.57 2.50
-1.70 -5.61 2.50
-1.59 -5.65 2.50
-1.48 -5.68 2.50
-1.36 -5.72 2.50
-1.25 -5.75 2.50
-1.14 -5.78 2.50
-1.02 -5.80 2.50
-0.91 -5.82 2.50
-0.80 -5.85 2.50
-0.68 -5.86 2.50
-0.56 -5.88 2.50
-0.45 -5.89 2.50
-0.33 -5.90 2.50
-0.22 -5.91 2.50
-0.10 -5.92 2.50
0.02 -5.57 2.50
0.13 -5.57 2.50
0.24 -5.57 2.50
0.35 -5.56 2.50
0.46 -5.55 2.50
0.57 -5.55 2.50
0.68 -5.53 2.50
0.79 -5.52 2.50
0.90 -5.50 2.50
1.00 -5.49 2.50
1.11 -5.46 2.50
1.22 -5.44 2.50
1.33 -5.42 2.50
1.43 -5.39 2.50
1.54 -5.36 2.50
1.64 -5.33 2.50
1.75 -5.29 2.50
1.85 -5.25 2.50
1.96 -5.22 2.50
2.06 -5.17 2.50
2.08 -4.94 2.41
2.17 -4.87 2.39
2.26 -4.83 2.39
2.35 -4.78 2.39
2.45 -4.73 2.39
2.54 -4.68 2.39
2.63 -4.63 2.39
2.72 -4.57 2.39
2.81 -4.51 2.39
2.89 -4.45 2.39
2.98 -4.39 2.39
3.06 -4.33 2.39
3.13 -4.25 2.39
3.17 -4.13 2.35
3.21 -4.01 2.32
3.25 -3.90 2.30
3.33 -3.83 2.30
3.40 -3.76 2.30
3.48 -3.71 2.31
3.57 -3.65 2.32
3.66 -3.60 2.34
3.76 -3.55 2.36
3.89 -3.53 2.39
3.95 -3.45 2.39
4.01 -3.37 2.39
4.07 -3.28 2.39
4.13 -3.20 2.39
4.19 -3.11 2.39
4.25 -3.02 2.39
4.30 -2.93 2.39
4.35 -2.84 2.39
4.31 -2.70 2.35
4.31 -2.58 2.32
4.35 -2.49 2.32
4.39 -2.39 2.31
4.42 -2.30 2.31
4.47 -2.21 2.31
4.53 -2.13 2.33
4.62 -2.06 2.36
4.72 -1.99 2.39
4.76 -1.90 2.39
4.79 -1.80 2.39
4.82 -1.71 2.39
4.84 -1.61 2.39
4.86 -1.51 2.39
4.88 -1.41 2.39
4.90 -1.31 2.39
4.92 -1.21 2.39
4.94 -1.11 2.39
4.95 -1.01 2.39
4.96 -0.91 2.39
4.97 -0.81 2.39
4.98 -0.71 2.39
4.98 -0.61 2.39
4.98 -0.51 2.39
4.98 -0.41 2.39
4.98 -0.31 2.39
4.98 -0.21 2.39
4.97 -0.11 2.39
4.96 -0.01 2.39
4.90 0.09 2.37
4.84 0.19 2.34
4.79 0.28 2.33
4.76 0.37 2.32
4.70 0.46 2.30
4.72 0.56 2.32
4.74 0.66 2.34
4.78 0.76 2.37
4.81 0.87 2.39
4.78 0.96 2.39
4.75 1.06 2.39
4.72 1.15 2.39
4.69 1.24 2.39
4.66 1.33 2.39
4.62 1.42 2.39
4.58 1.51 2.39
4.54 1.60 2.39
4.50 1.69 2.39
4.46 1.78 2.39
4.42 1.87 2.39
4.37 1.95 2.39
4.32 2.03 2.39
4.27 2.12 2.39
4.22 2.20 2.39
4.17 2.28 2.39
4.12 2.36 2.39
4.06 2.44 2.39
4.00 2.52 2.39
3.95 2.59 2.39
3.89 2.67 2.39
3.83 2.74 2.39
3.76 2.81 2.39
3.70 2.88 2.39
3.64 2.95 2.39
3.57 3.02 2.39
3.50 3.09 2.39
3.43 3.15 2.39
3.36 3.22 2.39
3.29 3.28 2.39
3.22 3.34 2.39
3.15 3.40 2.39
3.08 3.46 2.39
3.00 3.52 2.39
2.92 3.57 2.39
2.85 3.63 2.39
2.77 3.68 2.39
2.73 3.78 2.43
2.61 3.78 2.39
2.53 3.83 2.39
2.48 3.92 2.42
2.47 4.08 2.49
2.38 4.13 2.50
2.30 4.17 2.50
2.21 4.21 2.50
2.12 4.25 2.50
2.03 4.29 2.50
1.94 4.33 2.50
1.85 4.36 2.50
1.76 4.40 2.50
1.67 4.43 2.50
1.58 4.46 2.50
1.48 4.48 2.50
1.39 4.51 2.50
1.30 4.53 2.50
1.20 4.55 2.50
1.11 4.57 2.50
1.02 4.59 2.50
0.92 4.61 2.50
0.83 4.62 2.50
0.73 4.64 2.50
0.64 4.65 2.50
0.54 4.66 2.50
0.45 4.67 2.50
0.35 4.67 2.50
0.26 4.68 2.50
0.16 4.68 2.50
0.06 4.68 2.50
-0.03 4.68 2.50
-0.13 4.67 2.50
-0.22 4.67 2.50
-0.32 4.66 2.50
-0.41 4.66 2.50
-0.51 4.64 2.50
-0.60 4.63 2.50
-0.70 4.62 2.50
-0.79 4.60 2.50
-0.89 4.59 2.50
-0.98 4.57 2.50
-1.07 4.55 2.50
-1.16 4.52 2.50
-1.26 4.50 2.50
-1.35 4.47 2.50
-1.44 4.45 2.50
-1.53 4.42 2.50
-1.62 4.39 2.50
-1.71 4.35 2.50
-1.80 4.32 2.50
-1.89 4.28 2.50
-1.98 4.24 2.50
-2.06 4.20 2.50
-2.15 4.16 2.50
-2.24 4.12 2.50
-2.32 4.08 2.50
-2.40 4.03 2.50
-2.49 3.98 2.50
-2.57 3.93 2.50
-2.65 3.88 2.50
-2.73 3.83 2.50
-2.81 3.78 2.50
-2.89 3.72 2.50
-2.97 3.66 2.50
-3.04 3.61 2.50
-3.12 3.55 2.50
-3.19 3.48 2.50
-3.27 3.42 2.50
-3.34 3.36 2.50
-3.41 3.29 2.50
-3.48 3.23 2.50
-3.55 3.16 2.50
-3.62 3.09 2.50
-3.68 3.02 2.50
-3.75 2.94 2.50
-3.81 2.87 2.50
-3.87 2.80 2.50
-3.93 2.72 2.50
-3.99 2.64 2.50
-4.05 2.56 2.50
-4.11 2.48 2.50
-4.16 2.40 2.50
-4.21 2.32 2.50
-4.27 2.24 2.50
-4.32 2.15 2.50
-4.37 2.07 2.50
-4.41 1.98 2.50
-4.46 1.90 2.50
-4.50 1.81 2.50
-4.54 1.72 2.50
-4.59 1.63 2.50
-4.62 1.54 2.50
-4.66 1.45 2.50
-4.70 1.35 2.50
-4.73 1.26 2.50
-4.76 1.17 2.50
-4.79 1.07 2.50
-4.82 0.98 2.50
-4.85 0.88 2.50
-4.87 0.78 2.50
-4.89 0.69 2.50
-4.92 0.59 2.50
-4.93 0.49 2.50
-4.95 0.39 2.50
-4.97 0.29 2.50
-4.98 0.19 2.50
-4.99 0.09 2.50
-5.00 -0.01 2.50
-5.01 -0.11 2.50
-5.01 -0.21 2.50
-5.02 -0.31 2.50
-5.02 -0.41 2.50
-5.02 -0.52 2.50
-5.02 -0.62 2.50
-5.01 -0.72 2.50
-5.00 -0.82 2.50
-5.00 -0.92 2.50
-4.99 -1.03 2.50
-4.97 -1.13 2.50
-4.96 -1.23 2.50
-4.94 -1.33 2.50
-4.92 -1.43 2.50
-4.90 -1.53 2.50
-4.88 -1.63 2.50
-4.85 -1.73 2.50
-4.83 -1.83 2.50
-4.80 -1.93 2.50
-4.77 -2.03 2.50
-4.73 -2.13 2.50
-4.70 -2.23 2.50
-4.66 -2.33 2.50
-4.62 -2.42 2.50
-4.58 -2.52 2.50
-4.54 -2.62 2.50
-4.49 -2.71 2.50
-4.44 -2.80 2.50
-4.39 -2.90 2.50
-4.34 -2.99 2.50
-4.29 -3.08 2.50
-4.23 -3.17 2.50
-4.18 -3.26 2.50
-4.12 -3.35 2.50
-4.06 -3.43 2.50
-3.99 -3.52 2.50
-3.93 -3.60 2.50
-3.86 -3.69 2.50
-3.79 -3.77 2.50
-3.72 -3.85 2.50
-3.65 -3.93 2.50
-3.58 -4.01 2.50
-3.50 -4.08 2.50
-3.43 -4.16 2.50
-3.35 -4.23 2.50
-3.27 -4.30 2.50
-3.19 -4.37 2.50
-3.10 -4.44 2.50
-3.02 -4.51 2.50
-2.93 -4.57 2.50
-2.85 -4.63 2.50
-2.76 -4.70 2.50
-2.67 -4.76 2.50
-2.57 -4.81 2.50
-2.48 -4.87 2.50
-2.39 -4.92 2.50
-2.29 -4.97 2.50
-2.19 -5.02 2.50
-2.10 -5.07 2.50
-2.00 -5.12 2.50
-1.90 -5.16 2.50
-1.80 -5.20 2.50
-1.70 -5.24 2.50
-1.59 -5.28 2.50
-1.49 -5.31 2.50
-1.39 -5.35 2.50
-1.28 -5.38 2.50
-1.18 -5.41 2.50
-1.07 -5.43 2.50
-0.96 -5.46 2.50
-0.85 -5.48 2.50
-0.75 -5.50 2.50
-0.64 -5.51 2.50
-0.53 -5.53 2.50
-0.42 -5.54 2.50
-0.31 -5.55 2.50
-0.20 -5.56 2.50
-0.09 -5.56 2.50
0.02 -5.25 2.50
0.12 -5.25 2.50
0.23 -5.25 2.50
0.33 -5.24 2.50
0.43 -5.24 2.50
0.54 -5.23 2.50
0.64 -5.22 2.50
0.74 -5.20 2.50
0.84 -5.19 2.50
0.95 -5.17 2.50
1.05 -5.15 2.50
1.15 -5.13 2.50
1.25 -5.11 2.50
1.35 -5.08 2.50
1.45 -5.05 2.50
1.55 -5.02 2.50
1.65 -4.99 2.50
1.75 -4.95 2.50
1.84 -4.92 2.50
1.94 -4.88 2.50
2.03 -4.84 2.50
2.08 -4.69 2.44
2.13 -4.55 2.39
2.22 -4.51 2.39
2.31 -4.46 2.39
2.39 -4.41 2.39
2.48 -4.36 2.39
2.56 -4.31 2.39
2.64 -4.26 2.39
2.73 -4.20 2.39
2.81 -4.14 2.39
2.89 -4.08 2.39
2.96 -4.02 2.39
3.04 -3.96 2.39
3.12 -3.90 2.39
3.19 -3.83 2.39
3.26 -3.76 2.39
3.33 -3.69 2.39
3.40 -3.62 2.39
3.47 -3.55 2.39
3.54 -3.48 2.39
3.60 -3.41 2.39
3.66 -3.33 2.39
3.72 -3.25 2.39
3.78 -3.18 2.39
3.84 -3.10 2.39
3.90 -3.02 2.39
3.95 -2.94 2.39
4.00 -2.85 2.39
4.05 -2.77 2.39
4.10 -2.69 2.39
4.15 -2.60 2.39
4.20 -2.51 2.39
4.24 -2.43 2.39
4.28 -2.34 2.39
4.32 -2.25 2.39
4.36 -2.16 2.39
4.39 -2.07 2.39
4.43 -1.98 2.39
4.46 -1.89 2.39
4.49 -1.80 2.39
4.52 -1.71 2.39
4.54 -1.61 2.39
4.57 -1.52 2.39
4.59 -1.43 2.39
4.61 -1.33 2.39
4.63 -1.24 2.39
4.65 -1.15 2.39
4.66 -1.05 2.39
4.67 -0.96 2.39
4.68 -0.86 2.39
4.69 -0.77 2.39
4.70 -0.67 2.39
4.70 -0.58 2.39
4.71 -0.48 2.39
4.71 -0.39 2.39
4.71 -0.29 2.39
4.70 -0.20 2.39
4.70 -0.11 2.39
4.69 -0.01 2.39
4.68 0.08 2.39
4.67 0.18 2.39
4.66 0.27 2.39
4.65 0.36 2.39
4.63 0.45 2.39
4.61 0.54 2.39
4.59 0.64 2.39
4.57 0.73 2.39
4.55 0.82 2.39
4.52 0.91 2.39
4.50 0.99 2.39
4.47 1.08 2.39
4.44 1.17 2.39
4.40 1.26 2.39
4.37 1.34 2.39
4.34 1.43 2.39
4.30 1.51 2.39
4.26 1.60 2.39
4.22 1.68 2.39
4.18 1.76 2.39
4.14 1.84 2.39
4.09 1.92 2.39
4.04 2.00 2.39
4.00 2.08 2.39
3.95 2.15 2.39
3.90 2.23 2.39
3.85 2.30 2.39
3.79 2.38 2.39
3.74 2.45 2.39
3.68 2.52 2.39
3.62 2.59 2.39
3.57 2.66 2.39
3.51 2.73 2.39
3.44 2.79 2.39
3.38 2.86 2.39
3.32 2.92 2.39
3.25 2.98 2.39
3.19 3.05 2.39
3.12 3.10 2.39
3.05 3.16 2.39
2.99 3.22 2.39
2.92 3.28 2.39
2.84 3.33 2.39
2.77 3.38 2.39
2.72 3.46 2.41
2.63 3.48 2.39
2.55 3.53 2.39
2.48 3.58 2.39
2.46 3.71 2.45
2.42 3.83 2.50
2.34 3.87 2.50
2.26 3.91 2.50
2.18 3.95 2.50
2.10 3.99 2.50
2.01 4.03 2.50
1.93 4.07 2.50
1.84 4.10 2.50
1.76 4.13 2.50
1.67 4.16 2.50
1.58 4.19 2.50
1.50 4.22 2.50
1.41 4.25 2.50
1.32 4.27 2.50
1.23 4.29 2.50
1.14 4.32 2.50
1.05 4.34 2.50
0.97 4.35 2.50
0.88 4.37 2.50
0.79 4.38 2.50
0.70 4.40 2.50
0.61 4.41 2.50
0.51 4.42 2.50
0.42 4.42 2.50
0.33 4.43 2.50
0.24 4.43 2.50
0.15 4.44 2.50
0.06 4.44 2.50
-0.03 4.43 2.50
-0.12 4.43 2.50
-0.21 4.43 2.50
-0.30 4.42 2.50
-0.39 4.41 2.50
-0.48 4.40 2.50
-0.57 4.39 2.50
-0.66 4.38 2.50
-0.75 4.36 2.50
-0.84 4.35 2.50
-0.93 4.33 2.50
-1.02 4.31 2.50
-1.10 4.29 2.50
-1.19 4.27 2.50
-1.28 4.24 2.50
-1.37 4.21 2.50
-1.45 4.19 2.50
-1.54 4.16 2.50
-1.62 4.13 2.50
-1.71 4.09 2.50
-1.79 4.06 2.50
-1.87 4.02 2.50
-1.96 3.99 2.50
-2.04 3.95 2.50
-2.12 3.91 2.50
-2.20 3.86 2.50
-2.28 3.82 2.50
-2.36 3.77 2.50
-2.44 3.73 2.50
-2.51 3.68 2.50
-2.59 3.63 2.50
-2.67 3.58 2.50
-2.74 3.53 2.50
-2.81 3.47 2.50
-2.89 3.42 2.50
-2.96 3.36 2.50
-3.03 3.30 2.50
-3.10 3.24 2.50
-3.17 3.18 2.50
-3.23 3.12 2.50
-3.30 3.05 2.50
-3.36 2.99 2.50
-3.43 2.92 2.50
-3.49 2.86 2.50
-3.55 2.79 2.50
-3.61 2.72 2.50
-3.67 2.65 2.50
-3.73 2.57 2.50
-3.78 2.50 2.50
-3.84 2.43 2.50
-3.89 2.35 2.50
-3.94 2.27 2.50
-3.99 2.20 2.50
-4.04 2.12 2.50
-4.09 2.04 2.50
-4.14 1.96 2.50
-4.18 1.87 2.50
-4.22 1.79 2.50
-4.27 1.71 2.50
-4.30 1.62 2.50
-4.34 1.54 2.50
-4.38 1.45 2.50
-4.41 1.36 2.50
-4.45 1.28 2.50
-4.48 1.19 2.50
-4.51 1.10 2.50
-4.54 1.01 2.50
-4.56 0.92 2.50
-4.59 0.83 2.50
-4.61 0.74 2.50
-4.63 0.64 2.50
-4.65 0.55 2.50
-4.67 0.46 2.50
-4.69 0.36 2.50
-4.70 0.27 2.50
-4.71 0.18 2.50
-4.72 0.08 2.50
-4.73 -0.01 2.50
-4.74 -0.11 2.50
-4.74 -0.21 2.50
-4.75 -0.30 2.50
-4.75 -0.40 2.50
-4.75 -0.49 2.50
-4.74 -0.59 2.50
-4.74 -0.69 2.50
-4.73 -0.78 2.50
-4.72 -0.88 2.50
-4.71 -0.97 2.50
-4.70 -1.07 2.50
-4.69 -1.17 2.50
-4.67 -1.26 2.50
-4.65 -1.36 2.50
-4.63 -1.45 2.50
-4.61 -1.55 2.50
-4.59 -1.64 2.50
-4.56 -1.74 2.50
-4.53 -1.83 2.50
-4.50 -1.93 2.50
-4.47 -2.02 2.50
-4.44 -2.11 2.50
-4.40 -2.20 2.50
-4.36 -2.29 2.50
-4.32 -2.38 2.50
-4.28 -2.47 2.50
-4.24 -2.56 2.50
-4.19 -2.65 2.50
-4.15 -2.74 2.50
-4.10 -2.83 2.50
-4.05 -2.91 2.50
-3.99 -3.00 2.50
-3.94 -3.08 2.50
-3.88 -3.16 2.50
-3.83 -3.24 2.50
-3.77 -3.33 2.50
-3.71 -3.40 2.50
-3.64 -3.48 2.50
-3.58 -3.56 2.50
-3.51 -3.64 2.50
-3.44 -3.71 2.50
-3.37 -3.78 2.50
-3.30 -3.85 2.50
-3.23 -3.93 2.50
-3.16 -3.99 2.50
-3.08 -4.06 2.50
-3.00 -4.13 2.50
-2.93 -4.19 2.50
-2.85 -4.25 2.50
-2.76 -4.31 2.50
-2.68 -4.37 2.50
-2.60 -4.43 2.50
-2.51 -4.49 2.50
-2.43 -4.54 2.50
-2.34 -4.59 2.50
-2.25 -4.64 2.50
-2.16 -4.69 2.50
-2.07 -4.74 2.50
-1.98 -4.78 2.50
-1.88 -4.83 2.50
-1.79 -4.87 2.50
-1.69 -4.91 2.50
-1.60 -4.94 2.50
-1.50 -4.98 2.50
-1.40 -5.01 2.50
-1.30 -5.04 2.50
-1.21 -5.07 2.50
-1.11 -5.10 2.50
-1.01 -5.12 2.50
-0.91 -5.14 2.50
-0.80 -5.16 2.50
-0.70 -5.18 2.50
-0.60 -5.20 2.50
-0.50 -5.21 2.50
-0.39 -5.22 2.50
-0.29 -5.23 2.50
-0.19 -5.24 2.50
-0.09 -5.24 2.50
0.02 -4.96 2.50
0.12 -4.96 2.50
0.21 -4.95 2.50
0.31 -4.95 2.50
0.41 -4.94 2.50
0.51 -4.94 2.50
0.60 -4.93 2.50
0.70 -4.91 2.50
0.80 -4.90 2.50
0.89 -4.88 2.50
0.99 -4.87 2.50
1.09 -4.84 2.50
1.18 -4.82 2.50
1.28 -4.80 2.50
1.37 -4.77 2.50
1.46 -4.74 2.50
1.56 -4.71 2.50
1.65 -4.68 2.50
1.74 -4.64 2.50
1.83 -4.61 2.50
1.92 -4.57 2.50
2.01 -4.53 2.50
2.09 -4.47 2.49
2.11 -4.29 2.41
2.18 -4.21 2.39
2.26 -4.17 2.39
2.34 -4.12 2.39
2.42 -4.07 2.39
2.50 -4.02 2.39
2.57 -3.97 2.39
2.65 -3.91 2.39
2.72 -3.86 2.39
2.80 -3.80 2.39
2.87 -3.74 2.39
2.94 -3.68 2.39
3.01 -3.62 2.39
3.08 -3.56 2.39
3.15 -3.49 2.39
3.21 -3.43 2.39
3.28 -3.36 2.39
3.34 -3.29 2.39
3.40 -3.22 2.39
