ply
format ascii 1.0
element vertex 2961
property float32 x
property float32 y
property float32 z
end_header
-13.35 8.30 2.25
-13.53 8.04 2.25
-13.70 7.77 2.25
-13.86 7.50 2.25
-14.02 7.23 2.25
-14.18 6.95 2.25
-14.33 6.67 2.25
-12.38 5.46 1.93
-14.61 6.10 2.25
-14.74 5.81 2.25
-14.43 5.36 2.19
-14.99 5.23 2.25
-15.11 4.93 2.25
-15.22 4.63 2.25
-15.32 4.33 2.25
-15.42 4.02 2.25
-15.51 3.71 2.25
-15.60 3.40 2.25
-15.68 3.09 2.25
-15.75 2.78 2.25
-15.82 2.47 2.25
-10.07 1.36 1.43
-11.57 1.33 1.64
-12.43 1.18 1.75
-14.80 1.10 2.08
-18.29 0.99 2.57
-23.91 0.82 3.35
-9.54 -6.08 1.55
-9.53 -6.35 1.57
-9.52 -6.91 1.61
-9.46 -8.78 1.76
-9.42 -9.86 1.85
-20.63 -22.49 4.15
-9.40 -10.67 1.93
-19.00 -22.45 3.99
-18.26 -22.48 3.93
-17.52 -22.47 3.87
-16.79 -22.45 3.80
-16.09 -22.44 3.74
-15.39 -22.40 3.68
-14.71 -22.36 3.63
-5.74 -9.12 1.46
-9.11 -15.13 2.39
-8.80 -15.31 2.39
-8.50 -15.49 2.39
-8.18 -15.66 2.39
-7.87 -15.82 2.39
-7.55 -15.98 2.39
-7.23 -16.13 2.39
-6.91 -16.28 2.39
-6.25 -15.58 2.27
-6.13 -16.23 2.35
-5.62 -15.82 2.27
-5.54 -16.64 2.37
-5.25 -16.89 2.39
-5.12 -17.72 2.49
-4.76 -17.82 2.49
-4.40 -17.91 2.49
-4.04 -18.00 2.49
-3.68 -18.07 2.49
-3.32 -18.14 2.49
-2.95 -18.20 2.49
-2.58 -18.26 2.49
-2.22 -18.30 2.49
-1.85 -18.34 2.49
-1.48 -18.37 2.49
-1.11 -18.39 2.49
-0.74 -18.41 2.49
-0.37 -18.41 2.49
-0.00 -15.74 2.49
0.31 -15.73 2.49
0.63 -15.72 2.49
0.94 -15.70 2.49
1.26 -15.67 2.49
1.57 -15.64 2.49
1.88 -15.60 2.49
2.19 -15.55 2.49
2.50 -15.50 2.49
2.81 -15.44 2.49
2.99 -14.74 2.39
3.29 -14.67 2.39
3.58 -14.60 2.39
3.87 -14.52 2.39
4.16 -14.43 2.39
4.44 -14.34 2.39
4.73 -14.24 2.39
5.01 -14.13 2.39
5.29 -14.02 2.39
5.57 -13.91 2.39
5.84 -13.79 2.39
6.11 -13.66 2.39
6.38 -13.53 2.39
6.65 -13.39 2.39
6.61 -12.66 2.29
6.59 -12.03 2.20
6.57 -11.45 2.11
6.55 -10.90 2.04
6.54 -10.40 1.97
6.52 -9.93 1.91
6.51 -9.49 1.85
6.50 -9.07 1.79
6.49 -8.68 1.74
6.47 -8.31 1.70
6.46 -7.97 1.65
6.45 -7.63 1.61
6.44 -7.32 1.57
6.43 -7.02 1.54
6.42 -6.73 1.50
6.42 -6.46 1.47
6.41 -6.20 1.44
6.40 -5.95 1.41
6.39 -5.71 1.39
6.39 -5.47 1.36
6.38 -5.25 1.34
6.37 -5.03 1.32
6.37 -4.82 1.30
6.36 -4.62 1.28
6.35 -4.42 1.26
6.35 -4.23 1.24
6.34 -4.05 1.23
6.34 -3.87 1.21
6.33 -3.69 1.20
6.35 -3.54 1.19
6.42 -3.41 1.19
6.42 -3.24 1.18
6.42 -3.08 1.17
6.30 -2.87 1.13
6.30 -2.72 1.12
6.40 -2.61 1.14
12.98 -4.99 2.28
13.04 -4.72 2.28
6.39 -2.17 1.11
13.15 -4.17 2.27
13.20 -3.90 2.27
6.38 -1.74 1.09
13.30 -3.35 2.26
8.46 -1.95 1.43
6.37 -1.34 1.08
8.35 -1.58 1.41
6.36 -1.07 1.07
6.24 -0.92 1.05
6.24 -0.79 1.04
6.24 -0.67 1.04
13.49 -1.17 2.25
6.34 -0.42 1.06
13.65 -0.63 2.27
6.33 -0.17 1.05
13.85 -0.08 2.31
6.32 0.09 1.05
14.04 0.48 2.34
6.31 0.34 1.05
14.20 1.06 2.38
6.31 0.60 1.06
14.15 1.63 2.38
6.30 0.85 1.06
14.07 2.19 2.39
6.18 1.09 1.05
6.18 1.22 1.06
13.93 3.04 2.39
13.88 3.32 2.40
13.82 3.60 2.40
13.72 3.87 2.40
6.27 1.91 1.10
8.27 2.70 1.46
6.26 2.18 1.12
8.18 3.03 1.47
8.12 3.20 1.47
8.07 3.37 1.48
6.24 2.75 1.15
12.68 5.91 2.37
6.20 3.04 1.17
6.12 3.15 1.16
6.11 3.31 1.18
6.11 3.47 1.19
6.10 3.63 1.20
6.10 3.79 1.22
6.09 3.96 1.23
6.09 4.13 1.25
6.08 4.31 1.27
6.08 4.49 1.28
6.07 4.68 1.30
6.06 4.87 1.32
6.06 5.07 1.34
6.05 5.28 1.37
6.04 5.49 1.39
6.04 5.71 1.42
6.03 5.93 1.44
6.02 6.17 1.47
6.02 6.41 1.50
6.01 6.67 1.53
6.00 6.94 1.57
5.99 7.21 1.60
5.96 7.48 1.63
5.96 7.79 1.68
5.95 8.12 1.72
5.94 8.46 1.77
5.94 8.82 1.82
5.93 9.20 1.87
5.93 9.62 1.93
5.92 10.06 2.00
5.91 10.52 2.06
5.90 11.01 2.14
5.89 11.54 2.22
5.87 12.10 2.30
5.85 12.69 2.39
5.59 12.80 2.39
5.33 12.91 2.39
5.07 13.01 2.39
4.81 13.11 2.39
4.54 13.21 2.39
4.28 13.29 2.39
2.50 8.36 1.49
2.33 8.40 1.49
3.47 13.53 2.39
3.19 13.60 2.39
2.92 13.66 2.39
2.65 13.71 2.39
2.37 13.77 2.39
2.09 13.81 2.39
1.89 14.45 2.49
1.60 14.49 2.49
1.31 14.52 2.49
1.02 14.54 2.49
0.73 14.56 2.49
0.44 14.58 2.49
0.14 14.59 2.49
-0.15 14.59 2.49
-0.44 14.59 2.49
-0.74 14.58 2.49
-1.03 14.57 2.49
-1.32 14.55 2.49
-1.62 14.52 2.49
-1.91 14.49 2.49
-2.20 14.45 2.49
-2.49 14.41 2.49
-2.78 14.36 2.49
-3.07 14.31 2.49
-3.36 14.25 2.49
-3.64 14.19 2.49
-3.93 14.12 2.49
-4.21 14.04 2.49
-4.50 13.96 2.49
-4.78 13.87 2.49
-5.06 13.78 2.49
-5.34 13.68 2.49
-5.61 13.58 2.49
-5.89 13.47 2.49
-6.11 13.24 2.47
-6.17 12.69 2.39
-6.42 12.57 2.39
-6.47 12.05 2.32
-6.78 12.04 2.34
-7.10 12.03 2.36
-7.43 12.04 2.39
-7.67 11.89 2.39
-7.91 11.74 2.39
-8.15 11.59 2.39
-8.39 11.43 2.39
-8.62 11.27 2.39
-8.85 11.10 2.39
-9.08 10.92 2.39
-9.30 10.75 2.39
-9.52 10.56 2.39
-9.74 10.38 2.39
-9.95 10.19 2.39
-10.04 9.87 2.36
-10.03 9.47 2.31
-10.02 9.09 2.27
-10.15 8.84 2.25
-10.33 8.65 2.25
-10.51 8.44 2.25
-10.69 8.24 2.25
-10.86 8.02 2.25
-11.03 7.81 2.25
-11.19 7.59 2.25
-11.35 7.37 2.25
-11.50 7.15 2.25
-11.65 6.92 2.25
-11.80 6.69 2.25
-11.94 6.46 2.25
-12.08 6.22 2.25
-12.21 5.98 2.25
-12.34 5.74 2.25
-12.37 5.46 2.24
-12.58 5.25 2.25
-12.69 5.00 2.25
-12.80 4.75 2.25
-12.90 4.49 2.25
-13.00 4.24 2.25
-13.09 3.98 2.25
-13.18 3.72 2.25
-13.26 3.46 2.25
-13.34 3.19 2.25
-13.41 2.93 2.25
-13.48 2.66 2.25
-13.54 2.39 2.25
-13.59 2.12 2.25
-9.79 1.32 1.62
-10.71 1.23 1.76
-12.44 1.18 2.04
-14.82 1.10 2.43
-18.32 0.99 3.00
-9.71 -0.64 1.58
-9.66 -2.23 1.60
-9.61 -3.70 1.66
-9.50 -7.50 1.93
-9.46 -8.78 2.05
-22.00 -21.26 4.87
-20.97 -21.10 4.73
-9.42 -9.86 2.17
-19.28 -21.02 4.53
-9.40 -10.67 2.26
-17.81 -21.06 4.38
-17.07 -21.02 4.30
-9.27 -11.89 2.39
-9.03 -12.07 2.39
-8.79 -12.26 2.39
-8.54 -12.43 2.39
-8.29 -12.61 2.39
-5.74 -9.12 1.71
-7.78 -12.93 2.39
-7.52 -13.09 2.39
-7.26 -13.24 2.39
-7.00 -13.39 2.39
-6.73 -13.52 2.39
-6.45 -13.66 2.39
-6.16 -13.73 2.38
-5.82 -13.72 2.36
-5.62 -14.03 2.39
-5.34 -14.14 2.39
-5.24 -14.75 2.48
-4.98 -14.96 2.49
-4.68 -15.06 2.49
-4.37 -15.15 2.49
-4.07 -15.23 2.49
-3.76 -15.31 2.49
-3.45 -15.38 2.49
-3.14 -15.45 2.49
-2.83 -15.51 2.49
-2.52 -15.56 2.49
-2.21 -15.60 2.49
-1.90 -15.64 2.49
-1.58 -15.68 2.49
-1.27 -15.70 2.49
-0.95 -15.72 2.49
-0.64 -15.73 2.49
-0.32 -15.74 2.49
-0.00 -13.73 2.49
0.27 -13.73 2.49
0.55 -13.72 2.49
0.82 -13.70 2.49
1.09 -13.68 2.49
1.37 -13.65 2.49
1.64 -13.61 2.49
1.91 -13.57 2.49
2.18 -13.53 2.49
2.45 -13.48 2.49
2.72 -13.42 2.49
2.87 -12.81 2.39
3.12 -12.74 2.39
3.38 -12.67 2.39
3.63 -12.60 2.39
3.88 -12.52 2.39
4.13 -12.43 2.39
4.37 -12.34 2.39
4.62 -12.25 2.39
4.86 -12.15 2.39
5.10 -12.04 2.39
5.34 -11.93 2.39
5.57 -11.82 2.39
5.81 -11.70 2.39
6.04 -11.57 2.39
6.27 -11.44 2.39
6.49 -11.31 2.39
6.55 -10.91 2.34
6.54 -10.40 2.26
6.52 -9.93 2.18
6.51 -9.49 2.12
6.50 -9.08 2.05
6.49 -8.68 1.99
6.47 -8.32 1.94
6.46 -7.97 1.89
6.45 -7.64 1.84
6.44 -7.32 1.80
6.43 -7.02 1.76
6.42 -6.74 1.72
6.42 -6.46 1.68
6.41 -6.20 1.65
6.40 -5.95 1.62
6.39 -5.71 1.59
6.39 -5.47 1.56
6.38 -5.25 1.53
6.37 -5.03 1.51
6.37 -4.82 1.48
6.36 -4.62 1.46
6.35 -4.42 1.44
6.35 -4.23 1.42
6.34 -4.05 1.40
6.34 -3.87 1.38
6.33 -3.69 1.37
6.32 -3.52 1.35
6.32 -3.35 1.34
6.31 -3.19 1.32
6.31 -3.03 1.31
6.30 -2.87 1.30
6.30 -2.72 1.28
6.29 -2.57 1.27
6.29 -2.42 1.26
6.29 -2.28 1.25
6.28 -2.13 1.25
6.28 -1.99 1.24
6.27 -1.85 1.23
6.27 -1.72 1.22
6.26 -1.58 1.22
6.26 -1.45 1.21
6.26 -1.31 1.20
6.25 -1.18 1.20
6.25 -1.05 1.20
6.24 -0.92 1.19
6.24 -0.79 1.19
6.24 -0.67 1.19
6.25 -0.54 1.19
6.26 -0.42 1.19
6.26 -0.29 1.19
6.26 -0.16 1.19
6.26 -0.04 1.19
6.25 0.09 1.19
6.25 0.21 1.19
6.23 0.34 1.19
6.22 0.46 1.19
6.21 0.59 1.19
6.19 0.71 1.19
6.19 0.84 1.19
6.18 0.96 1.19
6.18 1.09 1.20
6.18 1.22 1.20
6.19 1.35 1.21
6.17 1.48 1.21
6.16 1.61 1.22
6.16 1.74 1.23
6.16 1.87 1.23
6.15 2.01 1.24
6.15 2.14 1.25
6.14 2.28 1.26
6.14 2.42 1.27
6.14 2.56 1.28
6.13 2.71 1.29
6.13 2.85 1.30
6.12 3.00 1.31
6.12 3.15 1.32
6.11 3.31 1.34
6.11 3.46 1.35
6.10 3.63 1.37
6.10 3.79 1.38
6.09 3.96 1.40
6.09 4.13 1.42
6.08 4.31 1.44
6.08 4.49 1.46
6.07 4.68 1.48
6.06 4.87 1.50
6.06 5.07 1.53
6.05 5.27 1.55
6.04 5.49 1.58
6.04 5.71 1.61
6.03 5.93 1.64
6.02 6.17 1.67
6.02 6.41 1.70
6.01 6.67 1.74
6.00 6.94 1.78
5.99 7.21 1.82
5.96 7.48 1.86
5.96 7.79 1.90
5.95 8.12 1.95
5.94 8.46 2.01
5.94 8.82 2.06
5.93 9.20 2.13
5.93 9.62 2.20
5.92 10.05 2.27
5.91 10.52 2.34
5.81 10.84 2.39
5.59 10.96 2.39
5.37 11.07 2.39
5.15 11.17 2.39
4.92 11.27 2.39
4.69 11.37 2.39
4.46 11.46 2.39
4.23 11.54 2.39
4.00 11.63 2.39
3.76 11.70 2.39
2.50 8.35 1.70
2.33 8.40 1.70
3.05 11.91 2.39
2.81 11.97 2.39
2.57 12.02 2.39
2.33 12.07 2.39
2.09 12.12 2.39
1.92 12.68 2.49
1.67 12.72 2.49
1.41 12.75 2.49
1.15 12.78 2.49
0.90 12.80 2.49
0.64 12.82 2.49
0.38 12.83 2.49
0.12 12.84 2.49
-0.13 12.84 2.49
-0.39 12.84 2.49
-0.65 12.83 2.49
-0.91 12.82 2.49
-1.17 12.80 2.49
-1.42 12.78 2.49
-1.68 12.75 2.49
-1.94 12.72 2.49
-2.19 12.68 2.49
-2.45 12.64 2.49
-2.70 12.59 2.49
-2.95 12.54 2.49
-3.21 12.48 2.49
-3.46 12.42 2.49
-3.71 12.35 2.49
-3.96 12.28 2.49
-4.21 12.20 2.49
-4.45 12.12 2.49
-4.70 12.03 2.49
-4.94 11.94 2.49
-5.18 11.84 2.49
-5.42 11.74 2.49
-5.66 11.64 2.49
-5.89 11.53 2.49
-6.05 11.26 2.46
-6.09 10.82 2.39
-6.31 10.70 2.39
-6.53 10.58 2.39
-6.74 10.45 2.39
-6.96 10.32 2.39
-7.17 10.18 2.39
-7.37 10.04 2.39
-7.58 9.90 2.39
-7.78 9.75 2.39
-7.98 9.60 2.39
-8.17 9.44 2.39
-8.37 9.28 2.39
-8.56 9.12 2.39
-8.74 8.95 2.39
-8.93 8.78 2.39
-9.11 8.60 2.39
-9.28 8.42 2.39
-9.46 8.24 2.39
-9.63 8.05 2.39
-9.79 7.86 2.39
-9.95 7.67 2.39
-9.96 7.36 2.36
-9.95 7.05 2.32
-9.94 6.74 2.28
-9.96 6.47 2.25
-10.10 6.27 2.25
-10.23 6.07 2.25
-10.35 5.87 2.25
-10.48 5.66 2.25
-10.59 5.46 2.25
-10.71 5.25 2.25
-10.82 5.03 2.25
-10.93 4.82 2.25
-11.03 4.60 2.25
-11.13 4.38 2.25
-11.22 4.16 2.25
-11.31 3.94 2.25
-11.39 3.71 2.25
-11.47 3.49 2.25
-11.55 3.26 2.25
-11.62 3.03 2.25
-11.69 2.79 2.25
-11.75 2.56 2.25
-11.81 2.33 2.25
-11.86 2.09 2.25
-11.91 1.85 2.25
-9.71 1.31 1.83
-10.72 1.23 2.02
-12.45 1.18 2.34
-14.84 1.10 2.78
-18.35 0.99 3.43
-9.70 -1.23 1.81
-9.68 -1.63 1.82
-9.66 -2.23 1.83
-9.65 -2.85 1.85
-9.64 -3.06 1.86
-9.61 -3.70 1.89
-9.59 -4.60 1.95
-9.48 -8.12 2.28
-22.01 -19.63 5.38
-21.09 -19.58 5.25
-20.22 -19.55 5.13
-9.25 -9.31 2.39
-9.07 -9.50 2.39
-8.88 -9.68 2.39
-8.69 -9.86 2.39
-8.49 -10.03 2.39
-8.29 -10.21 2.39
-8.08 -10.37 2.39
-7.88 -10.54 2.39
-7.67 -10.69 2.39
-7.45 -10.85 2.39
-7.23 -11.00 2.39
-5.74 -9.12 1.96
-6.79 -11.28 2.39
-6.56 -11.42 2.39
-6.33 -11.55 2.39
-6.10 -11.68 2.39
-5.87 -11.80 2.39
-5.63 -11.92 2.39
-5.39 -12.03 2.39
-5.31 -12.50 2.46
-5.12 -12.76 2.49
-4.86 -12.86 2.49
-4.60 -12.96 2.49
-4.34 -13.05 2.49
-4.08 -13.13 2.49
-3.81 -13.21 2.49
-3.55 -13.29 2.49
-3.28 -13.35 2.49
-3.01 -13.42 2.49
-2.74 -13.47 2.49
-2.47 -13.53 2.49
-2.20 -13.57 2.49
-1.93 -13.61 2.49
-1.65 -13.65 2.49
-1.38 -13.67 2.49
-1.11 -13.70 2.49
-0.83 -13.71 2.49
-0.56 -13.73 2.49
-0.28 -13.73 2.49
-0.00 -12.17 2.49
0.24 -12.16 2.49
0.48 -12.15 2.49
0.73 -12.14 2.49
0.97 -12.12 2.49
1.21 -12.09 2.49
1.45 -12.06 2.49
1.69 -12.03 2.49
1.94 -11.99 2.49
2.17 -11.95 2.49
2.41 -11.90 2.49
2.65 -11.84 2.49
2.77 -11.29 2.39
2.99 -11.23 2.39
3.22 -11.17 2.39
3.44 -11.10 2.39
3.66 -11.02 2.39
3.88 -10.94 2.39
4.09 -10.86 2.39
4.31 -10.77 2.39
4.52 -10.68 2.39
4.73 -10.58 2.39
4.94 -10.48 2.39
5.15 -10.37 2.39
5.35 -10.26 2.39
5.56 -10.15 2.39
5.76 -10.03 2.39
5.95 -9.91 2.39
6.15 -9.78 2.39
6.34 -9.65 2.39
6.53 -9.52 2.39
6.50 -9.08 2.31
6.49 -8.69 2.25
6.47 -8.32 2.19
6.46 -7.97 2.13
6.45 -7.64 2.08
6.44 -7.32 2.03
6.43 -7.02 1.98
6.42 -6.74 1.94
6.42 -6.46 1.90
6.41 -6.20 1.86
6.40 -5.95 1.82
6.39 -5.71 1.79
6.39 -5.48 1.76
6.38 -5.25 1.72
6.37 -5.03 1.70
6.37 -4.83 1.67
6.36 -4.62 1.64
6.35 -4.43 1.62
6.35 -4.24 1.60
6.34 -4.05 1.58
6.34 -3.87 1.56
6.33 -3.69 1.54
6.32 -3.52 1.52
6.32 -3.36 1.50
6.31 -3.19 1.49
6.31 -3.03 1.47
6.30 -2.88 1.46
6.30 -2.72 1.45
6.29 -2.57 1.43
6.29 -2.42 1.42
6.29 -2.28 1.41
6.28 -2.13 1.40
6.28 -1.99 1.39
6.27 -1.85 1.38
6.27 -1.72 1.37
6.26 -1.58 1.37
6.26 -1.45 1.36
6.26 -1.31 1.35
6.25 -1.18 1.35
6.25 -1.05 1.34
6.24 -0.92 1.34
6.24 -0.80 1.34
6.24 -0.67 1.33
6.23 -0.54 1.33
6.23 -0.42 1.33
6.22 -0.29 1.33
6.22 -0.16 1.33
6.22 -0.04 1.33
6.21 0.09 1.33
6.21 0.21 1.33
6.20 0.33 1.33
6.20 0.46 1.33
6.20 0.58 1.33
6.19 0.71 1.33
6.19 0.84 1.34
6.18 0.96 1.34
6.18 1.09 1.35
6.18 1.22 1.35
6.20 1.35 1.36
6.17 1.47 1.36
6.16 1.61 1.37
6.16 1.74 1.38
6.16 1.87 1.38
6.15 2.01 1.39
6.15 2.14 1.40
6.14 2.28 1.41
6.14 2.42 1.42
6.14 2.56 1.43
6.13 2.70 1.45
6.13 2.85 1.46
6.12 3.00 1.47
6.12 3.15 1.49
6.11 3.31 1.50
6.11 3.46 1.52
6.10 3.63 1.53
6.10 3.79 1.55
6.09 3.96 1.57
6.09 4.13 1.59
6.08 4.31 1.61
6.08 4.49 1.64
6.07 4.68 1.66
6.06 4.87 1.69
6.06 5.07 1.71
6.05 5.27 1.74
6.04 5.49 1.77
6.04 5.71 1.80
6.03 5.93 1.84
6.02 6.17 1.87
6.02 6.41 1.91
6.01 6.67 1.95
6.00 6.93 1.99
5.99 7.21 2.04
5.96 7.48 2.08
5.96 7.79 2.13
5.95 8.11 2.19
5.94 8.46 2.25
5.94 8.82 2.31
5.95 9.23 2.39
5.76 9.35 2.39
5.57 9.46 2.39
5.38 9.57 2.39
5.19 9.67 2.39
4.99 9.78 2.39
4.79 9.87 2.39
4.59 9.97 2.39
4.39 10.06 2.39
4.19 10.14 2.39
3.98 10.22 2.39
3.78 10.30 2.39
3.57 10.37 2.39
3.36 10.44 2.39
2.50 8.35 1.90
2.33 8.40 1.90
2.72 10.63 2.39
2.51 10.68 2.39
2.29 10.73 2.39
2.08 10.77 2.39
1.94 11.28 2.49
1.71 11.32 2.49
1.49 11.35 2.49
1.26 11.38 2.49
1.03 11.40 2.49
0.80 11.42 2.49
0.57 11.44 2.49
0.34 11.45 2.49
0.11 11.46 2.49
-0.12 11.46 2.49
-0.35 11.46 2.49
-0.58 11.45 2.49
-0.81 11.44 2.49
-1.04 11.42 2.49
-1.27 11.40 2.49
-1.50 11.37 2.49
-1.73 11.35 2.49
-1.96 11.31 2.49
-2.18 11.27 2.49
-2.41 11.23 2.49
-2.64 11.18 2.49
-2.86 11.13 2.49
-3.09 11.07 2.49
-3.31 11.01 2.49
-3.53 10.95 2.49
-3.75 10.88 2.49
-3.97 10.81 2.49
-4.19 10.73 2.49
-4.40 10.65 2.49
-4.62 10.56 2.49
-4.83 10.47 2.49
-5.04 10.37 2.49
-5.25 10.27 2.49
-5.46 10.17 2.49
-5.67 10.06 2.49
-5.87 9.95 2.49
-6.00 9.72 2.46
-6.01 9.32 2.39
-6.20 9.20 2.39
-6.39 9.08 2.39
-6.57 8.95 2.39
-6.75 8.82 2.39
-6.93 8.69 2.39
-7.11 8.55 2.39
-7.28 8.41 2.39
-7.46 8.27 2.39
-7.62 8.12 2.39
-7.79 7.97 2.39
-7.95 7.82 2.39
-8.11 7.66 2.39
-8.27 7.50 2.39
-8.42 7.33 2.39
-8.57 7.17 2.39
-8.72 7.00 2.39
-8.86 6.83 2.39
-9.00 6.65 2.39
-9.14 6.47 2.39
-9.28 6.29 2.39
-9.41 6.11 2.39
-9.53 5.92 2.39
-9.65 5.73 2.39
-9.77 5.54 2.39
-9.90 5.35 2.39
-9.89 5.09 2.37
-9.88 4.84 2.34
-9.88 4.59 2.31
-9.87 4.35 2.29
-9.86 4.11 2.27
-9.90 3.90 2.25
-9.98 3.70 2.25
-10.06 3.50 2.25
-10.13 3.30 2.25
-10.20 3.10 2.25
-10.27 2.89 2.25
-10.33 2.69 2.25
-10.39 2.48 2.25
-10.45 2.28 2.25
-10.50 2.07 2.25
-10.54 1.86 2.25
-10.58 1.65 2.25
-9.71 1.31 2.06
-10.73 1.23 2.27
-12.47 1.18 2.63
-14.86 1.10 3.13
-9.74 0.33 2.05
-48.16 -0.30 10.09
-9.73 -0.26 2.04
-9.73 -0.65 2.04
-9.66 -2.23 2.06
-46.28 -11.67 9.93
-45.81 -12.54 9.87
-9.61 -3.70 2.14
-9.57 -5.32 2.26
-9.39 -6.82 2.39
-9.25 -7.01 2.39
-9.11 -7.19 2.39
-8.97 -7.38 2.39
-8.82 -7.56 2.39
-8.67 -7.74 2.39
-8.52 -7.91 2.39
-8.36 -8.08 2.39
-8.20 -8.25 2.39
-8.04 -8.42 2.39
-7.87 -8.58 2.39
-7.70 -8.74 2.39
-7.52 -8.89 2.39
-7.34 -9.04 2.39
-7.16 -9.19 2.39
-6.98 -9.34 2.39
-6.45 -8.99 2.27
-6.60 -9.61 2.39
-6.41 -9.74 2.39
-5.74 -9.11 2.21
-6.02 -10.00 2.39
-5.81 -10.12 2.39
-5.61 -10.23 2.39
-5.41 -10.35 2.39
-5.36 -10.78 2.47
-5.20 -11.01 2.49
-4.98 -11.11 2.49
-4.76 -11.21 2.49
-4.53 -11.31 2.49
-4.31 -11.40 2.49
-4.08 -11.48 2.49
-3.85 -11.56 2.49
-3.61 -11.64 2.49
-3.38 -11.71 2.49
-3.14 -11.77 2.49
-2.91 -11.83 2.49
-2.67 -11.89 2.49
-2.43 -11.94 2.49
-2.19 -11.98 2.49
-1.95 -12.02 2.49
-1.71 -12.06 2.49
-1.47 -12.09 2.49
-1.22 -12.12 2.49
-0.98 -12.14 2.49
-0.74 -12.15 2.49
-0.49 -12.16 2.49
-0.25 -12.17 2.49
-0.00 -10.91 2.49
0.21 -10.91 2.49
0.43 -10.90 2.49
0.65 -10.89 2.49
0.87 -10.87 2.49
1.09 -10.85 2.49
1.30 -10.82 2.49
1.52 -10.79 2.49
1.74 -10.76 2.49
1.95 -10.72 2.49
2.16 -10.67 2.49
2.38 -10.62 2.49
2.59 -10.57 2.49
2.68 -10.08 2.39
2.88 -10.02 2.39
3.08 -9.96 2.39
3.28 -9.89 2.39
3.48 -9.82 2.39
3.67 -9.74 2.39
3.87 -9.66 2.39
4.06 -9.58 2.39
4.25 -9.49 2.39
4.43 -9.40 2.39
4.62 -9.31 2.39
4.80 -9.21 2.39
4.99 -9.11 2.39
5.17 -9.00 2.39
5.34 -8.89 2.39
5.52 -8.78 2.39
5.69 -8.67 2.39
5.86 -8.55 2.39
6.03 -8.42 2.39
6.19 -8.30 2.39
6.35 -8.17 2.39
6.46 -7.97 2.37
6.45 -7.64 2.31
6.44 -7.33 2.26
6.43 -7.03 2.21
6.42 -6.74 2.16
6.42 -6.47 2.11
6.41 -6.20 2.07
6.40 -5.95 2.03
6.39 -5.71 1.99
6.39 -5.48 1.95
6.38 -5.25 1.92
6.37 -5.04 1.89
6.37 -4.83 1.86
6.36 -4.62 1.83
6.35 -4.43 1.80
6.35 -4.24 1.78
6.34 -4.05 1.75
6.34 -3.87 1.73
6.33 -3.70 1.71
6.32 -3.52 1.69
6.32 -3.36 1.67
6.31 -3.19 1.65
6.31 -3.03 1.64
6.30 -2.88 1.62
6.30 -2.72 1.61
6.30 -2.57 1.59
6.29 -2.42 1.58
6.29 -2.28 1.57
6.28 -2.14 1.56
6.28 -1.99 1.55
6.27 -1.86 1.54
6.27 -1.72 1.53
6.26 -1.58 1.52
6.26 -1.45 1.51
6.26 -1.32 1.51
6.25 -1.18 1.50
6.25 -1.05 1.49
6.24 -0.92 1.49
6.24 -0.80 1.49
6.24 -0.67 1.48
6.23 -0.54 1.48
6.23 -0.42 1.48
6.22 -0.29 1.47
6.22 -0.17 1.47
6.22 -0.04 1.47
6.21 0.08 1.47
6.21 0.21 1.47
6.20 0.33 1.47
6.20 0.46 1.48
6.20 0.58 1.48
6.19 0.71 1.48
6.19 0.84 1.48
6.18 0.96 1.49
6.18 1.09 1.49
6.18 1.22 1.50
6.20 1.35 1.51
6.17 1.47 1.51
6.16 1.60 1.52
6.16 1.74 1.53
6.16 1.87 1.54
6.15 2.00 1.55
6.15 2.14 1.56
6.14 2.28 1.57
6.14 2.42 1.58
6.14 2.56 1.59
6.13 2.70 1.60
6.13 2.85 1.62
6.12 3.00 1.63
6.12 3.15 1.65
6.11 3.31 1.67
6.11 3.46 1.68
6.10 3.62 1.70
6.10 3.79 1.72
6.09 3.96 1.74
6.09 4.13 1.77
6.08 4.31 1.79
6.08 4.49 1.82
6.07 4.68 1.84
6.06 4.87 1.87
6.06 5.07 1.90
6.05 5.27 1.93
6.04 5.48 1.96
6.04 5.70 2.00
6.03 5.93 2.04
6.02 6.17 2.08
6.02 6.41 2.12
6.01 6.67 2.16
6.00 6.93 2.21
5.99 7.21 2.26
5.96 7.48 2.31
5.96 7.79 2.37
5.86 7.99 2.39
5.70 8.11 2.39
5.53 8.22 2.39
5.37 8.33 2.39
5.20 8.43 2.39
5.03 8.53 2.39
4.85 8.63 2.39
4.68 8.72 2.39
4.50 8.82 2.39
4.32 8.90 2.39
4.14 8.99 2.39
3.96 9.07 2.39
3.78 9.15 2.39
3.59 9.22 2.39
3.41 9.29 2.39
3.22 9.36 2.39
3.03 9.42 2.39
2.50 8.35 2.11
2.33 8.40 2.11
2.46 9.58 2.39
2.27 9.65 2.39
2.07 9.68 2.39
1.96 10.14 2.49
1.75 10.17 2.49
1.55 10.21 2.49
1.34 10.24 2.49
1.14 10.26 2.49
0.93 10.28 2.49
0.72 10.30 2.49
0.51 10.32 2.49
0.31 10.33 2.49
0.10 10.33 2.49
-0.11 10.33 2.49
-0.32 10.33 2.49
-0.52 10.32 2.49
-0.73 10.31 2.49
-0.94 10.30 2.49
-1.15 10.28 2.49
-1.35 10.26 2.49
-1.56 10.23 2.49
-1.76 10.20 2.49
-1.97 10.16 2.49
-2.17 10.12 2.49
-2.38 10.08 2.49
-2.58 10.03 2.49
-2.78 9.98 2.49
-2.98 9.93 2.49
-3.18 9.87 2.49
-3.38 9.81 2.49
-3.58 9.74 2.49
-3.78 9.67 2.49
-3.97 9.60 2.49
-4.16 9.52 2.49
-4.36 9.43 2.49
-4.55 9.35 2.49
-4.74 9.26 2.49
-4.92 9.17 2.49
-5.11 9.07 2.49
-5.29 8.97 2.49
-5.47 8.86 2.49
-5.65 8.76 2.49
-5.83 8.64 2.49
-5.96 8.46 2.48
-5.96 8.11 2.41
-6.09 7.95 2.39
-6.25 7.83 2.39
-6.41 7.70 2.39
-6.56 7.57 2.39
-6.72 7.45 2.39
-6.87 7.31 2.39
-7.02 7.18 2.39
-7.16 7.04 2.39
-7.31 6.90 2.39
-7.45 6.75 2.39
-7.59 6.60 2.39
-7.72 6.45 2.39
-7.85 6.30 2.39
-7.98 6.14 2.39
-8.11 5.99 2.39
-8.23 5.82 2.39
-8.35 5.66 2.39
-8.47 5.50 2.39
-8.58 5.33 2.39
-8.69 5.16 2.39
-8.80 4.98 2.39
-8.90 4.81 2.39
-9.00 4.63 2.39
-9.10 4.45 2.39
-9.19 4.27 2.39
-9.28 4.09 2.39
-9.36 3.90 2.39
-9.45 3.72 2.39
-9.52 3.53 2.39
-9.60 3.34 2.39
-9.67 3.15 2.39
-9.74 2.95 2.39
-9.80 2.76 2.39
-9.81 2.55 2.38
-9.81 2.34 2.37
-9.80 2.13 2.35
-9.79 1.93 2.34
-9.79 1.72 2.33
-9.78 1.52 2.32
-9.71 1.31 2.29
-10.74 1.23 2.53
-12.48 1.18 2.93
-14.88 1.10 3.49
-9.75 0.52 2.28
-9.74 0.33 2.28
-9.74 0.13 2.27
-9.73 -0.06 2.27
-9.73 -0.26 2.27
-9.72 -0.45 2.27
-9.71 -0.65 2.26
-9.71 -0.84 2.27
-9.70 -1.04 2.27
-9.70 -1.24 2.27
-9.69 -1.43 2.27
-9.68 -1.63 2.28
-47.08 -8.91 11.11
-46.74 -9.82 11.07
-9.66 -2.23 2.30
-45.30 -11.43 10.82
-45.32 -12.41 10.88
-45.79 -13.53 11.05
-45.73 -14.51 11.10
-45.69 -15.52 11.16
-45.78 -16.58 11.25
-9.61 -3.70 2.38
-9.59 -3.92 2.39
-9.52 -4.11 2.39
-9.44 -4.30 2.39
-9.35 -4.49 2.39
-9.26 -4.68 2.39
-9.17 -4.87 2.39
-9.08 -5.05 2.39
-8.98 -5.23 2.39
-8.87 -5.42 2.39
-8.77 -5.59 2.39
-8.66 -5.77 2.39
-8.54 -5.95 2.39
-8.42 -6.12 2.39
-8.30 -6.29 2.39
-8.18 -6.46 2.39
-8.05 -6.62 2.39
-7.92 -6.78 2.39
-7.78 -6.94 2.39
-7.64 -7.10 2.39
-7.50 -7.25 2.39
-7.36 -7.40 2.39
-7.21 -7.55 2.39
-7.06 -7.70 2.39
-6.90 -7.84 2.39
-6.41 -7.58 2.27
-6.40 -7.88 2.32
-6.32 -8.11 2.35
-5.94 -7.95 2.27
-5.80 -8.10 2.28
-5.79 -8.43 2.34
-5.75 -8.74 2.39
-5.57 -8.86 2.39
-5.42 -9.01 2.40
-5.40 -9.40 2.48
-5.25 -9.57 2.49
-5.06 -9.68 2.49
-4.86 -9.78 2.49
-4.67 -9.87 2.49
-4.47 -9.97 2.49
-4.27 -10.06 2.49
-4.06 -10.14 2.49
-3.86 -10.22 2.49
-3.66 -10.30 2.49
-3.45 -10.37 2.49
-3.24 -10.43 2.49
-3.03 -10.50 2.49
-2.82 -10.56 2.49
-2.61 -10.61 2.49
-2.39 -10.66 2.49
-2.18 -10.70 2.49
-1.96 -10.75 2.49
-1.75 -10.78 2.49
-1.53 -10.81 2.49
-1.31 -10.84 2.49
-1.10 -10.86 2.49
-0.88 -10.88 2.49
-0.66 -10.90 2.49
-0.44 -10.91 2.49
-0.22 -10.91 2.49
-0.00 -9.88 2.49
0.19 -9.88 2.49
0.39 -9.87 2.49
0.59 -9.86 2.49
0.79 -9.84 2.49
0.98 -9.82 2.49
1.18 -9.80 2.49
1.38 -9.77 2.49
1.57 -9.74 2.49
1.77 -9.71 2.49
1.96 -9.67 2.49
2.15 -9.62 2.49
2.34 -9.58 2.49
2.53 -9.52 2.49
2.64 -9.19 2.42
2.79 -9.02 2.39
2.97 -8.96 2.39
3.15 -8.89 2.39
3.33 -8.83 2.39
3.50 -8.76 2.39
3.67 -8.68 2.39
3.85 -8.60 2.39
4.02 -8.52 2.39
4.19 -8.44 2.39
4.35 -8.35 2.39
4.52 -8.25 2.39
4.68 -8.16 2.39
4.84 -8.06 2.39
5.00 -7.96 2.39
5.16 -7.85 2.39
5.31 -7.75 2.39
5.46 -7.63 2.39
5.61 -7.52 2.39
5.76 -7.40 2.39
5.90 -7.28 2.39
6.05 -7.16 2.39
6.19 -7.03 2.39
6.32 -6.91 2.39
6.46 -6.77 2.39
6.42 -6.47 2.33
6.41 -6.20 2.28
6.40 -5.95 2.24
6.39 -5.71 2.19
6.39 -5.48 2.16
6.38 -5.25 2.12
6.37 -5.04 2.08
6.37 -4.83 2.05
6.36 -4.63 2.02
6.35 -4.43 1.99
6.35 -4.24 1.96
6.34 -4.05 1.93
6.34 -3.87 1.91
6.33 -3.70 1.89
6.32 -3.53 1.86
6.32 -3.36 1.84
6.31 -3.19 1.82
6.31 -3.03 1.81
6.30 -2.88 1.79
6.30 -2.72 1.77
6.30 -2.57 1.76
6.29 -2.43 1.74
6.29 -2.28 1.73
6.28 -2.14 1.72
6.28 -2.00 1.70
6.27 -1.86 1.69
6.27 -1.72 1.68
6.26 -1.58 1.67
6.26 -1.45 1.67
6.26 -1.32 1.66
6.25 -1.19 1.65
6.25 -1.05 1.65
6.24 -0.93 1.64
6.24 -0.80 1.64
6.24 -0.67 1.63
6.23 -0.54 1.63
6.23 -0.42 1.63
6.22 -0.29 1.62
6.22 -0.17 1.62
6.22 -0.04 1.62
6.21 0.08 1.62
6.21 0.21 1.62
6.20 0.33 1.62
6.20 0.46 1.62
6.20 0.58 1.63
6.19 0.71 1.63
6.19 0.83 1.63
6.19 0.96 1.64
6.18 1.09 1.64
6.18 1.22 1.65
6.20 1.35 1.66
6.17 1.47 1.66
6.16 1.60 1.67
6.16 1.74 1.68
6.16 1.87 1.69
6.15 2.00 1.70
6.15 2.14 1.71
6.14 2.28 1.72
6.14 2.42 1.74
6.14 2.56 1.75
6.13 2.70 1.76
6.13 2.85 1.78
6.12 3.00 1.80
6.12 3.15 1.81
6.11 3.30 1.83
6.11 3.46 1.85
6.10 3.62 1.87
6.10 3.79 1.89
6.09 3.96 1.92
6.09 4.13 1.94
6.08 4.31 1.97
6.08 4.49 2.00
6.07 4.68 2.03
6.06 4.87 2.06
6.06 5.07 2.09
6.05 5.27 2.12
6.04 5.48 2.16
6.04 5.70 2.20
6.03 5.93 2.24
6.02 6.17 2.28
6.02 6.41 2.33
6.04 6.70 2.39
5.90 6.82 2.39
5.76 6.94 2.39
5.62 7.05 2.39
5.48 7.16 2.39
5.33 7.27 2.39
5.18 7.37 2.39
5.03 7.47 2.39
4.88 7.57 2.39
4.73 7.67 2.39
4.57 7.76 2.39
4.41 7.85 2.39
4.26 7.94 2.39
4.09 8.02 2.39
3.93 8.10 2.39
3.77 8.18 2.39
3.60 8.25 2.39
3.44 8.32 2.39
3.27 8.39 2.39
3.10 8.45 2.39
2.93 8.51 2.39
2.76 8.57 2.39
2.50 8.35 2.32
2.33 8.40 2.32
2.23 8.72 2.39
2.08 8.87 2.42
1.96 9.18 2.49
1.78 9.22 2.49
1.59 9.26 2.49
1.41 9.29 2.49
1.22 9.31 2.49
1.03 9.34 2.49
0.84 9.36 2.49
0.66 9.37 2.49
0.47 9.38 2.49
0.28 9.39 2.49
0.09 9.40 2.49
-0.10 9.40 2.49
-0.29 9.40 2.49
-0.48 9.39 2.49
-0.67 9.38 2.49
-0.85 9.37 2.49
-1.04 9.35 2.49
-1.23 9.33 2.49
-1.42 9.30 2.49
-1.61 9.28 2.49
-1.79 9.24 2.49
-1.98 9.21 2.49
-2.16 9.17 2.49
-2.35 9.13 2.49
-2.53 9.08 2.49
-2.71 9.03 2.49
-2.90 8.98 2.49
-3.08 8.92 2.49
-3.26 8.86 2.49
-3.43 8.79 2.49
-3.61 8.73 2.49
-3.79 8.65 2.49
-3.96 8.58 2.49
-4.14 8.50 2.49
-4.31 8.42 2.49
-4.48 8.33 2.49
-4.64 8.24 2.49
-4.81 8.15 2.49
-4.98 8.06 2.49
-5.14 7.96 2.49
-5.30 7.86 2.49
-5.46 7.75 2.49
-5.62 7.64 2.49
-5.77 7.53 2.49
-5.92 7.42 2.49
-5.92 7.12 2.43
-5.96 6.88 2.39
-6.10 6.77 2.39
-6.24 6.64 2.39
-6.38 6.52 2.39
-6.51 6.39 2.39
-6.64 6.26 2.39
-6.77 6.13 2.39
-6.89 6.00 2.39
-7.02 5.86 2.39
-7.13 5.72 2.39
-7.25 5.58 2.39
-7.37 5.44 2.39
-7.48 5.29 2.39
-7.59 5.14 2.39
-7.69 4.99 2.39
-7.79 4.84 2.39
-7.89 4.68 2.39
-7.99 4.53 2.39
-8.08 4.37 2.39
-8.17 4.21 2.39
-8.26 4.04 2.39
-8.34 3.88 2.39
-8.43 3.71 2.39
-8.50 3.54 2.39
-8.58 3.37 2.39
-8.65 3.20 2.39
-8.71 3.03 2.39
-8.78 2.86 2.39
-8.84 2.68 2.39
-8.89 2.50 2.39
-8.95 2.33 2.39
-9.00 2.15 2.39
-9.04 1.97 2.39
-9.09 1.79 2.39
-9.12 1.60 2.39
-9.16 1.42 2.39
-9.19 1.24 2.39
-9.22 1.05 2.39
-9.24 0.87 2.39
-9.26 0.68 2.39
-9.28 0.50 2.39
-9.29 0.31 2.39
-9.30 0.13 2.39
-9.31 -0.06 2.39
-9.31 -0.25 2.39
-9.31 -0.43 2.39
-9.30 -0.62 2.39
-9.29 -0.81 2.39
-9.28 -1.00 2.39
-9.26 -1.18 2.39
-9.24 -1.37 2.39
-9.21 -1.55 2.39
-9.19 -1.74 2.39
-9.15 -1.92 2.39
-9.12 -2.11 2.39
-9.08 -2.29 2.39
-9.03 -2.47 2.39
-8.99 -2.66 2.39
-8.93 -2.84 2.39
-8.88 -3.02 2.39
-8.82 -3.20 2.39
-8.76 -3.37 2.39
-8.69 -3.55 2.39
-8.62 -3.73 2.39
-8.55 -3.90 2.39
-8.47 -4.07 2.39
-8.39 -4.24 2.39
-8.31 -4.41 2.39
-8.22 -4.58 2.39
-8.13 -4.74 2.39
-8.04 -4.91 2.39
-7.94 -5.07 2.39
-7.84 -5.23 2.39
-7.74 -5.39 2.39
-7.63 -5.54 2.39
-7.52 -5.70 2.39
-7.41 -5.85 2.39
-7.29 -6.00 2.39
-7.17 -6.14 2.39
-7.05 -6.29 2.39
-6.57 -6.10 2.27
-6.46 -6.24 2.27
-6.44 -6.48 2.31
-6.42 -6.73 2.35
-6.29 -6.86 2.35
-5.93 -6.74 2.27
-5.84 -6.90 2.29
-5.83 -7.18 2.34
-5.82 -7.47 2.39
-5.67 -7.58 2.39
-5.52 -7.70 2.39
-5.45 -7.94 2.43
-5.43 -8.26 2.49
-5.26 -8.37 2.49
-5.10 -8.47 2.49
-4.93 -8.57 2.49
-4.75 -8.67 2.49
-4.58 -8.76 2.49
-4.40 -8.86 2.49
-4.23 -8.94 2.49
-4.05 -9.03 2.49
-3.86 -9.11 2.49
-3.68 -9.18 2.49
-3.50 -9.25 2.49
-3.31 -9.32 2.49
-3.12 -9.39 2.49
-2.93 -9.45 2.49
-2.74 -9.51 2.49
-2.55 -9.56 2.49
-2.36 -9.61 2.49
-2.17 -9.65 2.49
-1.97 -9.69 2.49
-1.78 -9.73 2.49
-1.58 -9.76 2.49
-1.39 -9.79 2.49
-1.19 -9.82 2.49
-0.99 -9.84 2.49
-0.80 -9.86 2.49
-0.60 -9.87 2.49
-0.40 -9.88 2.49
-0.20 -9.88 2.49
-0.00 -9.02 2.49
0.18 -9.02 2.49
0.36 -9.01 2.49
0.54 -9.00 2.49
0.72 -8.99 2.49
0.90 -8.97 2.49
1.08 -8.95 2.49
1.26 -8.92 2.49
1.43 -8.89 2.49
1.61 -8.86 2.49
1.79 -8.83 2.49
1.96 -8.79 2.49
2.14 -8.74 2.49
2.31 -8.70 2.49
2.49 -8.65 2.49
2.62 -8.46 2.46
2.71 -8.18 2.39
2.88 -8.12 2.39
3.04 -8.06 2.39
3.20 -8.00 2.39
3.36 -7.93 2.39
3.51 -7.86 2.39
3.67 -7.78 2.39
3.82 -7.70 2.39
3.97 -7.62 2.39
4.12 -7.54 2.39
4.27 -7.45 2.39
4.42 -7.36 2.39
4.57 -7.27 2.39
4.71 -7.17 2.39
4.85 -7.08 2.39
4.99 -6.97 2.39
5.13 -6.87 2.39
5.26 -6.76 2.39
5.39 -6.65 2.39
5.52 -6.54 2.39
5.65 -6.43 2.39
5.78 -6.31 2.39
5.90 -6.19 2.39
6.02 -6.07 2.39
6.14 -5.94 2.39
6.25 -5.82 2.39
6.36 -5.69 2.39
6.39 -5.48 2.36
6.38 -5.26 2.32
6.37 -5.04 2.28
6.37 -4.83 2.24
6.36 -4.63 2.21
6.35 -4.43 2.18
6.35 -4.24 2.15
6.34 -4.05 2.12
6.34 -3.87 2.09
6.33 -3.70 2.06
6.32 -3.53 2.04
6.32 -3.36 2.02
6.31 -3.20 1.99
6.31 -3.04 1.97
6.30 -2.88 1.96
6.30 -2.73 1.94
6.30 -2.57 1.92
6.29 -2.43 1.90
6.29 -2.28 1.89
6.28 -2.14 1.88
6.28 -2.00 1.86
6.27 -1.86 1.85
6.27 -1.72 1.84
6.26 -1.58 1.83
6.26 -1.45 1.82
6.26 -1.32 1.81
6.25 -1.19 1.81
6.25 -1.06 1.80
6.24 -0.93 1.79
6.24 -0.80 1.79
6.24 -0.67 1.78
6.23 -0.54 1.78
6.23 -0.42 1.78
6.22 -0.29 1.77
6.22 -0.17 1.77
6.22 -0.04 1.77
6.21 0.08 1.77
6.21 0.21 1.77
6.20 0.33 1.77
6.20 0.46 1.78
6.20 0.58 1.78
6.19 0.71 1.78
6.19 0.83 1.79
6.19 0.96 1.79
6.18 1.09 1.80
6.18 1.21 1.80
6.21 1.35 1.82
6.17 1.47 1.82
6.17 1.60 1.83
6.16 1.73 1.84
6.16 1.87 1.85
6.15 2.00 1.86
6.15 2.14 1.87
6.14 2.28 1.88
6.14 2.42 1.90
6.14 2.56 1.91
6.13 2.70 1.93
6.13 2.85 1.94
6.12 3.00 1.96
6.12 3.15 1.98
6.11 3.30 2.00
6.11 3.46 2.02
6.10 3.62 2.04
6.10 3.79 2.07
6.09 3.96 2.09
6.09 4.13 2.12
6.08 4.31 2.15
6.08 4.49 2.18
6.07 4.68 2.21
6.06 4.87 2.24
6.06 5.07 2.28
6.05 5.27 2.32
6.04 5.48 2.36
6.02 5.68 2.39
5.90 5.80 2.39
5.78 5.92 2.39
5.66 6.03 2.39
5.53 6.14 2.39
5.41 6.25 2.39
5.28 6.36 2.39
5.15 6.46 2.39
5.02 6.56 2.39
4.89 6.66 2.39
4.75 6.76 2.39
4.61 6.85 2.39
4.47 6.94 2.39
4.33 7.03 2.39
4.19 7.11 2.39
4.05 7.19 2.39
3.90 7.27 2.39
3.75 7.35 2.39
3.60 7.42 2.39
3.45 7.49 2.39
3.30 7.56 2.39
3.15 7.62 2.39
2.99 7.69 2.39
2.84 7.74 2.39
2.68 7.80 2.39
2.53 7.85 2.39
2.37 7.90 2.39
2.21 7.95 2.39
2.10 8.19 2.45
1.97 8.38 2.49
1.80 8.41 2.49
1.63 8.45 2.49
1.46 8.48 2.49
1.29 8.51 2.49
1.12 8.53 2.49
0.95 8.56 2.49
0.77 8.57 2.49
0.60 8.59 2.49
0.43 8.60 2.49
0.26 8.61 2.49
0.08 8.61 2.49
-0.09 8.61 2.49
-0.26 8.61 2.49
-0.44 8.60 2.49
-0.61 8.60 2.49
-0.78 8.58 2.49
-0.96 8.57 2.49
-1.13 8.55 2.49
-1.30 8.52 2.49
-1.47 8.50 2.49
-1.64 8.47 2.49
-1.81 8.44 2.49
-1.98 8.40 2.49
-2.15 8.36 2.49
-2.32 8.32 2.49
-2.49 8.27 2.49
-2.65 8.22 2.49
-2.82 8.17 2.49
-2.98 8.11 2.49
-3.15 8.05 2.49
-3.31 7.99 2.49
-3.47 7.93 2.49
-3.63 7.86 2.49
-3.79 7.78 2.49
-3.95 7.71 2.49
-4.10 7.63 2.49
-4.25 7.55 2.49
-4.41 7.47 2.49
-4.56 7.38 2.49
-4.71 7.29 2.49
-4.85 7.19 2.49
-5.00 7.10 2.49
-5.14 7.00 2.49
-5.28 6.90 2.49
-5.42 6.79 2.49
-5.56 6.68 2.49
-5.70 6.57 2.49
-5.83 6.46 2.49
-5.89 6.27 2.47
-5.89 6.02 2.41
-5.96 5.85 2.39
-6.08 5.73 2.39
-6.20 5.61 2.39
-6.31 5.49 2.39
-6.42 5.36 2.39
-6.53 5.24 2.39
-6.64 5.11 2.39
-6.74 4.97 2.39
-6.84 4.84 2.39
-6.94 4.70 2.39
-7.04 4.57 2.39
-7.13 4.43 2.39
-7.22 4.28 2.39
-7.31 4.14 2.39
-7.40 3.99 2.39
-7.48 3.85 2.39
-7.56 3.70 2.39
-7.63 3.55 2.39
-7.71 3.39 2.39
-7.78 3.24 2.39
-7.85 3.08 2.39
-7.91 2.93 2.39
-7.97 2.77 2.39
-8.03 2.61 2.39
-8.08 2.45 2.39
-8.13 2.29 2.39
-8.18 2.13 2.39
-8.23 1.96 2.39
-8.27 1.80 2.39
-8.31 1.63 2.39
-8.34 1.47 2.39
-8.38 1.30 2.39
-8.40 1.13 2.39
-8.43 0.96 2.39
-8.45 0.79 2.39
-8.47 0.62 2.39
-8.48 0.45 2.39
-8.49 0.28 2.39
-8.50 0.11 2.39
-8.51 -0.06 2.39
-8.51 -0.23 2.39
-8.51 -0.40 2.39
-8.50 -0.57 2.39
-8.49 -0.74 2.39
-8.48 -0.91 2.39
-8.46 -1.08 2.39
-8.44 -1.25 2.39
-8.42 -1.42 2.39
-8.39 -1.59 2.39
-8.36 -1.76 2.39
-8.33 -1.93 2.39
-8.29 -2.09 2.39
-8.25 -2.26 2.39
-8.21 -2.43 2.39
-8.16 -2.59 2.39
-8.11 -2.76 2.39
-8.06 -2.92 2.39
-8.00 -3.08 2.39
-7.94 -3.24 2.39
-7.88 -3.40 2.39
-7.81 -3.56 2.39
-7.74 -3.72 2.39
-7.67 -3.88 2.39
-7.59 -4.03 2.39
-7.51 -4.18 2.39
-7.43 -4.33 2.39
-7.34 -4.48 2.39
-7.25 -4.63 2.39
-7.16 -4.78 2.39
-7.07 -4.92 2.39
-6.61 -4.81 2.27
-6.52 -4.94 2.27
-6.48 -5.12 2.29
-6.47 -5.33 2.33
-6.44 -5.52 2.35
-6.33 -5.65 2.35
-6.00 -5.57 2.27
-5.89 -5.69 2.27
-5.87 -5.91 2.31
-5.86 -6.14 2.35
-5.84 -6.37 2.39
-5.71 -6.48 2.39
-5.58 -6.60 2.39
-5.49 -6.77 2.41
-5.48 -7.03 2.47
-5.40 -7.22 2.49
-5.25 -7.33 2.49
-5.11 -7.44 2.49
-4.96 -7.54 2.49
-4.80 -7.64 2.49
-4.65 -7.73 2.49
-4.50 -7.82 2.49
-4.34 -7.91 2.49
-4.18 -8.00 2.49
-4.02 -8.08 2.49
-3.86 -8.16 2.49
-3.69 -8.24 2.49
-3.53 -8.31 2.49
-3.36 -8.38 2.49
-3.19 -8.45 2.49
-3.02 -8.51 2.49
-2.85 -8.57 2.49
-2.68 -8.62 2.49
-2.50 -8.68 2.49
-2.33 -8.72 2.49
-2.16 -8.77 2.49
-1.98 -8.81 2.49
-1.80 -8.85 2.49
-1.62 -8.88 2.49
-1.45 -8.91 2.49
-1.27 -8.94 2.49
-1.09 -8.96 2.49
-0.91 -8.98 2.49
-0.73 -9.00 2.49
-0.55 -9.01 2.49
-0.37 -9.02 2.49
-0.19 -9.02 2.49
-0.00 -8.29 2.49
0.16 -8.29 2.49
0.33 -8.28 2.49
0.49 -8.27 2.49
0.66 -8.26 2.49
0.82 -8.24 2.49
0.99 -8.22 2.49
1.15 -8.20 2.49
1.32 -8.17 2.49
1.48 -8.14 2.49
1.64 -8.11 2.49
1.80 -8.07 2.49
1.97 -8.04 2.49
2.13 -7.99 2.49
2.28 -7.95 2.49
2.44 -7.90 2.49
2.60 -7.84 2.49
2.64 -7.47 2.39
2.80 -7.43 2.40
2.94 -7.35 2.39
3.08 -7.29 2.39
3.23 -7.22 2.39
3.37 -7.15 2.39
3.51 -7.08 2.39
3.65 -7.01 2.39
3.79 -6.93 2.39
3.93 -6.85 2.39
4.06 -6.77 2.39
4.20 -6.68 2.39
4.33 -6.60 2.39
4.46 -6.51 2.39
4.59 -6.41 2.39
4.71 -6.32 2.39
4.84 -6.22 2.39
4.96 -6.12 2.39
5.08 -6.02 2.39
5.20 -5.91 2.39
5.31 -5.80 2.39
5.42 -5.69 2.39
5.53 -5.58 2.39
5.64 -5.47 2.39
5.75 -5.35 2.39
5.85 -5.23 2.39
5.95 -5.11 2.39
6.05 -4.99 2.39
6.15 -4.86 2.39
6.24 -4.74 2.39
6.33 -4.61 2.39
6.35 -4.43 2.37
6.35 -4.24 2.33
6.34 -4.06 2.30
6.34 -3.87 2.27
6.33 -3.70 2.24
6.32 -3.53 2.22
6.32 -3.36 2.19
6.31 -3.20 2.17
6.31 -3.04 2.15
6.30 -2.88 2.13
6.30 -2.73 2.11
6.30 -2.58 2.09
6.29 -2.43 2.07
6.29 -2.28 2.05
6.28 -2.14 2.04
6.28 -2.00 2.03
6.27 -1.86 2.01
6.27 -1.72 2.00
6.26 -1.59 1.99
6.26 -1.45 1.98
6.26 -1.32 1.97
6.25 -1.19 1.96
6.25 -1.06 1.95
6.24 -0.93 1.95
6.24 -0.80 1.94
6.24 -0.67 1.94
6.23 -0.55 1.93
6.23 -0.42 1.93
6.22 -0.29 1.93
6.22 -0.17 1.92
6.22 -0.04 1.92
6.21 0.08 1.92
6.21 0.21 1.92
6.20 0.33 1.93
6.20 0.46 1.93
6.20 0.58 1.93
6.19 0.71 1.93
6.19 0.83 1.94
6.19 0.96 1.94
6.18 1.09 1.95
6.18 1.21 1.96
6.21 1.35 1.98
6.17 1.47 1.97
6.17 1.60 1.98
6.16 1.73 1.99
6.16 1.87 2.00
6.15 2.00 2.02
6.15 2.14 2.03
6.14 2.28 2.04
6.14 2.42 2.06
6.14 2.56 2.07
6.13 2.70 2.09
6.13 2.85 2.11
6.12 3.00 2.13
6.12 3.15 2.15
6.11 3.30 2.17
6.11 3.46 2.19
6.10 3.62 2.22
6.10 3.79 2.24
6.09 3.96 2.27
6.09 4.13 2.30
6.08 4.31 2.33
6.08 4.49 2.36
6.05 4.66 2.39
5.95 4.78 2.39
5.85 4.90 2.39
5.75 5.01 2.39
5.65 5.12 2.39
5.54 5.24 2.39
5.44 5.35 2.39
5.33 5.45 2.39
5.22 5.56 2.39
5.10 5.66 2.39
4.99 5.76 2.39
4.87 5.86 2.39
4.75 5.95 2.39
4.63 6.05 2.39
4.50 6.14 2.39
4.38 6.23 2.39
4.25 6.31 2.39
4.12 6.40 2.39
3.99 6.48 2.39
3.86 6.56 2.39
3.73 6.63 2.39
3.60 6.70 2.39
3.46 6.77 2.39
3.32 6.84 2.39
3.18 6.91 2.39
3.04 6.97 2.39
2.90 7.03 2.39
2.76 7.09 2.39
2.62 7.14 2.39
2.47 7.19 2.39
2.34 7.27 2.40
2.18 7.28 2.39
2.12 7.62 2.49
1.97 7.68 2.49
1.81 7.72 2.49
1.66 7.76 2.49
1.50 7.79 2.49
1.35 7.82 2.49
1.19 7.84 2.49
1.03 7.87 2.49
0.87 7.89 2.49
0.71 7.90 2.49
0.55 7.92 2.49
0.39 7.93 2.49
0.24 7.93 2.49
0.08 7.94 2.49
-0.08 7.94 2.49
-0.24 7.94 2.49
-0.40 7.93 2.49
-0.56 7.92 2.49
-0.72 7.91 2.49
-0.88 7.90 2.49
-1.04 7.88 2.49
-1.20 7.86 2.49
-1.36 7.83 2.49
-1.51 7.81 2.49
-1.67 7.78 2.49
-1.83 7.74 2.49
-1.98 7.71 2.49
-2.14 7.67 2.49
-2.29 7.62 2.49
-2.45 7.58 2.49
-2.60 7.53 2.49
-2.75 7.48 2.49
-2.90 7.42 2.49
-3.05 7.36 2.49
-3.20 7.30 2.49
-3.35 7.24 2.49
-3.49 7.17 2.49
-3.64 7.10 2.49
-3.78 7.03 2.49
-3.92 6.96 2.49
-4.06 6.88 2.49
-4.20 6.80 2.49
-4.34 6.71 2.49
-4.47 6.63 2.49
-4.61 6.54 2.49
-4.74 6.45 2.49
-4.87 6.35 2.49
-5.00 6.26 2.49
-5.12 6.16 2.49
-5.25 6.05 2.49
-5.37 5.95 2.49
-5.49 5.84 2.49
-5.61 5.73 2.49
-5.73 5.62 2.49
-5.84 5.51 2.49
-5.86 5.31 2.46
-5.86 5.10 2.41
-5.92 4.94 2.39
-6.02 4.82 2.39
-6.11 4.70 2.39
-6.21 4.58 2.39
-6.30 4.46 2.39
-6.39 4.33 2.39
-6.48 4.20 2.39
-6.57 4.07 2.39
-6.65 3.94 2.39
-6.73 3.81 2.39
-6.81 3.68 2.39
-6.89 3.54 2.39
-6.96 3.40 2.39
-7.03 3.26 2.39
-7.10 3.12 2.39
-7.16 2.98 2.39
-7.22 2.84 2.39
-7.28 2.69 2.39
-7.34 2.55 2.39
-7.39 2.40 2.39
-7.44 2.25 2.39
-7.49 2.11 2.39
-7.53 1.96 2.39
-7.57 1.80 2.39
-7.61 1.65 2.39
-7.65 1.50 2.39
-7.68 1.35 2.39
-7.71 1.19 2.39
-7.73 1.04 2.39
-7.76 0.88 2.39
-7.78 0.73 2.39
-7.79 0.57 2.39
-7.81 0.42 2.39
-7.82 0.26 2.39
-7.82 0.10 2.39
-7.83 -0.05 2.39
-7.83 -0.21 2.39
-7.82 -0.37 2.39
-7.82 -0.53 2.39
-7.81 -0.68 2.39
-7.80 -0.84 2.39
-7.78 -1.00 2.39
-7.77 -1.15 2.39
-7.74 -1.31 2.39
-7.72 -1.46 2.39
-7.69 -1.62 2.39
-7.66 -1.77 2.39
-7.63 -1.93 2.39
-7.59 -2.08 2.39
-7.55 -2.23 2.39
-7.51 -2.39 2.39
-7.46 -2.54 2.39
-7.41 -2.69 2.39
-7.36 -2.84 2.39
-7.30 -2.98 2.39
-7.24 -3.13 2.39
-7.18 -3.28 2.39
-7.12 -3.42 2.39
-7.05 -3.56 2.39
-6.62 -3.52 2.27
-6.90 -3.85 2.39
-6.83 -3.98 2.39
-6.75 -4.12 2.39
-6.36 -4.06 2.28
-6.25 -4.17 2.27
-6.39 -4.45 2.35
-6.30 -4.58 2.35
-5.99 -4.54 2.27
-5.91 -4.67 2.28
-5.90 -4.86 2.31
-5.90 -5.05 2.34
-5.89 -5.26 2.38
-5.81 -5.40 2.39
-5.72 -5.53 2.40
-5.59 -5.63 2.39
-5.52 -5.79 2.41
-5.51 -6.01 2.46
-5.47 -6.21 2.49
-5.35 -6.32 2.49
-5.22 -6.43 2.49
-5.09 -6.54 2.49
-4.96 -6.64 2.49
-4.83 -6.74 2.49
-4.69 -6.83 2.49
-4.55 -6.93 2.49
-4.41 -7.02 2.49
-4.27 -7.11 2.49
-4.13 -7.19 2.49
-3.99 -7.27 2.49
-3.84 -7.35 2.49
-3.69 -7.43 2.49
-3.54 -7.50 2.49
-3.39 -7.57 2.49
-3.24 -7.64 2.49
-3.09 -7.70 2.49
-2.93 -7.76 2.49
-2.78 -7.82 2.49
-2.62 -7.87 2.49
-2.46 -7.92 2.49
-2.30 -7.97 2.49
-2.14 -8.02 2.49
-1.98 -8.06 2.49
-1.82 -8.10 2.49
-1.66 -8.13 2.49
-1.49 -8.16 2.49
-1.33 -8.19 2.49
-1.16 -8.21 2.49
-1.00 -8.23 2.49
-0.83 -8.25 2.49
-0.67 -8.27 2.49
-0.50 -8.28 2.49
-0.34 -8.29 2.49
-0.17 -8.29 2.49
-0.00 -7.66 2.49
0.15 -7.66 2.49
0.30 -7.65 2.49
0.46 -7.64 2.49
0.61 -7.63 2.49
0.76 -7.62 2.49
0.91 -7.60 2.49
1.07 -7.58 2.49
1.22 -7.55 2.49
1.37 -7.53 2.49
1.52 -7.50 2.49
1.67 -7.46 2.49
1.82 -7.43 2.49
1.96 -7.39 2.49
2.11 -7.34 2.49
2.26 -7.30 2.49
2.40 -7.25 2.49
2.55 -7.20 2.49
2.58 -6.85 2.39
2.71 -6.79 2.39
2.85 -6.74 2.39
2.98 -6.68 2.39
3.12 -6.61 2.39
3.25 -6.55 2.39
3.38 -6.48 2.39
3.50 -6.41 2.39
3.63 -6.33 2.39
3.76 -6.26 2.39
3.88 -6.18 2.39
4.00 -6.10 2.39
4.12 -6.02 2.39
4.24 -5.93 2.39
4.36 -5.84 2.39
4.47 -5.75 2.39
4.58 -5.66 2.39
4.69 -5.56 2.39
4.80 -5.47 2.39
4.91 -5.37 2.39
5.01 -5.27 2.39
5.12 -5.16 2.39
5.22 -5.06 2.39
5.32 -4.95 2.39
5.41 -4.84 2.39
5.51 -4.73 2.39
5.60 -4.61 2.39
5.69 -4.50 2.39
5.77 -4.38 2.39
5.86 -4.26 2.39
5.94 -4.14 2.39
6.02 -4.02 2.39
6.10 -3.90 2.39
6.17 -3.78 2.39
6.24 -3.65 2.39
6.31 -3.52 2.39
6.32 -3.36 2.37
6.31 -3.20 2.34
6.31 -3.04 2.32
6.30 -2.88 2.30
6.30 -2.73 2.28
6.30 -2.58 2.26
6.29 -2.43 2.24
6.29 -2.28 2.22
6.28 -2.14 2.20
6.28 -2.00 2.19
6.27 -1.86 2.17
6.27 -1.72 2.16
6.26 -1.59 2.15
6.26 -1.45 2.14
6.26 -1.32 2.13
6.25 -1.19 2.12
6.25 -1.06 2.11
6.24 -0.93 2.10
6.24 -0.80 2.10
6.24 -0.67 2.09
6.23 -0.55 2.09
6.23 -0.42 2.08
6.22 -0.29 2.08
6.22 -0.17 2.08
6.22 -0.04 2.08
6.21 0.08 2.08
6.21 0.21 2.08
6.20 0.33 2.08
6.20 0.46 2.08
6.20 0.58 2.09
6.19 0.71 2.09
6.19 0.83 2.09
6.19 0.96 2.10
6.18 1.08 2.11
6.18 1.21 2.11
6.22 1.35 2.14
6.17 1.47 2.13
6.17 1.60 2.14
6.16 1.73 2.15
6.16 1.87 2.16
6.15 2.00 2.18
6.15 2.14 2.19
6.14 2.27 2.21
6.14 2.41 2.22
6.14 2.56 2.24
6.13 2.70 2.26
6.13 2.85 2.28
6.12 3.00 2.30
6.12 3.15 2.32
6.11 3.30 2.34
6.11 3.46 2.37
6.09 3.62 2.39
6.02 3.74 2.39
5.94 3.86 2.39
5.86 3.97 2.39
5.78 4.09 2.39
5.69 4.20 2.39
5.60 4.32 2.39
5.52 4.43 2.39
5.42 4.53 2.39
5.33 4.64 2.39
5.23 4.75 2.39
5.14 4.85 2.39
5.04 4.95 2.39
4.94 5.05 2.39
4.83 5.15 2.39
4.73 5.24 2.39
4.62 5.34 2.39
4.51 5.43 2.39
4.40 5.52 2.39
4.29 5.60 2.39
4.17 5.69 2.39
4.06 5.77 2.39
3.94 5.85 2.39
3.82 5.93 2.39
3.70 6.00 2.39
3.58 6.07 2.39
3.46 6.14 2.39
3.33 6.21 2.39
3.21 6.28 2.39
3.08 6.34 2.39
2.95 6.40 2.39
2.82 6.46 2.39
2.69 6.51 2.39
2.56 6.56 2.39
2.43 6.61 2.39
2.29 6.66 2.39
2.16 6.71 2.39
2.11 7.04 2.49
1.97 7.08 2.49
1.82 7.12 2.49
1.68 7.15 2.49
1.54 7.19 2.49
1.39 7.22 2.49
1.25 7.24 2.49
1.10 7.27 2.49
0.95 7.29 2.49
0.81 7.31 2.49
0.66 7.32 2.49
0.51 7.33 2.49
0.37 7.34 2.49
0.22 7.35 2.49
0.07 7.35 2.49
-0.08 7.36 2.49
-0.23 7.35 2.49
-0.37 7.35 2.49
-0.52 7.34 2.49
-0.67 7.33 2.49
-0.82 7.32 2.49
-0.96 7.30 2.49
-1.11 7.28 2.49
-1.26 7.26 2.49
-1.40 7.23 2.49
-1.55 7.20 2.49
-1.69 7.17 2.49
-1.84 7.14 2.49
-1.98 7.10 2.49
-2.12 7.06 2.49
-2.27 7.02 2.49
-2.41 6.97 2.49
-2.55 6.93 2.49
-2.69 6.87 2.49
-2.83 6.82 2.49
-2.96 6.76 2.49
-3.10 6.71 2.49
-3.23 6.64 2.49
-3.37 6.58 2.49
-3.50 6.51 2.49
-3.63 6.44 2.49
-3.76 6.37 2.49
-3.89 6.29 2.49
-4.02 6.22 2.49
-4.14 6.14 2.49
-4.27 6.05 2.49
-4.39 5.97 2.49
-4.51 5.88 2.49
-4.63 5.79 2.49
-4.75 5.70 2.49
-4.86 5.61 2.49
-4.97 5.51 2.49
-5.09 5.41 2.49
-5.20 5.31 2.49
-5.30 5.20 2.49
-5.41 5.10 2.49
-5.51 4.99 2.49
-5.61 4.88 2.49
-5.71 4.77 2.49
-5.81 4.66 2.49
-5.84 4.49 2.47
-5.83 4.30 2.43
-5.84 4.12 2.39
-5.92 4.01 2.39
-6.01 3.90 2.40
-6.08 3.77 2.39
-6.16 3.65 2.39
-6.23 3.53 2.39
-6.30 3.40 2.39
-6.37 3.28 2.39
-6.44 3.15 2.39
-6.51 3.02 2.39
-6.57 2.89 2.39
-6.63 2.76 2.39
-6.68 2.63 2.39
-6.74 2.49 2.39
-6.79 2.36 2.39
-6.84 2.22 2.39
-6.89 2.08 2.39
-6.93 1.95 2.39
-6.97 1.81 2.39
-7.01 1.67 2.39
-7.04 1.53 2.39
-6.71 1.32 2.27
-6.74 1.18 2.27
-6.77 1.05 2.27
-6.79 0.91 2.27
-7.17 0.82 2.39
-7.19 0.67 2.39
-7.21 0.53 2.39
-7.22 0.38 2.39
-7.23 0.24 2.39
-7.24 0.09 2.39
-7.24 -0.05 2.39
-7.24 -0.20 2.39
-7.24 -0.34 2.39
-7.23 -0.49 2.39
-7.22 -0.63 2.39
-7.21 -0.78 2.39
-7.20 -0.92 2.39
-7.18 -1.07 2.39
-7.16 -1.21 2.39
-7.14 -1.35 2.39
-7.11 -1.50 2.39
-6.72 -1.56 2.27
-6.69 -1.69 2.27
-6.66 -1.83 2.27
-6.62 -1.96 2.27
-6.59 -2.09 2.27
-6.57 -2.24 2.28
-6.57 -2.38 2.29
-6.56 -2.53 2.31
-6.56 -2.68 2.32
-6.55 -2.83 2.34
-6.53 -2.98 2.35
-6.47 -3.11 2.35
-6.41 -3.24 2.35
-6.27 -3.33 2.32
-6.06 -3.37 2.27
-5.99 -3.50 2.27
-6.24 -3.81 2.39
-6.16 -3.94 2.39
-6.08 -4.06 2.39
-5.92 -4.13 2.36
-5.92 -4.30 2.39
-5.83 -4.42 2.39
-5.75 -4.54 2.39
-5.65 -4.65 2.39
-5.56 -4.77 2.39
-5.55 -4.95 2.43
-5.54 -5.14 2.47
-5.50 -5.32 2.49
-5.39 -5.43 2.49
-5.28 -5.53 2.49
-5.17 -5.64 2.49
-5.06 -5.74 2.49
-4.94 -5.84 2.49
-4.82 -5.94 2.49
-4.70 -6.04 2.49
-4.58 -6.13 2.49
-4.46 -6.23 2.49
-4.33 -6.31 2.49
-4.21 -6.40 2.49
-4.08 -6.48 2.49
-3.95 -6.57 2.49
-3.82 -6.64 2.49
-3.68 -6.72 2.49
-3.55 -6.79 2.49
-3.41 -6.86 2.49
-3.27 -6.93 2.49
-3.13 -7.00 2.49
-2.99 -7.06 2.49
-2.85 -7.12 2.49
-2.71 -7.17 2.49
-2.57 -7.23 2.49
-2.42 -7.28 2.49
-2.27 -7.32 2.49
-2.13 -7.37 2.49
-1.98 -7.41 2.49
-1.83 -7.45 2.49
-1.68 -7.48 2.49
-1.53 -7.51 2.49
-1.38 -7.54 2.49
-1.23 -7.57 2.49
-1.08 -7.59 2.49
-0.92 -7.61 2.49
-0.77 -7.63 2.49
-0.62 -7.64 2.49
-0.46 -7.65 2.49
-0.31 -7.66 2.49
-0.16 -7.66 2.49
-0.00 -7.11 2.49
0.14 -7.11 2.49
0.28 -7.11 2.49
0.42 -7.10 2.49
0.56 -7.09 2.49
0.71 -7.07 2.49
0.85 -7.06 2.49
0.99 -7.04 2.49
1.13 -7.01 2.49
1.27 -6.99 2.49
1.41 -6.96 2.49
1.55 -6.93 2.49
1.69 -6.90 2.49
1.82 -6.86 2.49
1.96 -6.82 2.49
2.10 -6.78 2.49
2.23 -6.73 2.49
2.36 -6.69 2.49
2.50 -6.63 2.49
2.56 -6.40 2.43
2.65 -6.26 2.39
2.77 -6.20 2.39
2.89 -6.14 2.39
3.01 -6.08 2.39
3.13 -6.02 2.39
3.25 -5.95 2.39
3.37 -5.88 2.39
3.49 -5.81 2.39
3.60 -5.74 2.39
3.72 -5.67 2.39
3.83 -5.59 2.39
3.94 -5.51 2.39
4.05 -5.43 2.39
4.15 -5.34 2.39
4.26 -5.26 2.39
4.36 -5.17 2.39
4.46 -5.08 2.39
4.56 -4.99 2.39
4.66 -4.89 2.39
4.75 -4.80 2.39
4.85 -4.70 2.39
4.94 -4.60 2.39
5.03 -4.50 2.39
5.11 -4.39 2.39
5.20 -4.29 2.39
5.28 -4.18 2.39
5.36 -4.07 2.39
5.44 -3.96 2.39
5.52 -3.85 2.39
5.59 -3.74 2.39
5.66 -3.62 2.39
5.73 -3.51 2.39
5.80 -3.39 2.39
5.87 -3.27 2.39
5.93 -3.15 2.39
5.99 -3.03 2.39
6.04 -2.91 2.39
6.10 -2.79 2.39
6.15 -2.66 2.39
6.20 -2.54 2.39
6.25 -2.41 2.39
6.29 -2.29 2.39
6.28 -2.14 2.37
6.28 -2.00 2.35
6.27 -1.86 2.34
6.27 -1.72 2.33
6.26 -1.59 2.31
6.26 -1.45 2.30
6.26 -1.32 2.29
6.25 -1.19 2.28
6.25 -1.06 2.27
6.24 -0.93 2.26
6.24 -0.80 2.26
6.24 -0.67 2.25
6.23 -0.55 2.25
6.23 -0.42 2.24
6.22 -0.30 2.24
6.22 -0.17 2.24
6.22 -0.04 2.24
6.21 0.08 2.23
6.21 0.20 2.24
6.20 0.33 2.24
6.20 0.45 2.24
6.20 0.58 2.24
6.19 0.70 2.25
6.19 0.83 2.25
6.19 0.96 2.26
6.18 1.08 2.26
6.18 1.21 2.27
6.22 1.35 2.30
6.17 1.47 2.29
6.17 1.60 2.30
6.16 1.73 2.31
6.16 1.87 2.33
6.15 2.00 2.34
6.15 2.14 2.35
6.14 2.27 2.37
6.15 2.42 2.39
6.10 2.54 2.39
6.04 2.66 2.39
5.99 2.78 2.39
5.93 2.90 2.39
5.87 3.02 2.39
5.80 3.13 2.39
5.74 3.25 2.39
5.67 3.36 2.39
5.60 3.48 2.39
5.53 3.59 2.39
5.45 3.70 2.39
5.37 3.80 2.39
5.30 3.91 2.39
5.21 4.01 2.39
5.13 4.12 2.39
5.05 4.22 2.39
4.96 4.32 2.39
4.87 4.42 2.39
4.78 4.51 2.39
4.69 4.61 2.39
4.59 4.70 2.39
4.50 4.79 2.39
4.40 4.88 2.39
4.30 4.97 2.39
4.20 5.05 2.39
4.09 5.13 2.39
3.99 5.21 2.39
3.88 5.29 2.39
3.78 5.37 2.39
3.67 5.44 2.39
3.56 5.51 2.39
3.44 5.58 2.39
3.33 5.65 2.39
3.22 5.72 2.39
3.10 5.78 2.39
2.98 5.84 2.39
2.86 5.90 2.39
2.75 5.96 2.39
2.62 6.01 2.39
2.50 6.06 2.39
2.38 6.11 2.39
2.26 6.16 2.39
2.16 6.29 2.42
2.09 6.51 2.49
1.96 6.55 2.49
1.83 6.59 2.49
1.70 6.63 2.49
1.56 6.66 2.49
1.43 6.69 2.49
1.30 6.72 2.49
1.16 6.74 2.49
1.02 6.76 2.49
0.89 6.78 2.49
0.75 6.80 2.49
0.61 6.81 2.49
0.48 6.83 2.49
0.34 6.83 2.49
0.20 6.84 2.49
0.06 6.84 2.49
-0.07 6.84 2.49
-0.21 6.84 2.49
-0.35 6.84 2.49
-0.49 6.83 2.49
-0.62 6.82 2.49
-0.76 6.81 2.49
-0.90 6.79 2.49
-1.03 6.77 2.49
-1.17 6.75 2.49
-1.31 6.73 2.49
-1.44 6.70 2.49
-1.58 6.67 2.49
-1.71 6.64 2.49
-1.84 6.61 2.49
-1.98 6.57 2.49
-2.11 6.53 2.49
-2.24 6.49 2.49
-2.37 6.44 2.49
-2.50 6.40 2.49
-2.63 6.35 2.49
-2.76 6.29 2.49
-2.88 6.24 2.49
-3.01 6.18 2.49
-3.13 6.12 2.49
-3.26 6.06 2.49
-3.38 5.99 2.49
-3.50 5.93 2.49
-3.62 5.86 2.49
-3.74 5.78 2.49
-3.85 5.71 2.49
-3.97 5.63 2.49
-4.08 5.55 2.49
-4.20 5.47 2.49
-4.31 5.39 2.49
-4.42 5.30 2.49
-4.52 5.21 2.49
-4.63 5.12 2.49
-4.73 5.03 2.49
-4.83 4.94 2.49
-4.93 4.84 2.49
-5.03 4.74 2.49
-5.13 4.64 2.49
-5.22 4.54 2.49
-5.31 4.43 2.49
-5.40 4.33 2.49
-5.49 4.22 2.49
-5.58 4.11 2.49
-5.66 4.00 2.49
-5.74 3.89 2.49
-5.81 3.77 2.49
-5.81 3.60 2.46
-5.81 3.44 2.43
-5.81 3.29 2.40
-5.86 3.16 2.39
-5.93 3.04 2.39
-5.99 2.93 2.39
-6.05 2.81 2.39
-6.11 2.69 2.39
-6.16 2.56 2.39
-6.21 2.44 2.39
-6.26 2.32 2.39
-6.31 2.19 2.39
-6.36 2.06 2.39
-6.40 1.94 2.39
-6.44 1.81 2.39
-6.48 1.68 2.39
-6.51 1.55 2.39
-6.21 1.35 2.27
-6.24 1.22 2.27
-6.47 1.13 2.34
-6.52 1.01 2.35
-6.54 0.88 2.35
-6.56 0.75 2.35
-6.57 0.61 2.35
-6.59 0.48 2.35
-6.60 0.35 2.35
-6.61 0.22 2.35
-6.61 0.09 2.35
-6.62 -0.05 2.35
-6.62 -0.18 2.35
-6.61 -0.31 2.35
-6.61 -0.45 2.35
-6.60 -0.58 2.35
-6.59 -0.71 2.35
-6.58 -0.84 2.35
-6.56 -0.98 2.35
-6.54 -1.11 2.35
-6.52 -1.24 2.35
-6.50 -1.37 2.35
-6.47 -1.50 2.35
-6.44 -1.63 2.35
-6.41 -1.76 2.35
-6.38 -1.89 2.35
-6.12 -1.95 2.27
-6.08 -2.07 2.27
-6.04 -2.19 2.27
-6.00 -2.31 2.27
-5.98 -2.44 2.28
-5.97 -2.58 2.30
-5.97 -2.72 2.32
-5.96 -2.87 2.33
-5.96 -3.01 2.36
-5.95 -3.16 2.38
-5.93 -3.30 2.39
-5.86 -3.42 2.39
-5.79 -3.54 2.39
-5.72 -3.66 2.39
-5.65 -3.77 2.39
-5.59 -3.89 2.40
-5.57 -4.05 2.43
-5.56 -4.22 2.46
-5.56 -4.39 2.49
-5.48 -4.51 2.49
-5.39 -4.62 2.49
-5.29 -4.73 2.49
-5.20 -4.83 2.49
-5.10 -4.94 2.49
-5.00 -5.04 2.49
-4.90 -5.14 2.49
-4.80 -5.24 2.49
-4.69 -5.33 2.49
-4.59 -5.43 2.49
-4.48 -5.52 2.49
-4.37 -5.61 2.49
-4.25 -5.70 2.49
-4.14 -5.78 2.49
-4.02 -5.86 2.49
-3.91 -5.94 2.49
-3.79 -6.02 2.49
-3.67 -6.10 2.49
-3.54 -6.17 2.49
-3.42 -6.24 2.49
-3.29 -6.31 2.49
-3.17 -6.37 2.49
-3.04 -6.43 2.49
-2.91 -6.49 2.49
-2.78 -6.55 2.49
-2.65 -6.61 2.49
-2.52 -6.66 2.49
-2.38 -6.71 2.49
-2.25 -6.75 2.49
-2.11 -6.80 2.49
-1.97 -6.84 2.49
-1.84 -6.88 2.49
-1.70 -6.91 2.49
-1.56 -6.94 2.49
-1.42 -6.97 2.49
-1.28 -7.00 2.49
-1.14 -7.03 2.49
-1.00 -7.05 2.49
-0.86 -7.06 2.49
-0.72 -7.08 2.49
-0.57 -7.09 2.49
-0.43 -7.10 2.49
-0.29 -7.11 2.49
-0.15 -7.11 2.49
-0.00 -6.63 2.49
0.13 -6.63 2.49
0.26 -6.62 2.49
0.39 -6.62 2.49
0.53 -6.61 2.49
0.66 -6.59 2.49
0.79 -6.58 2.49
0.92 -6.56 2.49
1.05 -6.54 2.49
1.18 -6.52 2.49
1.31 -6.49 2.49
1.44 -6.46 2.49
1.57 -6.43 2.49
1.70 -6.40 2.49
1.83 -6.36 2.49
1.95 -6.32 2.49
2.08 -6.28 2.49
2.20 -6.23 2.49
2.33 -6.19 2.49
2.45 -6.14 2.49
2.54 -6.01 2.46
2.58 -5.78 2.39
2.70 -5.73 2.39
2.81 -5.67 2.39
2.92 -5.61 2.39
3.03 -5.55 2.39
3.14 -5.49 2.39
3.25 -5.42 2.39
3.36 -5.35 2.39
3.46 -5.28 2.39
3.57 -5.21 2.39
3.67 -5.14 2.39
3.77 -5.06 2.39
3.87 -4.98 2.39
3.97 -4.90 2.39
4.07 -4.82 2.39
4.16 -4.74 2.39
4.25 -4.65 2.39
4.34 -4.56 2.39
4.43 -4.47 2.39
4.52 -4.38 2.39
4.61 -4.29 2.39
4.69 -4.20 2.39
4.77 -4.10 2.39
4.85 -4.00 2.39
4.93 -3.90 2.39
5.00 -3.80 2.39
5.08 -3.70 2.39
5.15 -3.59 2.39
5.22 -3.49 2.39
5.28 -3.38 2.39
5.35 -3.27 2.39
5.41 -3.17 2.39
5.47 -3.06 2.39
5.53 -2.94 2.39
5.59 -2.83 2.39
5.64 -2.72 2.39
5.69 -2.60 2.39
5.74 -2.49 2.39
5.79 -2.37 2.39
5.83 -2.25 2.39
5.87 -2.13 2.39
5.91 -2.02 2.39
5.95 -1.90 2.39
5.98 -1.78 2.39
6.02 -1.65 2.39
6.04 -1.53 2.39
6.07 -1.41 2.39
6.10 -1.29 2.39
6.12 -1.16 2.39
6.14 -1.04 2.39
6.16 -0.92 2.39
6.17 -0.79 2.39
6.18 -0.67 2.39
6.19 -0.54 2.39
6.20 -0.42 2.39
6.21 -0.30 2.39
6.21 -0.17 2.39
6.21 -0.05 2.39
6.21 0.08 2.39
6.20 0.20 2.39
6.19 0.33 2.39
6.18 0.45 2.39
6.17 0.58 2.39
6.16 0.70 2.39
6.14 0.82 2.39
6.12 0.95 2.39
6.10 1.07 2.39
6.07 1.19 2.39
6.04 1.31 2.39
6.01 1.43 2.39
5.98 1.55 2.39
5.95 1.67 2.39
5.91 1.79 2.39
5.87 1.91 2.39
5.83 2.02 2.39
5.79 2.14 2.39
5.74 2.26 2.39
5.69 2.37 2.39
5.64 2.48 2.39
5.59 2.60 2.39
5.54 2.71 2.39
5.48 2.82 2.39
5.42 2.93 2.39
5.36 3.03 2.39
5.29 3.14 2.39
5.23 3.24 2.39
5.16 3.35 2.39
5.09 3.45 2.39
5.02 3.55 2.39
4.95 3.65 2.39
4.87 3.75 2.39
4.79 3.85 2.39
4.71 3.94 2.39
4.63 4.03 2.39
4.55 4.12 2.39
4.46 4.21 2.39
4.38 4.30 2.39
4.29 4.39 2.39
4.20 4.47 2.39
4.11 4.56 2.39
4.02 4.64 2.39
3.92 4.72 2.39
3.82 4.79 2.39
3.73 4.87 2.39
3.63 4.94 2.39
3.53 5.01 2.39
3.43 5.08 2.39
3.32 5.15 2.39
3.22 5.22 2.39
3.11 5.28 2.39
3.00 5.34 2.39
2.90 5.40 2.39
2.79 5.46 2.39
2.68 5.51 2.39
2.56 5.56 2.39
2.45 5.61 2.39
2.34 5.66 2.39
2.22 5.71 2.39
2.17 5.92 2.46
2.08 6.04 2.49
1.96 6.08 2.49
1.83 6.12 2.49
1.71 6.16 2.49
1.59 6.19 2.49
1.46 6.22 2.49
1.34 6.25 2.49
1.21 6.27 2.49
1.08 6.30 2.49
0.96 6.32 2.49
0.83 6.34 2.49
0.70 6.35 2.49
0.57 6.37 2.49
0.45 6.38 2.49
0.32 6.38 2.49
0.19 6.39 2.49
0.06 6.39 2.49
-0.07 6.39 2.49
-0.20 6.39 2.49
-0.33 6.39 2.49
-0.45 6.38 2.49
-0.58 6.37 2.49
-0.71 6.36 2.49
-0.84 6.34 2.49
-0.97 6.33 2.49
