ply
format ascii 1.0
element vertex 2852
property float32 x
property float32 y
property float32 z
end_header
-10.55 12.21 0.06
-10.52 11.69 0.06
-10.49 11.20 0.06
-10.47 10.73 0.06
-10.44 10.29 0.05
-10.42 9.86 0.05
-10.40 9.45 0.05
-10.30 8.99 0.05
-10.36 8.68 0.04
-10.34 8.32 0.04
-10.32 7.96 0.04
-10.30 7.63 0.04
-10.28 7.30 0.04
-10.26 6.98 0.03
-10.25 6.67 0.03
-10.23 6.37 0.03
-10.21 6.08 0.03
-10.20 5.80 0.03
-10.18 5.52 0.03
-10.17 5.25 0.03
-10.09 4.96 0.02
-10.14 4.73 0.02
-10.13 4.48 0.02
-10.11 4.23 0.02
-10.10 3.99 0.02
-10.09 3.75 0.02
-10.08 3.52 0.02
-10.06 3.29 0.02
-10.05 3.07 0.02
-10.04 2.84 0.02
-10.03 2.62 0.02
-10.02 2.41 0.01
-10.00 2.19 0.01
-9.99 1.98 0.01
-9.98 1.77 0.01
-9.97 1.56 0.01
-9.96 1.36 0.01
-9.95 1.15 0.01
-9.88 0.94 0.01
-9.92 0.75 0.01
-9.91 0.55 0.01
-9.90 0.35 0.01
-9.89 0.15 0.01
-9.88 -0.05 0.01
-9.87 -0.25 0.01
-9.86 -0.45 0.01
-9.85 -0.64 0.01
-9.84 -0.84 0.01
-9.83 -1.04 0.01
-9.82 -1.24 0.01
-9.81 -1.44 0.01
-9.80 -1.64 0.01
-9.78 -1.84 0.00
-9.77 -2.04 0.00
-9.76 -2.24 0.00
-9.75 -2.45 0.00
-9.74 -2.65 0.00
-9.73 -2.86 0.00
-9.67 -3.06 0.00
-9.71 -3.28 0.00
-9.69 -3.50 0.00
-6.14 -2.36 0.00
-6.26 -2.55 0.00
-6.02 -2.59 0.00
-6.00 -2.73 0.00
-9.63 -4.61 0.00
-9.62 -4.85 0.00
-9.61 -5.09 0.00
-9.59 -5.33 0.00
-9.58 -5.57 0.00
-9.57 -5.83 0.01
-9.55 -6.08 0.01
-9.54 -6.35 0.01
-9.52 -6.62 0.01
-9.49 -7.18 0.01
-9.48 -7.47 0.01
-9.46 -7.77 0.01
-9.45 -8.08 0.01
-9.43 -8.40 0.01
-9.41 -8.73 0.01
-9.39 -9.07 0.01
-9.37 -9.42 0.01
-9.35 -9.78 0.01
-9.33 -10.16 0.01
-9.31 -10.56 0.01
-9.24 -10.91 0.01
-9.26 -11.40 0.01
-9.24 -11.85 0.02
-9.21 -12.32 0.02
-9.19 -12.81 0.02
-9.16 -13.33 0.02
-9.13 -13.87 0.02
-9.10 -14.45 0.02
-9.00 -14.95 0.02
-9.03 -15.70 0.03
-8.99 -16.39 0.03
-8.95 -17.12 0.03
-8.91 -17.91 0.03
-8.87 -18.75 0.04
-8.82 -19.66 0.04
-8.76 -20.64 0.04
-8.70 -21.70 0.05
-8.65 -22.88 0.05
-8.57 -24.14 0.05
-8.50 -25.54 0.06
-8.36 -26.91 0.06
-8.32 -28.81 0.07
-8.21 -30.75 0.08
-8.09 -32.94 0.09
-7.96 -35.45 0.09
-7.80 -38.33 0.11
-7.62 -41.70 0.12
-7.40 -45.68 0.13
7.36 -40.34 1.11
7.67 -37.72 1.05
7.20 -32.10 0.90
6.91 -28.14 0.79
7.49 -28.07 0.80
7.37 -25.54 0.73
7.37 -23.74 0.69
7.72 -23.20 0.68
8.20 -23.11 0.68
8.70 -23.02 0.69
9.27 -23.13 0.70
9.83 -23.17 0.71
10.28 -22.93 0.71
10.80 -22.85 0.72
11.48 -23.07 0.73
11.92 -22.81 0.74
12.46 -22.71 0.74
13.01 -22.64 0.75
13.74 -22.82 0.77
14.31 -22.73 0.78
14.85 -22.57 0.79
15.45 -22.48 0.80
16.22 -22.62 0.82
16.82 -22.49 0.83
17.46 -22.39 0.84
18.14 -22.33 0.85
14.19 -16.77 0.65
14.16 -16.06 0.64
14.26 -15.53 0.63
14.22 -14.89 0.62
14.19 -14.27 0.61
14.16 -13.67 0.60
14.13 -13.11 0.58
14.10 -12.56 0.57
11.69 -10.00 0.47
13.90 -11.42 0.55
12.48 -9.84 0.49
12.46 -9.42 0.48
12.61 -9.14 0.48
12.71 -8.84 0.48
11.72 -7.80 0.44
12.38 -7.88 0.46
12.36 -7.53 0.45
12.34 -7.18 0.45
12.32 -6.84 0.44
12.30 -6.51 0.44
12.41 -6.25 0.44
12.39 -5.93 0.43
12.37 -5.62 0.43
12.35 -5.32 0.43
2.31 -0.94 0.08
2.34 -0.90 0.08
12.19 -4.40 0.42
12.17 -4.12 0.41
12.16 -3.84 0.41
11.31 -3.33 0.38
12.13 -3.31 0.41
12.20 -3.06 0.41
12.30 -2.83 0.41
12.37 -2.58 0.41
12.36 -2.32 0.41
12.35 -2.06 0.41
12.04 -1.77 0.40
12.03 -1.52 0.40
11.19 -1.19 0.37
12.02 -1.03 0.40
12.66 -0.83 0.42
15.22 -0.69 0.50
19.07 -0.48 0.63
25.26 -0.13 0.83
25.13 0.38 0.83
25.16 0.88 0.83
25.70 1.42 0.85
25.17 1.90 0.84
17.22 1.65 0.57
13.01 1.51 0.43
13.24 1.81 0.44
15.00 2.35 0.51
14.97 2.66 0.51
15.11 3.00 0.51
33.44 12.45 1.19
32.82 12.97 1.18
32.78 13.72 1.19
10.15 5.77 0.39
40.65 24.20 1.58
31.27 19.48 1.23
29.74 19.36 1.18
28.41 19.32 1.14
27.07 19.22 1.10
25.86 19.15 1.07
24.69 19.06 1.04
23.62 19.00 1.01
22.60 18.95 0.98
31.88 27.83 1.40
32.12 29.20 1.44
31.80 30.10 1.45
31.70 31.23 1.47
31.63 32.44 1.49
31.56 33.70 1.52
30.99 34.44 1.52
31.37 36.30 1.58
30.84 37.18 1.58
30.31 38.07 1.59
17.65 24.09 0.97
15.33 21.83 0.87
14.93 22.20 0.87
14.52 22.56 0.87
14.12 22.92 0.87
13.71 23.29 0.87
13.29 23.66 0.88
7.84 14.64 0.54
12.42 24.36 0.88
11.98 24.70 0.88
11.55 25.09 0.88
11.13 25.51 0.89
10.15 24.60 0.85
10.27 26.38 0.90
9.81 26.78 0.90
9.35 27.20 0.91
8.88 27.62 0.92
8.40 28.05 0.92
10.54 37.94 1.24
9.71 37.89 1.22
8.88 37.82 1.21
8.08 37.77 1.20
7.29 37.76 1.19
5.45 31.64 0.99
4.90 32.35 1.01
4.46 34.05 1.06
-12.29 44.20 1.32
-12.07 40.28 1.21
-11.86 36.87 1.11
-11.74 34.12 1.03
-11.60 31.65 0.96
-11.49 29.48 0.89
-11.38 27.57 0.84
-11.29 25.86 0.79
-11.21 24.32 0.75
-11.13 22.94 0.71
-11.06 21.68 0.68
-11.00 20.53 0.64
-10.94 19.47 0.61
-10.89 18.50 0.59
-10.84 17.60 0.56
-10.80 16.76 0.54
-10.75 15.98 0.52
-10.71 15.25 0.50
-10.68 14.57 0.49
-10.64 13.92 0.47
-10.61 13.32 0.45
-10.58 12.75 0.44
-10.55 12.20 0.43
-10.52 11.69 0.42
-10.49 11.20 0.40
-10.47 10.73 0.39
-10.44 10.28 0.38
-10.42 9.86 0.37
-10.40 9.45 0.36
-10.30 8.99 0.35
-10.36 8.68 0.35
-10.34 8.31 0.34
-10.32 7.96 0.33
-10.30 7.62 0.33
-10.28 7.30 0.32
-10.26 6.98 0.31
-10.25 6.67 0.31
-10.23 6.37 0.30
-10.21 6.08 0.30
-10.20 5.80 0.29
-10.18 5.52 0.29
-10.17 5.25 0.28
-10.09 4.96 0.28
-10.14 4.73 0.28
-10.13 4.48 0.27
-10.11 4.23 0.27
-10.10 3.99 0.26
-10.09 3.75 0.26
-10.08 3.52 0.26
-10.06 3.29 0.26
-10.05 3.07 0.25
-10.04 2.84 0.25
-10.03 2.62 0.25
-10.02 2.41 0.25
-10.00 2.19 0.24
-9.99 1.98 0.24
-9.98 1.77 0.24
-9.97 1.56 0.24
-9.96 1.36 0.24
-9.95 1.15 0.24
-9.88 0.94 0.23
-9.92 0.75 0.23
-9.91 0.55 0.23
-9.90 0.35 0.23
-9.89 0.15 0.23
-9.88 -0.05 0.23
-9.87 -0.25 0.23
-9.86 -0.45 0.23
-9.85 -0.64 0.23
-9.84 -0.84 0.23
-9.83 -1.04 0.23
-9.82 -1.24 0.23
-9.81 -1.44 0.23
-9.80 -1.64 0.23
-9.78 -1.84 0.23
-9.77 -2.04 0.23
-9.76 -2.24 0.23
-9.75 -2.45 0.23
-9.74 -2.65 0.23
-9.73 -2.86 0.23
-9.67 -3.06 0.23
-9.71 -3.28 0.23
-9.69 -3.50 0.24
-6.14 -2.36 0.15
-6.26 -2.55 0.15
-6.02 -2.59 0.15
-6.00 -2.73 0.15
-9.63 -4.61 0.24
-9.62 -4.85 0.25
-9.61 -5.09 0.25
-9.59 -5.33 0.25
-9.58 -5.57 0.25
-9.57 -5.83 0.26
-9.55 -6.08 0.26
-9.54 -6.35 0.26
-9.52 -6.62 0.27
-9.49 -7.18 0.27
-9.48 -7.47 0.28
-9.46 -7.77 0.28
-9.45 -8.08 0.29
-9.43 -8.40 0.29
-9.41 -8.73 0.30
-9.39 -9.07 0.30
-9.37 -9.42 0.31
-9.35 -9.78 0.32
-9.33 -10.16 0.32
-9.31 -10.56 0.33
-9.24 -10.91 0.34
-9.26 -11.40 0.35
-9.24 -11.84 0.35
-9.21 -12.31 0.36
-9.19 -12.81 0.37
-9.16 -13.32 0.38
-9.13 -13.87 0.40
-9.10 -14.44 0.41
-9.00 -14.95 0.42
-9.03 -15.70 0.43
-8.99 -16.39 0.45
-8.95 -17.12 0.47
-8.91 -17.90 0.48
-8.87 -18.75 0.50
-8.82 -19.65 0.52
-8.76 -20.63 0.55
-8.70 -21.70 0.57
-8.65 -22.88 0.60
-8.57 -24.13 0.63
-8.50 -25.53 0.67
-8.36 -26.91 0.70
-8.32 -28.80 0.75
-8.21 -30.74 0.79
-8.09 -32.93 0.85
-7.96 -35.43 0.91
-7.80 -38.32 0.99
-7.62 -41.68 1.07
-7.40 -45.66 1.17
5.82 -48.15 2.39
6.77 -47.93 2.39
7.71 -47.68 2.39
7.35 -40.32 2.03
7.37 -36.28 1.84
6.32 -28.19 1.44
6.90 -28.12 1.45
6.86 -25.72 1.33
4.88 -16.93 0.88
5.30 -17.08 0.90
7.70 -23.18 1.23
8.18 -23.06 1.23
8.66 -22.95 1.24
6.77 -16.90 0.92
9.77 -23.03 1.27
10.27 -22.91 1.28
10.79 -22.84 1.29
11.42 -22.97 1.31
11.88 -22.74 1.31
12.44 -22.69 1.33
12.98 -22.59 1.34
13.65 -22.68 1.36
14.22 -22.60 1.38
14.81 -22.52 1.39
7.20 -10.48 0.66
7.19 -10.02 0.64
7.13 -9.53 0.62
7.30 -9.36 0.62
7.20 -8.86 0.60
6.96 -8.22 0.56
7.08 -8.03 0.56
6.94 -7.56 0.54
7.13 -7.47 0.54
7.21 -7.25 0.54
7.63 -7.37 0.56
6.97 -6.47 0.50
6.96 -6.20 0.49
6.91 -5.92 0.48
6.87 -5.65 0.47
7.18 -5.66 0.49
7.67 -5.81 0.51
12.53 -9.09 0.83
12.51 -8.70 0.82
11.71 -7.80 0.75
12.38 -7.89 0.79
12.36 -7.53 0.78
12.34 -7.18 0.77
6.89 -3.83 0.43
7.01 -3.71 0.43
12.41 -6.25 0.75
12.39 -5.94 0.74
12.37 -5.63 0.74
12.35 -5.32 0.73
2.31 -0.94 0.14
2.34 -0.90 0.14
12.19 -4.40 0.71
12.17 -4.12 0.70
12.16 -3.84 0.70
11.31 -3.33 0.65
12.13 -3.31 0.69
12.20 -3.06 0.69
12.23 -2.81 0.69
12.22 -2.55 0.69
12.20 -2.29 0.68
12.19 -2.04 0.68
12.04 -1.77 0.67
12.03 -1.52 0.67
11.19 -1.19 0.62
12.02 -1.03 0.67
12.65 -0.83 0.70
15.21 -0.69 0.84
19.06 -0.48 1.06
25.24 -0.13 1.40
25.21 0.38 1.40
25.17 0.88 1.40
25.38 1.40 1.42
25.13 1.89 1.40
15.16 1.45 0.85
9.36 1.08 0.53
7.80 1.06 0.44
9.23 1.45 0.52
7.83 1.39 0.44
9.23 1.83 0.53
9.21 2.02 0.53
9.38 2.25 0.54
43.15 11.29 2.49
7.67 2.17 0.45
42.64 13.01 2.49
42.36 13.86 2.49
35.83 12.52 2.12
33.25 12.37 1.99
32.82 12.97 1.98
32.78 13.72 1.99
39.07 17.28 2.39
38.71 18.07 2.39
38.35 18.84 2.39
37.36 19.30 2.35
36.10 19.58 2.30
10.15 5.77 0.65
36.99 22.02 2.41
31.27 19.48 2.06
29.73 19.36 1.98
28.41 19.32 1.92
27.07 19.22 1.85
25.86 19.15 1.80
24.73 19.09 1.74
23.68 19.05 1.69
22.68 19.01 1.65
21.68 18.93 1.60
20.76 18.87 1.56
19.89 18.83 1.52
19.06 18.78 1.49
18.30 18.77 1.46
17.54 18.73 1.42
26.29 29.22 2.18
26.19 30.32 2.22
15.52 18.71 1.35
15.31 19.24 1.36
15.21 19.92 1.39
15.11 20.63 1.41
15.33 21.84 1.47
14.93 22.20 1.47
14.57 22.64 1.48
14.16 23.00 1.49
13.75 23.37 1.49
13.29 23.66 1.49
7.84 14.64 0.91
12.42 24.36 1.50
11.98 24.70 1.50
11.55 25.09 1.51
11.13 25.52 1.52
10.15 24.60 1.45
10.27 26.38 1.54
9.84 26.88 1.55
9.38 27.29 1.56
8.88 27.62 1.57
8.40 28.05 1.58
10.53 37.94 2.12
9.70 37.89 2.11
8.88 37.82 2.09
8.07 37.77 2.07
7.28 37.76 2.06
5.44 31.64 1.72
4.92 32.49 1.76
4.48 34.21 1.84
4.97 44.93 2.41
4.07 45.10 2.41
3.15 44.95 2.39
2.25 45.09 2.39
1.35 45.20 2.39
0.44 44.56 2.35
-0.47 45.39 2.39
-1.44 47.42 2.49
-2.40 47.47 2.49
-3.35 47.50 2.49
-4.32 47.51 2.49
-5.28 47.51 2.49
-6.24 47.49 2.49
-7.21 47.44 2.49
-8.18 47.38 2.49
-8.77 45.35 2.39
-9.69 45.25 2.39
-10.62 45.14 2.39
-11.55 45.01 2.39
-12.48 44.86 2.39
-12.01 40.05 2.14
-11.87 36.87 1.98
-11.74 34.10 1.84
-11.60 31.64 1.72
-11.49 29.47 1.61
-11.38 27.56 1.51
-11.29 25.85 1.43
-11.21 24.31 1.35
-11.13 22.93 1.28
-11.06 21.67 1.22
-8.44 15.74 0.90
-10.94 19.46 1.12
-10.89 18.49 1.07
-10.84 17.59 1.03
-10.79 16.75 0.99
-10.75 15.97 0.96
-10.71 15.25 0.92
-10.68 14.56 0.89
-10.64 13.92 0.86
-10.61 13.31 0.84
-10.58 12.74 0.81
-10.55 12.20 0.79
-10.52 11.69 0.77
-10.49 11.20 0.75
-10.47 10.73 0.73
-10.44 10.28 0.71
-10.42 9.86 0.70
-10.40 9.45 0.68
-10.30 8.99 0.66
-10.36 8.68 0.65
-10.34 8.31 0.64
-10.32 7.96 0.63
-10.30 7.62 0.62
-10.28 7.29 0.60
-10.26 6.98 0.59
-10.25 6.67 0.58
-10.23 6.37 0.57
-10.21 6.08 0.57
-10.20 5.80 0.56
-10.18 5.52 0.55
-10.17 5.25 0.54
-10.09 4.96 0.53
-10.14 4.73 0.53
-10.13 4.48 0.52
-10.11 4.23 0.52
-10.10 3.99 0.51
-10.09 3.75 0.50
-10.08 3.52 0.50
-10.06 3.29 0.49
-10.05 3.06 0.49
-10.04 2.84 0.49
-10.03 2.62 0.48
-10.01 2.41 0.48
-10.00 2.19 0.48
-9.99 1.98 0.47
-9.98 1.77 0.47
-9.97 1.56 0.47
-9.96 1.36 0.46
-9.95 1.15 0.46
-9.88 0.94 0.46
-9.92 0.75 0.46
-9.91 0.55 0.46
-9.90 0.35 0.46
-9.89 0.15 0.45
-9.88 -0.05 0.45
-9.87 -0.25 0.45
-9.86 -0.45 0.45
-9.85 -0.64 0.45
-9.84 -0.84 0.45
-9.83 -1.04 0.45
-9.82 -1.24 0.45
-9.81 -1.44 0.45
-9.80 -1.64 0.45
-9.78 -1.84 0.45
-9.77 -2.04 0.45
-9.76 -2.24 0.46
-9.75 -2.45 0.46
-9.74 -2.65 0.46
-9.73 -2.86 0.46
-9.67 -3.06 0.46
-9.71 -3.28 0.47
-9.69 -3.50 0.47
-6.14 -2.36 0.30
-9.67 -3.93 0.47
-6.03 -2.60 0.30
-6.01 -2.73 0.30
-9.63 -4.61 0.49
-9.62 -4.85 0.49
-9.61 -5.08 0.49
-9.59 -5.33 0.50
-9.58 -5.57 0.50
-9.57 -5.83 0.51
-9.55 -6.08 0.52
-9.54 -6.35 0.52
-9.52 -6.62 0.53
-9.49 -7.18 0.54
-9.48 -7.47 0.55
-9.46 -7.77 0.56
-9.45 -8.08 0.57
-9.43 -8.40 0.58
-9.41 -8.73 0.59
-9.39 -9.07 0.60
-9.37 -9.42 0.61
-9.35 -9.78 0.62
-9.33 -10.16 0.63
-9.31 -10.56 0.65
-9.24 -10.91 0.66
-9.26 -11.40 0.68
-9.24 -11.84 0.69
-9.22 -12.31 0.71
-9.19 -12.80 0.73
-9.16 -13.32 0.75
-9.13 -13.87 0.77
-9.10 -14.44 0.79
-9.00 -14.95 0.81
-9.03 -15.70 0.84
-8.99 -16.38 0.87
-8.95 -17.12 0.90
-8.91 -17.90 0.93
-8.87 -18.74 0.97
-8.82 -19.65 1.01
-8.76 -20.63 1.05
-8.71 -21.69 1.10
-8.64 -22.85 1.15
-8.57 -24.12 1.21
-8.50 -25.52 1.27
-8.36 -26.90 1.33
-8.32 -28.80 1.42
-8.21 -30.73 1.51
-8.09 -32.92 1.61
-7.96 -35.42 1.73
-7.80 -38.30 1.87
-7.62 -41.66 2.03
-6.62 -40.83 1.98
-6.98 -49.28 2.39
-5.98 -49.32 2.39
-4.98 -49.33 2.39
-3.98 -49.33 2.39
-0.01 -34.98 2.49
0.69 -34.93 2.49
1.39 -34.86 2.49
2.08 -34.77 2.49
2.78 -34.68 2.49
3.47 -34.56 2.49
3.98 -33.02 2.39
4.64 -32.88 2.39
5.29 -32.74 2.39
5.94 -32.58 2.39
6.58 -32.40 2.39
6.34 -28.32 2.10
6.90 -28.14 2.10
6.86 -25.71 1.93
4.88 -16.94 1.28
5.29 -17.06 1.30
7.71 -23.21 1.78
8.18 -23.06 1.79
8.70 -23.05 1.80
6.78 -16.93 1.34
9.78 -23.06 1.84
10.26 -22.89 1.84
10.81 -22.88 1.86
11.43 -22.99 1.89
11.87 -22.73 1.89
12.42 -22.66 1.91
13.05 -22.72 1.94
13.69 -22.76 1.97
14.25 -22.64 1.99
14.81 -22.51 2.00
7.13 -10.38 0.94
7.08 -9.88 0.91
7.11 -9.51 0.89
7.18 -9.21 0.87
7.10 -8.74 0.84
7.02 -8.29 0.81
7.02 -7.97 0.80
7.01 -7.64 0.78
7.06 -7.39 0.77
7.22 -7.26 0.77
7.52 -7.26 0.79
6.97 -6.47 0.72
6.94 -6.19 0.70
6.90 -5.90 0.69
6.88 -5.65 0.67
7.04 -5.55 0.68
7.31 -5.53 0.70
6.88 -4.99 0.65
6.78 -4.71 0.63
6.74 -4.49 0.62
6.73 -4.29 0.61
6.70 -4.08 0.60
6.67 -3.88 0.59
6.77 -3.76 0.59
6.82 -3.61 0.59
7.23 -3.65 0.62
12.39 -5.94 1.06
6.70 -3.05 0.57
6.69 -2.88 0.56
2.31 -0.94 0.19
2.34 -0.90 0.19
6.59 -2.38 0.54
6.52 -2.21 0.53
6.53 -2.07 0.53
6.56 -1.93 0.53
6.56 -1.79 0.53
6.55 -1.64 0.52
6.53 -1.50 0.52
6.52 -1.36 0.52
6.51 -1.22 0.51
6.50 -1.09 0.51
6.71 -0.99 0.53
6.73 -0.85 0.53
11.19 -1.19 0.88
12.02 -1.03 0.94
12.65 -0.83 0.99
15.20 -0.69 1.19
19.04 -0.48 1.49
6.63 -0.03 0.52
6.54 0.10 0.51
6.53 0.23 0.51
6.49 0.36 0.51
6.53 0.49 0.51
6.51 0.62 0.51
6.49 0.75 0.51
6.69 0.91 0.53
7.46 1.17 0.59
7.33 1.30 0.58
7.32 1.45 0.59
7.36 1.61 0.59
7.41 1.78 0.60
7.39 1.93 0.60
7.37 2.09 0.60
7.53 2.30 0.62
30.17 9.87 2.49
29.96 10.47 2.49
29.74 11.07 2.49
29.51 11.66 2.49
29.27 12.25 2.49
29.02 12.84 2.49
28.76 13.42 2.49
28.49 14.00 2.49
28.20 14.57 2.49
27.91 15.13 2.49
10.15 5.77 0.92
26.16 15.57 2.39
25.85 16.10 2.39
25.52 16.62 2.39
25.19 17.13 2.39
24.85 17.64 2.39
24.50 18.14 2.39
24.14 18.64 2.39
23.68 19.05 2.38
22.68 19.01 2.32
21.68 18.93 2.25
20.76 18.87 2.20
19.89 18.83 2.14
19.06 18.78 2.09
18.30 18.77 2.05
17.54 18.73 2.01
20.07 22.32 2.34
19.41 22.47 2.32
15.52 18.71 1.90
15.31 19.24 1.92
15.21 19.92 1.95
15.11 20.63 1.99
15.33 21.84 2.08
14.93 22.20 2.08
14.52 22.56 2.08
14.11 22.93 2.09
13.70 23.29 2.10
13.05 23.24 2.07
7.84 14.64 1.29
11.79 23.12 2.01
11.33 23.37 2.01
10.87 23.61 2.01
10.45 23.95 2.02
10.03 24.32 2.03
9.88 25.39 2.10
9.27 25.33 2.07
8.98 26.13 2.12
8.68 27.01 2.18
8.40 28.06 2.24
7.85 28.28 2.25
7.32 28.59 2.26
6.78 28.89 2.27
6.25 29.26 2.28
5.73 29.73 2.31
5.24 30.45 2.35
4.70 31.08 2.39
4.09 31.21 2.39
3.46 31.33 2.39
2.84 31.43 2.39
2.21 31.52 2.39
1.29 25.84 1.96
0.94 31.66 2.39
0.31 31.72 2.39
-0.34 33.13 2.49
-1.01 33.16 2.49
-1.68 33.17 2.49
-2.35 33.18 2.49
-3.02 33.17 2.49
-3.69 33.15 2.49
-4.36 33.11 2.49
-5.03 33.06 2.49
-5.70 33.00 2.49
-6.37 32.92 2.49
-7.04 32.84 2.49
-7.71 32.73 2.49
-8.03 31.27 2.39
-8.67 31.14 2.39
-9.30 31.01 2.39
-9.94 30.86 2.39
-10.57 30.70 2.39
-11.20 30.52 2.39
-11.31 27.38 2.17
-11.29 25.84 2.06
-11.21 24.31 1.96
-11.13 22.92 1.86
-11.06 21.66 1.77
-8.44 15.73 1.30
-10.94 19.46 1.62
-10.89 18.49 1.56
-10.84 17.59 1.50
-10.79 16.75 1.44
-10.75 15.97 1.39
-10.71 15.24 1.34
-10.68 14.56 1.30
-10.64 13.92 1.26
-10.61 13.31 1.22
-10.58 12.74 1.19
-10.55 12.20 1.16
-10.52 11.68 1.12
-10.49 11.19 1.10
-10.47 10.73 1.07
-10.44 10.28 1.04
-10.42 9.85 1.02
-10.40 9.44 1.00
-10.30 8.99 0.97
-10.36 8.67 0.96
-10.34 8.31 0.94
-10.32 7.96 0.92
-10.30 7.62 0.90
-10.28 7.29 0.89
-10.26 6.97 0.87
-10.25 6.67 0.86
-10.23 6.37 0.85
-10.21 6.08 0.83
-10.20 5.79 0.82
-10.18 5.52 0.81
-10.17 5.25 0.80
-10.09 4.96 0.79
-10.14 4.73 0.78
-10.13 4.48 0.77
-10.11 4.23 0.76
-10.10 3.99 0.76
-10.09 3.75 0.75
-10.08 3.52 0.74
-10.06 3.29 0.73
-10.05 3.06 0.73
-10.04 2.84 0.72
-10.03 2.62 0.72
-10.01 2.40 0.71
-10.00 2.19 0.71
-9.99 1.98 0.70
-9.98 1.77 0.70
-9.97 1.56 0.69
-9.96 1.36 0.69
-9.95 1.15 0.69
-9.88 0.94 0.68
-9.92 0.75 0.68
-9.91 0.55 0.68
-9.90 0.35 0.68
-9.89 0.15 0.68
-9.88 -0.05 0.68
-9.87 -0.25 0.68
-9.86 -0.45 0.67
-9.85 -0.64 0.67
-9.84 -0.84 0.67
-9.83 -1.04 0.67
-9.82 -1.24 0.68
-9.81 -1.44 0.68
-9.80 -1.64 0.68
-9.78 -1.84 0.68
-9.77 -2.04 0.68
-9.76 -2.24 0.68
-9.75 -2.45 0.68
-9.74 -2.65 0.69
-9.73 -2.86 0.69
-9.67 -3.06 0.69
-9.71 -3.28 0.70
-9.69 -3.50 0.70
-6.14 -2.36 0.45
-6.13 -2.49 0.45
-6.12 -2.64 0.45
-9.65 -4.38 0.72
-9.63 -4.61 0.73
-9.62 -4.85 0.73
-9.61 -5.08 0.74
-9.59 -5.33 0.75
-9.58 -5.57 0.75
-9.57 -5.83 0.76
-9.55 -6.08 0.77
-9.54 -6.35 0.78
-9.52 -6.62 0.79
-9.49 -7.18 0.81
-9.48 -7.47 0.82
-9.46 -7.77 0.84
-9.45 -8.08 0.85
-9.43 -8.40 0.86
-9.41 -8.72 0.88
-7.60 -7.33 0.72
-7.44 -7.48 0.72
-9.35 -9.78 0.93
-9.33 -10.16 0.95
-9.31 -10.55 0.97
-9.24 -10.91 0.98
-9.26 -11.39 1.01
-9.24 -11.84 1.03
-9.22 -12.31 1.06
-9.19 -12.80 1.08
-9.16 -13.32 1.11
-9.13 -13.86 1.14
-9.10 -14.44 1.18
-9.00 -14.95 1.21
-9.03 -15.69 1.25
-8.99 -16.38 1.29
-8.95 -17.11 1.34
-8.91 -17.90 1.39
-8.87 -18.74 1.44
-8.82 -19.65 1.50
-8.76 -20.63 1.56
-8.71 -21.69 1.63
-8.64 -22.85 1.70
-8.57 -24.12 1.79
-8.50 -25.52 1.88
-5.82 -18.73 1.37
-8.32 -28.79 2.10
-7.55 -28.23 2.05
-8.14 -33.07 2.39
-7.28 -32.37 2.33
-6.79 -33.29 2.39
-6.11 -33.38 2.39
-5.43 -33.45 2.39
-4.75 -33.51 2.39
-4.20 -34.64 2.47
-3.54 -35.04 2.49
-2.83 -35.06 2.49
-2.13 -35.06 2.49
-1.42 -35.05 2.49
-0.72 -35.02 2.49
-0.01 -26.54 2.49
0.52 -26.51 2.49
1.05 -26.46 2.49
1.58 -26.41 2.49
2.11 -26.34 2.49
2.63 -26.27 2.49
3.16 -26.18 2.49
3.52 -25.01 2.39
4.02 -24.90 2.39
4.52 -24.79 2.39
5.01 -24.67 2.39
5.49 -24.54 2.39
5.98 -24.39 2.39
6.46 -24.24 2.39
4.88 -16.94 1.68
5.29 -17.05 1.71
7.70 -23.17 2.33
8.18 -23.06 2.34
6.42 -17.01 1.74
6.68 -16.67 1.72
7.05 -16.63 1.74
9.66 -21.57 2.27
10.00 -21.19 2.26
10.33 -20.80 2.24
10.65 -20.40 2.22
10.96 -20.00 2.20
11.27 -19.61 2.19
11.57 -19.24 2.17
11.87 -18.86 2.16
12.17 -18.52 2.15
7.10 -10.34 1.22
7.10 -9.90 1.18
7.09 -9.48 1.15
7.15 -9.18 1.13
7.06 -8.70 1.09
7.00 -8.28 1.06
6.97 -7.92 1.03
6.95 -7.58 1.01
7.04 -7.38 1.00
7.12 -7.16 0.99
7.43 -7.18 1.01
6.89 -6.39 0.92
6.86 -6.11 0.90
6.76 -5.79 0.88
6.87 -5.65 0.88
6.99 -5.52 0.88
7.12 -5.39 0.88
6.78 -4.92 0.83
6.70 -4.66 0.81
6.69 -4.46 0.80
6.69 -4.26 0.79
6.68 -4.07 0.78
6.67 -3.89 0.77
6.77 -3.76 0.77
6.83 -3.62 0.77
7.17 -3.62 0.80
12.39 -5.94 1.37
6.70 -3.05 0.73
6.69 -2.88 0.73
2.31 -0.94 0.25
2.34 -0.90 0.25
6.59 -2.38 0.70
6.52 -2.21 0.69
6.54 -2.07 0.69
6.57 -1.93 0.69
6.56 -1.79 0.68
6.55 -1.65 0.68
6.52 -1.50 0.67
6.52 -1.36 0.67
6.51 -1.22 0.67
6.47 -1.08 0.66
6.64 -0.97 0.67
6.67 -0.84 0.68
11.13 -1.18 1.13
12.02 -1.03 1.22
12.64 -0.83 1.28
15.20 -0.69 1.53
19.03 -0.48 1.92
6.63 -0.03 0.67
6.54 0.10 0.66
6.53 0.23 0.66
6.50 0.36 0.66
6.53 0.49 0.66
6.50 0.62 0.66
6.49 0.75 0.66
6.66 0.91 0.68
7.42 1.16 0.76
7.42 1.32 0.76
7.38 1.46 0.76
7.36 1.61 0.76
7.39 1.78 0.77
7.39 1.93 0.77
7.37 2.09 0.78
7.54 2.30 0.80
23.41 7.66 2.49
23.25 8.12 2.49
23.08 8.59 2.49
22.90 9.05 2.49
22.71 9.51 2.49
22.52 9.96 2.49
22.31 10.41 2.49
22.10 10.86 2.49
21.88 11.30 2.49
21.65 11.74 2.49
10.15 5.77 1.18
21.17 12.60 2.49
20.91 13.03 2.49
20.65 13.45 2.49
20.38 13.86 2.49
20.10 14.27 2.49
19.82 14.68 2.49
19.11 14.76 2.44
18.43 14.83 2.39
18.13 15.20 2.39
17.83 15.57 2.39
17.52 15.93 2.39
17.20 16.28 2.39
16.88 16.63 2.39
16.55 16.97 2.39
16.21 17.31 2.39
15.86 17.64 2.39
15.51 17.96 2.39
15.16 18.28 2.39
15.08 18.95 2.44
14.57 19.09 2.42
14.15 19.32 2.41
13.76 19.61 2.41
13.37 19.89 2.41
12.98 20.17 2.41
12.58 20.44 2.41
12.17 20.70 2.41
11.76 20.95 2.41
7.83 14.62 1.66
10.80 21.18 2.38
10.31 21.26 2.36
9.82 21.34 2.35
9.31 21.36 2.33
8.83 21.42 2.31
8.35 21.47 2.30
7.95 21.73 2.30
7.67 22.33 2.35
7.37 22.95 2.40
6.94 23.21 2.41
6.48 23.37 2.41
6.02 23.51 2.41
5.55 23.65 2.41
5.08 23.78 2.41
4.57 23.73 2.39
4.10 23.84 2.39
3.62 23.94 2.39
3.14 24.03 2.39
2.66 24.11 2.39
2.18 24.19 2.39
1.70 24.25 2.39
1.21 24.30 2.39
0.72 24.34 2.39
0.24 25.43 2.49
-0.27 25.45 2.49
-0.78 25.47 2.49
-1.29 25.48 2.49
-1.80 25.47 2.49
-2.32 25.46 2.49
-2.83 25.43 2.49
-3.35 25.40 2.49
-3.86 25.35 2.49
-4.37 25.29 2.49
-4.88 25.23 2.49
-5.39 25.15 2.49
-5.90 25.07 2.49
-6.41 24.97 2.49
-6.92 24.86 2.49
-7.41 24.70 2.49
-7.60 23.60 2.39
-8.08 23.47 2.39
-8.56 23.33 2.39
-9.04 23.18 2.39
-7.05 17.06 1.77
-7.31 16.72 1.75
-10.45 22.67 2.39
-10.92 22.48 2.39
-8.44 15.73 1.70
-10.92 19.41 2.12
-10.89 18.48 2.04
-10.84 17.58 1.97
-10.79 16.74 1.89
-10.75 15.97 1.83
-10.71 15.24 1.77
-10.68 14.56 1.71
-10.64 13.91 1.66
-10.61 13.31 1.61
-10.58 12.74 1.56
-10.55 12.19 1.52
-10.52 11.68 1.48
-10.49 11.19 1.44
-10.47 10.72 1.41
-10.44 10.28 1.38
-10.42 9.85 1.35
-10.40 9.44 1.32
-10.30 8.98 1.28
-10.36 8.67 1.26
-10.34 8.31 1.24
-10.32 7.96 1.22
-10.30 7.62 1.19
-10.28 7.29 1.17
-10.26 6.97 1.16
-10.25 6.67 1.14
-10.23 6.37 1.12
-10.21 6.08 1.10
-10.20 5.79 1.09
-10.18 5.52 1.07
-10.17 5.25 1.06
-10.09 4.95 1.04
-10.14 4.73 1.03
-10.13 4.48 1.02
-10.11 4.23 1.01
-10.10 3.99 1.00
-10.09 3.75 0.99
-10.08 3.52 0.98
-10.06 3.29 0.97
-10.05 3.06 0.97
-10.04 2.84 0.96
-10.03 2.62 0.95
-10.01 2.40 0.94
-10.00 2.19 0.94
-9.99 1.98 0.93
-9.98 1.77 0.93
-9.97 1.56 0.92
-9.96 1.36 0.92
-9.95 1.15 0.92
-9.88 0.94 0.91
-9.92 0.75 0.91
-9.91 0.55 0.91
-9.90 0.35 0.90
-9.89 0.15 0.90
-9.88 -0.05 0.90
-9.87 -0.25 0.90
-9.86 -0.45 0.90
-9.85 -0.64 0.90
-9.84 -0.84 0.90
-9.83 -1.04 0.90
-9.82 -1.24 0.90
-9.81 -1.44 0.90
-9.80 -1.64 0.90
-9.78 -1.84 0.90
-9.77 -2.04 0.91
-9.76 -2.24 0.91
-9.75 -2.45 0.91
-9.74 -2.65 0.92
-9.73 -2.86 0.92
-9.67 -3.06 0.92
-9.71 -3.28 0.93
-9.69 -3.50 0.93
-6.14 -2.36 0.60
-9.67 -3.93 0.95
-9.66 -4.16 0.95
-9.65 -4.38 0.96
-9.63 -4.61 0.97
-9.62 -4.85 0.98
-9.61 -5.08 0.99
-9.59 -5.33 1.00
-9.58 -5.57 1.01
-9.57 -5.83 1.02
-9.55 -6.08 1.03
-9.54 -6.35 1.04
-9.52 -6.62 1.05
-9.49 -7.18 1.08
-9.48 -7.47 1.10
-9.46 -7.77 1.11
-9.45 -8.08 1.13
-9.43 -8.40 1.15
-7.83 -7.26 0.97
-7.53 -7.27 0.95
-7.38 -7.41 0.95
-7.36 -7.70 0.97
-9.33 -10.16 1.26
-9.31 -10.55 1.28
-9.24 -10.91 1.31
-9.27 -11.39 1.34
-9.24 -11.84 1.37
-9.22 -12.31 1.41
-9.19 -12.80 1.44
-9.16 -13.32 1.48
-9.13 -13.86 1.52
-9.10 -14.44 1.56
-9.00 -14.94 1.60
-9.03 -15.69 1.66
-8.99 -16.38 1.72
-8.95 -17.11 1.78
-8.91 -17.90 1.84
-8.87 -18.74 1.91
-8.82 -19.64 1.98
-8.76 -20.62 2.07
-8.66 -21.56 2.14
-8.66 -22.88 2.26
-8.66 -24.37 2.39
-8.17 -24.51 2.39
-5.82 -18.73 1.82
-7.16 -24.78 2.39
-6.66 -24.89 2.39
-6.15 -25.00 2.39
-5.64 -25.09 2.39
-5.13 -25.18 2.39
-4.70 -25.65 2.43
-4.29 -26.41 2.49
-3.76 -26.46 2.49
-3.22 -26.51 2.49
-2.68 -26.54 2.49
-2.15 -26.56 2.49
-1.61 -26.57 2.49
-1.08 -26.57 2.49
-0.55 -26.56 2.49
-0.01 -21.36 2.49
0.42 -21.34 2.49
0.84 -21.31 2.49
1.27 -21.27 2.49
1.70 -21.22 2.49
2.12 -21.17 2.49
2.54 -21.10 2.49
2.96 -21.03 2.49
3.26 -20.19 2.40
3.64 -19.99 2.39
4.04 -19.90 2.39
4.43 -19.80 2.39
4.82 -19.69 2.39
5.21 -19.57 2.39
4.88 -16.94 2.08
5.29 -17.09 2.12
6.36 -19.17 2.39
6.74 -19.02 2.39
6.42 -17.01 2.16
6.67 -16.67 2.13
7.05 -16.63 2.15
8.04 -17.95 2.34
8.34 -17.66 2.33
8.71 -17.53 2.33
9.15 -17.52 2.36
6.14 -11.21 1.53
10.01 -17.43 2.40
9.72 -16.17 2.26
9.98 -15.87 2.24
10.24 -15.57 2.23
7.15 -10.42 1.52
7.10 -9.91 1.46
7.07 -9.46 1.42
7.15 -9.18 1.40
7.05 -8.69 1.35
7.01 -8.29 1.31
6.99 -7.94 1.27
6.95 -7.58 1.24
7.05 -7.38 1.23
7.10 -7.14 1.22
7.45 -7.20 1.25
6.87 -6.38 1.13
6.85 -6.10 1.11
6.76 -5.79 1.08
6.83 -5.62 1.07
6.90 -5.44 1.07
7.13 -5.39 1.09
6.72 -4.88 1.01
6.67 -4.64 0.99
6.66 -4.44 0.97
6.63 -4.23 0.96
6.62 -4.04 0.95
6.60 -3.85 0.93
6.64 -3.69 0.93
6.77 -3.59 0.94
6.89 -3.47 0.94
7.32 -3.51 0.99
6.70 -3.05 0.90
6.60 -2.85 0.88
2.31 -0.94 0.31
2.34 -0.90 0.31
6.52 -2.35 0.85
6.44 -2.18 0.83
6.50 -2.06 0.84
6.49 -1.91 0.83
6.51 -1.78 0.83
6.51 -1.64 0.83
6.50 -1.50 0.82
6.50 -1.36 0.82
6.49 -1.22 0.81
6.47 -1.08 0.81
6.54 -0.96 0.82
6.54 -0.83 0.81
6.61 -0.70 0.82
6.75 -0.58 0.84
12.64 -0.83 1.56
15.19 -0.69 1.88
18.84 -0.48 2.33
6.64 -0.03 0.82
6.49 0.10 0.80
6.48 0.23 0.80
6.48 0.36 0.80
6.48 0.49 0.80
6.49 0.62 0.81
6.50 0.75 0.81
6.53 0.89 0.82
6.76 1.06 0.85
7.37 1.31 0.93
7.32 1.45 0.93
7.34 1.61 0.93
7.32 1.76 0.93
7.32 1.91 0.94
7.28 2.06 0.94
7.31 2.23 0.95
7.64 2.50 1.00
18.19 6.36 2.39
18.84 7.01 2.49
18.69 7.39 2.49
18.54 7.76 2.49
18.38 8.13 2.49
18.21 8.50 2.49
18.04 8.86 2.49
17.86 9.22 2.49
17.67 9.58 2.49
10.15 5.77 1.45
17.28 10.29 2.49
17.07 10.63 2.49
16.85 10.98 2.49
16.63 11.31 2.49
16.40 11.65 2.49
16.17 11.98 2.49
15.93 12.30 2.49
15.68 12.62 2.49
15.43 12.94 2.49
15.17 13.25 2.49
14.91 13.55 2.49
14.64 13.86 2.49
14.36 14.15 2.49
14.08 14.44 2.49
13.53 14.45 2.45
12.97 14.43 2.40
12.65 14.65 2.39
12.36 14.91 2.39
12.06 15.16 2.39
11.76 15.40 2.39
11.45 15.64 2.39
11.14 15.88 2.39
10.80 16.06 2.38
10.45 16.24 2.38
10.18 16.54 2.39
9.85 16.75 2.39
9.52 16.96 2.39
7.82 14.62 2.04
8.84 17.34 2.39
8.49 17.53 2.39
8.14 17.70 2.39
7.79 17.87 2.39
7.44 18.04 2.39
7.27 18.68 2.45
6.84 18.69 2.44
6.42 18.69 2.42
6.02 18.75 2.41
5.65 18.88 2.41
5.23 18.88 2.39
4.86 18.99 2.39
4.48 19.10 2.39
4.10 19.20 2.39
3.71 19.29 2.39
3.33 19.38 2.39
2.94 19.45 2.39
2.55 19.52 2.39
2.16 19.59 2.39
1.77 19.64 2.39
1.37 19.69 2.39
0.98 19.73 2.39
0.61 20.61 2.49
0.20 20.63 2.49
-0.22 20.65 2.49
-0.63 20.66 2.49
-1.05 20.66 2.49
-1.47 20.65 2.49
-1.88 20.64 2.49
-2.30 20.61 2.49
-2.71 20.58 2.49
-3.13 20.54 2.49
-3.54 20.49 2.49
-3.96 20.43 2.49
-4.37 20.37 2.49
-4.78 20.29 2.49
-5.19 20.21 2.49
-5.60 20.12 2.49
-6.01 20.02 2.49
-6.42 19.91 2.49
-6.82 19.80 2.49
-7.13 19.42 2.46
-7.31 18.74 2.39
-7.69 18.60 2.39
-7.01 16.04 2.08
-6.94 15.05 1.96
-6.89 14.19 1.87
-6.84 13.40 1.78
-7.11 13.25 1.78
-9.92 17.64 2.39
-10.29 17.45 2.39
-10.64 17.26 2.39
-11.00 17.05 2.39
-10.65 15.15 2.18
-10.66 14.53 2.12
-10.64 13.91 2.06
-10.61 13.30 2.00
-10.58 12.73 1.94
-10.55 12.19 1.89
-10.52 11.68 1.84
-10.49 11.19 1.79
-10.47 10.72 1.75
-10.44 10.28 1.71
-10.42 9.85 1.67
-10.40 9.44 1.64
-10.30 8.98 1.59
-10.36 8.67 1.57
-10.34 8.31 1.54
-10.32 7.96 1.51
-10.30 7.62 1.49
-10.28 7.29 1.46
-10.26 6.97 1.44
-10.25 6.66 1.42
-10.23 6.36 1.39
-10.21 6.07 1.37
-10.20 5.79 1.35
-10.18 5.52 1.34
-10.17 5.25 1.32
-10.09 4.95 1.30
-10.14 4.73 1.29
-10.13 4.48 1.27
-10.11 4.23 1.26
-10.10 3.99 1.25
-10.09 3.75 1.24
-10.08 3.52 1.23
-10.06 3.29 1.21
-10.05 3.06 1.20
-10.04 2.84 1.20
-10.03 2.62 1.19
-10.01 2.40 1.18
-10.00 2.19 1.17
-9.99 1.98 1.16
-9.98 1.77 1.16
-9.97 1.56 1.15
-9.96 1.35 1.15
-9.95 1.15 1.14
-9.88 0.94 1.13
-9.92 0.75 1.14
-9.91 0.55 1.13
-9.90 0.35 1.13
-9.89 0.15 1.13
-9.88 -0.05 1.13
-9.87 -0.25 1.12
-9.86 -0.45 1.12
-9.85 -0.65 1.12
-9.84 -0.84 1.12
-9.83 -1.04 1.12
-9.82 -1.24 1.12
-9.81 -1.44 1.13
-9.80 -1.64 1.13
-9.78 -1.84 1.13
-9.77 -2.04 1.13
-9.76 -2.24 1.14
-9.75 -2.45 1.14
-9.74 -2.65 1.15
-9.73 -2.86 1.15
-9.67 -3.06 1.15
-9.71 -3.28 1.16
-9.69 -3.50 1.17
-6.14 -2.36 0.75
-9.67 -3.93 1.18
-9.66 -4.16 1.19
-9.65 -4.38 1.20
-9.63 -4.61 1.21
-9.62 -4.85 1.22
-9.61 -5.08 1.23
-9.59 -5.33 1.25
-9.58 -5.57 1.26
-9.57 -5.83 1.27
-9.55 -6.08 1.29
-9.54 -6.35 1.30
-9.52 -6.62 1.32
-9.49 -7.18 1.35
-9.48 -7.47 1.37
-9.46 -7.77 1.39
-9.45 -8.08 1.41
-9.43 -8.39 1.44
-7.87 -7.30 1.22
-7.53 -7.27 1.19
-7.38 -7.41 1.19
-7.36 -7.69 1.21
-9.33 -10.16 1.57
-9.31 -10.55 1.60
-9.24 -10.91 1.63
-9.27 -11.39 1.68
-9.24 -11.84 1.71
-9.22 -12.31 1.76
-9.19 -12.80 1.80
-9.16 -13.32 1.85
-9.13 -13.86 1.90
-9.10 -14.44 1.95
-9.01 -14.94 2.00
-9.03 -15.69 2.07
-8.96 -16.31 2.13
-8.91 -17.03 2.20
-8.91 -18.82 2.39
-8.52 -18.98 2.39
-8.13 -19.14 2.39
-7.74 -19.28 2.39
-7.35 -19.42 2.39
-6.95 -19.55 2.39
-6.56 -19.67 2.39
-5.83 -18.73 2.26
-5.75 -19.89 2.39
-5.35 -19.99 2.39
-4.99 -20.28 2.41
-4.73 -21.03 2.49
-4.31 -21.10 2.49
-3.88 -21.17 2.49
-3.45 -21.23 2.49
-3.02 -21.27 2.49
-2.59 -21.31 2.49
-2.16 -21.34 2.49
-1.73 -21.37 2.49
-1.30 -21.38 2.49
-0.87 -21.38 2.49
-0.44 -21.38 2.49
-0.01 -17.86 2.49
0.35 -17.85 2.49
0.70 -17.82 2.49
1.06 -17.79 2.49
1.42 -17.75 2.49
1.77 -17.71 2.49
2.12 -17.66 2.49
2.48 -17.60 2.49
2.83 -17.53 2.49
3.04 -16.74 2.39
3.38 -16.66 2.39
3.71 -16.58 2.39
4.04 -16.49 2.39
4.36 -16.39 2.39
4.69 -16.29 2.39
5.01 -16.18 2.39
5.33 -16.06 2.39
5.65 -15.94 2.39
5.96 -15.81 2.39
6.27 -15.67 2.39
6.58 -15.53 2.39
6.87 -15.36 2.39
7.14 -15.12 2.37
7.39 -14.89 2.36
7.65 -14.65 2.35
6.08 -11.10 1.80
6.38 -11.11 1.82
8.37 -13.92 2.31
8.60 -13.67 2.30
8.82 -13.42 2.29
7.10 -10.35 1.79
7.12 -9.94 1.75
7.10 -9.51 1.70
7.15 -9.18 1.66
7.09 -8.73 1.61
7.02 -8.30 1.56
7.00 -7.94 1.52
6.95 -7.58 1.48
6.99 -7.32 1.45
7.04 -7.09 1.44
7.02 -6.79 1.41
6.88 -6.39 1.35
6.87 -6.12 1.33
6.77 -5.80 1.28
6.80 -5.60 1.27
6.90 -5.45 1.27
7.09 -5.36 1.28
6.71 -4.87 1.20
6.67 -4.64 1.17
6.65 -4.43 1.16
6.63 -4.23 1.14
6.63 -4.04 1.12
6.61 -3.85 1.11
6.61 -3.67 1.10
6.67 -3.53 1.09
6.88 -3.47 1.12
11.21 -5.37 1.81
6.71 -3.05 1.07
6.57 -2.83 1.04
2.31 -0.94 0.36
2.34 -0.90 0.36
6.49 -2.35 1.01
6.47 -2.19 1.00
6.49 -2.05 0.99
6.47 -1.91 0.98
6.47 -1.77 0.98
6.46 -1.63 0.97
6.46 -1.49 0.97
6.45 -1.35 0.96
6.43 -1.21 0.96
6.45 -1.08 0.96
6.52 -0.96 0.96
6.52 -0.82 0.96
6.51 -0.69 0.96
6.51 -0.56 0.96
12.63 -0.83 1.85
15.18 -0.69 2.23
16.35 -0.42 2.40
6.55 -0.03 0.96
6.47 0.10 0.95
6.47 0.23 0.95
6.46 0.36 0.95
6.44 0.48 0.95
6.44 0.61 0.95
6.42 0.74 0.95
6.44 0.88 0.95
6.51 1.02 0.97
7.36 1.30 1.10
7.32 1.45 1.10
7.33 1.61 1.10
7.32 1.76 1.11
7.33 1.92 1.11
7.27 2.06 1.11
7.32 2.23 1.13
7.39 2.42 1.14
15.35 5.36 2.39
15.24 5.67 2.39
15.12 5.98 2.39
15.00 6.28 2.39
15.51 6.86 2.49
15.37 7.17 2.49
15.22 7.48 2.49
15.07 7.79 2.49
14.91 8.09 2.49
10.15 5.77 1.72
14.58 8.68 2.49
14.40 8.97 2.49
14.22 9.26 2.49
14.04 9.55 2.49
13.84 9.83 2.49
13.65 10.11 2.49
13.44 10.38 2.49
13.23 10.65 2.49
13.02 10.92 2.49
12.80 11.18 2.49
12.58 11.44 2.49
12.35 11.69 2.49
12.11 11.94 2.49
11.87 12.18 2.49
11.63 12.42 2.49
11.38 12.66 2.49
11.13 12.89 2.49
10.87 13.11 2.49
10.61 13.33 2.49
10.34 13.55 2.49
10.07 13.76 2.49
9.80 13.96 2.49
9.52 14.16 2.49
9.14 14.21 2.47
8.74 14.20 2.43
8.34 14.19 2.40
8.02 14.29 2.39
7.74 14.46 2.39
7.45 14.62 2.39
7.16 14.77 2.39
6.86 14.92 2.39
6.56 15.06 2.39
6.26 15.20 2.39
5.96 15.33 2.39
5.65 15.45 2.39
5.35 15.57 2.39
5.03 15.68 2.39
4.72 15.79 2.39
4.41 15.89 2.39
4.09 15.99 2.39
3.77 16.08 2.39
3.45 16.16 2.39
3.12 16.23 2.39
2.80 16.30 2.39
2.47 16.37 2.39
2.17 16.64 2.42
1.88 17.02 2.47
1.55 17.23 2.49
1.20 17.27 2.49
0.86 17.30 2.49
0.51 17.33 2.49
0.16 17.35 2.49
-0.19 17.36 2.49
-0.54 17.36 2.49
-0.88 17.36 2.49
-1.23 17.35 2.49
-1.58 17.34 2.49
-1.93 17.31 2.49
-2.28 17.28 2.49
-2.63 17.25 2.49
-2.98 17.20 2.49
-3.32 17.15 2.49
-3.67 17.09 2.49
-4.02 17.03 2.49
-4.36 16.96 2.49
-4.70 16.88 2.49
-5.05 16.80 2.49
-5.39 16.70 2.49
-5.72 16.60 2.49
-6.06 16.50 2.49
-6.40 16.39 2.49
-6.73 16.27 2.49
-6.94 15.86 2.45
-7.08 15.35 2.39
-7.39 15.21 2.39
-7.70 15.07 2.39
-6.80 12.66 2.03
-6.78 12.06 1.95
-6.75 11.44 1.87
-6.70 10.86 1.80
-9.21 14.28 2.39
-9.50 14.10 2.39
-9.79 13.92 2.39
-10.07 13.73 2.39
-10.36 13.53 2.39
-10.63 13.33 2.39
-10.46 11.61 2.19
-10.45 11.14 2.14
-10.47 10.72 2.09
-10.44 10.27 2.04
-10.42 9.85 2.00
-10.40 9.44 1.96
-10.30 8.98 1.90
-10.36 8.67 1.88
-10.34 8.30 1.84
-10.32 7.95 1.81
-10.30 7.62 1.78
-10.28 7.29 1.75
-10.26 6.97 1.72
-10.25 6.66 1.69
-10.23 6.36 1.67
-10.21 6.07 1.65
-10.20 5.79 1.62
-10.18 5.51 1.60
-10.17 5.25 1.58
-10.09 4.95 1.55
-10.14 4.73 1.54
-10.13 4.47 1.53
-10.11 4.23 1.51
-10.10 3.99 1.50
-10.09 3.75 1.48
-10.08 3.52 1.47
-10.06 3.29 1.46
-10.05 3.06 1.45
-10.04 2.84 1.43
-10.03 2.62 1.42
-10.01 2.40 1.41
-10.00 2.19 1.41
-9.99 1.98 1.40
-9.98 1.77 1.39
-9.97 1.56 1.38
-9.96 1.35 1.38
-9.95 1.15 1.37
-9.88 0.94 1.36
-9.92 0.75 1.36
-9.91 0.54 1.36
-9.90 0.35 1.36
-9.89 0.15 1.35
-9.88 -0.05 1.35
-9.87 -0.25 1.35
-9.86 -0.45 1.35
-9.85 -0.65 1.35
-9.84 -0.84 1.35
-9.83 -1.04 1.35
-9.82 -1.24 1.35
-9.81 -1.44 1.35
-9.80 -1.64 1.36
-9.78 -1.84 1.36
-9.77 -2.04 1.36
-9.76 -2.24 1.37
-9.75 -2.45 1.37
-9.74 -2.65 1.38
-9.73 -2.86 1.38
-9.68 -3.06 1.38
-9.71 -3.28 1.40
-9.69 -3.50 1.41
-6.14 -2.36 0.90
-9.67 -3.93 1.42
-9.66 -4.16 1.43
-9.65 -4.38 1.44
-9.63 -4.61 1.46
-9.62 -4.85 1.47
-9.61 -5.08 1.48
-9.59 -5.33 1.50
-9.58 -5.57 1.51
-9.57 -5.83 1.53
-9.55 -6.08 1.55
-9.54 -6.35 1.56
-9.52 -6.62 1.58
-9.49 -7.18 1.62
-9.48 -7.47 1.65
-9.46 -7.77 1.67
-9.45 -8.08 1.70
-9.43 -8.39 1.72
-7.88 -7.30 1.47
-7.53 -7.27 1.43
-7.38 -7.41 1.43
-7.36 -7.69 1.46
-9.33 -10.16 1.89
-9.31 -10.55 1.93
-9.24 -10.91 1.96
-9.27 -11.39 2.01
-9.24 -11.84 2.06
-9.22 -12.31 2.11
-9.14 -12.73 2.15
-9.12 -13.26 2.21
-9.29 -14.73 2.39
-8.98 -14.91 2.39
-8.68 -15.08 2.39
-8.37 -15.24 2.39
-8.06 -15.40 2.39
-7.75 -15.55 2.39
-7.43 -15.69 2.39
-7.11 -15.83 2.39
-6.79 -15.96 2.39
-6.46 -16.08 2.39
-6.13 -16.20 2.39
-5.80 -16.31 2.39
-5.47 -16.41 2.39
-5.19 -16.67 2.41
-5.01 -17.32 2.49
-4.66 -17.40 2.49
-4.31 -17.48 2.49
-3.95 -17.56 2.49
-3.60 -17.62 2.49
-3.24 -17.68 2.49
-2.88 -17.73 2.49
-2.53 -17.77 2.49
-2.17 -17.80 2.49
-1.81 -17.83 2.49
-1.45 -17.85 2.49
-1.09 -17.87 2.49
-0.73 -17.87 2.49
-0.37 -17.87 2.49
-0.01 -15.33 2.49
0.30 -15.32 2.49
0.60 -15.30 2.49
0.91 -15.28 2.49
1.21 -15.25 2.49
1.52 -15.21 2.49
1.82 -15.17 2.49
2.13 -15.12 2.49
2.43 -15.06 2.49
2.73 -15.00 2.49
2.90 -14.32 2.39
3.18 -14.24 2.39
3.47 -14.17 2.39
3.75 -14.09 2.39
4.03 -14.00 2.39
4.31 -13.91 2.39
4.58 -13.81 2.39
4.85 -13.71 2.39
5.12 -13.60 2.39
5.39 -13.48 2.39
5.66 -13.36 2.39
5.92 -13.24 2.39
6.18 -13.11 2.39
6.44 -12.97 2.39
6.69 -12.82 2.39
6.09 -11.12 2.10
6.39 -11.13 2.12
7.34 -12.21 2.36
6.39 -10.16 1.99
6.48 -9.86 1.96
7.19 -10.47 2.11
7.10 -9.92 2.02
7.08 -9.48 1.97
7.15 -9.19 1.93
7.48 -9.21 1.97
7.01 -8.29 1.81
6.99 -7.94 1.76
6.95 -7.58 1.71
7.00 -7.34 1.69
7.14 -7.19 1.69
6.96 -6.73 1.62
6.87 -6.39 1.57
6.88 -6.13 1.54
6.85 -5.87 1.51
6.82 -5.61 1.48
6.85 -5.41 1.46
7.04 -5.33 1.48
6.74 -4.89 1.40
6.67 -4.64 1.36
6.68 -4.45 1.35
6.62 -4.22 1.32
6.63 -4.04 1.30
6.61 -3.85 1.29
6.62 -3.68 1.27
6.67 -3.54 1.27
6.88 -3.47 1.30
7.31 -3.51 1.36
6.73 -3.06 1.25
6.56 -2.83 1.20
2.31 -0.94 0.42
2.34 -0.90 0.42
6.50 -2.35 1.17
6.48 -2.20 1.15
6.48 -2.05 1.15
6.47 -1.91 1.14
6.46 -1.76 1.13
6.47 -1.63 1.13
6.47 -1.49 1.12
6.46 -1.35 1.12
6.43 -1.21 1.11
6.46 -1.08 1.11
6.46 -0.95 1.11
6.52 -0.83 1.11
6.52 -0.69 1.11
6.51 -0.56 1.11
12.63 -0.83 2.15
14.45 -0.66 2.45
14.39 -0.37 2.44
6.56 -0.04 1.11
6.47 0.10 1.10
6.45 0.22 1.10
6.45 0.35 1.10
6.44 0.48 1.10
6.45 0.61 1.10
6.42 0.74 1.10
6.45 0.88 1.11
6.51 1.02 1.12
7.35 1.30 1.27
7.31 1.45 1.27
7.32 1.60 1.28
7.31 1.76 1.28
7.32 1.92 1.29
7.27 2.06 1.29
7.33 2.24 1.30
7.39 2.42 1.32
13.27 4.64 2.39
13.17 4.90 2.39
13.07 5.17 2.39
12.96 5.43 2.39
12.85 5.69 2.39
12.74 5.94 2.39
12.61 6.20 2.39
13.03 6.73 2.49
12.89 6.99 2.49
10.15 5.77 1.99
12.60 7.50 2.49
12.45 7.76 2.49
12.29 8.01 2.49
12.13 8.25 2.49
11.96 8.49 2.49
11.79 8.73 2.49
11.62 8.97 2.49
11.44 9.20 2.49
11.25 9.43 2.49
11.06 9.66 2.49
10.87 9.88 2.49
10.67 10.10 2.49
10.47 10.32 2.49
10.26 10.53 2.49
10.05 10.73 2.49
9.83 10.94 2.49
9.61 11.13 2.49
9.39 11.33 2.49
9.16 11.52 2.49
8.93 11.70 2.49
8.70 11.88 2.49
8.46 12.06 2.49
8.22 12.23 2.49
7.98 12.40 2.49
7.73 12.56 2.49
7.48 12.72 2.49
7.22 12.87 2.49
6.97 13.02 2.49
6.71 13.16 2.49
6.44 13.30 2.49
6.18 13.43 2.49
5.91 13.56 2.49
5.64 13.68 2.49
5.36 13.80 2.49
5.09 13.91 2.49
4.81 14.02 2.49
4.53 14.12 2.49
4.25 14.21 2.49
3.96 14.30 2.49
3.68 14.39 2.49
3.39 14.47 2.49
3.10 14.54 2.49
2.81 14.60 2.49
2.52 14.67 2.49
2.22 14.72 2.49
1.93 14.77 2.49
1.63 14.82 2.49
1.33 14.85 2.49
1.04 14.89 2.49
0.74 14.91 2.49
0.44 14.93 2.49
0.14 14.95 2.49
-0.16 14.96 2.49
-0.46 14.96 2.49
-0.76 14.96 2.49
-1.06 14.95 2.49
-1.36 14.93 2.49
-1.67 14.91 2.49
-1.97 14.88 2.49
-2.27 14.85 2.49
-2.57 14.81 2.49
-2.86 14.77 2.49
-3.16 14.72 2.49
-3.46 14.66 2.49
-3.75 14.60 2.49
-4.05 14.53 2.49
-4.34 14.45 2.49
-4.64 14.37 2.49
-4.93 14.28 2.49
-5.22 14.19 2.49
-5.50 14.09 2.49
-5.79 13.99 2.49
-6.07 13.88 2.49
-6.35 13.76 2.49
-6.63 13.64 2.49
-6.80 13.30 2.45
-6.89 12.83 2.39
-7.15 12.70 2.39
-7.05 11.95 2.28
-7.66 12.42 2.39
-6.67 10.34 2.01
-6.67 9.89 1.95
-6.65 9.45 1.89
-6.60 8.99 1.82
-6.59 8.61 1.77
-9.13 11.45 2.39
-9.37 11.27 2.39
-9.60 11.09 2.39
-9.82 10.90 2.39
-10.05 10.71 2.39
-10.27 10.51 2.39
-10.48 10.31 2.39
-10.30 8.98 2.22
-10.30 8.62 2.18
-10.29 8.26 2.14
-10.32 7.95 2.11
-10.30 7.61 2.07
-10.28 7.29 2.04
-10.26 6.97 2.01
-10.25 6.66 1.98
-10.23 6.36 1.95
-10.21 6.07 1.92
-10.20 5.79 1.89
-10.18 5.51 1.87
-10.17 5.24 1.85
-10.09 4.95 1.81
-10.14 4.72 1.80
-10.13 4.47 1.78
-10.11 4.23 1.76
-10.10 3.99 1.75
-10.09 3.75 1.73
-10.08 3.52 1.72
-10.06 3.29 1.70
-10.05 3.06 1.69
-10.04 2.84 1.67
-10.03 2.62 1.66
-10.01 2.40 1.65
-10.00 2.19 1.64
-9.99 1.98 1.63
-9.98 1.77 1.62
-9.97 1.56 1.62
-9.96 1.35 1.61
-9.95 1.15 1.60
-9.88 0.94 1.59
-9.92 0.74 1.59
-9.91 0.54 1.59
-9.90 0.34 1.58
-9.89 0.15 1.58
-9.88 -0.05 1.58
-9.87 -0.25 1.58
-9.86 -0.45 1.58
-9.85 -0.65 1.58
-9.84 -0.84 1.58
-9.83 -1.04 1.58
-9.82 -1.24 1.58
-9.81 -1.44 1.58
-9.80 -1.64 1.58
-9.78 -1.84 1.59
-9.77 -2.04 1.59
-9.76 -2.24 1.60
-9.75 -2.45 1.60
-9.74 -2.65 1.61
-9.73 -2.86 1.62
-9.68 -3.06 1.62
-9.71 -3.28 1.63
-9.69 -3.50 1.64
-6.14 -2.36 1.05
-9.67 -3.93 1.66
-9.66 -4.16 1.68
-9.65 -4.38 1.69
-9.63 -4.61 1.70
-9.62 -4.85 1.72
-9.61 -5.08 1.73
-9.59 -5.33 1.75
-9.58 -5.57 1.77
-9.57 -5.83 1.79
-9.55 -6.08 1.81
-9.54 -6.35 1.83
-9.52 -6.62 1.85
-9.49 -7.18 1.90
-9.48 -7.47 1.93
-9.46 -7.77 1.95
-9.45 -8.07 1.98
-9.43 -8.39 2.02
-7.88 -7.30 1.72
-7.53 -7.27 1.67
-7.38 -7.41 1.67
-7.36 -7.69 1.70
-9.28 -10.10 2.19
-9.24 -10.91 2.29
-9.43 -11.59 2.39
-9.19 -11.78 2.39
-8.95 -11.95 2.39
-8.71 -12.13 2.39
-8.46 -12.29 2.39
-8.21 -12.46 2.39
-7.95 -12.61 2.39
-7.70 -12.77 2.39
-7.44 -12.91 2.39
-7.17 -13.05 2.39
-6.91 -13.19 2.39
-6.64 -13.32 2.39
-6.37 -13.44 2.39
-6.09 -13.56 2.39
-5.82 -13.68 2.39
-5.55 -13.81 2.40
-5.33 -14.07 2.42
-5.19 -14.58 2.49
-4.89 -14.68 2.49
-4.60 -14.77 2.49
-4.30 -14.85 2.49
-4.00 -14.92 2.49
-3.69 -14.99 2.49
-3.39 -15.05 2.49
-3.09 -15.11 2.49
-2.78 -15.16 2.49
-2.47 -15.21 2.49
-2.17 -15.24 2.49
-1.86 -15.27 2.49
-1.55 -15.30 2.49
-1.24 -15.32 2.49
-0.94 -15.33 2.49
-0.63 -15.34 2.49
-0.32 -15.34 2.49
-0.01 -13.42 2.49
0.26 -13.41 2.49
0.53 -13.39 2.49
0.79 -13.37 2.49
1.06 -13.35 2.49
1.33 -13.32 2.49
1.59 -13.28 2.49
1.86 -13.24 2.49
2.12 -13.19 2.49
2.39 -13.14 2.49
2.65 -13.08 2.49
2.79 -12.48 2.39
3.04 -12.41 2.39
3.28 -12.34 2.39
3.53 -12.27 2.39
3.77 -12.19 2.39
4.01 -12.10 2.39
4.25 -12.01 2.39
4.49 -11.92 2.39
4.73 -11.82 2.39
4.96 -11.71 2.39
5.19 -11.60 2.39
5.42 -11.49 2.39
5.64 -11.37 2.39
5.87 -11.25 2.39
6.09 -11.12 2.39
6.31 -10.99 2.39
6.52 -10.86 2.39
6.40 -10.18 2.27
6.37 -9.70 2.19
6.35 -9.25 2.12
6.32 -8.83 2.06
6.30 -8.44 1.99
6.35 -8.15 1.96
6.50 -8.02 1.96
7.01 -8.30 2.06
6.99 -7.95 2.01
6.95 -7.58 1.95
7.00 -7.34 1.93
7.04 -7.09 1.90
7.42 -7.17 1.96
6.87 -6.38 1.78
6.87 -6.13 1.75
6.79 -5.82 1.70
6.86 -5.65 1.69
6.88 -5.43 1.67
7.07 -5.36 1.69
6.77 -4.92 1.60
6.68 -4.65 1.55
6.68 -4.46 1.53
6.66 -4.25 1.51
6.63 -4.05 1.49
6.61 -3.85 1.46
6.63 -3.69 1.45
6.58 -3.49 1.43
6.81 -3.44 1.46
7.11 -3.41 1.51
6.65 -3.03 1.40
6.56 -2.83 1.37
2.31 -0.94 0.48
2.34 -0.90 0.48
6.50 -2.35 1.33
6.49 -2.20 1.32
6.47 -2.05 1.30
6.46 -1.91 1.30
6.46 -1.76 1.29
6.47 -1.63 1.28
6.46 -1.49 1.28
6.45 -1.35 1.27
6.43 -1.21 1.26
6.43 -1.08 1.25
6.46 -0.95 1.26
6.52 -0.83 1.27
6.52 -0.69 1.26
6.51 -0.56 1.26
12.57 -0.83 2.43
12.56 -0.57 2.43
12.55 -0.32 2.42
6.54 -0.04 1.26
6.47 0.09 1.25
6.46 0.22 1.25
6.44 0.35 1.25
6.43 0.48 1.25
6.44 0.61 1.25
6.42 0.74 1.25
6.46 0.88 1.26
6.52 1.02 1.27
7.39 1.31 1.45
7.36 1.46 1.45
7.34 1.61 1.45
7.34 1.76 1.46
7.33 1.92 1.46
7.27 2.06 1.46
7.34 2.24 1.48
7.39 2.42 1.50
11.59 4.05 2.37
11.50 4.28 2.37
11.50 4.54 2.39
11.40 4.77 2.39
11.31 5.00 2.39
11.20 5.23 2.39
11.10 5.45 2.39
10.99 5.67 2.39
10.87 5.89 2.39
10.15 5.77 2.26
11.08 6.60 2.49
10.95 6.82 2.49
10.81 7.04 2.49
10.67 7.26 2.49
10.52 7.47 2.49
10.37 7.68 2.49
10.22 7.89 2.49
10.06 8.10 2.49
9.89 8.30 2.49
9.73 8.50 2.49
9.56 8.69 2.49
9.38 8.88 2.49
9.20 9.07 2.49
9.02 9.26 2.49
8.84 9.44 2.49
8.65 9.62 2.49
8.45 9.79 2.49
8.26 9.96 2.49
8.06 10.13 2.49
7.85 10.29 2.49
7.65 10.45 2.49
7.44 10.60 2.49
7.23 10.76 2.49
7.01 10.90 2.49
6.79 11.04 2.49
6.57 11.18 2.49
6.35 11.32 2.49
6.12 11.45 2.49
5.89 11.57 2.49
5.66 11.69 2.49
5.43 11.81 2.49
5.19 11.92 2.49
4.95 12.02 2.49
4.71 12.13 2.49
4.47 12.22 2.49
4.23 12.32 2.49
3.98 12.40 2.49
3.73 12.49 2.49
3.48 12.56 2.49
3.23 12.64 2.49
2.98 12.71 2.49
2.72 12.77 2.49
2.47 12.83 2.49
2.21 12.88 2.49
1.95 12.93 2.49
1.69 12.97 2.49
1.43 13.01 2.49
1.17 13.04 2.49
0.91 13.07 2.49
0.65 13.09 2.49
0.38 13.11 2.49
0.12 13.12 2.49
-0.14 13.13 2.49
-0.41 13.13 2.49
-0.67 13.13 2.49
-0.94 13.12 2.49
-1.20 13.10 2.49
-1.46 13.08 2.49
-1.73 13.06 2.49
-1.99 13.03 2.49
-2.25 12.99 2.49
-2.51 12.95 2.49
-2.77 12.91 2.49
-3.03 12.86 2.49
-3.29 12.80 2.49
-3.55 12.74 2.49
-3.81 12.67 2.49
-4.07 12.60 2.49
-4.32 12.52 2.49
-4.57 12.44 2.49
-4.82 12.35 2.49
-5.07 12.26 2.49
-5.32 12.16 2.49
-5.57 12.06 2.49
-5.81 11.95 2.49
-6.06 11.84 2.49
-6.30 11.72 2.49
-6.53 11.60 2.49
-6.69 11.34 2.46
-6.71 10.88 2.39
-6.93 10.74 2.39
-7.15 10.61 2.39
-6.82 9.70 2.21
-7.58 10.33 2.39
-6.57 8.59 2.02
-6.57 8.24 1.96
-6.57 7.90 1.91
-6.53 7.54 1.86
-6.50 7.21 1.81
-6.50 6.93 1.77
-6.62 6.78 1.76
-9.17 9.02 2.39
-9.36 8.84 2.39
-9.54 8.65 2.39
-9.72 8.47 2.39
-9.89 8.27 2.39
-10.06 8.08 2.39
-10.22 7.88 2.39
-10.38 7.68 2.39
-10.21 6.35 2.22
-10.16 6.04 2.18
-10.14 5.75 2.15
-10.15 5.49 2.13
-10.17 5.24 2.11
-10.09 4.95 2.07
-10.14 4.72 2.06
-10.13 4.47 2.04
-10.11 4.23 2.02
-10.10 3.98 2.00
-10.09 3.75 1.98
-10.08 3.51 1.96
-10.06 3.28 1.95
-10.05 3.06 1.93
-10.04 2.84 1.92
-10.03 2.62 1.90
-10.01 2.40 1.89
-10.00 2.19 1.88
-9.99 1.98 1.87
-9.98 1.77 1.86
-9.97 1.56 1.85
-9.96 1.35 1.84
-9.95 1.15 1.83
-9.88 0.94 1.82
-9.92 0.74 1.82
-9.91 0.54 1.82
-9.90 0.34 1.81
-9.89 0.15 1.81
-9.88 -0.05 1.81
-9.87 -0.25 1.81
-9.86 -0.45 1.80
-9.85 -0.65 1.80
-9.84 -0.84 1.80
-9.83 -1.04 1.81
-9.82 -1.24 1.81
-9.81 -1.44 1.81
-9.80 -1.64 1.81
-9.78 -1.84 1.82
-9.77 -2.04 1.82
-9.76 -2.24 1.83
-9.75 -2.45 1.84
-9.74 -2.65 1.84
-9.73 -2.86 1.85
-9.68 -3.06 1.85
-9.71 -3.28 1.87
-9.69 -3.50 1.88
-6.14 -2.36 1.20
-9.67 -3.93 1.91
-9.66 -4.16 1.92
-9.65 -4.38 1.93
-9.63 -4.61 1.95
-9.62 -4.85 1.97
-9.61 -5.08 1.98
-9.59 -5.33 2.00
-9.58 -5.57 2.02
-9.57 -5.82 2.05
-9.55 -6.08 2.07
-9.54 -6.35 2.09
-9.52 -6.61 2.12
-9.47 -6.86 2.14
-9.44 -7.13 2.16
-9.42 -7.42 2.19
-7.88 -7.31 1.97
-7.53 -7.27 1.91
-7.38 -7.41 1.91
-7.36 -7.69 1.95
-8.84 -9.62 2.39
-8.64 -9.79 2.39
-8.44 -9.96 2.39
-8.24 -10.13 2.39
-8.03 -10.29 2.39
-7.82 -10.44 2.39
-7.61 -10.59 2.39
-7.39 -10.74 2.39
-7.17 -10.88 2.39
-6.95 -11.02 2.39
-6.72 -11.15 2.39
-6.50 -11.28 2.39
-6.27 -11.41 2.39
-6.04 -11.52 2.39
-5.80 -11.64 2.39
-5.56 -11.75 2.39
-5.43 -12.09 2.44
-5.30 -12.47 2.49
-5.05 -12.57 2.49
-4.79 -12.66 2.49
-4.54 -12.75 2.49
-4.28 -12.83 2.49
-4.02 -12.91 2.49
-3.76 -12.98 2.49
-3.50 -13.05 2.49
-3.23 -13.11 2.49
-2.97 -13.16 2.49
-2.70 -13.21 2.49
-2.43 -13.26 2.49
-2.17 -13.30 2.49
-1.90 -13.33 2.49
-1.63 -13.36 2.49
-1.36 -13.39 2.49
-1.09 -13.40 2.49
-0.82 -13.41 2.49
-0.55 -13.42 2.49
-0.28 -13.42 2.49
-0.01 -11.92 2.49
0.23 -11.91 2.49
0.47 -11.90 2.49
0.70 -11.88 2.49
0.94 -11.86 2.49
1.18 -11.83 2.49
1.42 -11.80 2.49
1.65 -11.76 2.49
1.89 -11.72 2.49
2.12 -11.67 2.49
2.35 -11.62 2.49
2.58 -11.57 2.49
2.70 -11.03 2.39
2.92 -10.97 2.39
3.13 -10.90 2.39
3.35 -10.83 2.39
3.57 -10.76 2.39
3.78 -10.68 2.39
3.99 -10.59 2.39
4.20 -10.51 2.39
4.41 -10.41 2.39
4.61 -10.32 2.39
4.82 -10.22 2.39
5.02 -10.11 2.39
5.22 -10.01 2.39
5.42 -9.89 2.39
5.61 -9.78 2.39
5.80 -9.66 2.39
5.99 -9.54 2.39
6.18 -9.41 2.39
6.35 -9.25 2.38
6.32 -8.84 2.31
6.30 -8.44 2.24
6.28 -8.07 2.18
6.26 -7.72 2.12
6.25 -7.39 2.06
6.23 -7.08 2.01
6.20 -6.77 1.96
6.33 -6.64 1.96
6.46 -6.50 1.96
7.31 -7.07 2.17
6.88 -6.39 2.01
6.87 -6.13 1.97
6.84 -5.86 1.93
6.80 -5.59 1.88
6.90 -5.45 1.88
7.11 -5.38 1.91
6.77 -4.91 1.79
6.67 -4.64 1.74
6.68 -4.45 1.72
6.65 -4.24 1.69
6.57 -4.01 1.65
6.61 -3.85 1.64
6.61 -3.68 1.63
6.62 -3.51 1.61
6.81 -3.44 1.64
7.33 -3.52 1.75
6.59 -3.00 1.56
6.59 -2.84 1.54
2.31 -0.94 0.54
2.34 -0.90 0.54
6.50 -2.35 1.49
6.51 -2.21 1.48
6.50 -2.06 1.47
6.50 -1.92 1.46
6.49 -1.77 1.45
6.47 -1.63 1.44
6.47 -1.49 1.43
6.46 -1.35 1.43
6.43 -1.21 1.41
6.48 -1.09 1.42
6.47 -0.95 1.41
6.46 -0.82 1.41
6.52 -0.69 1.42
6.52 -0.56 1.41
11.10 -0.73 2.41
11.11 -0.51 2.41
11.12 -0.28 2.41
6.56 -0.04 1.42
6.50 0.10 1.41
6.46 0.22 1.40
6.39 0.35 1.38
6.46 0.48 1.40
6.45 0.61 1.40
6.42 0.74 1.40
6.46 0.88 1.41
6.52 1.02 1.43
7.38 1.31 1.63
7.32 1.45 1.62
7.35 1.61 1.63
7.34 1.76 1.64
7.34 1.92 1.64
7.27 2.06 1.64
7.35 2.24 1.67
7.39 2.42 1.69
10.41 3.64 2.39
10.33 3.85 2.39
10.25 4.05 2.39
10.17 4.26 2.39
10.08 4.46 2.39
9.99 4.66 2.39
9.90 4.86 2.39
9.80 5.06 2.39
9.69 5.26 2.39
9.59 5.45 2.39
9.48 5.64 2.39
9.36 5.83 2.39
9.24 6.02 2.39
9.51 6.47 2.49
9.38 6.66 2.49
9.25 6.85 2.49
9.11 7.04 2.49
8.97 7.22 2.49
8.82 7.40 2.49
8.67 7.58 2.49
8.52 7.75 2.49
8.36 7.92 2.49
8.21 8.09 2.49
8.04 8.25 2.49
7.88 8.42 2.49
7.71 8.57 2.49
7.54 8.73 2.49
7.36 8.88 2.49
7.18 9.03 2.49
7.00 9.17 2.49
6.82 9.32 2.49
6.63 9.45 2.49
6.44 9.59 2.49
6.25 9.72 2.49
6.05 9.84 2.49
5.86 9.97 2.49
5.66 10.09 2.49
5.46 10.20 2.49
5.25 10.31 2.49
5.04 10.42 2.49
4.84 10.52 2.49
4.63 10.62 2.49
4.41 10.71 2.49
4.20 10.80 2.49
3.98 10.89 2.49
3.76 10.97 2.49
3.54 11.05 2.49
3.32 11.12 2.49
3.10 11.19 2.49
2.88 11.26 2.49
2.65 11.32 2.49
2.42 11.37 2.49
2.19 11.42 2.49
1.97 11.47 2.49
1.74 11.51 2.49
1.50 11.55 2.49
1.27 11.58 2.49
1.04 11.61 2.49
0.81 11.64 2.49
0.57 11.66 2.49
0.34 11.67 2.49
0.11 11.68 2.49
-0.13 11.69 2.49
-0.36 11.69 2.49
-0.60 11.68 2.49
-0.83 11.67 2.49
-1.07 11.66 2.49
-1.30 11.64 2.49
-1.54 11.62 2.49
-1.77 11.59 2.49
-2.00 11.56 2.49
-2.24 11.52 2.49
-2.47 11.48 2.49
-2.70 11.44 2.49
-2.93 11.39 2.49
-3.16 11.33 2.49
-3.39 11.27 2.49
-3.62 11.21 2.49
-3.84 11.14 2.49
-4.07 11.06 2.49
-4.29 10.98 2.49
-4.51 10.90 2.49
-4.73 10.81 2.49
-4.95 10.72 2.49
-5.17 10.63 2.49
-5.38 10.53 2.49
-5.60 10.42 2.49
-5.81 10.31 2.49
-6.02 10.20 2.49
-6.22 10.08 2.49
-6.43 9.96 2.49
-6.60 9.79 2.48
-6.58 9.35 2.40
-6.74 9.17 2.39
-6.76 8.83 2.34
-7.11 8.91 2.39
-7.29 8.77 2.39
-6.71 7.74 2.15
-6.50 7.21 2.03
-6.49 6.91 1.99
-6.49 6.65 1.95
-6.48 6.37 1.90
-6.45 6.09 1.85
-6.42 5.83 1.81
-6.42 5.59 1.78
-6.70 5.61 1.83
-8.93 7.17 2.39
-9.08 6.99 2.39
-9.22 6.81 2.39
-9.36 6.63 2.39
-9.49 6.44 2.39
-9.63 6.26 2.39
-9.75 6.06 2.39
-9.88 5.87 2.39
-10.00 5.67 2.39
-10.11 5.47 2.39
-10.23 5.27 2.39
-10.09 4.95 2.34
-10.02 3.49 2.20
-10.00 3.27 2.18
-9.99 3.04 2.16
-9.98 2.82 2.15
-9.98 2.61 2.14
-9.99 2.39 2.13
-10.00 2.19 2.12
-9.99 1.97 2.11
-9.98 1.77 2.10
-9.97 1.56 2.09
-9.96 1.35 2.08
-9.95 1.15 2.07
-9.89 0.94 2.05
-9.92 0.74 2.06
-9.91 0.54 2.05
-9.90 0.34 2.05
-9.89 0.14 2.04
-9.88 -0.05 2.04
-9.87 -0.25 2.04
-9.86 -0.45 2.04
-9.85 -0.65 2.04
-9.84 -0.84 2.04
-9.83 -1.04 2.04
-9.82 -1.24 2.04
-9.81 -1.44 2.04
-9.80 -1.64 2.05
-9.78 -1.84 2.05
-9.77 -2.04 2.06
-9.76 -2.24 2.06
-9.75 -2.45 2.07
-9.74 -2.65 2.08
-9.73 -2.86 2.09
-9.68 -3.06 2.09
-9.71 -3.28 2.11
-9.68 -3.49 2.12
-6.14 -2.36 1.35
-9.62 -3.92 2.14
-9.60 -4.13 2.15
-9.59 -4.36 2.17
-9.58 -4.59 2.19
-9.58 -4.83 2.21
-9.66 -6.43 2.39
-9.53 -6.62 2.39
-9.40 -6.81 2.39
-9.26 -7.00 2.39
-9.11 -7.18 2.39
-8.97 -7.36 2.39
-8.82 -7.54 2.39
-8.66 -7.71 2.39
-8.50 -7.88 2.39
-7.56 -7.29 2.17
-7.40 -7.43 2.16
-8.01 -8.37 2.39
-7.84 -8.53 2.39
-7.66 -8.68 2.39
-7.49 -8.83 2.39
-7.31 -8.98 2.39
-7.12 -9.12 2.39
-6.94 -9.26 2.39
-6.75 -9.39 2.39
-6.56 -9.53 2.39
-6.36 -9.65 2.39
-6.17 -9.77 2.39
-5.97 -9.89 2.39
-5.76 -10.01 2.39
-5.56 -10.12 2.39
-5.50 -10.50 2.46
-5.37 -10.77 2.49
-5.15 -10.87 2.49
-4.93 -10.97 2.49
-4.71 -11.06 2.49
-4.48 -11.15 2.49
-4.26 -11.23 2.49
-4.03 -11.31 2.49
-3.80 -11.39 2.49
-3.57 -11.46 2.49
-3.34 -11.52 2.49
-3.10 -11.58 2.49
-2.87 -11.64 2.49
-2.63 -11.69 2.49
-2.40 -11.73 2.49
-2.16 -11.77 2.49
-1.92 -11.81 2.49
-1.69 -11.84 2.49
-1.45 -11.86 2.49
-1.21 -11.89 2.49
-0.97 -11.90 2.49
-0.73 -11.91 2.49
-0.49 -11.92 2.49
-0.25 -11.92 2.49
-0.01 -10.71 2.49
0.20 -10.70 2.49
0.42 -10.69 2.49
0.63 -10.68 2.49
0.84 -10.66 2.49
1.06 -10.63 2.49
1.27 -10.60 2.49
1.48 -10.57 2.49
1.69 -10.54 2.49
1.90 -10.49 2.49
2.11 -10.45 2.49
2.32 -10.40 2.49
