ply
format ascii 1.0
element vertex 2997
property float32 x
property float32 y
property float32 z
end_header
3.73 -5.24 2.06
3.74 -5.04 2.01
3.75 -4.85 1.96
3.82 -4.74 1.95
3.88 -4.62 1.94
3.95 -4.51 1.92
4.01 -4.40 1.91
4.06 -4.29 1.90
4.15 -4.20 1.90
4.24 -4.14 1.91
4.44 -4.16 1.96
4.64 -4.17 2.01
4.92 -4.25 2.10
5.06 -4.19 2.12
5.11 -4.07 2.12
5.17 -3.95 2.11
5.27 -3.86 2.12
5.36 -3.76 2.13
5.43 -3.65 2.13
5.49 -3.54 2.13
5.58 -3.44 2.13
5.74 -3.38 2.17
5.98 -3.36 2.24
5.56 -2.98 2.06
5.52 -2.82 2.03
5.58 -2.71 2.03
4.63 -2.13 1.67
4.53 -1.98 1.62
4.52 -1.87 1.61
4.46 -1.74 1.58
4.42 -1.62 1.55
4.37 -1.50 1.52
4.36 -1.40 1.51
4.46 -1.34 1.54
4.53 -1.26 1.56
4.66 -1.20 1.59
4.73 -1.11 1.61
5.05 -1.08 1.71
5.17 -1.00 1.75
5.36 -0.93 1.81
5.41 -0.82 1.82
5.38 -0.71 1.81
5.37 -0.60 1.80
5.36 -0.49 1.80
5.36 -0.38 1.80
5.35 -0.27 1.79
5.35 -0.16 1.79
5.35 -0.06 1.80
5.37 0.05 1.81
5.40 0.16 1.82
5.30 0.26 1.79
5.21 0.37 1.76
5.23 0.47 1.77
5.23 0.58 1.78
5.23 0.69 1.78
5.27 0.80 1.80
5.73 0.99 1.97
5.78 1.12 2.00
5.91 1.26 2.05
6.29 1.48 2.19
6.15 1.58 2.16
5.90 1.64 2.09
5.70 1.71 2.03
5.59 1.80 2.00
5.55 1.91 2.00
5.51 2.02 2.00
5.56 2.17 2.04
5.52 2.28 2.04
5.05 2.21 1.89
4.90 2.26 1.85
4.78 2.32 1.82
4.67 2.39 1.80
4.57 2.45 1.79
4.48 2.52 1.77
4.42 2.61 1.77
4.40 2.71 1.78
4.38 2.82 1.80
4.35 2.93 1.81
4.23 2.98 1.79
4.11 3.02 1.76
3.99 3.05 1.74
3.89 3.11 1.72
3.81 3.17 1.72
3.73 3.23 1.71
3.65 3.29 1.71
3.61 3.40 1.72
3.60 3.52 1.75
3.58 3.65 1.78
3.56 3.78 1.81
3.56 3.94 1.85
4.51 5.19 2.39
4.40 5.27 2.39
4.29 5.36 2.39
4.18 5.44 2.39
4.07 5.52 2.39
3.95 5.60 2.39
3.84 5.68 2.39
3.72 5.75 2.39
3.60 5.82 2.39
3.48 5.89 2.39
3.36 5.96 2.39
3.24 6.02 2.39
3.12 6.08 2.39
2.99 6.14 2.39
2.87 6.20 2.39
2.74 6.26 2.39
2.61 6.31 2.39
2.48 6.36 2.39
2.36 6.41 2.39
2.23 6.45 2.39
2.09 6.49 2.39
2.05 6.82 2.50
1.91 6.86 2.50
1.77 6.89 2.50
1.63 6.93 2.50
1.49 6.96 2.50
1.35 6.99 2.50
1.21 7.01 2.50
1.07 7.04 2.50
0.92 7.06 2.50
0.78 7.07 2.50
0.64 7.09 2.50
0.50 7.10 2.50
0.35 7.11 2.50
0.21 7.12 2.50
0.06 7.12 2.50
-0.08 7.12 2.50
-0.22 7.12 2.50
-0.37 7.12 2.50
-0.51 7.11 2.50
-0.65 7.10 2.50
-0.80 7.09 2.50
-0.94 7.07 2.50
-1.08 7.05 2.50
-1.23 7.03 2.50
-1.37 7.01 2.50
-1.51 6.98 2.50
-1.65 6.95 2.50
-1.79 6.92 2.50
-1.93 6.89 2.50
-2.07 6.85 2.50
-2.21 6.81 2.50
-2.35 6.77 2.50
-2.49 6.72 2.50
-2.62 6.68 2.50
-2.76 6.62 2.50
-2.89 6.57 2.50
-3.03 6.52 2.50
-3.16 6.46 2.50
-3.29 6.40 2.50
-3.42 6.33 2.50
-3.55 6.27 2.50
-3.68 6.20 2.50
-3.81 6.13 2.50
-3.93 6.05 2.50
-4.06 5.98 2.50
-4.18 5.90 2.50
-4.30 5.82 2.50
-4.42 5.74 2.50
-4.54 5.65 2.50
-4.65 5.56 2.50
-4.77 5.47 2.50
-4.88 5.38 2.50
-4.99 5.28 2.50
-5.10 5.19 2.50
-5.21 5.09 2.50
-5.32 4.99 2.50
-5.42 4.88 2.50
-5.52 4.78 2.50
-5.62 4.67 2.50
-5.72 4.56 2.50
-5.82 4.45 2.50
-5.91 4.33 2.50
-6.01 4.22 2.50
-6.06 4.08 2.48
-6.07 3.91 2.45
-6.08 3.74 2.42
-6.09 3.58 2.39
-6.16 3.46 2.39
-6.24 3.34 2.39
-6.31 3.22 2.39
-6.38 3.09 2.39
-6.45 2.97 2.39
-6.52 2.84 2.39
-6.58 2.71 2.39
-6.64 2.58 2.39
-6.70 2.45 2.39
-6.75 2.32 2.39
-6.80 2.19 2.39
-6.85 2.05 2.39
-6.90 1.91 2.39
-6.95 1.78 2.39
-6.99 1.64 2.39
-7.03 1.50 2.39
-7.06 1.36 2.39
-7.10 1.22 2.39
-7.13 1.08 2.39
-7.16 0.94 2.39
-7.18 0.79 2.39
-7.20 0.65 2.39
-7.22 0.51 2.39
-7.24 0.36 2.39
-7.25 0.22 2.39
-7.26 0.07 2.39
-7.27 -0.08 2.39
-7.28 -0.22 2.39
-7.28 -0.37 2.39
-7.28 -0.51 2.39
-7.27 -0.66 2.39
-7.27 -0.81 2.39
-7.26 -0.95 2.39
-7.25 -1.10 2.39
-7.23 -1.25 2.39
-7.21 -1.39 2.39
-7.19 -1.54 2.39
-7.16 -1.68 2.39
-7.14 -1.83 2.39
-7.10 -1.97 2.39
-7.07 -2.12 2.39
-7.03 -2.26 2.39
-6.99 -2.40 2.39
-6.95 -2.54 2.39
-6.91 -2.69 2.39
-6.86 -2.83 2.39
-6.81 -2.97 2.39
-6.75 -3.10 2.39
-6.69 -3.24 2.39
-6.63 -3.38 2.39
-6.57 -3.51 2.39
-6.51 -3.65 2.39
-6.44 -3.78 2.39
-6.37 -3.91 2.39
-6.32 -4.06 2.40
-6.32 -4.24 2.43
-6.32 -4.43 2.47
-6.31 -4.61 2.50
-6.22 -4.74 2.50
-6.13 -4.87 2.50
-6.04 -4.99 2.50
-5.94 -5.12 2.50
-5.84 -5.24 2.50
-5.74 -5.36 2.50
-5.64 -5.48 2.50
-5.53 -5.59 2.50
-5.42 -5.70 2.50
-5.31 -5.81 2.50
-5.19 -5.92 2.50
-5.08 -6.03 2.50
-4.96 -6.13 2.50
-4.84 -6.23 2.50
-4.72 -6.33 2.50
-4.59 -6.43 2.50
-4.46 -6.52 2.50
-4.33 -6.61 2.50
-4.20 -6.70 2.50
-4.07 -6.79 2.50
-3.93 -6.87 2.50
-3.80 -6.95 2.50
-3.66 -7.03 2.50
-3.52 -7.10 2.50
-3.38 -7.17 2.50
-3.24 -7.24 2.50
-3.09 -7.30 2.50
-2.95 -7.37 2.50
-2.80 -7.43 2.50
-2.65 -7.48 2.50
-2.50 -7.53 2.50
-2.35 -7.58 2.50
-2.20 -7.63 2.50
-2.05 -7.67 2.50
-1.89 -7.71 2.50
-1.74 -7.75 2.50
-1.58 -7.78 2.50
-1.43 -7.81 2.50
-1.27 -7.84 2.50
-1.11 -7.86 2.50
-0.96 -7.88 2.50
-0.80 -7.90 2.50
-0.64 -7.91 2.50
-0.48 -7.93 2.50
-0.32 -7.93 2.50
-0.17 -7.94 2.50
-0.01 -7.35 2.50
0.14 -7.35 2.50
0.29 -7.34 2.50
0.43 -7.34 2.50
0.58 -7.32 2.50
0.72 -7.31 2.50
0.87 -7.29 2.50
1.01 -7.27 2.50
1.16 -7.24 2.50
1.30 -7.22 2.50
1.45 -7.19 2.50
1.59 -7.15 2.50
1.67 -6.85 2.40
1.79 -6.79 2.39
1.93 -6.75 2.39
2.06 -6.70 2.39
2.19 -6.66 2.39
2.33 -6.61 2.39
2.46 -6.56 2.39
2.58 -6.50 2.39
2.71 -6.45 2.39
2.84 -6.39 2.39
2.96 -6.32 2.39
3.09 -6.26 2.39
3.21 -6.19 2.39
3.33 -6.12 2.39
3.45 -6.05 2.39
3.57 -5.98 2.39
3.68 -5.90 2.39
3.80 -5.82 2.39
3.91 -5.74 2.39
4.02 -5.66 2.39
3.69 -4.98 2.14
3.73 -4.82 2.11
3.79 -4.71 2.09
3.86 -4.60 2.08
3.92 -4.48 2.06
3.98 -4.37 2.05
4.05 -4.27 2.04
4.15 -4.21 2.05
4.25 -4.14 2.06
4.43 -4.15 2.11
4.59 -4.13 2.15
4.91 -4.24 2.26
5.00 -4.14 2.26
5.07 -4.04 2.26
5.16 -3.95 2.27
5.26 -3.86 2.28
5.33 -3.75 2.28
5.28 -3.55 2.23
5.25 -3.38 2.19
5.32 -3.28 2.19
5.43 -3.20 2.21
5.46 -3.07 2.20
5.43 -2.91 2.17
5.45 -2.79 2.16
5.51 -2.68 2.16
4.64 -2.14 1.80
4.58 -2.00 1.77
4.56 -1.89 1.75
4.52 -1.76 1.72
4.47 -1.64 1.69
4.43 -1.53 1.66
4.39 -1.42 1.64
4.48 -1.35 1.66
4.55 -1.27 1.68
4.66 -1.20 1.71
4.73 -1.12 1.73
5.01 -1.08 1.83
4.51 -0.87 1.64
4.50 -0.78 1.63
4.49 -0.69 1.63
4.46 -0.59 1.61
4.48 -0.50 1.62
4.52 -0.41 1.63
4.58 -0.33 1.65
4.65 -0.24 1.68
4.69 -0.15 1.69
4.72 -0.05 1.70
4.75 0.04 1.72
4.74 0.14 1.72
5.13 0.25 1.86
5.03 0.35 1.83
5.01 0.45 1.83
5.05 0.56 1.84
5.07 0.66 1.86
5.08 0.77 1.87
5.09 0.87 1.88
5.66 1.09 2.10
5.74 1.22 2.14
5.85 1.37 2.19
6.08 1.56 2.29
5.84 1.62 2.22
5.57 1.67 2.13
5.52 1.77 2.12
5.48 1.88 2.12
5.42 1.99 2.12
5.22 2.03 2.06
4.96 2.05 1.97
4.80 2.10 1.93
4.68 2.16 1.90
4.58 2.22 1.88
4.50 2.30 1.86
4.43 2.38 1.86
4.37 2.46 1.85
4.33 2.55 1.86
4.31 2.66 1.88
4.29 2.77 1.89
4.27 2.88 1.91
4.20 2.95 1.90
4.07 2.99 1.87
3.95 3.02 1.85
3.86 3.08 1.83
3.79 3.15 1.83
3.73 3.23 1.84
3.66 3.31 1.84
3.64 3.42 1.86
3.62 3.54 1.89
3.61 3.67 1.92
3.59 3.80 1.95
3.59 3.96 2.00
4.20 4.83 2.39
4.10 4.91 2.39
4.00 4.99 2.39
3.90 5.07 2.39
3.79 5.15 2.39
3.68 5.22 2.39
3.58 5.29 2.39
3.47 5.36 2.39
3.36 5.43 2.39
3.25 5.49 2.39
3.13 5.55 2.39
3.02 5.61 2.39
2.91 5.67 2.39
2.79 5.73 2.39
2.67 5.78 2.39
2.56 5.83 2.39
2.44 5.88 2.39
2.32 5.93 2.39
2.20 5.97 2.39
2.07 6.01 2.39
2.04 6.32 2.50
1.91 6.35 2.50
1.78 6.39 2.50
1.65 6.43 2.50
1.52 6.46 2.50
1.39 6.49 2.50
1.26 6.51 2.50
1.13 6.54 2.50
0.99 6.56 2.50
0.86 6.58 2.50
0.73 6.59 2.50
0.60 6.61 2.50
0.46 6.62 2.50
0.33 6.63 2.50
0.19 6.63 2.50
0.06 6.64 2.50
-0.07 6.64 2.50
-0.21 6.64 2.50
-0.34 6.63 2.50
-0.48 6.63 2.50
-0.61 6.62 2.50
-0.74 6.61 2.50
-0.88 6.59 2.50
-1.01 6.57 2.50
-1.14 6.55 2.50
-1.28 6.53 2.50
-1.41 6.51 2.50
-1.54 6.48 2.50
-1.67 6.45 2.50
-1.80 6.42 2.50
-1.93 6.38 2.50
-2.06 6.35 2.50
-2.19 6.31 2.50
-2.32 6.26 2.50
-2.44 6.22 2.50
-2.57 6.17 2.50
-2.70 6.12 2.50
-2.82 6.07 2.50
-2.94 6.02 2.50
-3.07 5.96 2.50
-3.19 5.90 2.50
-3.31 5.84 2.50
-3.43 5.77 2.50
-3.55 5.71 2.50
-3.66 5.64 2.50
-3.78 5.57 2.50
-3.89 5.49 2.50
-4.01 5.42 2.50
-4.12 5.34 2.50
-4.23 5.26 2.50
-4.34 5.18 2.50
-4.44 5.09 2.50
-4.55 5.01 2.50
-4.65 4.92 2.50
-4.75 4.83 2.50
-4.85 4.74 2.50
-4.95 4.64 2.50
-5.05 4.54 2.50
-5.14 4.44 2.50
-5.24 4.34 2.50
-5.33 4.24 2.50
-5.42 4.14 2.50
-5.51 4.03 2.50
-5.59 3.92 2.50
-5.67 3.81 2.50
-5.75 3.70 2.50
-5.83 3.59 2.50
-5.91 3.47 2.50
-5.98 3.36 2.50
-6.06 3.24 2.50
-6.09 3.10 2.48
-6.10 2.95 2.46
-6.10 2.81 2.43
-6.11 2.66 2.41
-6.12 2.52 2.39
-6.18 2.40 2.39
-6.23 2.28 2.39
-6.28 2.15 2.39
-6.33 2.03 2.39
-6.37 1.90 2.39
-6.42 1.78 2.39
-6.46 1.65 2.39
-6.50 1.52 2.39
-6.53 1.39 2.39
-6.57 1.26 2.39
-6.60 1.13 2.39
-6.63 1.00 2.39
-6.65 0.87 2.39
-6.67 0.73 2.39
-6.69 0.60 2.39
-6.71 0.47 2.39
-6.73 0.33 2.39
-6.74 0.20 2.39
-6.75 0.06 2.39
-6.76 -0.07 2.39
-6.76 -0.21 2.39
-6.76 -0.34 2.39
-6.76 -0.48 2.39
-6.76 -0.62 2.39
-6.75 -0.75 2.39
-6.74 -0.89 2.39
-6.73 -1.02 2.39
-6.71 -1.16 2.39
-6.69 -1.30 2.39
-6.67 -1.43 2.39
-6.65 -1.57 2.39
-6.62 -1.70 2.39
-6.59 -1.83 2.39
-6.56 -1.97 2.39
-6.53 -2.10 2.39
-6.49 -2.23 2.39
-6.45 -2.36 2.39
-6.41 -2.49 2.39
-6.36 -2.63 2.39
-6.31 -2.75 2.39
-6.28 -2.89 2.40
-6.28 -3.05 2.42
-6.28 -3.20 2.44
-6.29 -3.36 2.47
-6.29 -3.53 2.50
-6.23 -3.66 2.50
-6.16 -3.79 2.50
-6.09 -3.91 2.50
-6.01 -4.04 2.50
-5.93 -4.16 2.50
-5.85 -4.28 2.50
-5.77 -4.40 2.50
-5.69 -4.52 2.50
-5.60 -4.63 2.50
-5.51 -4.75 2.50
-5.42 -4.86 2.50
-5.32 -4.97 2.50
-5.22 -5.08 2.50
-5.13 -5.18 2.50
-5.02 -5.29 2.50
-4.92 -5.39 2.50
-4.81 -5.49 2.50
-4.71 -5.59 2.50
-4.60 -5.69 2.50
-4.48 -5.78 2.50
-4.37 -5.87 2.50
-4.25 -5.96 2.50
-4.14 -6.05 2.50
-4.02 -6.13 2.50
-3.89 -6.21 2.50
-3.77 -6.29 2.50
-3.65 -6.37 2.50
-3.52 -6.44 2.50
-3.39 -6.51 2.50
-3.26 -6.58 2.50
-3.13 -6.65 2.50
-3.00 -6.71 2.50
-2.86 -6.77 2.50
-2.73 -6.83 2.50
-2.59 -6.88 2.50
-2.46 -6.93 2.50
-2.32 -6.98 2.50
-2.18 -7.03 2.50
-2.04 -7.07 2.50
-1.90 -7.11 2.50
-1.75 -7.15 2.50
-1.61 -7.18 2.50
-1.47 -7.21 2.50
-1.32 -7.24 2.50
-1.18 -7.26 2.50
-1.03 -7.29 2.50
-0.89 -7.30 2.50
-0.74 -7.32 2.50
-0.59 -7.33 2.50
-0.45 -7.34 2.50
-0.30 -7.35 2.50
-0.15 -7.35 2.50
-0.01 -6.84 2.50
0.13 -6.84 2.50
0.27 -6.83 2.50
0.40 -6.83 2.50
0.54 -6.82 2.50
0.67 -6.80 2.50
0.81 -6.78 2.50
0.94 -6.77 2.50
1.08 -6.74 2.50
1.21 -6.72 2.50
1.35 -6.69 2.50
1.48 -6.66 2.50
1.61 -6.63 2.50
1.68 -6.36 2.41
1.79 -6.28 2.39
1.92 -6.24 2.39
2.04 -6.20 2.39
2.16 -6.15 2.39
2.28 -6.10 2.39
2.40 -6.05 2.39
2.52 -6.00 2.39
2.64 -5.95 2.39
2.76 -5.89 2.39
2.87 -5.83 2.39
2.99 -5.77 2.39
3.10 -5.70 2.39
3.21 -5.64 2.39
3.32 -5.57 2.39
3.43 -5.50 2.39
3.54 -5.42 2.39
3.64 -5.35 2.39
3.74 -5.27 2.39
3.80 -5.13 2.36
3.75 -4.86 2.28
3.80 -4.72 2.25
3.85 -4.59 2.22
3.90 -4.46 2.20
3.96 -4.36 2.19
4.03 -4.26 2.18
4.13 -4.20 2.19
4.25 -4.15 2.22
4.44 -4.16 2.27
4.63 -4.16 2.32
4.84 -4.19 2.39
4.92 -4.09 2.39
5.00 -3.98 2.39
5.07 -3.88 2.39
5.14 -3.77 2.39
5.21 -3.67 2.39
5.23 -3.52 2.37
5.17 -3.33 2.31
5.19 -3.20 2.30
5.24 -3.09 2.29
5.22 -2.94 2.26
5.28 -2.83 2.26
5.34 -2.73 2.27
5.41 -2.63 2.28
4.78 -2.21 2.00
4.64 -2.03 1.92
4.62 -1.91 1.90
4.58 -1.79 1.87
4.53 -1.67 1.83
4.48 -1.55 1.80
4.44 -1.43 1.78
4.50 -1.36 1.79
4.57 -1.28 1.81
4.64 -1.20 1.83
4.44 -1.05 1.74
4.33 -0.93 1.70
4.29 -0.83 1.68
4.27 -0.74 1.66
4.27 -0.65 1.66
4.26 -0.56 1.65
4.28 -0.48 1.66
4.30 -0.40 1.66
4.33 -0.31 1.67
4.35 -0.22 1.68
4.38 -0.14 1.69
4.40 -0.05 1.70
4.41 0.04 1.70
4.41 0.13 1.71
4.42 0.22 1.72
4.47 0.31 1.74
4.53 0.41 1.77
4.59 0.50 1.79
4.89 0.64 1.92
4.93 0.74 1.94
4.95 0.85 1.96
5.52 1.06 2.19
5.58 1.19 2.23
5.69 1.33 2.28
5.80 1.48 2.34
5.83 1.61 2.37
5.45 1.63 2.23
5.43 1.74 2.24
5.13 1.76 2.13
4.91 1.80 2.06
4.92 1.91 2.08
4.80 1.98 2.04
4.65 2.03 2.00
4.55 2.09 1.97
4.49 2.18 1.97
4.42 2.25 1.96
4.35 2.33 1.95
4.29 2.41 1.95
4.25 2.50 1.95
4.23 2.61 1.97
4.21 2.71 1.98
4.18 2.82 2.00
4.15 2.91 2.01
4.05 2.97 2.00
3.93 3.01 1.97
3.87 3.08 1.97
3.83 3.18 1.98
3.76 3.26 1.98
3.70 3.34 1.98
3.67 3.45 2.01
3.66 3.57 2.04
3.63 3.70 2.07
3.61 3.82 2.10
3.60 3.97 2.14
3.93 4.52 2.39
3.84 4.59 2.39
3.74 4.67 2.39
3.64 4.74 2.39
3.55 4.81 2.39
3.45 4.88 2.39
3.35 4.95 2.39
3.25 5.01 2.39
3.14 5.07 2.39
3.04 5.14 2.39
2.93 5.19 2.39
2.83 5.25 2.39
2.72 5.30 2.39
2.61 5.36 2.39
2.50 5.41 2.39
2.39 5.46 2.39
2.28 5.50 2.39
2.17 5.55 2.39
2.05 5.59 2.39
2.03 5.87 2.50
1.91 5.91 2.50
1.79 5.95 2.50
1.67 5.98 2.50
1.54 6.01 2.50
1.42 6.04 2.50
1.30 6.07 2.50
1.18 6.09 2.50
1.05 6.12 2.50
0.93 6.14 2.50
0.81 6.15 2.50
0.68 6.17 2.50
0.56 6.18 2.50
0.43 6.19 2.50
0.31 6.20 2.50
0.18 6.21 2.50
0.06 6.21 2.50
-0.07 6.21 2.50
-0.20 6.21 2.50
-0.32 6.21 2.50
-0.45 6.20 2.50
-0.57 6.19 2.50
-0.70 6.18 2.50
-0.82 6.17 2.50
-0.95 6.15 2.50
-1.07 6.13 2.50
-1.19 6.11 2.50
-1.32 6.09 2.50
-1.44 6.06 2.50
-1.56 6.03 2.50
-1.69 6.00 2.50
-1.81 5.97 2.50
-1.93 5.94 2.50
-2.05 5.90 2.50
-2.17 5.86 2.50
-2.29 5.82 2.50
-2.41 5.77 2.50
-2.52 5.73 2.50
-2.64 5.68 2.50
-2.75 5.62 2.50
-2.87 5.57 2.50
-2.98 5.52 2.50
-3.10 5.46 2.50
-3.21 5.40 2.50
-3.32 5.33 2.50
-3.43 5.27 2.50
-3.53 5.20 2.50
-3.64 5.13 2.50
-3.75 5.06 2.50
-3.85 4.99 2.50
-3.95 4.92 2.50
-4.05 4.84 2.50
-4.15 4.76 2.50
-4.25 4.68 2.50
-4.35 4.60 2.50
-4.44 4.51 2.50
-4.54 4.42 2.50
-4.63 4.33 2.50
-4.72 4.24 2.50
-4.81 4.15 2.50
-4.90 4.06 2.50
-4.98 3.96 2.50
-5.06 3.86 2.50
-5.14 3.76 2.50
-5.22 3.66 2.50
-5.30 3.56 2.50
-5.38 3.46 2.50
-5.45 3.35 2.50
-5.52 3.24 2.50
-5.59 3.13 2.50
-5.66 3.02 2.50
-5.72 2.91 2.50
-5.79 2.80 2.50
-5.85 2.68 2.50
-5.90 2.57 2.50
-5.96 2.45 2.50
-6.01 2.33 2.50
-6.07 2.22 2.50
-6.12 2.09 2.50
-6.13 1.96 2.48
-6.13 1.83 2.47
-6.14 1.70 2.45
-6.14 1.57 2.44
-6.15 1.44 2.43
-6.15 1.31 2.41
-6.16 1.18 2.41
-6.17 1.05 2.40
-6.18 0.93 2.39
-6.21 0.81 2.39
-6.23 0.68 2.39
-6.25 0.56 2.39
-6.26 0.43 2.39
-6.28 0.31 2.39
-6.29 0.18 2.39
-6.30 0.06 2.39
-6.30 -0.07 2.39
-6.31 -0.20 2.39
-6.31 -0.32 2.39
-6.30 -0.45 2.39
-6.30 -0.58 2.39
-6.29 -0.70 2.39
-6.28 -0.83 2.39
-6.27 -0.96 2.39
-6.26 -1.08 2.39
-6.24 -1.21 2.39
-6.24 -1.34 2.40
-6.24 -1.47 2.41
-6.24 -1.60 2.42
-6.24 -1.74 2.43
-6.24 -1.87 2.44
-6.25 -2.01 2.46
-6.25 -2.15 2.47
-6.26 -2.30 2.49
-6.23 -2.43 2.50
-6.18 -2.55 2.50
-6.14 -2.68 2.50
-6.09 -2.80 2.50
-6.03 -2.93 2.50
-5.98 -3.05 2.50
-5.92 -3.17 2.50
-5.86 -3.29 2.50
-5.80 -3.41 2.50
-5.73 -3.53 2.50
-5.67 -3.65 2.50
-5.60 -3.76 2.50
-5.52 -3.87 2.50
-5.45 -3.99 2.50
-5.37 -4.10 2.50
-5.29 -4.21 2.50
-5.21 -4.31 2.50
-5.13 -4.42 2.50
-5.04 -4.53 2.50
-4.95 -4.63 2.50
-4.86 -4.73 2.50
-4.77 -4.83 2.50
-4.68 -4.93 2.50
-4.58 -5.02 2.50
-4.48 -5.11 2.50
-4.38 -5.20 2.50
-4.28 -5.29 2.50
-4.17 -5.38 2.50
-4.07 -5.47 2.50
-3.96 -5.55 2.50
-3.85 -5.63 2.50
-3.74 -5.71 2.50
-3.62 -5.78 2.50
-3.51 -5.85 2.50
-3.39 -5.93 2.50
-3.27 -5.99 2.50
-3.15 -6.06 2.50
-3.03 -6.12 2.50
-2.91 -6.19 2.50
-2.79 -6.24 2.50
-2.66 -6.30 2.50
-2.54 -6.35 2.50
-2.41 -6.40 2.50
-2.28 -6.45 2.50
-2.16 -6.50 2.50
-2.03 -6.54 2.50
-1.89 -6.58 2.50
-1.76 -6.62 2.50
-1.63 -6.65 2.50
-1.50 -6.68 2.50
-1.36 -6.71 2.50
-1.23 -6.74 2.50
-1.10 -6.76 2.50
-0.96 -6.78 2.50
-0.83 -6.80 2.50
-0.69 -6.81 2.50
-0.55 -6.82 2.50
-0.42 -6.83 2.50
-0.28 -6.84 2.50
-0.14 -6.84 2.50
-0.01 -6.39 2.50
0.12 -6.39 2.50
0.25 -6.38 2.50
0.37 -6.38 2.50
0.50 -6.37 2.50
0.63 -6.35 2.50
0.75 -6.34 2.50
0.88 -6.32 2.50
1.01 -6.30 2.50
1.13 -6.28 2.50
1.26 -6.25 2.50
1.38 -6.22 2.50
1.50 -6.19 2.50
1.63 -6.16 2.50
1.69 -5.92 2.42
1.79 -5.83 2.39
1.91 -5.79 2.39
2.02 -5.75 2.39
2.13 -5.70 2.39
2.25 -5.66 2.39
2.36 -5.61 2.39
2.47 -5.56 2.39
2.58 -5.50 2.39
2.68 -5.45 2.39
2.79 -5.39 2.39
2.90 -5.33 2.39
3.00 -5.27 2.39
3.10 -5.20 2.39
3.20 -5.14 2.39
3.30 -5.07 2.39
3.40 -5.00 2.39
3.50 -4.93 2.39
3.59 -4.85 2.39
3.69 -4.78 2.39
3.78 -4.70 2.39
3.85 -4.59 2.38
3.89 -4.46 2.35
3.96 -4.36 2.34
4.04 -4.27 2.34
4.15 -4.21 2.36
4.29 -4.18 2.39
4.37 -4.10 2.39
4.45 -4.01 2.39
4.53 -3.92 2.39
4.60 -3.82 2.39
4.67 -3.73 2.39
4.74 -3.63 2.39
4.81 -3.53 2.39
4.88 -3.43 2.39
4.94 -3.33 2.39
5.00 -3.23 2.39
5.06 -3.13 2.39
5.09 -3.00 2.38
5.15 -2.90 2.38
5.22 -2.81 2.39
5.27 -2.70 2.39
5.32 -2.59 2.39
5.37 -2.48 2.39
4.71 -2.06 2.08
4.58 -1.90 2.01
4.53 -1.77 1.97
4.51 -1.66 1.95
4.51 -1.56 1.94
4.47 -1.44 1.91
4.47 -1.35 1.90
4.52 -1.27 1.91
4.41 -1.14 1.86
4.31 -1.02 1.81
4.23 -0.91 1.77
4.21 -0.82 1.75
4.20 -0.73 1.75
4.19 -0.64 1.74
4.19 -0.56 1.73
4.20 -0.47 1.74
4.23 -0.39 1.75
4.25 -0.31 1.75
4.28 -0.22 1.77
4.32 -0.14 1.78
4.34 -0.05 1.79
4.36 0.04 1.80
4.37 0.12 1.81
4.38 0.21 1.81
4.42 0.30 1.83
4.47 0.40 1.86
4.52 0.49 1.89
4.58 0.59 1.92
4.72 0.71 1.98
4.79 0.82 2.02
4.85 0.93 2.05
5.46 1.16 2.32
5.48 1.28 2.35
5.56 1.42 2.39
5.52 1.53 2.39
5.23 1.56 2.28
4.89 1.57 2.15
4.79 1.64 2.12
4.75 1.74 2.12
4.73 1.84 2.13
4.64 1.91 2.11
4.52 1.97 2.07
4.46 2.05 2.06
4.40 2.13 2.06
4.34 2.21 2.05
4.27 2.29 2.04
4.22 2.37 2.04
4.14 2.44 2.03
4.00 2.46 1.98
3.92 2.53 1.97
3.88 2.61 1.98
3.85 2.70 1.99
3.98 2.92 2.09
3.92 2.99 2.09
3.85 3.07 2.09
3.82 3.17 2.10
3.78 3.27 2.12
3.73 3.37 2.13
3.71 3.48 2.16
3.68 3.60 2.19
3.65 3.72 2.22
3.62 3.84 2.25
3.77 4.16 2.39
3.69 4.24 2.39
3.60 4.31 2.39
3.51 4.38 2.39
3.42 4.45 2.39
3.33 4.51 2.39
3.24 4.58 2.39
3.14 4.64 2.39
3.05 4.70 2.39
2.95 4.76 2.39
2.85 4.82 2.39
2.75 4.87 2.39
2.65 4.93 2.39
2.55 4.98 2.39
2.45 5.03 2.39
2.35 5.07 2.39
2.24 5.12 2.39
2.14 5.16 2.39
2.03 5.20 2.39
2.01 5.47 2.50
1.90 5.51 2.50
1.79 5.54 2.50
1.68 5.58 2.50
1.56 5.61 2.50
1.45 5.64 2.50
1.33 5.67 2.50
1.22 5.69 2.50
1.10 5.72 2.50
0.99 5.74 2.50
0.87 5.76 2.50
0.76 5.77 2.50
0.64 5.79 2.50
0.52 5.80 2.50
0.40 5.81 2.50
0.29 5.82 2.50
0.17 5.82 2.50
0.05 5.83 2.50
-0.07 5.83 2.50
-0.18 5.83 2.50
-0.30 5.82 2.50
-0.42 5.82 2.50
-0.54 5.81 2.50
-0.65 5.80 2.50
-0.77 5.78 2.50
-0.89 5.77 2.50
-1.01 5.75 2.50
-1.12 5.73 2.50
-1.24 5.71 2.50
-1.35 5.69 2.50
-1.47 5.66 2.50
-1.58 5.63 2.50
-1.70 5.60 2.50
-1.81 5.57 2.50
-1.92 5.53 2.50
-2.04 5.50 2.50
-2.15 5.46 2.50
-2.26 5.41 2.50
-2.37 5.37 2.50
-2.48 5.32 2.50
-2.59 5.28 2.50
-2.69 5.23 2.50
-2.80 5.17 2.50
-2.90 5.12 2.50
-3.01 5.06 2.50
-3.11 5.00 2.50
-3.22 4.94 2.50
-3.32 4.88 2.50
-3.42 4.81 2.50
-3.51 4.75 2.50
-3.61 4.68 2.50
-3.71 4.61 2.50
-3.80 4.54 2.50
-3.90 4.46 2.50
-3.99 4.39 2.50
-4.08 4.31 2.50
-4.17 4.23 2.50
-4.26 4.15 2.50
-4.34 4.06 2.50
-4.43 3.98 2.50
-4.51 3.89 2.50
-4.59 3.80 2.50
-4.67 3.71 2.50
-4.75 3.62 2.50
-4.82 3.53 2.50
-4.90 3.43 2.50
-4.97 3.33 2.50
-5.04 3.24 2.50
-5.11 3.14 2.50
-5.18 3.04 2.50
-5.24 2.93 2.50
-5.30 2.83 2.50
-5.36 2.73 2.50
-5.42 2.62 2.50
-5.48 2.51 2.50
-5.53 2.40 2.50
-5.59 2.29 2.50
-5.64 2.18 2.50
-5.68 2.07 2.50
-5.73 1.96 2.50
-5.77 1.85 2.50
-5.81 1.73 2.50
-5.85 1.62 2.50
-5.89 1.50 2.50
-5.92 1.38 2.50
-5.96 1.26 2.50
-5.99 1.15 2.50
-6.01 1.03 2.50
-6.04 0.91 2.50
-6.06 0.79 2.50
-6.08 0.66 2.50
-6.10 0.54 2.50
-6.11 0.42 2.50
-6.13 0.30 2.50
-6.14 0.18 2.50
-6.15 0.05 2.50
-6.15 -0.07 2.50
-6.15 -0.19 2.50
-6.16 -0.32 2.50
-6.15 -0.44 2.50
-6.15 -0.57 2.50
-6.14 -0.69 2.50
-6.13 -0.81 2.50
-6.12 -0.94 2.50
-6.11 -1.06 2.50
-6.09 -1.18 2.50
-6.07 -1.31 2.50
-6.05 -1.43 2.50
-6.02 -1.55 2.50
-6.00 -1.67 2.50
-5.97 -1.79 2.50
-5.93 -1.91 2.50
-5.90 -2.03 2.50
-5.86 -2.15 2.50
-5.82 -2.27 2.50
-5.78 -2.39 2.50
-5.74 -2.51 2.50
-5.69 -2.62 2.50
-5.64 -2.74 2.50
-5.59 -2.85 2.50
-5.54 -2.97 2.50
-5.48 -3.08 2.50
-5.42 -3.19 2.50
-5.36 -3.30 2.50
-5.30 -3.41 2.50
-5.23 -3.52 2.50
-5.16 -3.62 2.50
-5.09 -3.73 2.50
-5.02 -3.83 2.50
-4.95 -3.93 2.50
-4.87 -4.03 2.50
-4.79 -4.13 2.50
-4.71 -4.23 2.50
-4.63 -4.33 2.50
-4.54 -4.42 2.50
-4.46 -4.51 2.50
-4.37 -4.60 2.50
-4.28 -4.69 2.50
-4.19 -4.78 2.50
-4.09 -4.86 2.50
-4.00 -4.95 2.50
-3.90 -5.03 2.50
-3.80 -5.11 2.50
-3.70 -5.18 2.50
-3.59 -5.26 2.50
-3.49 -5.33 2.50
-3.38 -5.40 2.50
-3.28 -5.47 2.50
-3.17 -5.54 2.50
-3.06 -5.60 2.50
-2.95 -5.66 2.50
-2.83 -5.72 2.50
-2.72 -5.78 2.50
-2.60 -5.83 2.50
-2.49 -5.88 2.50
-2.37 -5.93 2.50
-2.25 -5.98 2.50
-2.13 -6.03 2.50
-2.01 -6.07 2.50
-1.89 -6.11 2.50
-1.77 -6.15 2.50
-1.65 -6.18 2.50
-1.52 -6.21 2.50
-1.40 -6.24 2.50
-1.27 -6.27 2.50
-1.15 -6.29 2.50
-1.02 -6.31 2.50
-0.90 -6.33 2.50
-0.77 -6.35 2.50
-0.64 -6.36 2.50
-0.52 -6.37 2.50
-0.39 -6.38 2.50
-0.26 -6.39 2.50
-0.14 -6.39 2.50
-0.01 -5.99 2.50
0.11 -5.99 2.50
0.23 -5.98 2.50
0.35 -5.98 2.50
0.47 -5.97 2.50
0.59 -5.95 2.50
0.71 -5.94 2.50
0.82 -5.92 2.50
0.94 -5.90 2.50
1.06 -5.88 2.50
1.18 -5.86 2.50
1.29 -5.83 2.50
1.41 -5.80 2.50
1.52 -5.77 2.50
1.64 -5.74 2.50
1.70 -5.54 2.43
1.79 -5.43 2.39
1.91 -5.43 2.41
2.00 -5.35 2.39
2.10 -5.30 2.39
2.21 -5.26 2.39
2.31 -5.21 2.39
2.41 -5.16 2.39
2.52 -5.11 2.39
2.62 -5.05 2.39
2.71 -5.00 2.39
2.81 -4.94 2.39
2.91 -4.88 2.39
3.00 -4.82 2.39
3.10 -4.75 2.39
3.19 -4.69 2.39
3.28 -4.62 2.39
3.37 -4.55 2.39
3.46 -4.48 2.39
3.54 -4.41 2.39
3.63 -4.33 2.39
3.71 -4.26 2.39
3.79 -4.18 2.39
3.87 -4.10 2.39
3.95 -4.02 2.39
4.03 -3.93 2.39
4.10 -3.85 2.39
4.18 -3.76 2.39
4.25 -3.68 2.39
4.32 -3.59 2.39
4.38 -3.50 2.39
4.45 -3.41 2.39
4.51 -3.32 2.39
4.57 -3.22 2.39
4.63 -3.13 2.39
4.69 -3.03 2.39
4.75 -2.93 2.39
4.80 -2.84 2.39
4.85 -2.74 2.39
4.90 -2.64 2.39
4.95 -2.54 2.39
5.00 -2.43 2.39
5.04 -2.33 2.39
5.08 -2.23 2.39
4.52 -1.87 2.11
4.48 -1.75 2.08
4.48 -1.65 2.06
4.49 -1.56 2.06
4.47 -1.45 2.04
4.45 -1.34 2.02
4.48 -1.25 2.02
4.31 -1.11 1.93
4.23 -1.00 1.89
4.17 -0.90 1.86
4.15 -0.81 1.84
4.13 -0.72 1.83
4.12 -0.63 1.82
4.12 -0.55 1.81
4.13 -0.47 1.82
4.16 -0.39 1.83
4.19 -0.30 1.84
4.22 -0.22 1.85
4.26 -0.14 1.87
4.29 -0.05 1.88
4.30 0.03 1.89
4.32 0.12 1.90
4.34 0.21 1.91
4.37 0.30 1.93
4.41 0.39 1.95
4.46 0.49 1.98
4.51 0.58 2.01
4.57 0.68 2.04
4.66 0.79 2.09
4.75 0.91 2.14
4.81 1.02 2.18
5.25 1.23 2.39
5.22 1.33 2.39
5.10 1.41 2.35
4.90 1.46 2.27
4.72 1.51 2.21
4.67 1.60 2.20
4.60 1.68 2.18
4.50 1.74 2.15
4.46 1.83 2.15
4.43 1.93 2.16
4.37 2.01 2.15
4.31 2.09 2.14
4.12 2.10 2.07
4.00 2.14 2.03
3.89 2.19 2.00
3.80 2.24 1.98
3.72 2.29 1.96
3.69 2.37 1.97
3.64 2.45 1.97
3.62 2.54 1.99
3.71 2.72 2.07
3.90 2.98 2.21
3.83 3.05 2.21
3.80 3.15 2.23
3.77 3.26 2.25
3.75 3.38 2.28
3.72 3.49 2.31
3.69 3.61 2.33
3.66 3.73 2.36
3.63 3.85 2.39
3.55 3.92 2.39
3.47 3.99 2.39
3.39 4.05 2.39
3.30 4.12 2.39
3.22 4.18 2.39
3.13 4.25 2.39
3.04 4.31 2.39
2.96 4.37 2.39
2.87 4.42 2.39
2.77 4.48 2.39
2.68 4.53 2.39
2.59 4.58 2.39
2.50 4.63 2.39
2.40 4.68 2.39
2.31 4.73 2.39
2.22 4.79 2.40
2.11 4.82 2.39
2.02 4.87 2.40
2.00 5.11 2.50
1.89 5.15 2.50
1.79 5.18 2.50
1.68 5.22 2.50
1.58 5.25 2.50
1.47 5.28 2.50
1.36 5.31 2.50
1.26 5.33 2.50
1.15 5.36 2.50
1.04 5.38 2.50
0.93 5.40 2.50
0.82 5.42 2.50
0.71 5.43 2.50
0.60 5.45 2.50
0.49 5.46 2.50
0.38 5.47 2.50
0.27 5.47 2.50
0.16 5.48 2.50
0.05 5.48 2.50
-0.06 5.48 2.50
-0.17 5.48 2.50
-0.28 5.48 2.50
-0.39 5.47 2.50
-0.51 5.46 2.50
-0.62 5.45 2.50
-0.73 5.44 2.50
-0.84 5.43 2.50
-0.95 5.41 2.50
-1.06 5.39 2.50
-1.17 5.37 2.50
-1.27 5.35 2.50
-1.38 5.32 2.50
-1.49 5.30 2.50
-1.60 5.27 2.50
-1.70 5.24 2.50
-1.81 5.20 2.50
-1.92 5.17 2.50
-2.02 5.13 2.50
-2.13 5.09 2.50
-2.23 5.05 2.50
-2.33 5.01 2.50
-2.43 4.96 2.50
-2.53 4.91 2.50
-2.63 4.86 2.50
-2.73 4.81 2.50
-2.83 4.76 2.50
-2.93 4.70 2.50
-3.02 4.65 2.50
-3.12 4.59 2.50
-3.21 4.53 2.50
-3.31 4.46 2.50
-3.40 4.40 2.50
-3.49 4.33 2.50
-3.58 4.26 2.50
-3.67 4.19 2.50
-3.75 4.12 2.50
-3.84 4.05 2.50
-3.92 3.97 2.50
-4.00 3.90 2.50
-4.08 3.82 2.50
-4.16 3.74 2.50
-4.24 3.66 2.50
-4.32 3.57 2.50
-4.39 3.49 2.50
-4.46 3.40 2.50
-4.53 3.31 2.50
-4.60 3.22 2.50
-4.67 3.13 2.50
-4.74 3.04 2.50
-4.80 2.95 2.50
-4.86 2.85 2.50
-4.93 2.76 2.50
-4.98 2.66 2.50
-5.04 2.56 2.50
-5.10 2.46 2.50
-5.15 2.36 2.50
-5.20 2.26 2.50
-5.25 2.15 2.50
-5.30 2.05 2.50
-5.34 1.94 2.50
-5.38 1.84 2.50
-5.42 1.73 2.50
-5.46 1.62 2.50
-5.50 1.52 2.50
-5.53 1.41 2.50
-5.56 1.30 2.50
-5.59 1.18 2.50
-5.62 1.07 2.50
-5.65 0.96 2.50
-5.67 0.85 2.50
-5.69 0.73 2.50
-5.71 0.62 2.50
-5.73 0.51 2.50
-5.74 0.39 2.50
-5.75 0.28 2.50
-5.76 0.16 2.50
-5.77 0.05 2.50
-5.78 -0.07 2.50
-5.78 -0.19 2.50
-5.78 -0.30 2.50
-5.78 -0.42 2.50
-5.77 -0.53 2.50
-5.76 -0.65 2.50
-5.76 -0.77 2.50
-5.74 -0.88 2.50
-5.73 -1.00 2.50
-5.71 -1.11 2.50
-5.70 -1.23 2.50
-5.67 -1.34 2.50
-5.65 -1.46 2.50
-5.63 -1.57 2.50
-5.60 -1.68 2.50
-5.57 -1.80 2.50
-5.53 -1.91 2.50
-5.50 -2.02 2.50
-5.46 -2.13 2.50
-5.42 -2.24 2.50
-5.38 -2.35 2.50
-5.34 -2.46 2.50
-5.29 -2.57 2.50
-5.24 -2.68 2.50
-5.19 -2.78 2.50
-5.14 -2.89 2.50
-5.08 -2.99 2.50
-5.03 -3.10 2.50
-4.97 -3.20 2.50
-4.90 -3.30 2.50
-4.84 -3.40 2.50
-4.77 -3.50 2.50
-4.71 -3.59 2.50
-4.64 -3.69 2.50
-4.57 -3.78 2.50
-4.49 -3.88 2.50
-4.42 -3.97 2.50
-4.34 -4.06 2.50
-4.26 -4.15 2.50
-4.18 -4.23 2.50
-4.09 -4.32 2.50
-4.01 -4.40 2.50
-3.92 -4.48 2.50
-3.83 -4.56 2.50
-3.74 -4.64 2.50
-3.65 -4.71 2.50
-3.56 -4.79 2.50
-3.46 -4.86 2.50
-3.37 -4.93 2.50
-3.27 -5.00 2.50
-3.17 -5.06 2.50
-3.07 -5.13 2.50
-2.97 -5.19 2.50
-2.87 -5.25 2.50
-2.76 -5.31 2.50
-2.66 -5.36 2.50
-2.55 -5.42 2.50
-2.44 -5.47 2.50
-2.33 -5.52 2.50
-2.22 -5.56 2.50
-2.11 -5.61 2.50
-2.00 -5.65 2.50
-1.89 -5.69 2.50
-1.77 -5.72 2.50
-1.66 -5.76 2.50
-1.54 -5.79 2.50
-1.43 -5.82 2.50
-1.31 -5.85 2.50
-1.19 -5.87 2.50
-1.08 -5.90 2.50
-0.96 -5.92 2.50
-0.84 -5.93 2.50
-0.72 -5.95 2.50
-0.60 -5.96 2.50
-0.48 -5.97 2.50
-0.37 -5.98 2.50
-0.25 -5.99 2.50
-0.13 -5.99 2.50
-0.01 -5.63 2.50
0.10 -5.63 2.50
0.22 -5.62 2.50
0.33 -5.62 2.50
0.44 -5.61 2.50
0.55 -5.60 2.50
0.66 -5.58 2.50
0.77 -5.57 2.50
0.88 -5.55 2.50
0.99 -5.53 2.50
1.10 -5.51 2.50
1.21 -5.48 2.50
1.32 -5.45 2.50
1.43 -5.42 2.50
1.54 -5.39 2.50
1.64 -5.36 2.50
1.71 -5.20 2.44
1.78 -5.07 2.39
1.88 -5.03 2.39
1.98 -4.99 2.39
2.07 -4.94 2.39
2.17 -4.90 2.39
2.27 -4.85 2.39
2.36 -4.80 2.39
2.46 -4.75 2.39
2.55 -4.70 2.39
2.64 -4.65 2.39
2.73 -4.59 2.39
2.82 -4.53 2.39
2.91 -4.47 2.39
3.00 -4.41 2.39
3.08 -4.35 2.39
3.17 -4.28 2.39
3.25 -4.21 2.39
3.33 -4.15 2.39
3.41 -4.08 2.39
3.49 -4.00 2.39
3.57 -3.93 2.39
3.64 -3.86 2.39
3.71 -3.78 2.39
3.79 -3.70 2.39
3.86 -3.62 2.39
3.93 -3.54 2.39
3.99 -3.46 2.39
4.06 -3.38 2.39
4.12 -3.29 2.39
4.18 -3.21 2.39
4.24 -3.12 2.39
4.30 -3.03 2.39
4.36 -2.94 2.39
4.41 -2.85 2.39
4.47 -2.76 2.39
4.52 -2.67 2.39
4.56 -2.58 2.39
4.61 -2.48 2.39
4.66 -2.39 2.39
4.70 -2.29 2.39
4.74 -2.20 2.39
4.78 -2.10 2.39
4.48 -1.86 2.22
4.43 -1.74 2.18
4.45 -1.64 2.18
4.46 -1.55 2.17
4.48 -1.45 2.17
4.46 -1.35 2.14
4.41 -1.24 2.11
4.29 -1.11 2.05
4.18 -0.99 1.98
4.12 -0.89 1.95
4.10 -0.80 1.93
4.08 -0.71 1.92
4.06 -0.63 1.90
4.04 -0.54 1.89
4.06 -0.46 1.90
4.09 -0.38 1.91
4.13 -0.30 1.92
4.16 -0.22 1.94
4.20 -0.14 1.96
4.23 -0.05 1.97
4.25 0.03 1.98
4.26 0.12 1.99
4.28 0.20 2.00
4.33 0.29 2.03
4.39 0.39 2.07
4.46 0.48 2.10
4.52 0.58 2.14
4.60 0.69 2.18
4.65 0.79 2.22
4.73 0.90 2.26
4.76 1.01 2.29
4.79 1.12 2.32
4.92 1.25 2.39
4.89 1.35 2.39
4.86 1.45 2.39
4.61 1.47 2.28
4.56 1.56 2.28
4.45 1.62 2.24
4.27 1.66 2.17
4.20 1.73 2.15
4.13 1.79 2.13
4.05 1.86 2.11
3.95 1.91 2.08
3.87 1.97 2.06
3.79 2.03 2.04
3.71 2.08 2.02
3.63 2.13 2.00
3.56 2.19 1.99
3.53 2.27 2.00
3.50 2.35 2.01
3.52 2.47 2.05
3.54 2.59 2.09
3.66 2.79 2.20
3.85 3.06 2.35
3.82 3.17 2.37
3.78 3.27 2.39
3.71 3.34 2.39
3.64 3.42 2.39
3.57 3.49 2.39
3.50 3.56 2.39
3.43 3.63 2.39
3.35 3.69 2.39
3.27 3.76 2.39
3.19 3.82 2.39
3.12 3.88 2.39
3.04 3.94 2.39
2.95 4.00 2.39
2.87 4.06 2.39
2.79 4.12 2.39
2.70 4.17 2.39
2.62 4.22 2.39
2.53 4.27 2.39
2.44 4.32 2.39
2.35 4.37 2.39
2.27 4.42 2.39
2.17 4.46 2.39
2.08 4.50 2.39
2.01 4.58 2.41
1.98 4.78 2.50
1.88 4.82 2.50
1.79 4.85 2.50
1.69 4.89 2.50
1.59 4.92 2.50
1.49 4.95 2.50
1.39 4.98 2.50
1.29 5.01 2.50
1.18 5.03 2.50
1.08 5.05 2.50
0.98 5.07 2.50
0.88 5.09 2.50
0.77 5.11 2.50
0.67 5.12 2.50
0.57 5.14 2.50
0.46 5.15 2.50
0.36 5.16 2.50
0.25 5.16 2.50
0.15 5.17 2.50
0.05 5.17 2.50
-0.06 5.17 2.50
-0.16 5.17 2.50
-0.27 5.17 2.50
-0.37 5.16 2.50
-0.48 5.15 2.50
-0.58 5.14 2.50
-0.69 5.13 2.50
-0.79 5.12 2.50
-0.89 5.10 2.50
-1.00 5.09 2.50
-1.10 5.07 2.50
-1.20 5.04 2.50
-1.30 5.02 2.50
-1.41 5.00 2.50
-1.51 4.97 2.50
-1.61 4.94 2.50
-1.71 4.91 2.50
-1.81 4.87 2.50
-1.91 4.84 2.50
-2.00 4.80 2.50
-2.10 4.76 2.50
-2.20 4.72 2.50
-2.30 4.68 2.50
-2.39 4.63 2.50
-2.48 4.59 2.50
-2.58 4.54 2.50
-2.67 4.49 2.50
-2.76 4.43 2.50
-2.85 4.38 2.50
-2.94 4.32 2.50
-3.03 4.27 2.50
-3.12 4.21 2.50
-3.20 4.15 2.50
-3.29 4.08 2.50
-3.37 4.02 2.50
-3.46 3.95 2.50
-3.54 3.88 2.50
-3.62 3.81 2.50
-3.70 3.74 2.50
-3.77 3.67 2.50
-3.85 3.60 2.50
-3.92 3.52 2.50
-4.00 3.44 2.50
-4.07 3.36 2.50
-4.14 3.28 2.50
-4.21 3.20 2.50
-4.27 3.12 2.50
-4.34 3.04 2.50
-4.40 2.95 2.50
-4.47 2.86 2.50
-4.53 2.77 2.50
-4.58 2.68 2.50
-4.64 2.59 2.50
-4.70 2.50 2.50
-4.75 2.41 2.50
-4.80 2.32 2.50
-4.85 2.22 2.50
-4.90 2.12 2.50
-4.94 2.03 2.50
-4.99 1.93 2.50
-5.03 1.83 2.50
-5.07 1.73 2.50
-5.11 1.63 2.50
-5.14 1.53 2.50
-5.18 1.42 2.50
-5.21 1.32 2.50
-5.24 1.22 2.50
-5.27 1.11 2.50
-5.29 1.01 2.50
-5.32 0.90 2.50
-5.34 0.80 2.50
-5.36 0.69 2.50
-5.38 0.58 2.50
-5.39 0.47 2.50
-5.40 0.37 2.50
-5.42 0.26 2.50
-5.42 0.15 2.50
-5.43 0.04 2.50
-5.44 -0.07 2.50
-5.44 -0.18 2.50
-5.44 -0.29 2.50
-5.44 -0.40 2.50
-5.43 -0.50 2.50
-5.42 -0.61 2.50
-5.42 -0.72 2.50
-5.40 -0.83 2.50
-5.39 -0.94 2.50
-5.38 -1.05 2.50
-5.36 -1.16 2.50
-5.34 -1.27 2.50
-5.32 -1.37 2.50
-5.29 -1.48 2.50
-5.27 -1.59 2.50
-5.24 -1.69 2.50
-5.21 -1.80 2.50
-5.17 -1.90 2.50
-5.14 -2.01 2.50
-5.10 -2.11 2.50
-5.06 -2.22 2.50
-5.02 -2.32 2.50
-4.97 -2.42 2.50
-4.93 -2.52 2.50
-4.88 -2.62 2.50
-4.83 -2.72 2.50
-4.78 -2.82 2.50
-4.72 -2.91 2.50
-4.67 -3.01 2.50
-4.61 -3.10 2.50
-4.55 -3.20 2.50
-4.49 -3.29 2.50
-4.42 -3.38 2.50
-4.36 -3.47 2.50
-4.29 -3.56 2.50
-4.22 -3.65 2.50
-4.15 -3.73 2.50
-4.08 -3.82 2.50
-4.00 -3.90 2.50
-3.93 -3.98 2.50
-3.85 -4.06 2.50
-3.77 -4.14 2.50
-3.69 -4.21 2.50
-3.60 -4.29 2.50
-3.52 -4.36 2.50
-3.43 -4.43 2.50
-3.34 -4.50 2.50
-3.26 -4.57 2.50
-3.16 -4.63 2.50
-3.07 -4.70 2.50
-2.98 -4.76 2.50
-2.89 -4.82 2.50
-2.79 -4.88 2.50
-2.69 -4.93 2.50
-2.59 -4.99 2.50
-2.49 -5.04 2.50
-2.39 -5.09 2.50
-2.29 -5.14 2.50
-2.19 -5.18 2.50
-2.09 -5.23 2.50
-1.98 -5.27 2.50
-1.88 -5.31 2.50
-1.77 -5.34 2.50
-1.67 -5.38 2.50
-1.56 -5.41 2.50
-1.45 -5.44 2.50
-1.34 -5.47 2.50
-1.23 -5.50 2.50
-1.12 -5.52 2.50
-1.01 -5.54 2.50
-0.90 -5.56 2.50
-0.79 -5.58 2.50
-0.68 -5.59 2.50
-0.57 -5.60 2.50
-0.46 -5.61 2.50
-0.34 -5.62 2.50
-0.23 -5.63 2.50
-0.12 -5.63 2.50
-0.01 -5.30 2.50
0.10 -5.30 2.50
0.20 -5.30 2.50
0.31 -5.29 2.50
0.41 -5.28 2.50
0.52 -5.27 2.50
0.62 -5.26 2.50
0.73 -5.25 2.50
0.83 -5.23 2.50
0.94 -5.21 2.50
1.04 -5.19 2.50
1.14 -5.16 2.50
1.24 -5.14 2.50
1.35 -5.11 2.50
1.45 -5.08 2.50
1.55 -5.05 2.50
1.65 -5.02 2.50
1.72 -4.89 2.45
1.77 -4.74 2.39
1.86 -4.70 2.39
1.95 -4.66 2.39
2.05 -4.62 2.39
2.14 -4.57 2.39
2.23 -4.53 2.39
2.31 -4.48 2.39
2.40 -4.43 2.39
2.49 -4.38 2.39
2.57 -4.33 2.39
2.66 -4.27 2.39
2.74 -4.22 2.39
2.82 -4.16 2.39
2.90 -4.10 2.39
2.98 -4.04 2.39
3.06 -3.97 2.39
3.14 -3.91 2.39
3.21 -3.84 2.39
3.29 -3.78 2.39
3.36 -3.71 2.39
3.43 -3.64 2.39
3.50 -3.57 2.39
3.57 -3.49 2.39
3.64 -3.42 2.39
3.70 -3.34 2.39
3.76 -3.26 2.39
3.83 -3.19 2.39
3.89 -3.11 2.39
3.94 -3.03 2.39
4.00 -2.94 2.39
4.06 -2.86 2.39
4.11 -2.78 2.39
4.16 -2.69 2.39
4.21 -2.61 2.39
4.26 -2.52 2.39
4.30 -2.43 2.39
4.35 -2.34 2.39
4.39 -2.26 2.39
4.43 -2.17 2.39
4.47 -2.07 2.39
4.51 -1.98 2.39
4.54 -1.89 2.39
4.45 -1.75 2.33
4.46 -1.65 2.32
4.47 -1.55 2.31
4.49 -1.46 2.30
4.45 -1.35 2.27
4.43 -1.24 2.25
4.31 -1.12 2.18
4.20 -1.00 2.11
4.11 -0.89 2.06
4.09 -0.80 2.04
4.06 -0.71 2.02
4.03 -0.62 2.00
4.01 -0.54 1.99
4.02 -0.46 1.99
4.06 -0.38 2.01
4.09 -0.30 2.02
4.13 -0.22 2.04
4.16 -0.14 2.06
4.21 -0.05 2.08
4.25 0.03 2.10
4.29 0.12 2.12
4.33 0.20 2.15
4.38 0.30 2.18
4.45 0.39 2.22
4.49 0.49 2.24
4.55 0.58 2.28
4.61 0.69 2.32
4.65 0.79 2.35
4.69 0.89 2.38
4.70 0.99 2.39
4.67 1.09 2.39
4.65 1.18 2.39
4.62 1.27 2.39
4.59 1.36 2.39
4.54 1.45 2.38
4.47 1.53 2.36
4.33 1.58 2.31
4.22 1.63 2.27
4.15 1.70 2.25
4.06 1.76 2.22
3.94 1.81 2.18
3.87 1.87 2.16
3.80 1.93 2.15
3.73 1.99 2.13
3.65 2.04 2.11
3.57 2.10 2.09
3.51 2.15 2.08
3.47 2.23 2.08
3.44 2.31 2.09
3.44 2.41 2.12
3.45 2.53 2.16
3.46 2.64 2.20
3.70 2.94 2.39
3.64 3.02 2.39
3.57 3.09 2.39
3.51 3.16 2.39
3.44 3.23 2.39
3.38 3.29 2.39
3.31 3.36 2.39
3.24 3.42 2.39
3.17 3.49 2.39
3.09 3.55 2.39
3.02 3.61 2.39
2.94 3.67 2.39
2.87 3.73 2.39
2.79 3.78 2.39
2.71 3.84 2.39
2.64 3.89 2.39
2.56 3.94 2.39
2.47 3.99 2.39
2.39 4.04 2.39
2.31 4.08 2.39
2.23 4.13 2.39
2.14 4.17 2.39
2.06 4.21 2.39
2.00 4.31 2.43
1.96 4.48 2.50
1.87 4.51 2.50
1.78 4.55 2.50
1.69 4.59 2.50
1.59 4.62 2.50
1.50 4.65 2.50
1.41 4.68 2.50
1.31 4.71 2.50
1.22 4.73 2.50
1.12 4.75 2.50
1.02 4.78 2.50
0.93 4.79 2.50
0.83 4.81 2.50
0.73 4.83 2.50
0.63 4.84 2.50
0.54 4.85 2.50
0.44 4.86 2.50
0.34 4.87 2.50
0.24 4.88 2.50
0.14 4.88 2.50
0.04 4.89 2.50
-0.06 4.89 2.50
-0.16 4.89 2.50
-0.25 4.88 2.50
-0.35 4.88 2.50
-0.45 4.87 2.50
-0.55 4.86 2.50
-0.65 4.85 2.50
-0.75 4.84 2.50
-0.84 4.82 2.50
-0.94 4.81 2.50
-1.04 4.79 2.50
-1.14 4.77 2.50
-1.23 4.74 2.50
-1.33 4.72 2.50
-1.43 4.69 2.50
-1.52 4.67 2.50
-1.61 4.64 2.50
-1.71 4.60 2.50
-1.80 4.57 2.50
-1.90 4.54 2.50
-1.99 4.50 2.50
-2.08 4.46 2.50
-2.17 4.42 2.50
-2.26 4.38 2.50
-2.35 4.33 2.50
-2.44 4.29 2.50
-2.52 4.24 2.50
-2.61 4.19 2.50
-2.70 4.14 2.50
-2.78 4.08 2.50
-2.86 4.03 2.50
-2.95 3.97 2.50
-3.03 3.91 2.50
-3.11 3.86 2.50
-3.19 3.79 2.50
-3.27 3.73 2.50
-3.34 3.67 2.50
-3.42 3.60 2.50
-3.49 3.53 2.50
-3.57 3.47 2.50
-3.64 3.39 2.50
-3.71 3.32 2.50
-3.78 3.25 2.50
-3.84 3.18 2.50
-3.91 3.10 2.50
-3.97 3.02 2.50
-4.04 2.94 2.50
-4.10 2.86 2.50
-4.16 2.78 2.50
-4.22 2.70 2.50
-4.27 2.62 2.50
-4.33 2.53 2.50
-4.38 2.45 2.50
-4.43 2.36 2.50
-4.48 2.27 2.50
-4.53 2.18 2.50
-4.58 2.09 2.50
-4.62 2.00 2.50
-4.67 1.91 2.50
-4.71 1.82 2.50
-4.75 1.72 2.50
-4.79 1.63 2.50
-4.82 1.53 2.50
-4.86 1.44 2.50
-4.89 1.34 2.50
-4.92 1.24 2.50
-4.95 1.15 2.50
-4.97 1.05 2.50
-5.00 0.95 2.50
-5.02 0.85 2.50
-5.04 0.75 2.50
-5.06 0.65 2.50
-5.07 0.55 2.50
-5.09 0.45 2.50
-5.10 0.34 2.50
-5.11 0.24 2.50
-5.12 0.14 2.50
-5.12 0.04 2.50
-5.13 -0.07 2.50
-5.13 -0.17 2.50
-5.13 -0.27 2.50
-5.13 -0.37 2.50
-5.12 -0.48 2.50
-5.12 -0.58 2.50
-5.11 -0.68 2.50
-5.10 -0.79 2.50
-5.08 -0.89 2.50
-5.07 -0.99 2.50
-5.05 -1.09 2.50
-5.03 -1.20 2.50
-5.01 -1.30 2.50
-4.99 -1.40 2.50
-4.96 -1.50 2.50
-4.94 -1.60 2.50
-4.91 -1.70 2.50
-4.88 -1.80 2.50
-4.84 -1.90 2.50
-4.81 -1.99 2.50
-4.77 -2.09 2.50
-4.73 -2.19 2.50
-4.69 -2.28 2.50
-4.65 -2.38 2.50
-4.60 -2.47 2.50
-4.55 -2.56 2.50
-4.50 -2.66 2.50
-4.45 -2.75 2.50
-4.40 -2.84 2.50
-4.35 -2.93 2.50
-4.29 -3.02 2.50
-4.23 -3.10 2.50
-4.17 -3.19 2.50
-4.11 -3.27 2.50
-4.04 -3.36 2.50
-3.98 -3.44 2.50
-3.91 -3.52 2.50
-3.84 -3.60 2.50
-3.77 -3.67 2.50
-3.70 -3.75 2.50
-3.63 -3.83 2.50
-3.55 -3.90 2.50
-3.47 -3.97 2.50
-3.39 -4.04 2.50
-3.31 -4.11 2.50
-3.23 -4.18 2.50
-3.15 -4.24 2.50
-3.07 -4.31 2.50
-2.98 -4.37 2.50
-2.89 -4.43 2.50
-2.81 -4.49 2.50
-2.72 -4.54 2.50
-2.63 -4.60 2.50
-2.54 -4.65 2.50
-2.44 -4.70 2.50
-2.35 -4.75 2.50
-2.26 -4.80 2.50
-2.16 -4.84 2.50
-2.06 -4.88 2.50
-1.97 -4.92 2.50
-1.87 -4.96 2.50
-1.77 -5.00 2.50
-1.67 -5.04 2.50
-1.57 -5.07 2.50
-1.47 -5.10 2.50
-1.37 -5.13 2.50
-1.26 -5.15 2.50
-1.16 -5.18 2.50
-1.06 -5.20 2.50
-0.95 -5.22 2.50
-0.85 -5.24 2.50
-0.75 -5.25 2.50
-0.64 -5.27 2.50
-0.54 -5.28 2.50
-0.43 -5.29 2.50
-0.32 -5.30 2.50
-0.22 -5.30 2.50
-0.11 -5.30 2.50
-0.01 -5.01 2.50
0.09 -5.01 2.50
0.19 -5.00 2.50
0.29 -5.00 2.50
0.39 -4.99 2.50
0.49 -4.98 2.50
0.59 -4.97 2.50
0.69 -4.95 2.50
0.79 -4.94 2.50
0.88 -4.92 2.50
0.98 -4.90 2.50
1.08 -4.88 2.50
1.17 -4.85 2.50
1.27 -4.83 2.50
1.37 -4.80 2.50
1.46 -4.77 2.50
1.56 -4.74 2.50
1.65 -4.70 2.50
1.72 -4.62 2.47
1.76 -4.44 2.39
1.84 -4.40 2.39
1.94 -4.38 2.41
2.02 -4.32 2.39
2.10 -4.28 2.39
2.19 -4.23 2.39
2.27 -4.19 2.39
2.35 -4.14 2.39
2.43 -4.09 2.39
2.51 -4.04 2.39
2.59 -3.98 2.39
2.67 -3.93 2.39
2.74 -3.87 2.39
2.82 -3.81 2.39
2.89 -3.75 2.39
2.96 -3.69 2.39
3.03 -3.63 2.39
3.10 -3.57 2.39
3.17 -3.50 2.39
3.24 -3.44 2.39
3.31 -3.37 2.39
3.37 -3.30 2.39
3.43 -3.23 2.39
3.50 -3.16 2.39
3.56 -3.09 2.39
3.61 -3.01 2.39
3.67 -2.94 2.39
3.73 -2.86 2.39
3.78 -2.78 2.39
3.83 -2.71 2.39
3.88 -2.63 2.39
3.93 -2.55 2.39
3.98 -2.47 2.39
4.02 -2.38 2.39
4.07 -2.30 2.39
4.11 -2.22 2.39
4.15 -2.13 2.39
4.19 -2.05 2.39
4.23 -1.96 2.39
4.26 -1.88 2.39
4.29 -1.79 2.39
4.33 -1.70 2.39
4.35 -1.61 2.39
4.38 -1.52 2.39
4.41 -1.43 2.39
4.43 -1.34 2.39
4.42 -1.25 2.37
4.33 -1.13 2.32
4.22 -1.01 2.24
4.11 -0.89 2.18
4.08 -0.80 2.16
4.05 -0.71 2.14
4.03 -0.63 2.12
4.02 -0.54 2.11
4.03 -0.46 2.11
4.06 -0.38 2.12
4.10 -0.30 2.14
4.13 -0.22 2.16
4.19 -0.14 2.19
4.25 -0.06 2.22
4.29 0.03 2.24
4.34 0.12 2.27
4.38 0.21 2.30
4.44 0.30 2.33
4.48 0.39 2.36
4.53 0.49 2.39
4.52 0.58 2.39
4.50 0.67 2.39
4.49 0.76 2.39
4.47 0.85 2.39
4.44 0.94 2.39
4.42 1.03 2.39
4.40 1.11 2.39
4.37 1.20 2.39
4.34 1.29 2.39
4.31 1.37 2.39
4.28 1.46 2.39
4.19 1.53 2.36
4.17 1.61 2.37
4.10 1.68 2.35
4.04 1.75 2.33
3.93 1.80 2.30
3.81 1.84 2.25
3.74 1.90 2.23
3.66 1.95 2.21
3.59 2.01 2.19
3.51 2.06 2.17
3.45 2.12 2.16
3.42 2.20 2.17
3.40 2.28 2.18
3.38 2.37 2.20
3.41 2.49 2.25
3.44 2.63 2.31
3.50 2.79 2.39
3.44 2.85 2.39
3.38 2.92 2.39
3.32 2.99 2.39
3.26 3.05 2.39
3.20 3.12 2.39
3.13 3.18 2.39
3.06 3.24 2.39
3.00 3.30 2.39
2.93 3.36 2.39
2.86 3.42 2.39
2.79 3.47 2.39
2.72 3.53 2.39
2.64 3.58 2.39
2.57 3.63 2.39
2.50 3.68 2.39
2.42 3.73 2.39
2.34 3.78 2.39
2.27 3.82 2.39
2.19 3.87 2.40
2.11 3.91 2.39
2.03 3.95 2.39
1.99 4.07 2.44
1.95 4.20 2.50
1.86 4.24 2.50
1.77 4.27 2.50
1.69 4.31 2.50
1.60 4.34 2.50
1.51 4.37 2.50
1.42 4.40 2.50
1.33 4.43 2.50
1.24 4.45 2.50
1.15 4.48 2.50
1.06 4.50 2.50
0.97 4.52 2.50
0.88 4.54 2.50
0.78 4.56 2.50
0.69 4.57 2.50
0.60 4.58 2.50
0.51 4.60 2.50
0.41 4.61 2.50
0.32 4.61 2.50
0.23 4.62 2.50
0.13 4.62 2.50
0.04 4.63 2.50
-0.05 4.63 2.50
-0.15 4.63 2.50
-0.24 4.62 2.50
-0.33 4.62 2.50
-0.43 4.61 2.50
-0.52 4.60 2.50
-0.61 4.59 2.50
-0.71 4.58 2.50
-0.80 4.56 2.50
-0.89 4.55 2.50
-0.99 4.53 2.50
-1.08 4.51 2.50
-1.17 4.49 2.50
-1.26 4.47 2.50
-1.35 4.44 2.50
-1.44 4.42 2.50
-1.53 4.39 2.50
-1.62 4.36 2.50
-1.71 4.33 2.50
-1.80 4.29 2.50
-1.88 4.26 2.50
-1.97 4.22 2.50
-2.05 4.18 2.50
-2.14 4.14 2.50
-2.22 4.10 2.50
-2.31 4.06 2.50
-2.39 4.01 2.50
-2.47 3.96 2.50
-2.55 3.91 2.50
-2.63 3.86 2.50
-2.71 3.81 2.50
-2.79 3.76 2.50
-2.87 3.70 2.50
-2.94 3.65 2.50
-3.02 3.59 2.50
-3.09 3.53 2.50
-3.16 3.47 2.50
-3.24 3.41 2.50
-3.31 3.34 2.50
-3.38 3.28 2.50
-3.44 3.21 2.50
-3.51 3.14 2.50
-3.57 3.07 2.50
-3.64 3.00 2.50
-3.70 2.93 2.50
-3.76 2.86 2.50
-3.82 2.78 2.50
-3.88 2.71 2.50
-3.94 2.63 2.50
-3.99 2.55 2.50
-4.04 2.47 2.50
-4.10 2.39 2.50
-4.15 2.31 2.50
-4.20 2.23 2.50
-4.24 2.15 2.50
-4.29 2.06 2.50
-4.33 1.98 2.50
-4.38 1.89 2.50
-4.42 1.81 2.50
-4.45 1.72 2.50
-4.49 1.63 2.50
-4.53 1.54 2.50
-4.56 1.45 2.50
-4.59 1.36 2.50
-4.62 1.27 2.50
-4.65 1.17 2.50
-4.68 1.08 2.50
-4.70 0.99 2.50
-4.72 0.90 2.50
-4.75 0.80 2.50
-4.76 0.71 2.50
-4.78 0.61 2.50
-4.80 0.51 2.50
-4.81 0.42 2.50
-4.82 0.32 2.50
-4.83 0.23 2.50
-4.84 0.13 2.50
-4.84 0.03 2.50
-4.85 -0.06 2.50
-4.85 -0.16 2.50
-4.85 -0.26 2.50
-4.85 -0.36 2.50
-4.84 -0.45 2.50
-4.84 -0.55 2.50
-4.83 -0.65 2.50
-4.82 -0.75 2.50
-4.80 -0.84 2.50
-4.79 -0.94 2.50
-4.77 -1.04 2.50
-4.76 -1.13 2.50
-4.74 -1.23 2.50
-4.71 -1.32 2.50
-4.69 -1.42 2.50
-4.66 -1.51 2.50
-4.64 -1.61 2.50
-4.61 -1.70 2.50
-4.58 -1.79 2.50
-4.54 -1.89 2.50
-4.51 -1.98 2.50
-4.47 -2.07 2.50
-4.43 -2.16 2.50
-4.39 -2.25 2.50
-4.35 -2.34 2.50
-4.30 -2.42 2.50
-4.25 -2.51 2.50
-4.21 -2.60 2.50
-4.16 -2.68 2.50
-4.10 -2.77 2.50
-4.05 -2.85 2.50
-3.99 -2.93 2.50
-3.94 -3.01 2.50
-3.88 -3.09 2.50
-3.82 -3.17 2.50
-3.76 -3.25 2.50
-3.69 -3.32 2.50
-3.63 -3.40 2.50
-3.56 -3.47 2.50
-3.49 -3.54 2.50
-3.42 -3.61 2.50
-3.35 -3.68 2.50
-3.28 -3.75 2.50
-3.20 -3.82 2.50
-3.13 -3.88 2.50
-3.05 -3.94 2.50
-2.97 -4.01 2.50
-2.90 -4.07 2.50
-2.81 -4.12 2.50
-2.73 -4.18 2.50
-2.65 -4.24 2.50
-2.57 -4.29 2.50
-2.48 -4.34 2.50
-2.39 -4.39 2.50
-2.31 -4.44 2.50
-2.22 -4.48 2.50
-2.13 -4.53 2.50
-2.04 -4.57 2.50
-1.95 -4.61 2.50
-1.86 -4.65 2.50
-1.76 -4.69 2.50
-1.67 -4.72 2.50
-1.58 -4.75 2.50
-1.48 -4.79 2.50
-1.39 -4.81 2.50
-1.29 -4.84 2.50
-1.19 -4.87 2.50
-1.10 -4.89 2.50
-1.00 -4.91 2.50
-0.90 -4.93 2.50
-0.80 -4.95 2.50
-0.70 -4.96 2.50
-0.60 -4.97 2.50
-0.51 -4.99 2.50
-0.41 -4.99 2.50
-0.31 -5.00 2.50
-0.21 -5.00 2.50
-0.11 -5.01 2.50
-0.01 -4.74 2.50
0.09 -4.74 2.50
0.18 -4.73 2.50
0.28 -4.73 2.50
0.37 -4.72 2.50
0.46 -4.71 2.50
0.56 -4.70 2.50
0.65 -4.69 2.50
0.74 -4.67 2.50
0.84 -4.65 2.50
0.93 -4.64 2.50
1.02 -4.61 2.50
1.11 -4.59 2.50
1.20 -4.57 2.50
1.29 -4.54 2.50
1.38 -4.51 2.50
1.47 -4.48 2.50
1.56 -4.45 2.50
1.65 -4.42 2.50
1.73 -4.38 2.49
1.75 -4.17 2.40
1.83 -4.13 2.39
1.91 -4.09 2.39
1.99 -4.05 2.39
2.07 -4.01 2.39
2.14 -3.96 2.39
2.22 -3.92 2.39
2.30 -3.87 2.39
2.37 -3.82 2.39
2.45 -3.77 2.39
2.52 -3.72 2.39
2.59 -3.67 2.39
2.67 -3.61 2.39
2.73 -3.55 2.39
2.80 -3.50 2.39
2.87 -3.44 2.39
2.94 -3.38 2.39
3.00 -3.32 2.39
3.07 -3.25 2.39
3.13 -3.19 2.39
3.19 -3.13 2.39
3.25 -3.06 2.39
3.31 -2.99 2.39
3.36 -2.92 2.39
3.42 -2.85 2.39
3.47 -2.78 2.39
3.53 -2.71 2.39
3.58 -2.64 2.39
3.63 -2.56 2.39
3.67 -2.49 2.39
3.72 -2.41 2.39
3.77 -2.34 2.39
3.81 -2.26 2.39
3.85 -2.18 2.39
3.89 -2.10 2.39
3.93 -2.02 2.39
3.96 -1.94 2.39
4.00 -1.86 2.39
4.03 -1.78 2.39
4.07 -1.70 2.39
4.10 -1.61 2.39
4.12 -1.53 2.39
4.15 -1.45 2.39
4.17 -1.36 2.39
4.20 -1.28 2.39
4.22 -1.19 2.39
4.24 -1.10 2.39
4.26 -1.02 2.39
4.13 -0.90 2.31
4.07 -0.80 2.27
4.05 -0.71 2.25
4.05 -0.63 2.25
4.04 -0.55 2.24
4.04 -0.46 2.23
4.07 -0.38 2.25
4.10 -0.31 2.26
4.15 -0.23 2.29
4.22 -0.14 2.33
4.28 -0.06 2.36
4.33 0.03 2.39
4.33 0.11 2.39
4.33 0.20 2.39
4.32 0.29 2.39
4.31 0.37 2.39
4.30 0.46 2.39
4.28 0.55 2.39
4.27 0.63 2.39
4.25 0.72 2.39
4.23 0.80 2.39
4.21 0.89 2.39
4.19 0.97 2.39
4.17 1.05 2.39
4.14 1.14 2.39
4.12 1.22 2.39
4.09 1.30 2.39
4.06 1.38 2.39
4.03 1.46 2.39
3.99 1.54 2.39
3.96 1.62 2.39
3.92 1.70 2.39
3.88 1.78 2.39
3.78 1.82 2.35
3.69 1.87 2.32
3.61 1.93 2.30
3.53 1.98 2.27
3.46 2.03 2.25
3.41 2.09 2.25
3.39 2.18 2.27
3.38 2.27 2.29
3.37 2.36 2.32
3.40 2.48 2.37
3.38 2.57 2.39
3.32 2.64 2.39
3.27 2.70 2.39
3.21 2.77 2.39
3.15 2.83 2.39
3.09 2.89 2.39
3.03 2.95 2.39
2.97 3.01 2.39
2.91 3.07 2.39
2.84 3.13 2.39
2.78 3.18 2.39
2.71 3.24 2.39
2.64 3.29 2.39
2.58 3.34 2.39
2.51 3.39 2.39
2.44 3.44 2.39
2.37 3.49 2.39
2.29 3.54 2.39
2.22 3.58 2.39
2.15 3.62 2.39
2.07 3.67 2.39
2.00 3.71 2.39
1.98 3.85 2.46
1.93 3.95 2.50
1.85 3.98 2.50
1.76 4.02 2.50
1.68 4.05 2.50
1.60 4.09 2.50
1.52 4.12 2.50
1.43 4.15 2.50
1.35 4.17 2.50
1.26 4.20 2.50
1.18 4.22 2.50
1.09 4.25 2.50
1.01 4.27 2.50
0.92 4.29 2.50
0.83 4.30 2.50
0.74 4.32 2.50
0.66 4.33 2.50
0.57 4.35 2.50
0.48 4.36 2.50
0.39 4.37 2.50
0.30 4.37 2.50
0.21 4.38 2.50
0.13 4.38 2.50
0.04 4.39 2.50
-0.05 4.39 2.50
-0.14 4.39 2.50
-0.23 4.38 2.50
-0.32 4.38 2.50
-0.41 4.37 2.50
-0.50 4.36 2.50
-0.58 4.35 2.50
-0.67 4.34 2.50
-0.76 4.33 2.50
-0.85 4.31 2.50
-0.93 4.30 2.50
-1.02 4.28 2.50
-1.11 4.26 2.50
-1.20 4.24 2.50
-1.28 4.21 2.50
-1.37 4.19 2.50
-1.45 4.16 2.50
-1.54 4.13 2.50
-1.62 4.10 2.50
-1.70 4.07 2.50
-1.79 4.04 2.50
-1.87 4.00 2.50
-1.95 3.96 2.50
-2.03 3.93 2.50
-2.11 3.89 2.50
-2.19 3.84 2.50
-2.27 3.80 2.50
-2.35 3.76 2.50
-2.42 3.71 2.50
-2.50 3.66 2.50
-2.57 3.61 2.50
-2.65 3.56 2.50
-2.72 3.51 2.50
-2.79 3.46 2.50
-2.86 3.40 2.50
-2.93 3.34 2.50
-3.00 3.29 2.50
-3.07 3.23 2.50
-3.13 3.17 2.50
-3.20 3.11 2.50
-3.26 3.04 2.50
-3.33 2.98 2.50
-3.39 2.91 2.50
-3.45 2.84 2.50
-3.51 2.78 2.50
-3.57 2.71 2.50
-3.62 2.64 2.50
-3.68 2.56 2.50
-3.73 2.49 2.50
-3.78 2.42 2.50
-3.83 2.34 2.50
-3.88 2.27 2.50
-3.93 2.19 2.50
-3.98 2.11 2.50
-4.02 2.03 2.50
-4.06 1.95 2.50
-4.11 1.87 2.50
-4.15 1.79 2.50
-4.18 1.71 2.50
-4.22 1.63 2.50
-4.26 1.54 2.50
-4.29 1.46 2.50
-4.32 1.37 2.50
-4.35 1.29 2.50
-4.38 1.20 2.50
-4.41 1.11 2.50
-4.43 1.02 2.50
-4.45 0.93 2.50
-4.48 0.85 2.50
-4.50 0.76 2.50
-4.51 0.67 2.50
-4.53 0.58 2.50
-4.54 0.49 2.50
-4.56 0.39 2.50
-4.57 0.30 2.50
-4.58 0.21 2.50
-4.58 0.12 2.50
-4.59 0.03 2.50
-4.59 -0.06 2.50
-4.59 -0.16 2.50
-4.59 -0.25 2.50
-4.59 -0.34 2.50
-4.58 -0.43 2.50
-4.58 -0.52 2.50
-4.57 -0.62 2.50
-4.56 -0.71 2.50
-4.55 -0.80 2.50
-4.54 -0.89 2.50
-4.52 -0.98 2.50
-4.50 -1.07 2.50
-4.48 -1.16 2.50
-4.46 -1.25 2.50
-4.44 -1.34 2.50
-4.42 -1.43 2.50
-4.39 -1.52 2.50
-4.36 -1.61 2.50
-4.33 -1.70 2.50
-4.30 -1.79 2.50
-4.26 -1.87 2.50
-4.23 -1.96 2.50
-4.19 -2.04 2.50
-4.15 -2.13 2.50
-4.11 -2.21 2.50
-4.07 -2.30 2.50
-4.03 -2.38 2.50
-3.98 -2.46 2.50
-3.93 -2.54 2.50
-3.88 -2.62 2.50
-3.83 -2.70 2.50
-3.78 -2.78 2.50
-3.73 -2.85 2.50
-3.67 -2.93 2.50
-3.61 -3.00 2.50
-3.55 -3.07 2.50
-3.49 -3.15 2.50
-3.43 -3.22 2.50
-3.37 -3.29 2.50
-3.30 -3.35 2.50
-3.24 -3.42 2.50
-3.17 -3.49 2.50
-3.10 -3.55 2.50
-3.03 -3.61 2.50
-2.96 -3.67 2.50
-2.89 -3.73 2.50
-2.81 -3.79 2.50
-2.74 -3.85 2.50
-2.66 -3.90 2.50
-2.58 -3.96 2.50
-2.51 -4.01 2.50
-2.43 -4.06 2.50
-2.35 -4.11 2.50
-2.26 -4.15 2.50
-2.18 -4.20 2.50
-2.10 -4.24 2.50
-2.01 -4.28 2.50
-1.93 -4.32 2.50
-1.84 -4.36 2.50
-1.76 -4.40 2.50
-1.67 -4.43 2.50
-1.58 -4.47 2.50
-1.49 -4.50 2.50
-1.40 -4.53 2.50
-1.31 -4.55 2.50
-1.22 -4.58 2.50
-1.13 -4.60 2.50
-1.04 -4.63 2.50
-0.94 -4.65 2.50
-0.85 -4.66 2.50
-0.76 -4.68 2.50
-0.67 -4.69 2.50
-0.57 -4.71 2.50
-0.48 -4.72 2.50
-0.38 -4.72 2.50
-0.29 -4.73 2.50
-0.20 -4.73 2.50
-0.10 -4.74 2.50
-0.01 -4.49 2.50
0.08 -4.49 2.50
0.17 -4.48 2.50
0.26 -4.48 2.50
0.35 -4.47 2.50
0.44 -4.46 2.50
0.53 -4.45 2.50
0.61 -4.44 2.50
0.70 -4.43 2.50
0.79 -4.41 2.50
0.88 -4.39 2.50
0.96 -4.37 2.50
1.05 -4.35 2.50
1.14 -4.33 2.50
1.22 -4.30 2.50
1.31 -4.28 2.50
1.39 -4.25 2.50
1.48 -4.22 2.50
1.56 -4.19 2.50
1.64 -4.15 2.50
1.72 -4.12 2.50
1.75 -3.96 2.42
1.81 -3.88 2.39
1.88 -3.84 2.39
1.96 -3.80 2.40
2.03 -3.76 2.39
2.11 -3.71 2.39
2.18 -3.67 2.39
2.25 -3.62 2.39
2.32 -3.57 2.39
2.39 -3.53 2.39
2.46 -3.48 2.39
2.53 -3.42 2.39
2.59 -3.37 2.39
2.66 -3.32 2.39
2.72 -3.26 2.39
2.78 -3.20 2.39
2.85 -3.15 2.39
2.91 -3.09 2.39
2.96 -3.03 2.39
3.02 -2.96 2.39
3.08 -2.90 2.39
3.13 -2.84 2.39
3.19 -2.77 2.39
3.24 -2.71 2.39
3.29 -2.64 2.39
3.34 -2.57 2.39
3.39 -2.50 2.39
3.44 -2.43 2.39
3.48 -2.36 2.39
3.53 -2.29 2.39
3.57 -2.22 2.39
3.61 -2.14 2.39
3.65 -2.07 2.39
3.69 -1.99 2.39
3.72 -1.92 2.39
3.76 -1.84 2.39
3.79 -1.77 2.39
3.82 -1.69 2.39
3.85 -1.61 2.39
3.88 -1.53 2.39
3.91 -1.45 2.39
3.94 -1.37 2.39
3.96 -1.29 2.39
3.98 -1.21 2.39
4.00 -1.13 2.39
4.02 -1.05 2.39
4.04 -0.97 2.39
4.05 -0.89 2.39
4.07 -0.80 2.39
4.07 -0.72 2.39
4.07 -0.64 2.38
4.06 -0.55 2.37
4.06 -0.47 2.36
4.07 -0.39 2.37
4.12 -0.31 2.39
4.12 -0.23 2.39
4.12 -0.14 2.39
4.12 -0.06 2.39
4.11 0.02 2.39
4.11 0.11 2.39
4.10 0.19 2.39
4.10 0.27 2.39
4.09 0.35 2.39
4.08 0.43 2.39
4.06 0.52 2.39
4.05 0.60 2.39
4.03 0.68 2.39
4.02 0.76 2.39
4.00 0.84 2.39
3.98 0.92 2.39
3.96 1.00 2.39
3.93 1.08 2.39
3.91 1.16 2.39
3.88 1.23 2.39
3.85 1.31 2.39
3.82 1.39 2.39
3.79 1.46 2.39
3.76 1.54 2.39
3.72 1.61 2.39
3.69 1.69 2.39
3.65 1.76 2.39
3.61 1.83 2.39
3.57 1.90 2.39
3.51 1.96 2.38
3.44 2.01 2.36
3.41 2.09 2.37
3.40 2.18 2.39
3.35 2.25 2.39
3.31 2.31 2.39
3.26 2.38 2.39
3.21 2.44 2.39
3.15 2.50 2.39
3.10 2.57 2.39
3.05 2.63 2.39
2.99 2.69 2.39
2.94 2.75 2.39
2.88 2.80 2.39
2.82 2.86 2.39
2.76 2.92 2.39
2.70 2.97 2.39
2.64 3.02 2.39
2.58 3.07 2.39
2.51 3.12 2.39
2.45 3.17 2.39
2.38 3.22 2.39
2.32 3.27 2.39
2.25 3.31 2.39
2.18 3.36 2.39
2.11 3.40 2.39
2.04 3.44 2.39
1.98 3.49 2.40
1.97 3.66 2.49
1.91 3.71 2.50
1.83 3.75 2.50
1.75 3.78 2.50
1.68 3.82 2.50
1.60 3.85 2.50
1.52 3.88 2.50
1.44 3.91 2.50
1.36 3.94 2.50
1.28 3.96 2.50
1.20 3.99 2.50
1.12 4.01 2.50
1.04 4.03 2.50
0.95 4.05 2.50
0.87 4.07 2.50
0.79 4.09 2.50
0.71 4.10 2.50
0.62 4.12 2.50
0.54 4.13 2.50
0.46 4.14 2.50
0.37 4.15 2.50
0.29 4.15 2.50
0.20 4.16 2.50
0.12 4.16 2.50
0.04 4.17 2.50
-0.05 4.17 2.50
-0.13 4.16 2.50
-0.22 4.16 2.50
-0.30 4.16 2.50
-0.39 4.15 2.50
-0.47 4.14 2.50
-0.55 4.13 2.50
-0.64 4.12 2.50
-0.72 4.11 2.50
-0.81 4.10 2.50
-0.89 4.08 2.50
-0.97 4.06 2.50
-1.05 4.04 2.50
-1.14 4.02 2.50
-1.22 4.00 2.50
-1.30 3.98 2.50
-1.38 3.95 2.50
-1.46 3.92 2.50
-1.54 3.89 2.50
-1.62 3.86 2.50
-1.70 3.83 2.50
-1.77 3.80 2.50
-1.85 3.76 2.50
-1.93 3.73 2.50
-2.00 3.69 2.50
-2.08 3.65 2.50
-2.15 3.61 2.50
-2.23 3.57 2.50
-2.30 3.52 2.50
-2.37 3.48 2.50
-2.44 3.43 2.50
-2.51 3.38 2.50
-2.58 3.33 2.50
-2.65 3.28 2.50
-2.72 3.23 2.50
-2.78 3.17 2.50
-2.85 3.12 2.50
-2.91 3.06 2.50
-2.98 3.01 2.50
-3.04 2.95 2.50
-3.10 2.89 2.50
-3.16 2.82 2.50
-3.22 2.76 2.50
-3.27 2.70 2.50
-3.33 2.63 2.50
-3.39 2.57 2.50
-3.44 2.50 2.50
-3.49 2.43 2.50
-3.54 2.36 2.50
-3.59 2.29 2.50
-3.64 2.22 2.50
-3.69 2.15 2.50
-3.73 2.08 2.50
-3.77 2.00 2.50
