ply
format ascii 1.0
element vertex 2959
property float32 x
property float32 y
property float32 z
end_header
-2.96 -14.63 2.49
-2.67 -14.70 2.49
-2.38 -14.76 2.49
-2.08 -14.81 2.49
-1.78 -14.87 2.49
-1.49 -14.91 2.49
-1.19 -14.95 2.49
-0.89 -14.98 2.49
-0.59 -15.01 2.49
-0.29 -15.03 2.49
0.02 -13.19 2.49
0.28 -13.20 2.49
0.55 -13.20 2.49
0.81 -13.20 2.49
1.08 -13.19 2.49
1.34 -13.17 2.49
1.61 -13.15 2.49
1.87 -13.13 2.49
2.14 -13.10 2.49
2.30 -12.52 2.39
2.56 -12.48 2.39
2.81 -12.44 2.39
3.06 -12.39 2.39
3.31 -12.33 2.39
3.56 -12.27 2.39
3.81 -12.21 2.39
4.05 -12.14 2.39
4.30 -12.06 2.39
4.54 -11.98 2.39
4.79 -11.90 2.39
5.03 -11.81 2.39
5.27 -11.71 2.39
5.51 -11.61 2.39
5.74 -11.51 2.39
5.98 -11.40 2.39
6.21 -11.28 2.39
6.45 -11.18 2.39
6.67 -11.05 2.39
6.90 -10.92 2.39
7.12 -10.79 2.39
7.34 -10.65 2.39
7.56 -10.51 2.39
7.77 -10.36 2.39
7.98 -10.21 2.39
8.19 -10.05 2.39
8.40 -9.89 2.39
8.60 -9.73 2.39
8.80 -9.56 2.39
8.99 -9.39 2.39
9.18 -9.21 2.39
9.37 -9.03 2.39
9.56 -8.85 2.39
9.74 -8.66 2.39
9.92 -8.47 2.39
10.09 -8.27 2.39
10.26 -8.07 2.39
10.42 -7.87 2.39
10.59 -7.66 2.39
10.74 -7.45 2.39
10.90 -7.24 2.39
11.04 -7.02 2.39
11.19 -6.80 2.39
11.33 -6.58 2.39
11.46 -6.35 2.39
11.59 -6.12 2.39
11.72 -5.89 2.39
11.84 -5.66 2.39
11.95 -5.42 2.39
12.07 -5.19 2.39
12.17 -4.94 2.39
12.27 -4.70 2.39
12.37 -4.46 2.39
12.46 -4.21 2.39
12.55 -3.96 2.39
12.63 -3.71 2.39
12.70 -3.45 2.39
12.77 -3.20 2.39
12.84 -2.94 2.39
12.90 -2.69 2.39
12.95 -2.43 2.39
13.00 -2.17 2.39
13.05 -1.91 2.39
13.09 -1.65 2.39
13.12 -1.38 2.39
13.15 -1.12 2.39
13.17 -0.86 2.39
13.19 -0.59 2.39
13.20 -0.33 2.39
13.20 -0.06 2.39
13.20 0.20 2.39
13.20 0.47 2.39
13.19 0.73 2.39
13.17 0.99 2.39
13.15 1.26 2.39
13.12 1.52 2.39
13.09 1.78 2.39
13.05 2.05 2.39
13.01 2.31 2.39
12.96 2.57 2.39
12.90 2.83 2.39
12.84 3.09 2.39
12.78 3.34 2.39
12.71 3.60 2.39
12.63 3.85 2.39
12.55 4.10 2.39
12.46 4.35 2.39
12.37 4.60 2.39
12.27 4.85 2.39
12.17 5.09 2.39
12.07 5.33 2.39
11.95 5.57 2.39
11.84 5.81 2.39
11.72 6.05 2.39
11.59 6.28 2.39
11.46 6.51 2.39
11.32 6.73 2.39
11.18 6.96 2.39
11.04 7.18 2.39
10.89 7.40 2.39
10.73 7.61 2.39
10.58 7.82 2.39
10.41 8.03 2.39
10.25 8.23 2.39
10.07 8.43 2.39
9.90 8.63 2.39
9.72 8.82 2.39
9.54 9.01 2.39
9.35 9.20 2.39
9.16 9.38 2.39
8.97 9.56 2.39
8.77 9.73 2.39
8.57 9.90 2.39
8.36 10.07 2.39
8.16 10.23 2.39
7.95 10.38 2.39
7.73 10.53 2.39
7.52 10.68 2.39
7.30 10.82 2.39
7.07 10.96 2.39
6.84 11.08 2.39
6.61 11.21 2.39
5.65 10.04 2.12
6.15 11.45 2.39
5.92 11.57 2.39
5.68 11.68 2.39
5.44 11.78 2.39
5.20 11.88 2.39
4.96 11.98 2.39
4.71 12.07 2.39
4.47 12.15 2.39
4.22 12.23 2.39
3.97 12.30 2.39
3.72 12.37 2.39
3.47 12.44 2.39
3.22 12.50 2.39
2.96 12.55 2.39
2.83 13.14 2.49
2.56 13.19 2.49
2.29 13.23 2.49
2.03 13.26 2.49
1.76 13.29 2.49
1.49 13.31 2.49
1.22 13.33 2.49
0.95 13.34 2.49
0.69 13.35 2.49
0.42 13.35 2.49
0.15 13.35 2.49
-0.12 13.34 2.49
-0.39 13.32 2.49
-0.65 13.30 2.49
-0.92 13.28 2.49
-1.18 13.25 2.49
-1.45 13.21 2.49
-1.71 13.17 2.49
-1.97 13.12 2.49
-2.24 13.07 2.49
-2.50 13.01 2.49
-2.75 12.95 2.49
-3.01 12.89 2.49
-3.27 12.81 2.49
-3.52 12.74 2.49
-3.77 12.65 2.49
-4.02 12.57 2.49
-4.27 12.47 2.49
-4.52 12.38 2.49
-4.76 12.28 2.49
-5.01 12.17 2.49
-5.15 11.83 2.45
-5.26 11.45 2.39
-5.48 11.33 2.39
-5.70 11.21 2.39
-5.92 11.09 2.39
-6.14 10.96 2.39
-6.35 10.83 2.39
-6.57 10.69 2.39
-6.78 10.55 2.39
-6.98 10.40 2.39
-7.18 10.25 2.39
-7.38 10.10 2.39
-7.58 9.94 2.39
-7.77 9.78 2.39
-7.96 9.62 2.39
-8.15 9.45 2.39
-8.33 9.28 2.39
-8.51 9.11 2.39
-8.69 8.93 2.39
-8.86 8.75 2.39
-9.03 8.56 2.39
-9.20 8.38 2.39
-10.28 9.00 2.63
-10.40 8.73 2.61
-10.51 8.47 2.60
-10.62 8.21 2.59
-10.74 7.97 2.58
-10.88 7.73 2.57
-10.98 7.48 2.56
-11.07 7.22 2.55
-11.16 6.96 2.54
-11.24 6.71 2.53
-11.31 6.44 2.51
-11.36 6.17 2.50
-11.40 5.90 2.48
-11.45 5.63 2.47
-11.51 5.38 2.46
-11.56 5.13 2.45
-11.62 4.87 2.44
-11.63 4.61 2.42
-11.64 4.34 2.41
-11.65 4.08 2.39
-11.65 3.82 2.38
-11.66 3.56 2.37
-11.66 3.31 2.35
-11.66 3.06 2.34
-11.65 2.81 2.33
-11.62 2.55 2.31
-11.59 2.30 2.30
-11.56 2.06 2.28
-11.53 1.81 2.27
-11.50 1.57 2.26
-11.48 1.34 2.25
-11.46 1.10 2.24
-11.44 0.87 2.23
-11.42 0.63 2.22
-11.38 0.40 2.22
-11.28 0.17 2.20
-11.19 -0.05 2.18
-11.10 -0.28 2.16
-11.03 -0.50 2.15
-11.01 -0.72 2.15
-10.98 -0.94 2.15
-10.95 -1.16 2.14
-10.93 -1.38 2.14
-10.90 -1.60 2.14
-10.87 -1.82 2.15
-5.94 -1.12 1.18
-10.80 -2.26 2.15
-10.75 -2.47 2.15
-10.71 -2.69 2.15
-10.68 -2.91 2.16
-10.65 -3.13 2.16
-10.61 -3.36 2.17
-10.55 -3.57 2.17
-10.49 -3.79 2.17
-10.42 -4.00 2.17
-10.35 -4.22 2.18
-10.28 -4.43 2.18
-10.24 -4.66 2.19
-10.20 -4.89 2.20
-10.16 -5.12 2.21
-10.10 -5.35 2.22
-10.04 -5.58 2.23
-9.98 -5.81 2.24
-9.92 -6.05 2.26
-9.86 -6.28 2.27
-9.79 -6.52 2.28
-9.74 -6.78 2.30
-9.70 -7.04 2.32
-9.65 -7.30 2.35
-9.60 -7.57 2.37
-9.53 -7.83 2.39
-9.37 -8.03 2.39
-9.21 -8.22 2.39
-9.05 -8.40 2.39
-8.88 -8.59 2.39
-8.71 -8.77 2.39
-8.54 -8.94 2.39
-8.36 -9.12 2.39
-8.18 -9.29 2.39
-7.99 -9.46 2.39
-7.80 -9.62 2.39
-7.61 -9.78 2.39
-7.42 -9.93 2.39
-7.22 -10.09 2.39
-7.02 -10.23 2.39
-6.82 -10.38 2.39
-6.61 -10.52 2.39
-6.40 -10.66 2.39
-6.19 -10.79 2.39
-5.98 -10.92 2.39
-5.78 -11.08 2.40
-5.78 -11.64 2.49
-5.55 -11.76 2.49
-5.31 -11.88 2.49
-5.08 -11.99 2.49
-4.84 -12.10 2.49
-4.60 -12.20 2.49
-4.35 -12.30 2.49
-4.11 -12.39 2.49
-3.86 -12.48 2.49
-3.61 -12.56 2.49
-3.36 -12.64 2.49
-3.11 -12.71 2.49
-2.85 -12.78 2.49
-2.60 -12.84 2.49
-2.34 -12.90 2.49
-2.08 -12.95 2.49
-1.82 -13.00 2.49
-1.56 -13.05 2.49
-1.30 -13.08 2.49
-1.04 -13.12 2.49
-0.78 -13.14 2.49
-0.51 -13.17 2.49
-0.25 -13.18 2.49
0.02 -11.74 2.49
0.25 -11.74 2.49
0.49 -11.74 2.49
0.72 -11.74 2.49
0.96 -11.73 2.49
1.20 -11.72 2.49
1.43 -11.70 2.49
1.67 -11.67 2.49
1.90 -11.65 2.49
2.14 -11.61 2.49
2.29 -11.16 2.41
2.50 -11.06 2.39
2.72 -11.01 2.39
2.94 -10.96 2.39
3.16 -10.91 2.39
3.38 -10.85 2.39
3.60 -10.78 2.39
3.82 -10.72 2.39
4.04 -10.64 2.39
4.25 -10.57 2.39
4.47 -10.49 2.39
4.68 -10.40 2.39
4.89 -10.31 2.39
5.10 -10.22 2.39
5.31 -10.12 2.39
5.51 -10.02 2.39
5.72 -9.91 2.39
5.92 -9.80 2.39
6.12 -9.69 2.39
6.31 -9.57 2.39
6.52 -9.45 2.39
6.71 -9.33 2.39
6.90 -9.20 2.39
7.09 -9.06 2.39
7.27 -8.92 2.39
7.45 -8.78 2.39
7.63 -8.63 2.39
7.81 -8.48 2.39
7.98 -8.33 2.39
8.15 -8.17 2.39
8.32 -8.01 2.39
8.48 -7.85 2.39
8.64 -7.68 2.39
8.80 -7.51 2.39
8.95 -7.33 2.39
9.10 -7.16 2.39
9.25 -6.98 2.39
9.39 -6.79 2.39
9.53 -6.61 2.39
9.66 -6.42 2.39
9.79 -6.22 2.39
9.92 -6.03 2.39
10.04 -5.83 2.39
10.16 -5.63 2.39
10.28 -5.43 2.39
10.39 -5.22 2.39
10.49 -5.02 2.39
10.60 -4.81 2.39
10.70 -4.59 2.39
10.79 -4.38 2.39
10.88 -4.17 2.39
10.96 -3.95 2.39
11.04 -3.73 2.39
11.12 -3.51 2.39
11.19 -3.28 2.39
11.26 -3.06 2.39
11.32 -2.83 2.39
11.38 -2.61 2.39
11.43 -2.38 2.39
11.48 -2.15 2.39
11.52 -1.92 2.39
11.56 -1.69 2.39
11.59 -1.46 2.39
11.62 -1.23 2.39
11.65 -0.99 2.39
11.67 -0.76 2.39
11.68 -0.52 2.39
11.69 -0.29 2.39
11.69 -0.06 2.39
11.69 0.18 2.39
11.69 0.41 2.39
11.68 0.65 2.39
11.67 0.88 2.39
11.65 1.11 2.39
11.62 1.35 2.39
11.59 1.58 2.39
11.56 1.81 2.39
11.52 2.04 2.39
11.48 2.27 2.39
11.43 2.50 2.39
11.38 2.73 2.39
11.32 2.96 2.39
11.26 3.19 2.39
11.19 3.41 2.39
11.12 3.63 2.39
11.04 3.86 2.39
10.96 4.08 2.39
10.87 4.29 2.39
10.78 4.51 2.39
10.69 4.72 2.39
10.59 4.94 2.39
10.49 5.15 2.39
10.38 5.36 2.39
10.27 5.56 2.39
10.15 5.76 2.39
10.03 5.97 2.39
9.91 6.16 2.39
9.78 6.36 2.39
9.65 6.55 2.39
9.51 6.74 2.39
9.37 6.93 2.39
9.23 7.11 2.39
9.08 7.30 2.39
8.93 7.47 2.39
8.78 7.65 2.39
8.62 7.82 2.39
8.46 7.99 2.39
8.29 8.15 2.39
8.12 8.31 2.39
7.95 8.47 2.39
7.78 8.63 2.39
7.60 8.78 2.39
7.42 8.92 2.39
7.23 9.07 2.39
7.05 9.21 2.39
6.85 9.33 2.39
6.66 9.46 2.39
6.46 9.59 2.39
6.27 9.71 2.39
6.07 9.83 2.39
5.87 9.95 2.39
5.60 9.95 2.36
5.46 10.16 2.39
5.25 10.26 2.39
5.04 10.36 2.39
4.83 10.46 2.39
4.62 10.54 2.39
4.40 10.63 2.39
4.18 10.71 2.39
3.97 10.78 2.39
3.75 10.86 2.39
3.53 10.92 2.39
3.31 10.98 2.39
3.08 11.04 2.39
2.89 11.22 2.42
2.75 11.62 2.49
2.51 11.67 2.49
2.28 11.71 2.49
2.04 11.75 2.49
1.80 11.78 2.49
1.56 11.80 2.49
1.33 11.83 2.49
1.09 11.84 2.49
0.85 11.85 2.49
0.61 11.86 2.49
0.37 11.86 2.49
0.14 11.86 2.49
-0.10 11.85 2.49
-0.34 11.84 2.49
-0.58 11.82 2.49
-0.81 11.80 2.49
-1.05 11.78 2.49
-1.29 11.75 2.49
-1.52 11.71 2.49
-1.75 11.67 2.49
-1.99 11.62 2.49
-2.22 11.57 2.49
-2.45 11.52 2.49
-2.68 11.46 2.49
-2.90 11.40 2.49
-3.13 11.33 2.49
-3.36 11.26 2.49
-3.58 11.18 2.49
-3.80 11.10 2.49
-4.02 11.01 2.49
-4.24 10.92 2.49
-4.45 10.83 2.49
-4.67 10.73 2.49
-4.88 10.63 2.49
-5.09 10.52 2.49
-5.19 10.21 2.44
-5.27 9.87 2.39
-5.47 9.76 2.39
-5.66 9.64 2.39
-5.85 9.52 2.39
-6.03 9.39 2.39
-6.22 9.27 2.39
-6.40 9.13 2.39
-6.58 9.00 2.39
-6.75 8.86 2.39
-6.92 8.72 2.39
-7.09 8.57 2.39
-7.26 8.42 2.39
-7.42 8.27 2.39
-7.58 8.12 2.39
-7.74 7.96 2.39
-7.90 7.80 2.39
-8.05 7.63 2.39
-8.20 7.47 2.39
-8.34 7.30 2.39
-8.48 7.12 2.39
-8.62 6.95 2.39
-8.75 6.77 2.39
-8.88 6.59 2.39
-9.01 6.41 2.39
-9.13 6.22 2.39
-9.25 6.03 2.39
-10.50 6.55 2.68
-10.58 6.31 2.67
-10.66 6.07 2.66
-10.72 5.83 2.65
-10.78 5.58 2.63
-10.84 5.34 2.62
-10.90 5.10 2.61
-10.96 4.86 2.60
-11.01 4.62 2.59
-11.06 4.38 2.58
-11.09 4.14 2.57
-11.10 3.89 2.56
-11.10 3.64 2.54
-11.11 3.40 2.53
-11.12 3.16 2.51
-11.12 2.92 2.50
-11.12 2.68 2.49
-11.12 2.44 2.48
-11.11 2.21 2.47
-11.08 1.97 2.45
-11.06 1.74 2.44
-11.03 1.51 2.43
-11.02 1.28 2.42
-11.00 1.06 2.41
-10.98 0.83 2.40
-10.96 0.61 2.39
-10.94 0.39 2.39
-10.91 0.17 2.38
-10.89 -0.05 2.38
-10.81 -0.27 2.36
-10.74 -0.48 2.35
-10.71 -0.70 2.34
-10.69 -0.91 2.34
-10.66 -1.13 2.34
-10.64 -1.34 2.34
-10.61 -1.55 2.34
-6.02 -1.01 1.33
-5.94 -1.12 1.32
-10.46 -2.18 2.33
-10.40 -2.39 2.33
-10.36 -2.60 2.33
-10.32 -2.81 2.33
-10.26 -3.02 2.33
-10.21 -3.23 2.33
-10.14 -3.43 2.34
-10.08 -3.64 2.34
-10.02 -3.85 2.34
-9.95 -4.05 2.34
-9.89 -4.26 2.35
-9.82 -4.47 2.35
-9.77 -4.68 2.36
-9.73 -4.91 2.38
-9.70 -5.14 2.39
-9.59 -5.33 2.39
-9.49 -5.53 2.39
-9.38 -5.72 2.39
-9.26 -5.91 2.39
-9.14 -6.09 2.39
-9.02 -6.28 2.39
-8.90 -6.46 2.39
-8.77 -6.64 2.39
-8.63 -6.81 2.39
-8.50 -6.99 2.39
-8.36 -7.16 2.39
-8.22 -7.33 2.39
-8.07 -7.50 2.39
-7.92 -7.66 2.39
-7.77 -7.82 2.39
-7.61 -7.98 2.39
-7.45 -8.13 2.39
-7.29 -8.28 2.39
-7.13 -8.43 2.39
-6.96 -8.58 2.39
-6.79 -8.72 2.39
-6.61 -8.86 2.39
-6.44 -8.99 2.39
-6.26 -9.12 2.39
-6.08 -9.25 2.39
-5.89 -9.38 2.39
-5.74 -9.55 2.40
-5.74 -10.00 2.49
-5.55 -10.15 2.49
-5.35 -10.26 2.49
-5.15 -10.37 2.49
-4.94 -10.48 2.49
-4.73 -10.58 2.49
-4.52 -10.68 2.49
-4.31 -10.78 2.49
-4.09 -10.87 2.49
-3.88 -10.95 2.49
-3.66 -11.04 2.49
-3.44 -11.11 2.49
-3.21 -11.19 2.49
-2.99 -11.26 2.49
-2.77 -11.32 2.49
-2.54 -11.38 2.49
-2.31 -11.44 2.49
-2.08 -11.49 2.49
-1.85 -11.53 2.49
-1.62 -11.57 2.49
-1.39 -11.61 2.49
-1.16 -11.64 2.49
-0.92 -11.67 2.49
-0.69 -11.70 2.49
-0.45 -11.72 2.49
-0.22 -11.73 2.49
0.02 -10.56 2.49
0.23 -10.57 2.49
0.44 -10.57 2.49
0.65 -10.56 2.49
0.87 -10.55 2.49
1.08 -10.54 2.49
1.29 -10.52 2.49
1.50 -10.50 2.49
1.71 -10.47 2.49
1.92 -10.44 2.49
2.13 -10.41 2.49
2.31 -10.20 2.45
2.45 -9.90 2.39
2.65 -9.85 2.39
2.85 -9.80 2.39
3.04 -9.75 2.39
3.24 -9.69 2.39
3.44 -9.63 2.39
3.63 -9.57 2.39
3.83 -9.50 2.39
4.02 -9.42 2.39
4.21 -9.35 2.39
4.40 -9.27 2.39
4.59 -9.18 2.39
4.77 -9.09 2.39
4.96 -9.00 2.39
5.14 -8.90 2.39
5.32 -8.80 2.39
5.50 -8.70 2.39
5.67 -8.59 2.39
5.85 -8.48 2.39
6.02 -8.37 2.39
6.19 -8.25 2.39
6.36 -8.13 2.39
6.53 -8.01 2.39
6.69 -7.88 2.39
6.85 -7.75 2.39
7.01 -7.62 2.39
7.17 -7.48 2.39
7.32 -7.34 2.39
7.47 -7.19 2.39
7.61 -7.04 2.39
7.76 -6.89 2.39
7.90 -6.74 2.39
8.03 -6.58 2.39
8.17 -6.42 2.39
8.30 -6.26 2.39
8.43 -6.10 2.39
8.55 -5.93 2.39
8.67 -5.76 2.39
8.79 -5.58 2.39
8.90 -5.41 2.39
9.01 -5.23 2.39
9.12 -5.05 2.39
9.22 -4.87 2.39
9.32 -4.69 2.39
9.42 -4.50 2.39
9.51 -4.31 2.39
9.59 -4.12 2.39
9.68 -3.93 2.39
9.76 -3.74 2.39
9.83 -3.54 2.39
9.91 -3.34 2.39
9.97 -3.15 2.39
10.04 -2.95 2.39
10.10 -2.74 2.39
10.15 -2.54 2.39
10.20 -2.34 2.39
10.25 -2.13 2.39
10.29 -1.93 2.39
10.33 -1.72 2.39
10.37 -1.51 2.39
10.40 -1.31 2.39
10.42 -1.10 2.39
10.44 -0.89 2.39
10.46 -0.68 2.39
10.47 -0.47 2.39
10.48 -0.26 2.39
10.49 -0.05 2.39
10.49 0.16 2.39
10.48 0.37 2.39
10.47 0.58 2.39
10.46 0.79 2.39
10.44 1.00 2.39
10.42 1.21 2.39
10.39 1.42 2.39
10.36 1.63 2.39
10.33 1.83 2.39
10.29 2.04 2.39
10.25 2.25 2.39
10.20 2.45 2.39
10.15 2.65 2.39
10.09 2.86 2.39
10.03 3.06 2.39
9.97 3.26 2.39
9.90 3.46 2.39
9.83 3.65 2.39
9.75 3.85 2.39
9.67 4.04 2.39
9.59 4.24 2.39
9.50 4.43 2.39
9.41 4.62 2.39
9.31 4.80 2.39
9.21 4.99 2.39
9.11 5.17 2.39
9.00 5.35 2.39
8.89 5.53 2.39
8.77 5.70 2.39
8.65 5.88 2.39
8.53 6.05 2.39
8.41 6.22 2.39
8.28 6.38 2.39
8.15 6.54 2.39
8.01 6.70 2.39
7.87 6.86 2.39
7.73 7.02 2.39
7.59 7.17 2.39
7.44 7.31 2.39
7.29 7.46 2.39
7.13 7.60 2.39
6.98 7.74 2.39
6.81 7.87 2.39
6.65 8.00 2.39
6.49 8.13 2.39
6.32 8.25 2.39
6.15 8.37 2.39
5.98 8.49 2.39
5.80 8.61 2.39
5.63 8.72 2.39
5.45 8.82 2.39
5.27 8.93 2.39
5.09 9.03 2.39
4.90 9.12 2.39
4.72 9.21 2.39
4.53 9.30 2.39
4.34 9.39 2.39
4.15 9.47 2.39
3.95 9.54 2.39
3.76 9.62 2.39
3.56 9.68 2.39
3.37 9.75 2.39
3.17 9.81 2.39
2.97 9.87 2.39
2.86 10.24 2.47
2.68 10.40 2.49
2.47 10.44 2.49
2.26 10.48 2.49
2.05 10.52 2.49
1.83 10.55 2.49
1.62 10.58 2.49
1.41 10.61 2.49
1.19 10.63 2.49
0.98 10.64 2.49
0.77 10.65 2.49
0.55 10.66 2.49
0.34 10.66 2.49
0.12 10.66 2.49
-0.09 10.66 2.49
-0.30 10.65 2.49
-0.52 10.63 2.49
-0.73 10.61 2.49
-0.94 10.59 2.49
-1.15 10.56 2.49
-1.37 10.53 2.49
-1.58 10.50 2.49
-1.78 10.46 2.49
-1.99 10.41 2.49
-2.20 10.36 2.49
-2.41 10.31 2.49
-2.61 10.25 2.49
-2.82 10.19 2.49
-3.02 10.13 2.49
-3.22 10.06 2.49
-3.42 9.99 2.49
-3.62 9.91 2.49
-3.81 9.83 2.49
-4.01 9.75 2.49
-4.20 9.66 2.49
-4.39 9.57 2.49
-4.58 9.47 2.49
-4.76 9.37 2.49
-4.95 9.27 2.49
-5.13 9.17 2.49
-5.23 8.91 2.45
-5.26 8.57 2.39
-5.45 8.49 2.40
-5.60 8.34 2.39
-5.76 8.23 2.39
-5.92 8.10 2.39
-6.08 7.98 2.39
-6.24 7.85 2.39
-6.39 7.72 2.39
-6.54 7.59 2.39
-6.69 7.45 2.39
-6.83 7.31 2.39
-6.97 7.17 2.39
-7.11 7.02 2.39
-7.25 6.88 2.39
-7.38 6.73 2.39
-7.51 6.57 2.39
-7.64 6.42 2.39
-7.76 6.26 2.39
-7.89 6.10 2.39
-8.00 5.94 2.39
-8.12 5.78 2.39
-8.23 5.61 2.39
-8.34 5.44 2.39
-8.44 5.27 2.39
-8.54 5.10 2.39
-8.64 4.92 2.39
-8.73 4.75 2.39
-8.82 4.57 2.39
-8.91 4.39 2.39
-8.99 4.21 2.39
-9.07 4.02 2.39
-9.15 3.84 2.39
-9.22 3.65 2.39
-9.29 3.47 2.39
-9.36 3.28 2.39
-10.60 3.48 2.69
-10.61 3.24 2.68
-10.62 3.01 2.66
-10.62 2.79 2.65
-10.63 2.56 2.64
-10.63 2.34 2.63
-10.63 2.11 2.62
-10.62 1.89 2.61
-10.61 1.67 2.60
-10.60 1.45 2.58
-10.58 1.23 2.57
-10.57 1.01 2.57
-10.55 0.80 2.56
-10.53 0.59 2.55
-10.51 0.37 2.54
-10.47 0.16 2.53
-10.44 -0.05 2.52
-10.40 -0.26 2.52
-10.37 -0.47 2.51
-10.35 -0.67 2.51
-10.31 -0.88 2.50
-10.26 -1.08 2.50
-10.21 -1.29 2.49
-10.16 -1.49 2.48
-5.98 -1.00 1.47
-5.91 -1.11 1.46
-10.00 -2.09 2.47
-9.95 -2.29 2.47
-9.89 -2.48 2.47
-9.54 -2.60 2.39
-9.48 -2.79 2.39
-9.42 -2.98 2.39
-9.36 -3.17 2.39
-9.30 -3.36 2.39
-9.23 -3.54 2.39
-9.16 -3.73 2.39
-9.08 -3.91 2.39
-9.00 -4.10 2.39
-8.92 -4.28 2.39
-8.83 -4.46 2.39
-8.74 -4.63 2.39
-8.65 -4.81 2.39
-8.55 -4.98 2.39
-8.45 -5.16 2.39
-8.35 -5.33 2.39
-8.24 -5.49 2.39
-8.13 -5.66 2.39
-8.02 -5.82 2.39
-7.90 -5.99 2.39
-7.78 -6.14 2.39
-7.66 -6.30 2.39
-7.54 -6.46 2.39
-7.41 -6.61 2.39
-7.27 -6.76 2.39
-7.14 -6.91 2.39
-7.00 -7.05 2.39
-6.86 -7.19 2.39
-6.72 -7.33 2.39
-6.57 -7.47 2.39
-6.42 -7.60 2.39
-6.27 -7.73 2.39
-6.12 -7.86 2.39
-5.96 -7.98 2.39
-5.80 -8.10 2.39
-5.70 -8.31 2.42
-5.70 -8.69 2.49
-5.54 -8.81 2.49
-5.36 -8.93 2.49
-5.18 -9.04 2.49
-5.00 -9.14 2.49
-4.82 -9.25 2.49
-4.64 -9.35 2.49
-4.45 -9.44 2.49
-4.26 -9.53 2.49
-4.07 -9.62 2.49
-3.88 -9.71 2.49
-3.68 -9.79 2.49
-3.49 -9.87 2.49
-3.29 -9.94 2.49
-3.09 -10.01 2.49
-2.89 -10.07 2.49
-2.69 -10.14 2.49
-2.49 -10.19 2.49
-2.28 -10.25 2.49
-2.08 -10.30 2.49
-1.87 -10.34 2.49
-1.67 -10.38 2.49
-1.46 -10.42 2.49
-1.25 -10.45 2.49
-1.04 -10.48 2.49
-0.83 -10.51 2.49
-0.62 -10.53 2.49
-0.41 -10.54 2.49
-0.20 -10.56 2.49
0.02 -9.59 2.49
0.21 -9.59 2.49
0.40 -9.59 2.49
0.59 -9.59 2.49
0.79 -9.58 2.49
0.98 -9.57 2.49
1.17 -9.55 2.49
1.36 -9.53 2.49
1.56 -9.51 2.49
1.75 -9.48 2.49
1.94 -9.45 2.49
2.13 -9.41 2.49
2.32 -9.37 2.49
2.40 -8.94 2.39
2.58 -8.90 2.39
2.76 -8.85 2.39
2.94 -8.80 2.39
3.12 -8.74 2.39
3.30 -8.68 2.39
3.47 -8.62 2.39
3.65 -8.55 2.39
3.82 -8.48 2.39
3.99 -8.41 2.39
4.16 -8.33 2.39
4.33 -8.25 2.39
4.50 -8.16 2.39
4.66 -8.07 2.39
4.82 -7.98 2.39
4.99 -7.89 2.39
5.15 -7.79 2.39
5.30 -7.69 2.39
5.46 -7.59 2.39
5.61 -7.48 2.39
5.77 -7.37 2.39
5.91 -7.25 2.39
6.06 -7.14 2.39
6.21 -7.02 2.39
6.35 -6.90 2.39
6.50 -6.78 2.39
6.63 -6.65 2.39
6.77 -6.52 2.39
6.90 -6.38 2.39
7.03 -6.25 2.39
7.16 -6.11 2.39
7.28 -5.96 2.39
7.40 -5.82 2.39
7.52 -5.67 2.39
7.64 -5.52 2.39
7.75 -5.37 2.39
7.86 -5.22 2.39
7.96 -5.06 2.39
8.07 -4.90 2.39
8.17 -4.74 2.39
8.26 -4.58 2.39
8.35 -4.41 2.39
8.44 -4.24 2.39
8.53 -4.08 2.39
8.61 -3.90 2.39
8.69 -3.73 2.39
8.77 -3.56 2.39
8.84 -3.38 2.39
8.91 -3.21 2.39
8.97 -3.03 2.39
9.03 -2.85 2.39
9.09 -2.67 2.39
9.14 -2.48 2.39
9.19 -2.30 2.39
9.24 -2.12 2.39
9.28 -1.93 2.39
9.32 -1.75 2.39
9.36 -1.56 2.39
9.39 -1.37 2.39
9.41 -1.18 2.39
9.44 -0.99 2.39
9.46 -0.81 2.39
9.47 -0.62 2.39
9.48 -0.43 2.39
9.49 -0.24 2.39
9.50 -0.05 2.39
9.50 0.15 2.39
9.49 0.34 2.39
9.48 0.53 2.39
9.47 0.72 2.39
9.46 0.91 2.39
9.44 1.09 2.39
9.41 1.28 2.39
9.38 1.47 2.39
9.35 1.66 2.39
9.32 1.85 2.39
9.28 2.03 2.39
9.24 2.22 2.39
9.19 2.40 2.39
9.14 2.59 2.39
9.08 2.77 2.39
9.03 2.95 2.39
8.96 3.13 2.39
8.90 3.31 2.39
8.83 3.49 2.39
8.76 3.66 2.39
8.68 3.84 2.39
8.60 4.01 2.39
8.52 4.18 2.39
8.43 4.35 2.39
8.34 4.52 2.39
8.25 4.68 2.39
8.15 4.84 2.39
8.05 5.01 2.39
7.95 5.17 2.39
7.84 5.32 2.39
7.73 5.48 2.39
7.62 5.63 2.39
7.50 5.78 2.39
7.38 5.93 2.39
7.26 6.07 2.39
7.13 6.21 2.39
7.00 6.35 2.39
6.87 6.49 2.39
6.73 6.62 2.39
6.60 6.75 2.39
6.46 6.88 2.39
6.32 7.00 2.39
6.17 7.13 2.39
6.03 7.25 2.39
5.88 7.36 2.39
5.73 7.48 2.39
5.57 7.59 2.39
5.42 7.69 2.39
5.26 7.80 2.39
5.10 7.90 2.39
4.94 8.00 2.39
4.78 8.09 2.39
4.61 8.18 2.39
4.44 8.27 2.39
4.27 8.35 2.39
4.10 8.43 2.39
3.93 8.51 2.39
3.76 8.58 2.39
3.59 8.65 2.39
3.41 8.72 2.39
3.23 8.78 2.39
3.05 8.84 2.39
2.88 8.89 2.39
2.81 9.33 2.49
2.62 9.38 2.49
2.43 9.43 2.49
2.24 9.47 2.49
2.05 9.51 2.49
1.86 9.54 2.49
1.67 9.57 2.49
1.47 9.60 2.49
1.28 9.62 2.49
1.08 9.64 2.49
0.89 9.65 2.49
0.70 9.67 2.49
0.50 9.67 2.49
0.31 9.68 2.49
0.11 9.67 2.49
-0.08 9.67 2.49
-0.27 9.66 2.49
-0.47 9.65 2.49
-0.66 9.63 2.49
-0.85 9.61 2.49
-1.05 9.59 2.49
-1.24 9.56 2.49
-1.43 9.53 2.49
-1.62 9.49 2.49
-1.81 9.45 2.49
-2.00 9.41 2.49
-2.18 9.36 2.49
-2.37 9.31 2.49
-2.55 9.26 2.49
-2.74 9.20 2.49
-2.92 9.14 2.49
-3.10 9.07 2.49
-3.28 9.00 2.49
-3.46 8.93 2.49
-3.64 8.85 2.49
-3.81 8.77 2.49
-3.99 8.69 2.49
-4.16 8.61 2.49
-4.33 8.52 2.49
-4.49 8.42 2.49
-4.66 8.33 2.49
-4.82 8.23 2.49
-4.99 8.12 2.49
-5.15 8.02 2.49
-5.25 7.84 2.47
-5.27 7.53 2.41
-5.38 7.37 2.39
-5.52 7.25 2.39
-5.67 7.14 2.39
-5.81 7.02 2.39
-5.94 6.90 2.39
-6.08 6.77 2.39
-6.21 6.65 2.39
-6.34 6.52 2.39
-6.47 6.39 2.39
-6.59 6.25 2.39
-6.71 6.12 2.39
-6.83 5.98 2.39
-6.95 5.84 2.39
-7.06 5.69 2.39
-7.17 5.55 2.39
-7.28 5.40 2.39
-7.38 5.25 2.39
-7.48 5.10 2.39
-7.58 4.95 2.39
-7.68 4.79 2.39
-7.77 4.64 2.39
-7.86 4.48 2.39
-7.94 4.32 2.39
-8.02 4.16 2.39
-8.10 3.99 2.39
-8.18 3.83 2.39
-8.25 3.66 2.39
-8.32 3.49 2.39
-8.39 3.32 2.39
-8.45 3.15 2.39
-8.51 2.98 2.39
-8.57 2.81 2.39
-8.62 2.64 2.39
-8.67 2.46 2.39
-8.72 2.29 2.39
-8.76 2.11 2.39
-8.80 1.93 2.39
-8.83 1.76 2.39
-8.86 1.58 2.39
-8.89 1.40 2.39
-8.92 1.22 2.39
-8.94 1.04 2.39
-8.96 0.86 2.39
-8.97 0.68 2.39
-8.98 0.50 2.39
-8.99 0.32 2.39
-8.99 0.14 2.39
-8.99 -0.04 2.39
-8.99 -0.22 2.39
-8.98 -0.40 2.39
-8.97 -0.58 2.39
-8.96 -0.77 2.39
-8.94 -0.94 2.39
-8.92 -1.12 2.39
-8.90 -1.30 2.39
-5.97 -1.00 1.61
-5.91 -1.11 1.60
-8.80 -1.84 2.39
-8.76 -2.01 2.39
-8.72 -2.19 2.39
-8.68 -2.37 2.39
-8.63 -2.54 2.39
-8.57 -2.71 2.39
-8.52 -2.88 2.39
-8.46 -3.06 2.39
-8.40 -3.23 2.39
-8.33 -3.39 2.39
-8.26 -3.56 2.39
-8.19 -3.73 2.39
-8.12 -3.89 2.39
-8.04 -4.05 2.39
-7.96 -4.22 2.39
-7.87 -4.38 2.39
-7.78 -4.53 2.39
-7.69 -4.69 2.39
-7.60 -4.85 2.39
-7.50 -5.00 2.39
-7.40 -5.15 2.39
-7.30 -5.30 2.39
-7.19 -5.44 2.39
-7.08 -5.59 2.39
-6.97 -5.73 2.39
-6.85 -5.87 2.39
-6.74 -6.01 2.39
-6.62 -6.15 2.39
-6.49 -6.28 2.39
-6.37 -6.41 2.39
-6.24 -6.54 2.39
-6.11 -6.67 2.39
-5.98 -6.79 2.39
-5.84 -6.91 2.39
-5.70 -7.03 2.39
-5.67 -7.28 2.44
-5.65 -7.57 2.49
-5.50 -7.69 2.49
-5.35 -7.80 2.49
-5.19 -7.91 2.49
-5.03 -8.01 2.49
-4.87 -8.12 2.49
-4.71 -8.22 2.49
-4.55 -8.31 2.49
-4.38 -8.41 2.49
-4.21 -8.50 2.49
-4.04 -8.58 2.49
-3.87 -8.67 2.49
-3.70 -8.75 2.49
-3.52 -8.82 2.49
-3.35 -8.90 2.49
-3.17 -8.97 2.49
-2.99 -9.03 2.49
-2.81 -9.09 2.49
-2.63 -9.15 2.49
-2.44 -9.21 2.49
-2.26 -9.26 2.49
-2.07 -9.31 2.49
-1.89 -9.35 2.49
-1.70 -9.39 2.49
-1.51 -9.43 2.49
-1.32 -9.46 2.49
-1.13 -9.49 2.49
-0.94 -9.52 2.49
-0.75 -9.54 2.49
-0.56 -9.56 2.49
-0.37 -9.57 2.49
-0.18 -9.59 2.49
0.02 -8.78 2.49
0.19 -8.78 2.49
0.37 -8.78 2.49
0.55 -8.77 2.49
0.72 -8.76 2.49
0.90 -8.75 2.49
1.07 -8.74 2.49
1.25 -8.72 2.49
1.42 -8.69 2.49
1.60 -8.67 2.49
1.77 -8.64 2.49
1.95 -8.61 2.49
2.12 -8.57 2.49
2.29 -8.53 2.49
2.37 -8.16 2.40
2.53 -8.09 2.39
2.69 -8.04 2.39
2.85 -7.99 2.39
3.02 -7.93 2.39
3.18 -7.88 2.39
3.33 -7.82 2.39
3.49 -7.75 2.39
3.65 -7.68 2.39
3.80 -7.61 2.39
3.96 -7.54 2.39
4.11 -7.46 2.39
4.26 -7.38 2.39
4.41 -7.30 2.39
4.56 -7.21 2.39
4.70 -7.12 2.39
4.85 -7.03 2.39
4.99 -6.93 2.39
5.13 -6.83 2.39
5.27 -6.73 2.39
5.40 -6.63 2.39
5.54 -6.52 2.39
5.67 -6.41 2.39
5.80 -6.30 2.39
5.93 -6.18 2.39
6.05 -6.07 2.39
6.18 -5.95 2.39
6.30 -5.82 2.39
6.42 -5.70 2.39
6.54 -5.58 2.39
6.65 -5.45 2.39
6.76 -5.31 2.39
6.87 -5.18 2.39
6.97 -5.04 2.39
7.08 -4.90 2.39
7.18 -4.76 2.39
7.27 -4.62 2.39
7.37 -4.47 2.39
7.46 -4.33 2.39
7.54 -4.18 2.39
7.63 -4.03 2.39
7.71 -3.87 2.39
7.79 -3.72 2.39
7.86 -3.56 2.39
7.94 -3.41 2.39
8.00 -3.25 2.39
8.07 -3.09 2.39
8.13 -2.93 2.39
8.19 -2.76 2.39
8.25 -2.60 2.39
8.30 -2.43 2.39
8.35 -2.27 2.39
8.39 -2.10 2.39
8.44 -1.93 2.39
8.47 -1.76 2.39
8.51 -1.59 2.39
8.54 -1.42 2.39
8.57 -1.25 2.39
8.59 -1.08 2.39
8.62 -0.91 2.39
8.63 -0.73 2.39
8.65 -0.56 2.39
8.66 -0.39 2.39
8.66 -0.21 2.39
8.67 -0.04 2.39
8.67 0.13 2.39
8.66 0.31 2.39
8.66 0.48 2.39
8.64 0.65 2.39
8.63 0.83 2.39
8.61 1.00 2.39
8.59 1.17 2.39
8.57 1.34 2.39
8.54 1.51 2.39
8.50 1.69 2.39
8.47 1.86 2.39
8.43 2.02 2.39
8.39 2.19 2.39
8.34 2.36 2.39
8.29 2.53 2.39
8.24 2.69 2.39
8.18 2.86 2.39
8.12 3.02 2.39
8.06 3.18 2.39
7.99 3.34 2.39
7.92 3.50 2.39
7.85 3.66 2.39
7.78 3.81 2.39
7.70 3.97 2.39
7.61 4.12 2.39
7.53 4.27 2.39
7.44 4.42 2.39
7.35 4.57 2.39
7.25 4.71 2.39
7.16 4.86 2.39
7.06 5.00 2.39
6.95 5.14 2.39
6.85 5.28 2.39
6.73 5.40 2.39
6.62 5.54 2.39
6.50 5.67 2.39
6.39 5.79 2.39
6.27 5.92 2.39
6.15 6.04 2.39
6.02 6.16 2.39
5.90 6.28 2.39
5.77 6.40 2.39
5.64 6.51 2.39
5.50 6.62 2.39
5.37 6.72 2.39
5.23 6.83 2.39
5.09 6.93 2.39
4.95 7.03 2.39
4.80 7.12 2.39
4.66 7.21 2.39
4.51 7.30 2.39
4.36 7.39 2.39
4.21 7.47 2.39
4.06 7.55 2.39
3.91 7.63 2.39
3.75 7.70 2.39
3.59 7.77 2.39
3.44 7.84 2.39
3.28 7.90 2.39
3.12 7.96 2.39
2.95 8.02 2.39
2.81 8.13 2.41
2.74 8.48 2.49
2.57 8.53 2.49
2.40 8.57 2.49
2.22 8.61 2.49
2.05 8.65 2.49
1.87 8.69 2.49
1.70 8.72 2.49
1.52 8.75 2.49
1.35 8.77 2.49
1.17 8.79 2.49
0.99 8.81 2.49
0.82 8.83 2.49
0.64 8.84 2.49
0.46 8.84 2.49
0.28 8.85 2.49
0.10 8.85 2.49
-0.07 8.84 2.49
-0.25 8.83 2.49
-0.43 8.82 2.49
-0.60 8.81 2.49
-0.78 8.79 2.49
-0.96 8.77 2.49
-1.13 8.74 2.49
-1.31 8.71 2.49
-1.48 8.68 2.49
-1.65 8.65 2.49
-1.82 8.61 2.49
-2.00 8.56 2.49
-2.17 8.52 2.49
-2.34 8.47 2.49
-2.50 8.42 2.49
-2.67 8.36 2.49
-2.84 8.30 2.49
-3.00 8.24 2.49
-3.17 8.17 2.49
-3.33 8.10 2.49
-3.49 8.03 2.49
-3.65 7.95 2.49
-3.80 7.88 2.49
-3.96 7.79 2.49
-4.11 7.71 2.49
-4.26 7.62 2.49
-4.41 7.53 2.49
-4.56 7.44 2.49
-4.71 7.34 2.49
-4.85 7.24 2.49
-5.00 7.14 2.49
-5.14 7.03 2.49
-5.27 6.93 2.49
-5.29 6.66 2.44
-5.31 6.43 2.39
-5.44 6.32 2.39
-5.56 6.20 2.39
-5.68 6.09 2.39
-5.80 5.97 2.39
-5.92 5.85 2.39
-6.03 5.73 2.39
-6.14 5.60 2.39
-6.25 5.47 2.39
-6.36 5.35 2.39
-6.46 5.22 2.39
-6.56 5.08 2.39
-6.66 4.95 2.39
-6.76 4.81 2.39
-6.85 4.67 2.39
-6.94 4.53 2.39
-7.03 4.39 2.39
-7.11 4.25 2.39
-7.20 4.10 2.39
-7.27 3.96 2.39
-7.35 3.81 2.39
-7.42 3.66 2.39
-7.49 3.51 2.39
-7.56 3.35 2.39
-7.62 3.20 2.39
-7.69 3.05 2.39
-7.74 2.89 2.39
-7.80 2.73 2.39
-7.85 2.58 2.39
-7.90 2.42 2.39
-7.94 2.26 2.39
-7.99 2.10 2.39
-8.02 1.93 2.39
-8.06 1.77 2.39
-8.09 1.61 2.39
-8.12 1.45 2.39
-8.15 1.28 2.39
-8.17 1.12 2.39
-8.19 0.95 2.39
-8.21 0.79 2.39
-8.22 0.62 2.39
-8.23 0.46 2.39
-8.24 0.29 2.39
-8.24 0.13 2.39
-8.24 -0.04 2.39
-8.24 -0.20 2.39
-8.23 -0.37 2.39
-8.22 -0.54 2.39
-8.21 -0.70 2.39
-8.19 -0.87 2.39
-8.17 -1.03 2.39
-8.15 -1.19 2.39
-5.97 -1.00 1.76
-5.91 -1.11 1.74
-8.07 -1.68 2.39
-8.03 -1.85 2.39
-7.99 -2.01 2.39
-7.95 -2.17 2.39
-7.91 -2.33 2.39
-7.86 -2.49 2.39
-7.81 -2.64 2.39
-7.75 -2.80 2.39
-7.70 -2.96 2.39
-7.63 -3.11 2.39
-7.57 -3.26 2.39
-7.51 -3.42 2.39
-7.44 -3.57 2.39
-7.36 -3.72 2.39
-7.29 -3.86 2.39
-7.21 -4.01 2.39
-7.13 -4.15 2.39
-7.05 -4.30 2.39
-6.96 -4.44 2.39
-6.87 -4.58 2.39
-6.78 -4.72 2.39
-6.68 -4.85 2.39
-6.59 -4.99 2.39
-6.49 -5.12 2.39
-6.38 -5.25 2.39
-6.28 -5.38 2.39
-6.17 -5.51 2.39
-6.06 -5.63 2.39
-5.95 -5.75 2.39
-5.84 -5.88 2.39
-5.71 -5.99 2.39
-5.64 -6.16 2.41
-5.64 -6.41 2.46
-5.58 -6.61 2.49
-5.45 -6.72 2.49
-5.31 -6.83 2.49
-5.18 -6.94 2.49
-5.04 -7.04 2.49
-4.90 -7.14 2.49
-4.75 -7.24 2.49
-4.61 -7.34 2.49
-4.46 -7.43 2.49
-4.31 -7.53 2.49
-4.16 -7.61 2.49
-4.01 -7.70 2.49
-3.86 -7.78 2.49
-3.70 -7.86 2.49
-3.54 -7.94 2.49
-3.39 -8.01 2.49
-3.22 -8.08 2.49
-3.06 -8.14 2.49
-2.90 -8.21 2.49
-2.74 -8.27 2.49
-2.57 -8.33 2.49
-2.40 -8.38 2.49
-2.24 -8.43 2.49
-2.07 -8.48 2.49
-1.90 -8.52 2.49
-1.73 -8.56 2.49
-1.55 -8.60 2.49
-1.38 -8.63 2.49
-1.21 -8.66 2.49
-1.04 -8.69 2.49
-0.86 -8.71 2.49
-0.69 -8.73 2.49
-0.51 -8.75 2.49
-0.34 -8.76 2.49
-0.16 -8.77 2.49
0.02 -8.08 2.49
0.18 -8.08 2.49
0.34 -8.08 2.49
0.50 -8.07 2.49
0.67 -8.07 2.49
0.83 -8.06 2.49
0.99 -8.04 2.49
1.15 -8.02 2.49
1.31 -8.00 2.49
1.47 -7.98 2.49
1.63 -7.95 2.49
1.79 -7.92 2.49
1.95 -7.89 2.49
2.11 -7.85 2.49
2.27 -7.81 2.49
2.38 -7.60 2.44
2.48 -7.40 2.39
2.63 -7.35 2.39
2.78 -7.30 2.39
2.92 -7.25 2.39
3.07 -7.19 2.39
3.21 -7.13 2.39
3.36 -7.07 2.39
3.50 -7.00 2.39
3.64 -6.93 2.39
3.78 -6.86 2.39
3.92 -6.79 2.39
4.06 -6.71 2.39
4.19 -6.63 2.39
4.33 -6.55 2.39
4.46 -6.46 2.39
4.59 -6.37 2.39
4.72 -6.28 2.39
4.85 -6.19 2.39
4.97 -6.09 2.39
5.09 -6.00 2.39
5.22 -5.89 2.39
5.33 -5.79 2.39
5.45 -5.69 2.39
5.57 -5.58 2.39
5.68 -5.47 2.39
5.79 -5.35 2.39
5.90 -5.24 2.39
6.00 -5.12 2.39
6.11 -5.00 2.39
6.21 -4.88 2.39
6.31 -4.76 2.39
6.40 -4.63 2.39
6.51 -4.51 2.39
6.60 -4.38 2.39
6.69 -4.25 2.39
6.77 -4.11 2.39
6.85 -3.98 2.39
6.93 -3.84 2.39
7.01 -3.70 2.39
7.09 -3.56 2.39
7.16 -3.42 2.39
7.23 -3.28 2.39
7.29 -3.13 2.39
7.36 -2.98 2.39
7.42 -2.84 2.39
7.47 -2.69 2.39
7.53 -2.54 2.39
7.58 -2.39 2.39
7.63 -2.24 2.39
7.67 -2.08 2.39
7.71 -1.93 2.39
7.75 -1.78 2.39
7.79 -1.62 2.39
7.82 -1.46 2.39
7.85 -1.31 2.39
7.87 -1.15 2.39
7.90 -0.99 2.39
7.92 -0.83 2.39
7.93 -0.67 2.39
7.95 -0.52 2.39
7.95 -0.36 2.39
7.96 -0.20 2.39
7.96 -0.04 2.39
7.96 0.12 2.39
7.96 0.28 2.39
7.95 0.44 2.39
7.94 0.60 2.39
7.93 0.76 2.39
7.91 0.92 2.39
7.89 1.08 2.39
7.87 1.23 2.39
7.84 1.39 2.39
7.81 1.55 2.39
7.78 1.70 2.39
7.75 1.86 2.39
7.71 2.01 2.39
7.66 2.17 2.39
7.62 2.32 2.39
7.57 2.47 2.39
7.52 2.62 2.39
7.46 2.77 2.39
7.41 2.92 2.39
7.34 3.07 2.39
7.28 3.22 2.39
7.21 3.36 2.39
7.14 3.51 2.39
7.07 3.65 2.39
7.00 3.79 2.39
6.92 3.93 2.39
6.84 4.06 2.39
6.75 4.20 2.39
6.66 4.33 2.39
6.57 4.46 2.39
6.48 4.59 2.39
6.38 4.72 2.39
6.29 4.84 2.39
6.19 4.97 2.39
6.08 5.09 2.39
5.98 5.21 2.39
5.87 5.33 2.39
5.76 5.44 2.39
5.65 5.55 2.39
5.54 5.66 2.39
5.42 5.77 2.39
5.30 5.88 2.39
5.18 5.98 2.39
5.06 6.08 2.39
4.93 6.18 2.39
4.81 6.28 2.39
4.68 6.37 2.39
4.55 6.46 2.39
4.42 6.55 2.39
4.28 6.63 2.39
4.15 6.71 2.39
4.01 6.79 2.39
3.87 6.87 2.39
3.73 6.94 2.39
3.59 7.01 2.39
3.45 7.08 2.39
3.31 7.15 2.39
3.16 7.21 2.39
3.01 7.27 2.39
2.87 7.32 2.39
2.79 7.56 2.45
2.68 7.75 2.49
2.52 7.80 2.49
2.36 7.84 2.49
2.21 7.88 2.49
2.05 7.92 2.49
1.89 7.96 2.49
1.73 7.99 2.49
1.56 8.02 2.49
1.40 8.05 2.49
1.24 8.07 2.49
1.08 8.09 2.49
0.91 8.11 2.49
0.75 8.12 2.49
0.59 8.13 2.49
0.42 8.14 2.49
0.26 8.14 2.49
0.10 8.14 2.49
-0.07 8.14 2.49
-0.23 8.13 2.49
-0.39 8.12 2.49
-0.55 8.11 2.49
-0.72 8.09 2.49
-0.88 8.07 2.49
-1.04 8.05 2.49
-1.20 8.02 2.49
-1.36 7.99 2.49
-1.52 7.96 2.49
-1.68 7.92 2.49
-1.84 7.88 2.49
-1.99 7.84 2.49
-2.15 7.80 2.49
-2.30 7.75 2.49
-2.46 7.70 2.49
-2.61 7.64 2.49
-2.76 7.58 2.49
-2.91 7.52 2.49
-3.06 7.46 2.49
-3.21 7.39 2.49
-3.36 7.32 2.49
-3.50 7.25 2.49
-3.64 7.18 2.49
-3.79 7.10 2.49
-3.93 7.02 2.49
-4.06 6.94 2.49
-4.20 6.85 2.49
-4.34 6.76 2.49
-4.47 6.67 2.49
-4.60 6.58 2.49
-4.73 6.48 2.49
-4.86 6.38 2.49
-4.98 6.28 2.49
-5.11 6.18 2.49
-5.23 6.07 2.49
-5.31 5.92 2.48
-5.32 5.69 2.43
-5.35 5.50 2.39
-5.45 5.39 2.39
-5.56 5.28 2.39
-5.66 5.16 2.39
-5.76 5.05 2.39
-5.86 4.93 2.39
-5.96 4.81 2.39
-6.05 4.68 2.39
-6.14 4.56 2.39
-6.23 4.43 2.39
-6.31 4.31 2.39
-6.40 4.18 2.39
-6.48 4.05 2.39
-6.56 3.91 2.39
-6.63 3.78 2.39
-6.70 3.65 2.39
-6.77 3.51 2.39
-6.84 3.37 2.39
-6.91 3.23 2.39
-6.97 3.09 2.39
-7.03 2.95 2.39
-7.08 2.81 2.39
-7.14 2.66 2.39
-7.19 2.52 2.39
-7.23 2.37 2.39
-7.28 2.23 2.39
-7.32 2.08 2.39
-7.36 1.93 2.39
-7.40 1.78 2.39
-7.43 1.63 2.39
-7.46 1.48 2.39
-7.49 1.33 2.39
-7.51 1.18 2.39
-7.53 1.03 2.39
-7.55 0.88 2.39
-7.57 0.73 2.39
-7.58 0.58 2.39
-7.59 0.42 2.39
-7.59 0.27 2.39
-7.60 0.12 2.39
-7.60 -0.04 2.39
-7.59 -0.19 2.39
-7.59 -0.34 2.39
-7.58 -0.49 2.39
-7.57 -0.65 2.39
-7.55 -0.80 2.39
-7.54 -0.95 2.39
-7.52 -1.10 2.39
-5.97 -1.00 1.91
-5.91 -1.11 1.89
-7.44 -1.55 2.39
-7.40 -1.70 2.39
-7.37 -1.85 2.39
-7.33 -2.00 2.39
-7.29 -2.15 2.39
-7.24 -2.29 2.39
-7.20 -2.44 2.39
-7.15 -2.58 2.39
-7.09 -2.73 2.39
-7.04 -2.87 2.39
-6.98 -3.01 2.39
-6.92 -3.15 2.39
-6.85 -3.29 2.39
-6.79 -3.43 2.39
-6.72 -3.56 2.39
-6.65 -3.70 2.39
-6.57 -3.83 2.39
-6.50 -3.96 2.39
-6.42 -4.09 2.39
-6.33 -4.22 2.39
-6.25 -4.35 2.39
-6.16 -4.48 2.39
-6.07 -4.60 2.39
-5.98 -4.72 2.39
-5.88 -4.84 2.39
-5.79 -4.96 2.39
-5.69 -5.08 2.39
-5.62 -5.22 2.40
-5.61 -5.43 2.45
-5.61 -5.65 2.49
-5.49 -5.76 2.49
-5.38 -5.87 2.49
-5.26 -5.98 2.49
-5.14 -6.09 2.49
-5.02 -6.19 2.49
-4.89 -6.29 2.49
-4.77 -6.39 2.49
-4.64 -6.49 2.49
-4.51 -6.58 2.49
-4.38 -6.67 2.49
-4.25 -6.76 2.49
-4.11 -6.85 2.49
-3.97 -6.93 2.49
-3.83 -7.01 2.49
-3.69 -7.09 2.49
-3.55 -7.17 2.49
-3.41 -7.24 2.49
-3.26 -7.31 2.49
-3.12 -7.38 2.49
-2.97 -7.44 2.49
-2.82 -7.50 2.49
-2.67 -7.56 2.49
-2.52 -7.62 2.49
-2.37 -7.67 2.49
-2.21 -7.72 2.49
-2.06 -7.76 2.49
-1.90 -7.81 2.49
-1.75 -7.85 2.49
-1.59 -7.88 2.49
-1.43 -7.92 2.49
-1.27 -7.95 2.49
-1.11 -7.98 2.49
-0.95 -8.00 2.49
-0.79 -8.02 2.49
-0.63 -8.04 2.49
-0.47 -8.05 2.49
-0.31 -8.07 2.49
-0.15 -8.07 2.49
0.02 -7.48 2.49
0.17 -7.48 2.49
0.32 -7.48 2.49
0.47 -7.47 2.49
0.62 -7.46 2.49
0.77 -7.45 2.49
0.92 -7.44 2.49
1.07 -7.42 2.49
1.22 -7.40 2.49
1.36 -7.38 2.49
1.51 -7.36 2.49
1.66 -7.33 2.49
1.81 -7.30 2.49
1.96 -7.26 2.49
2.10 -7.22 2.49
2.25 -7.18 2.49
2.39 -7.13 2.49
2.43 -6.80 2.39
2.59 -6.80 2.41
2.70 -6.70 2.39
2.84 -6.65 2.39
2.97 -6.59 2.39
3.11 -6.54 2.39
3.24 -6.48 2.39
3.37 -6.41 2.39
3.50 -6.35 2.39
3.63 -6.28 2.39
3.75 -6.21 2.39
3.88 -6.13 2.39
4.00 -6.05 2.39
4.12 -5.98 2.39
4.25 -5.89 2.39
4.36 -5.81 2.39
4.48 -5.72 2.39
4.60 -5.63 2.39
4.71 -5.54 2.39
4.82 -5.45 2.39
4.93 -5.35 2.39
5.04 -5.26 2.39
5.15 -5.16 2.39
5.25 -5.05 2.39
5.35 -4.95 2.39
5.45 -4.84 2.39
5.55 -4.73 2.39
5.65 -4.62 2.39
5.74 -4.51 2.39
5.83 -4.40 2.39
5.92 -4.28 2.39
6.01 -4.16 2.39
6.09 -4.04 2.39
6.17 -3.92 2.39
6.25 -3.80 2.39
6.33 -3.67 2.39
6.40 -3.54 2.39
6.47 -3.42 2.39
6.55 -3.29 2.39
6.62 -3.16 2.39
6.68 -3.03 2.39
6.74 -2.89 2.39
6.80 -2.76 2.39
6.85 -2.62 2.39
6.91 -2.48 2.39
6.96 -2.35 2.39
7.00 -2.21 2.39
7.05 -2.07 2.39
7.09 -1.92 2.39
7.13 -1.78 2.39
7.16 -1.64 2.39
7.20 -1.50 2.39
7.23 -1.35 2.39
7.25 -1.21 2.39
7.28 -1.06 2.39
7.30 -0.92 2.39
7.31 -0.77 2.39
7.33 -0.62 2.39
7.34 -0.48 2.39
7.35 -0.33 2.39
7.36 -0.18 2.39
7.36 -0.03 2.39
7.36 0.11 2.39
7.35 0.26 2.39
7.35 0.41 2.39
7.34 0.55 2.39
7.33 0.70 2.39
7.31 0.85 2.39
7.29 0.99 2.39
7.27 1.14 2.39
7.25 1.29 2.39
7.22 1.43 2.39
7.19 1.58 2.39
7.16 1.72 2.39
7.12 1.86 2.39
7.08 2.00 2.39
7.04 2.15 2.39
6.99 2.29 2.39
6.95 2.43 2.39
6.90 2.56 2.39
6.84 2.70 2.39
6.79 2.84 2.39
6.73 2.97 2.39
6.66 3.10 2.39
6.59 3.23 2.39
6.53 3.37 2.39
6.46 3.50 2.39
6.39 3.62 2.39
6.31 3.75 2.39
6.23 3.88 2.39
6.15 4.00 2.39
6.07 4.12 2.39
5.99 4.24 2.39
5.90 4.36 2.39
5.81 4.47 2.39
5.72 4.59 2.39
5.62 4.70 2.39
5.53 4.81 2.39
5.43 4.92 2.39
5.33 5.03 2.39
5.22 5.13 2.39
5.12 5.23 2.39
5.01 5.33 2.39
4.90 5.43 2.39
4.79 5.53 2.39
4.68 5.62 2.39
4.56 5.71 2.39
4.45 5.80 2.39
4.33 5.89 2.39
4.21 5.97 2.39
4.08 6.05 2.39
3.96 6.13 2.39
3.84 6.21 2.39
3.71 6.28 2.39
3.58 6.35 2.39
3.45 6.42 2.39
3.32 6.48 2.39
3.19 6.55 2.39
3.06 6.61 2.39
2.92 6.66 2.39
2.79 6.72 2.39
2.77 7.06 2.49
2.62 7.11 2.49
2.48 7.16 2.49
2.33 7.21 2.49
2.19 7.25 2.49
2.04 7.29 2.49
1.89 7.33 2.49
1.75 7.36 2.49
1.60 7.39 2.49
1.45 7.42 2.49
1.30 7.44 2.49
1.15 7.46 2.49
1.00 7.48 2.49
0.85 7.50 2.49
0.70 7.51 2.49
0.55 7.52 2.49
0.39 7.53 2.49
0.24 7.53 2.49
0.09 7.53 2.49
-0.06 7.53 2.49
-0.21 7.52 2.49
-0.36 7.51 2.49
-0.51 7.50 2.49
-0.66 7.48 2.49
-0.81 7.47 2.49
-0.96 7.45 2.49
-1.11 7.42 2.49
-1.26 7.39 2.49
-1.41 7.36 2.49
-1.55 7.33 2.49
-1.70 7.30 2.49
-1.84 7.26 2.49
-1.99 7.22 2.49
-2.13 7.17 2.49
-2.27 7.12 2.49
-2.42 7.07 2.49
-2.56 7.02 2.49
-2.70 6.96 2.49
-2.83 6.91 2.49
-2.97 6.84 2.49
-3.11 6.78 2.49
-3.24 6.71 2.49
-3.37 6.65 2.49
-3.50 6.57 2.49
-3.63 6.50 2.49
-3.76 6.42 2.49
-3.89 6.34 2.49
-4.01 6.26 2.49
-4.14 6.18 2.49
-4.26 6.09 2.49
-4.38 6.00 2.49
-4.50 5.91 2.49
-4.61 5.82 2.49
-4.73 5.72 2.49
-4.84 5.62 2.49
-4.95 5.52 2.49
-5.06 5.42 2.49
-5.16 5.31 2.49
-5.27 5.21 2.49
-5.33 5.06 2.48
-5.34 4.87 2.43
-5.35 4.69 2.40
-5.43 4.56 2.39
-5.52 4.45 2.39
-5.60 4.34 2.39
-5.69 4.22 2.39
-5.77 4.11 2.39
-5.85 3.99 2.39
-5.93 3.87 2.39
-6.00 3.75 2.39
-6.07 3.63 2.39
-6.14 3.50 2.39
-6.21 3.38 2.39
-6.28 3.25 2.39
-6.34 3.12 2.39
-6.40 2.99 2.39
-6.45 2.87 2.39
-6.51 2.73 2.39
-6.56 2.60 2.39
-6.61 2.47 2.39
-6.66 2.33 2.39
-6.70 2.20 2.39
-6.74 2.06 2.39
-6.78 1.93 2.39
-6.82 1.79 2.39
-6.85 1.65 2.39
-6.88 1.51 2.39
-6.91 1.38 2.39
-6.94 1.24 2.39
-6.96 1.10 2.39
-6.98 0.96 2.39
-7.00 0.82 2.39
-7.01 0.67 2.39
-7.02 0.53 2.39
-7.03 0.39 2.39
-7.04 0.25 2.39
-7.04 0.11 2.39
-7.04 -0.03 2.39
-7.04 -0.17 2.39
-7.03 -0.32 2.39
-7.02 -0.46 2.39
-7.01 -0.60 2.39
-7.00 -0.74 2.39
-6.98 -0.88 2.39
-6.96 -1.02 2.39
-5.97 -1.00 2.06
-5.91 -1.11 2.04
-6.89 -1.44 2.39
-6.86 -1.58 2.39
-6.83 -1.71 2.39
-6.79 -1.85 2.39
-6.75 -1.99 2.39
-6.71 -2.12 2.39
-6.67 -2.26 2.39
-6.62 -2.39 2.39
-6.57 -2.53 2.39
-6.52 -2.66 2.39
-6.47 -2.79 2.39
-6.41 -2.92 2.39
-6.35 -3.05 2.39
-6.29 -3.17 2.39
-6.23 -3.30 2.39
-6.16 -3.43 2.39
-6.09 -3.55 2.39
-6.02 -3.67 2.39
-5.94 -3.79 2.39
-5.87 -3.91 2.39
-5.79 -4.03 2.39
-5.71 -4.15 2.39
-5.62 -4.26 2.39
-5.59 -4.42 2.41
-5.59 -4.60 2.45
-5.59 -4.79 2.49
-5.50 -4.91 2.49
-5.40 -5.02 2.49
-5.30 -5.13 2.49
-5.19 -5.23 2.49
-5.09 -5.34 2.49
-4.98 -5.44 2.49
-4.87 -5.54 2.49
-4.76 -5.64 2.49
-4.65 -5.74 2.49
-4.53 -5.83 2.49
-4.42 -5.92 2.49
-4.30 -6.01 2.49
-4.18 -6.10 2.49
-4.06 -6.18 2.49
-3.93 -6.26 2.49
-3.81 -6.34 2.49
-3.68 -6.42 2.49
-3.55 -6.50 2.49
-3.42 -6.57 2.49
-3.29 -6.64 2.49
-3.16 -6.71 2.49
-3.02 -6.77 2.49
-2.89 -6.83 2.49
-2.75 -6.89 2.49
-2.61 -6.95 2.49
-2.47 -7.00 2.49
-2.33 -7.05 2.49
-2.19 -7.10 2.49
-2.05 -7.15 2.49
-1.90 -7.19 2.49
-1.76 -7.23 2.49
-1.62 -7.27 2.49
-1.47 -7.30 2.49
-1.32 -7.33 2.49
-1.18 -7.36 2.49
-1.03 -7.38 2.49
-0.88 -7.41 2.49
-0.73 -7.43 2.49
-0.58 -7.44 2.49
-0.43 -7.45 2.49
-0.28 -7.47 2.49
-0.13 -7.47 2.49
0.02 -6.95 2.49
0.16 -6.95 2.49
0.30 -6.95 2.49
0.44 -6.95 2.49
0.57 -6.94 2.49
0.71 -6.93 2.49
0.85 -6.92 2.49
0.99 -6.90 2.49
1.13 -6.88 2.49
1.27 -6.86 2.49
1.41 -6.84 2.49
1.55 -6.81 2.49
1.68 -6.78 2.49
1.82 -6.75 2.49
1.95 -6.71 2.49
2.09 -6.68 2.49
2.22 -6.63 2.49
2.36 -6.59 2.49
2.41 -6.35 2.42
2.51 -6.23 2.39
2.64 -6.18 2.39
2.76 -6.13 2.39
2.89 -6.07 2.39
3.01 -6.02 2.39
3.13 -5.96 2.39
3.25 -5.90 2.39
3.37 -5.83 2.39
3.49 -5.76 2.39
3.60 -5.70 2.39
3.72 -5.62 2.39
3.83 -5.55 2.39
3.94 -5.47 2.39
4.06 -5.40 2.39
4.16 -5.32 2.39
4.27 -5.23 2.39
4.38 -5.15 2.39
4.48 -5.06 2.39
4.58 -4.97 2.39
4.68 -4.88 2.39
4.78 -4.79 2.39
4.88 -4.69 2.39
4.97 -4.60 2.39
5.07 -4.50 2.39
5.16 -4.40 2.39
5.25 -4.29 2.39
5.33 -4.19 2.39
5.42 -4.08 2.39
5.50 -3.97 2.39
5.58 -3.86 2.39
5.66 -3.75 2.39
5.73 -3.64 2.39
5.81 -3.52 2.39
5.88 -3.41 2.39
5.95 -3.29 2.39
6.01 -3.17 2.39
6.08 -3.05 2.39
6.14 -2.93 2.39
6.20 -2.81 2.39
6.25 -2.68 2.39
6.31 -2.56 2.39
6.36 -2.43 2.39
6.41 -2.30 2.39
6.45 -2.18 2.39
6.50 -2.05 2.39
6.54 -1.92 2.39
6.58 -1.79 2.39
6.62 -1.65 2.39
6.65 -1.52 2.39
6.68 -1.39 2.39
6.71 -1.25 2.39
6.73 -1.12 2.39
6.76 -0.99 2.39
6.77 -0.85 2.39
6.79 -0.71 2.39
6.80 -0.58 2.39
6.82 -0.44 2.39
6.82 -0.31 2.39
6.83 -0.17 2.39
6.83 -0.03 2.39
6.83 0.11 2.39
6.83 0.24 2.39
6.82 0.38 2.39
6.81 0.52 2.39
6.80 0.65 2.39
6.79 0.79 2.39
6.77 0.92 2.39
6.75 1.06 2.39
6.73 1.19 2.39
6.70 1.33 2.39
6.67 1.46 2.39
6.64 1.59 2.39
6.60 1.73 2.39
6.57 1.86 2.39
6.53 1.99 2.39
6.49 2.12 2.39
6.44 2.25 2.39
6.40 2.38 2.39
6.35 2.50 2.39
6.29 2.63 2.39
6.24 2.76 2.39
6.18 2.88 2.39
6.12 3.00 2.39
6.06 3.12 2.39
6.00 3.24 2.39
5.93 3.36 2.39
5.86 3.48 2.39
5.79 3.60 2.39
5.71 3.71 2.39
5.64 3.83 2.39
5.56 3.94 2.39
5.48 4.05 2.39
5.39 4.15 2.39
5.31 4.26 2.39
5.22 4.37 2.39
5.13 4.47 2.39
5.04 4.57 2.39
4.95 4.67 2.39
4.85 4.76 2.39
4.75 4.86 2.39
4.65 4.95 2.39
4.55 5.04 2.39
4.45 5.13 2.39
4.34 5.22 2.39
4.24 5.30 2.39
4.13 5.39 2.39
4.02 5.47 2.39
3.91 5.54 2.39
3.79 5.62 2.39
3.68 5.69 2.39
3.56 5.76 2.39
3.45 5.83 2.39
3.33 5.90 2.39
3.21 5.96 2.39
3.09 6.02 2.39
2.96 6.08 2.39
2.84 6.14 2.39
2.76 6.28 2.43
2.70 6.51 2.49
2.57 6.56 2.49
2.44 6.61 2.49
2.30 6.65 2.49
2.17 6.70 2.49
2.03 6.74 2.49
1.90 6.77 2.49
1.76 6.81 2.49
1.62 6.84 2.49
1.48 6.87 2.49
1.35 6.89 2.49
1.21 6.92 2.49
1.07 6.94 2.49
0.93 6.95 2.49
0.79 6.97 2.49
0.65 6.98 2.49
0.51 6.99 2.49
0.37 6.99 2.49
0.23 7.00 2.49
0.09 7.00 2.49
-0.05 6.99 2.49
-0.19 6.99 2.49
-0.33 6.98 2.49
-0.47 6.97 2.49
-0.61 6.96 2.49
-0.75 6.94 2.49
-0.89 6.92 2.49
-1.03 6.90 2.49
-1.17 6.87 2.49
-1.30 6.85 2.49
-1.44 6.82 2.49
-1.58 6.78 2.49
-1.71 6.75 2.49
-1.85 6.71 2.49
-1.98 6.67 2.49
-2.11 6.62 2.49
-2.24 6.58 2.49
-2.38 6.53 2.49
-2.50 6.48 2.49
-2.63 6.42 2.49
-2.76 6.36 2.49
-2.89 6.31 2.49
-3.01 6.24 2.49
-3.14 6.18 2.49
-3.26 6.11 2.49
-3.38 6.04 2.49
-3.50 5.97 2.49
-3.62 5.90 2.49
-3.73 5.82 2.49
-3.85 5.74 2.49
-3.96 5.66 2.49
-4.07 5.58 2.49
-4.18 5.50 2.49
-4.29 5.41 2.49
-4.40 5.32 2.49
-4.50 5.23 2.49
-4.60 5.14 2.49
-4.70 5.04 2.49
-4.80 4.94 2.49
-4.90 4.84 2.49
-4.99 4.74 2.49
-5.09 4.64 2.49
-5.18 4.54 2.49
-5.27 4.43 2.49
-5.35 4.32 2.49
-5.35 4.15 2.46
-5.36 3.99 2.42
-5.38 3.83 2.39
-5.44 3.71 2.39
-5.51 3.60 2.39
-5.59 3.49 2.39
-5.65 3.37 2.39
-5.71 3.26 2.39
-5.78 3.14 2.39
-5.84 3.03 2.39
-5.90 2.91 2.39
-5.95 2.79 2.39
-6.01 2.67 2.39
-6.06 2.54 2.39
-6.11 2.42 2.39
-6.15 2.30 2.39
-6.20 2.17 2.39
-6.24 2.05 2.39
-6.28 1.92 2.39
-6.31 1.79 2.39
-6.35 1.67 2.39
-6.38 1.54 2.39
-6.41 1.41 2.39
-6.43 1.28 2.39
-6.46 1.15 2.39
-6.48 1.02 2.39
-6.49 0.89 2.39
-6.51 0.76 2.39
-6.52 0.63 2.39
-6.53 0.50 2.39
-6.54 0.36 2.39
-6.55 0.23 2.39
-6.55 0.10 2.39
-6.55 -0.03 2.39
-6.55 -0.16 2.39
-6.54 -0.29 2.39
-6.54 -0.43 2.39
-6.53 -0.56 2.39
-6.51 -0.69 2.39
-6.50 -0.82 2.39
-6.48 -0.95 2.39
-5.97 -1.00 2.21
-5.91 -1.11 2.19
-6.41 -1.34 2.39
-6.38 -1.47 2.39
-6.35 -1.60 2.39
-6.32 -1.72 2.39
-6.28 -1.85 2.39
-6.25 -1.98 2.39
-6.21 -2.10 2.39
-6.16 -2.23 2.39
-6.12 -2.35 2.39
-6.07 -2.47 2.39
-6.02 -2.59 2.39
-5.97 -2.72 2.39
-5.91 -2.84 2.39
-5.85 -2.95 2.39
-5.79 -3.07 2.39
-5.73 -3.19 2.39
-5.67 -3.30 2.39
-5.60 -3.42 2.39
-5.57 -3.56 2.41
-5.57 -3.71 2.44
-5.57 -3.88 2.47
-5.54 -4.03 2.49
-5.46 -4.14 2.49
-5.38 -4.25 2.49
-5.29 -4.35 2.49
-5.20 -4.46 2.49
-5.11 -4.57 2.49
-5.02 -4.67 2.49
-4.93 -4.77 2.49
-4.83 -4.87 2.49
-4.73 -4.97 2.49
-4.63 -5.06 2.49
-4.53 -5.16 2.49
-4.43 -5.25 2.49
-4.32 -5.34 2.49
-4.22 -5.42 2.49
-4.11 -5.51 2.49
-4.00 -5.59 2.49
-3.89 -5.67 2.49
-3.77 -5.75 2.49
-3.66 -5.83 2.49
-3.54 -5.90 2.49
-3.42 -5.97 2.49
-3.30 -6.04 2.49
-3.18 -6.11 2.49
-3.06 -6.18 2.49
-2.93 -6.24 2.49
-2.81 -6.30 2.49
-2.68 -6.36 2.49
-2.56 -6.41 2.49
-2.43 -6.46 2.49
-2.30 -6.51 2.49
-2.17 -6.56 2.49
-2.04 -6.60 2.49
-1.90 -6.65 2.49
-1.77 -6.69 2.49
-1.64 -6.72 2.49
-1.50 -6.76 2.49
-1.37 -6.79 2.49
-1.23 -6.82 2.49
-1.09 -6.84 2.49
-0.96 -6.87 2.49
-0.82 -6.89 2.49
-0.68 -6.90 2.49
-0.54 -6.92 2.49
-0.40 -6.93 2.49
-0.26 -6.94 2.49
-0.12 -6.95 2.49
0.02 -6.49 2.49
0.15 -6.49 2.49
0.28 -6.49 2.49
0.41 -6.48 2.49
0.54 -6.48 2.49
0.67 -6.47 2.49
0.80 -6.45 2.49
0.93 -6.44 2.49
1.06 -6.42 2.49
1.19 -6.40 2.49
1.31 -6.38 2.49
1.44 -6.35 2.49
1.57 -6.33 2.49
1.70 -6.30 2.49
1.82 -6.26 2.49
1.95 -6.23 2.49
2.08 -6.19 2.49
2.20 -6.15 2.49
2.32 -6.11 2.49
2.42 -5.99 2.46
2.46 -5.76 2.39
2.58 -5.72 2.39
2.69 -5.66 2.39
2.81 -5.61 2.39
2.92 -5.56 2.39
3.03 -5.50 2.39
3.14 -5.44 2.39
3.25 -5.38 2.39
3.36 -5.31 2.39
3.47 -5.25 2.39
3.58 -5.18 2.39
3.68 -5.11 2.39
3.78 -5.03 2.39
3.88 -4.96 2.39
3.98 -4.88 2.39
4.08 -4.80 2.39
4.18 -4.72 2.39
4.28 -4.64 2.39
4.37 -4.55 2.39
4.46 -4.46 2.39
4.55 -4.38 2.39
4.64 -4.29 2.39
4.72 -4.19 2.39
4.81 -4.10 2.39
4.89 -4.00 2.39
4.97 -3.90 2.39
5.05 -3.81 2.39
5.13 -3.70 2.39
5.20 -3.60 2.39
5.28 -3.50 2.39
5.35 -3.39 2.39
5.41 -3.29 2.39
5.48 -3.18 2.39
5.54 -3.07 2.39
5.61 -2.96 2.39
5.67 -2.84 2.39
5.72 -2.73 2.39
5.78 -2.62 2.39
5.83 -2.50 2.39
5.88 -2.38 2.39
5.93 -2.27 2.39
5.97 -2.15 2.39
6.02 -2.03 2.39
6.06 -1.91 2.39
6.09 -1.79 2.39
6.13 -1.66 2.39
6.16 -1.54 2.39
6.19 -1.42 2.39
6.22 -1.29 2.39
6.25 -1.17 2.39
6.27 -1.04 2.39
6.29 -0.92 2.39
6.31 -0.79 2.39
6.32 -0.66 2.39
6.34 -0.54 2.39
6.35 -0.41 2.39
6.35 -0.28 2.39
6.36 -0.16 2.39
6.36 -0.03 2.39
6.36 0.10 2.39
6.36 0.23 2.39
6.35 0.35 2.39
6.34 0.48 2.39
6.33 0.61 2.39
6.32 0.73 2.39
6.30 0.86 2.39
6.29 0.99 2.39
6.26 1.11 2.39
6.24 1.24 2.39
6.22 1.36 2.39
6.19 1.49 2.39
6.16 1.61 2.39
6.12 1.73 2.39
6.09 1.85 2.39
6.05 1.98 2.39
6.01 2.10 2.39
5.96 2.22 2.39
5.92 2.33 2.39
5.87 2.45 2.39
5.82 2.57 2.39
5.76 2.68 2.39
5.71 2.80 2.39
5.65 2.91 2.39
5.59 3.02 2.39
5.53 3.14 2.39
5.46 3.25 2.39
5.40 3.35 2.39
5.33 3.46 2.39
5.26 3.57 2.39
5.18 3.67 2.39
5.11 3.77 2.39
5.03 3.87 2.39
4.95 3.97 2.39
4.87 4.07 2.39
4.78 4.17 2.39
4.70 4.26 2.39
4.61 4.35 2.39
4.52 4.44 2.39
4.43 4.53 2.39
4.34 4.62 2.39
4.24 4.70 2.39
4.15 4.79 2.39
4.05 4.87 2.39
3.95 4.95 2.39
3.85 5.02 2.39
3.75 5.10 2.39
3.64 5.17 2.39
3.54 5.24 2.39
3.43 5.31 2.39
3.32 5.37 2.39
3.21 5.44 2.39
3.10 5.50 2.39
2.99 5.56 2.39
2.88 5.62 2.39
2.77 5.67 2.39
2.74 5.92 2.47
2.64 6.02 2.49
2.52 6.07 2.49
2.40 6.12 2.49
2.27 6.16 2.49
2.15 6.21 2.49
2.02 6.25 2.49
1.90 6.28 2.49
1.77 6.32 2.49
1.64 6.35 2.49
1.51 6.38 2.49
1.39 6.41 2.49
1.26 6.43 2.49
1.13 6.45 2.49
1.00 6.47 2.49
0.87 6.49 2.49
0.74 6.50 2.49
0.61 6.51 2.49
0.47 6.52 2.49
0.34 6.52 2.49
0.21 6.53 2.49
0.08 6.53 2.49
-0.05 6.53 2.49
-0.18 6.52 2.49
-0.31 6.51 2.49
-0.44 6.50 2.49
-0.57 6.49 2.49
-0.70 6.48 2.49
-0.83 6.46 2.49
-0.96 6.44 2.49
-1.09 6.41 2.49
-1.22 6.39 2.49
-1.34 6.36 2.49
-1.47 6.33 2.49
-1.60 6.30 2.49
-1.72 6.26 2.49
-1.85 6.22 2.49
-1.97 6.18 2.49
-2.09 6.14 2.49
-2.22 6.09 2.49
-2.34 6.04 2.49
-2.46 5.99 2.49
-2.58 5.94 2.49
-2.69 5.89 2.49
-2.81 5.83 2.49
-2.93 5.77 2.49
-3.04 5.71 2.49
-3.15 5.64 2.49
-3.26 5.58 2.49
-3.37 5.51 2.49
-3.48 5.44 2.49
-3.59 5.36 2.49
-3.70 5.29 2.49
-3.80 5.21 2.49
-3.90 5.13 2.49
-4.00 5.05 2.49
-4.10 4.97 2.49
-4.20 4.88 2.49
-4.30 4.80 2.49
-4.39 4.71 2.49
-4.48 4.62 2.49
-4.57 4.52 2.49
-4.66 4.43 2.49
-4.75 4.33 2.49
-4.83 4.24 2.49
-4.92 4.14 2.49
-5.00 4.04 2.49
-5.08 3.93 2.49
-5.15 3.83 2.49
-5.23 3.72 2.49
-5.30 3.62 2.49
-5.37 3.51 2.49
-5.38 3.36 2.47
-5.38 3.22 2.44
-5.39 3.08 2.41
-5.40 2.94 2.39
-5.45 2.83 2.39
-5.51 2.72 2.39
-5.56 2.60 2.39
-5.61 2.49 2.39
-5.66 2.38 2.39
-5.70 2.26 2.39
-5.75 2.15 2.39
-5.79 2.03 2.39
-5.83 1.91 2.39
-5.86 1.80 2.39
-5.90 1.68 2.39
-5.93 1.56 2.39
-5.96 1.44 2.39
-5.98 1.32 2.39
-6.01 1.20 2.39
-6.03 1.08 2.39
-6.05 0.95 2.39
-6.07 0.83 2.39
-6.08 0.71 2.39
-6.09 0.59 2.39
-6.10 0.46 2.39
-6.11 0.34 2.39
-6.12 0.22 2.39
-6.12 0.09 2.39
-6.12 -0.03 2.39
-6.12 -0.15 2.39
-6.11 -0.27 2.39
-6.11 -0.40 2.39
-6.10 -0.52 2.39
-6.08 -0.64 2.39
-6.07 -0.77 2.39
-6.05 -0.89 2.39
-5.97 -1.00 2.36
-5.91 -1.11 2.35
-5.99 -1.25 2.39
-5.96 -1.37 2.39
-5.93 -1.49 2.39
-5.90 -1.61 2.39
-5.87 -1.73 2.39
-5.83 -1.85 2.39
-5.80 -1.96 2.39
-5.76 -2.08 2.39
-5.71 -2.20 2.39
-5.67 -2.31 2.39
-5.62 -2.42 2.39
-5.57 -2.54 2.39
-5.55 -2.66 2.40
-5.55 -2.80 2.43
-5.55 -2.94 2.45
-5.55 -3.09 2.48
-5.52 -3.22 2.49
-5.46 -3.33 2.49
-5.39 -3.44 2.49
-5.32 -3.55 2.49
-5.25 -3.65 2.49
-5.17 -3.76 2.49
-5.10 -3.86 2.49
-5.02 -3.97 2.49
-4.94 -4.07 2.49
-4.86 -4.17 2.49
-4.77 -4.26 2.49
-4.69 -4.36 2.49
-4.60 -4.46 2.49
-4.51 -4.55 2.49
-4.42 -4.64 2.49
-4.33 -4.73 2.49
-4.23 -4.82 2.49
-4.14 -4.90 2.49
-4.04 -4.98 2.49
-3.94 -5.07 2.49
-3.84 -5.15 2.49
-3.73 -5.22 2.49
-3.63 -5.30 2.49
-3.52 -5.37 2.49
-3.41 -5.44 2.49
-3.30 -5.51 2.49
-3.19 -5.58 2.49
-3.08 -5.64 2.49
-2.97 -5.71 2.49
-2.85 -5.77 2.49
-2.74 -5.82 2.49
-2.62 -5.88 2.49
-2.50 -5.93 2.49
-2.39 -5.99 2.49
-2.27 -6.03 2.49
-2.14 -6.08 2.49
-2.02 -6.12 2.49
-1.90 -6.17 2.49
-1.78 -6.21 2.49
-1.65 -6.24 2.49
-1.53 -6.28 2.49
-1.40 -6.31 2.49
-1.27 -6.34 2.49
-1.15 -6.36 2.49
-1.02 -6.39 2.49
-0.89 -6.41 2.49
-0.76 -6.43 2.49
-0.63 -6.44 2.49
-0.50 -6.46 2.49
-0.37 -6.47 2.49
-0.24 -6.48 2.49
-0.11 -6.48 2.49
0.02 -6.08 2.49
0.14 -6.08 2.49
0.26 -6.07 2.49
0.38 -6.07 2.49
0.50 -6.06 2.49
0.63 -6.05 2.49
0.75 -6.04 2.49
0.87 -6.03 2.49
0.99 -6.01 2.49
1.11 -5.99 2.49
1.23 -5.97 2.49
1.35 -5.95 2.49
1.47 -5.92 2.49
1.59 -5.89 2.49
1.71 -5.86 2.49
1.83 -5.83 2.49
1.94 -5.79 2.49
2.06 -5.76 2.49
2.18 -5.72 2.49
2.29 -5.67 2.49
2.41 -5.63 2.49
2.44 -5.41 2.42
2.52 -5.30 2.39
2.63 -5.26 2.39
2.74 -5.20 2.39
2.84 -5.15 2.39
2.94 -5.09 2.39
3.05 -5.03 2.39
3.15 -4.97 2.39
3.25 -4.91 2.39
3.35 -4.84 2.39
3.45 -4.78 2.39
3.54 -4.71 2.39
3.64 -4.64 2.39
3.73 -4.57 2.39
3.82 -4.49 2.39
3.91 -4.42 2.39
4.00 -4.34 2.39
4.09 -4.26 2.39
4.17 -4.18 2.39
4.26 -4.09 2.39
4.34 -4.01 2.39
4.42 -3.92 2.39
4.50 -3.83 2.39
4.58 -3.74 2.39
4.65 -3.65 2.39
4.73 -3.56 2.39
4.80 -3.47 2.39
4.87 -3.37 2.39
4.94 -3.27 2.39
5.00 -3.17 2.39
5.07 -3.07 2.39
5.13 -2.97 2.39
5.19 -2.87 2.39
5.25 -2.77 2.39
5.30 -2.66 2.39
5.35 -2.55 2.39
5.41 -2.45 2.39
5.45 -2.34 2.39
5.50 -2.23 2.39
5.55 -2.12 2.39
5.59 -2.01 2.39
5.63 -1.90 2.39
5.67 -1.78 2.39
5.70 -1.67 2.39
5.73 -1.56 2.39
5.77 -1.44 2.39
5.79 -1.33 2.39
5.82 -1.21 2.39
5.84 -1.09 2.39
5.87 -0.98 2.39
5.88 -0.86 2.39
5.90 -0.74 2.39
5.92 -0.62 2.39
5.93 -0.50 2.39
5.94 -0.38 2.39
5.94 -0.27 2.39
5.95 -0.15 2.39
5.95 -0.03 2.39
5.95 0.09 2.39
5.95 0.21 2.39
5.94 0.33 2.39
5.93 0.45 2.39
5.92 0.57 2.39
5.91 0.69 2.39
5.90 0.80 2.39
5.88 0.92 2.39
5.86 1.04 2.39
5.84 1.16 2.39
5.81 1.27 2.39
5.79 1.39 2.39
5.76 1.51 2.39
5.73 1.62 2.39
5.69 1.73 2.39
5.66 1.85 2.39
5.62 1.96 2.39
5.58 2.07 2.39
5.53 2.18 2.39
5.49 2.29 2.39
5.44 2.40 2.39
5.39 2.51 2.39
5.34 2.62 2.39
5.29 2.72 2.39
5.23 2.83 2.39
5.17 2.93 2.39
5.11 3.04 2.39
5.05 3.14 2.39
4.98 3.24 2.39
4.92 3.34 2.39
4.85 3.43 2.39
4.78 3.53 2.39
4.71 3.62 2.39
4.63 3.72 2.39
4.55 3.81 2.39
4.48 3.90 2.39
4.40 3.98 2.39
4.32 4.07 2.39
4.23 4.16 2.39
4.15 4.24 2.39
4.06 4.32 2.39
3.97 4.40 2.39
3.88 4.48 2.39
3.79 4.55 2.39
3.70 4.63 2.39
3.60 4.70 2.39
3.51 4.77 2.39
3.41 4.84 2.39
3.31 4.90 2.39
3.21 4.97 2.39
3.11 5.03 2.39
3.01 5.09 2.39
2.91 5.16 2.40
