ply
format ascii 1.0
element vertex 2908
property float32 x
property float32 y
property float32 z
end_header
-10.97 4.34 1.44
-10.98 4.09 1.44
-10.99 3.85 1.43
-11.00 3.60 1.42
-11.01 3.36 1.41
-11.02 3.12 1.41
-11.03 2.89 1.40
-11.03 2.66 1.39
-11.03 2.42 1.39
-11.04 2.19 1.38
-11.06 1.97 1.38
-11.07 1.74 1.38
-11.08 1.51 1.38
-11.09 1.29 1.38
-11.10 1.06 1.37
-11.11 0.84 1.37
-11.13 0.62 1.37
-11.14 0.39 1.37
-11.15 0.17 1.38
-11.16 -0.05 1.38
-11.17 -0.28 1.38
-11.18 -0.50 1.38
-11.19 -0.73 1.38
-11.20 -0.96 1.39
-11.20 -1.18 1.39
-11.21 -1.41 1.40
-11.23 -1.64 1.40
-11.24 -1.88 1.41
-11.24 -2.11 1.41
-11.24 -2.35 1.42
-11.25 -2.58 1.43
-11.25 -2.82 1.43
-11.25 -3.06 1.44
-11.25 -3.31 1.45
-11.25 -3.56 1.46
-11.27 -3.81 1.47
-11.32 -4.08 1.49
-11.36 -4.36 1.51
-11.41 -4.64 1.52
-11.46 -4.93 1.54
-11.51 -5.23 1.56
-11.55 -5.53 1.58
-11.58 -5.83 1.60
-11.60 -6.14 1.62
-11.61 -6.45 1.64
-11.63 -6.77 1.66
-11.65 -7.10 1.69
-11.66 -7.43 1.71
-11.68 -7.77 1.73
-11.67 -8.11 1.76
-11.66 -8.46 1.78
-11.65 -8.81 1.80
-11.64 -9.18 1.83
-11.63 -9.55 1.86
-11.61 -9.93 1.89
-11.58 -10.32 1.91
-11.55 -10.72 1.94
-11.52 -11.13 1.98
-11.49 -11.56 2.01
-11.48 -12.01 2.05
-11.48 -12.51 2.09
-11.48 -13.02 2.14
-11.48 -13.56 2.19
-11.50 -14.16 2.24
-11.55 -14.82 2.31
-11.61 -15.52 2.38
-11.62 -16.21 2.45
-11.56 -16.82 2.51
-11.41 -17.34 2.55
-10.38 -16.49 2.39
-10.05 -16.70 2.39
-9.72 -16.91 2.39
-9.38 -17.11 2.39
-9.04 -17.30 2.39
-8.69 -17.49 2.39
-8.35 -17.67 2.39
-7.99 -17.85 2.39
-7.64 -18.01 2.39
-7.28 -18.17 2.39
-6.92 -18.33 2.39
-6.55 -18.47 2.39
-6.45 -19.42 2.49
-6.06 -19.56 2.49
-5.67 -19.69 2.49
-5.28 -19.81 2.49
-4.88 -19.92 2.49
-4.49 -20.03 2.49
-4.09 -20.13 2.49
-3.68 -20.22 2.49
-3.28 -20.31 2.49
-2.87 -20.38 2.49
-2.46 -20.45 2.49
-2.06 -20.51 2.49
-1.64 -20.57 2.49
-1.23 -20.61 2.49
-0.82 -20.65 2.49
-0.40 -20.67 2.49
0.01 -17.39 2.49
0.36 -17.39 2.49
0.71 -17.40 2.49
1.06 -17.39 2.49
1.41 -17.38 2.49
1.69 -16.64 2.39
2.02 -16.61 2.39
2.36 -16.58 2.39
2.69 -16.54 2.39
3.02 -16.49 2.39
3.36 -16.44 2.39
2.14 -9.52 1.39
4.02 -16.32 2.39
4.35 -16.24 2.39
4.68 -16.16 2.39
5.01 -16.08 2.39
5.33 -15.99 2.39
5.66 -15.91 2.39
5.98 -15.80 2.39
6.30 -15.69 2.39
6.62 -15.57 2.39
6.94 -15.45 2.39
7.25 -15.31 2.39
7.56 -15.18 2.39
7.87 -15.03 2.39
8.18 -14.88 2.39
8.48 -14.72 2.39
8.78 -14.56 2.39
9.08 -14.39 2.39
9.37 -14.22 2.39
9.66 -14.03 2.39
9.95 -13.85 2.39
10.23 -13.65 2.39
10.51 -13.46 2.39
10.78 -13.25 2.39
11.06 -13.04 2.39
11.32 -12.82 2.39
11.59 -12.60 2.39
11.84 -12.38 2.39
12.10 -12.14 2.39
12.35 -11.91 2.39
12.59 -11.66 2.39
12.83 -11.42 2.39
13.07 -11.16 2.39
13.30 -10.90 2.39
13.52 -10.64 2.39
13.74 -10.38 2.39
13.95 -10.10 2.39
14.16 -9.83 2.39
14.36 -9.55 2.39
14.56 -9.26 2.39
14.58 -8.87 2.37
14.59 -8.48 2.34
14.59 -8.09 2.31
14.60 -7.72 2.29
14.56 -7.32 2.25
14.62 -6.99 2.24
14.68 -6.66 2.23
14.74 -6.34 2.22
14.88 -6.05 2.22
15.06 -5.77 2.22
15.23 -5.49 2.23
15.41 -5.21 2.24
15.59 -4.92 2.25
15.77 -4.63 2.26
15.95 -4.34 2.28
16.14 -4.04 2.29
16.33 -3.74 2.30
16.52 -3.44 2.32
15.81 -2.96 2.21
15.29 -2.55 2.13
15.47 -2.26 2.15
15.66 -1.97 2.17
15.85 -1.67 2.19
16.04 -1.37 2.21
16.23 -1.06 2.23
16.43 -0.74 2.26
16.63 -0.41 2.28
16.84 -0.08 2.31
17.06 0.26 2.34
17.28 0.61 2.37
17.45 0.97 2.39
17.43 1.32 2.39
17.40 1.67 2.39
17.37 2.02 2.39
17.33 2.36 2.39
17.28 2.71 2.39
17.22 3.06 2.39
17.16 3.40 2.39
17.09 3.75 2.39
17.01 4.09 2.39
16.93 4.43 2.39
16.84 4.77 2.39
16.74 5.11 2.39
16.63 5.44 2.39
16.52 5.77 2.39
16.40 6.10 2.39
16.28 6.43 2.39
16.14 6.76 2.39
16.00 7.08 2.39
15.86 7.40 2.39
15.71 7.72 2.39
15.55 8.03 2.39
15.38 8.34 2.39
15.21 8.64 2.39
15.03 8.95 2.39
14.85 9.24 2.39
14.66 9.54 2.39
14.46 9.83 2.39
14.26 10.12 2.39
14.05 10.40 2.39
13.83 10.68 2.39
13.61 10.95 2.39
13.39 11.22 2.39
13.16 11.48 2.39
12.92 11.74 2.39
12.68 11.99 2.39
12.43 12.24 2.39
12.18 12.48 2.39
11.92 12.72 2.39
11.66 12.95 2.39
11.40 13.18 2.39
11.13 13.40 2.39
10.85 13.62 2.39
10.57 13.83 2.39
10.29 14.03 2.39
10.00 14.23 2.39
9.71 14.42 2.39
9.41 14.61 2.39
9.12 14.79 2.39
8.81 14.96 2.39
8.51 15.13 2.39
8.20 15.29 2.39
7.89 15.44 2.39
7.57 15.59 2.39
7.25 15.73 2.39
6.93 15.86 2.39
6.60 15.97 2.39
6.28 16.09 2.39
5.95 16.21 2.39
5.62 16.32 2.39
5.29 16.42 2.39
4.96 16.51 2.39
4.62 16.60 2.39
4.28 16.68 2.39
3.95 16.75 2.39
3.61 16.81 2.39
3.27 16.87 2.39
2.93 16.92 2.39
2.70 17.70 2.49
2.34 17.74 2.49
1.98 17.77 2.49
1.62 17.80 2.49
1.26 17.81 2.49
0.91 17.83 2.49
0.55 17.83 2.49
0.19 17.82 2.49
-0.17 17.81 2.49
-0.52 17.79 2.49
-0.88 17.77 2.49
-1.24 17.73 2.49
-1.59 17.69 2.49
-1.94 17.65 2.49
-2.30 17.59 2.49
-2.65 17.53 2.49
-3.00 17.46 2.49
-3.34 17.39 2.49
-3.69 17.30 2.49
-4.03 17.21 2.49
-4.38 17.12 2.49
-4.71 17.01 2.49
-5.05 16.90 2.49
-5.24 16.35 2.43
-5.48 15.97 2.39
-5.80 15.85 2.39
-6.11 15.72 2.39
-6.42 15.58 2.39
-6.73 15.44 2.39
-7.03 15.29 2.39
-7.33 15.14 2.39
-7.63 14.98 2.39
-7.92 14.81 2.39
-8.21 14.64 2.39
-8.50 14.46 2.39
-8.78 14.28 2.39
-9.06 14.09 2.39
-9.33 13.89 2.39
-10.50 14.97 2.61
-10.55 14.42 2.56
-10.61 13.90 2.50
-10.66 13.40 2.45
-10.70 12.92 2.40
-10.64 12.32 2.33
-10.65 11.85 2.29
-10.66 11.40 2.24
-10.68 10.96 2.20
-10.66 10.51 2.15
-10.66 10.10 2.11
-10.67 9.71 2.08
-10.67 9.33 2.04
-10.67 8.96 2.01
-10.67 8.60 1.98
-10.68 8.25 1.95
-10.69 7.92 1.92
-10.70 7.60 1.90
-10.71 7.29 1.87
-10.72 6.99 1.85
-10.73 6.69 1.83
-10.74 6.40 1.81
-10.73 6.11 1.79
-10.73 5.82 1.77
-10.72 5.54 1.75
-10.71 5.27 1.73
-10.69 5.00 1.71
-10.67 4.73 1.70
-10.66 4.47 1.68
-10.67 4.22 1.67
-10.68 3.98 1.66
-10.70 3.74 1.65
-10.71 3.51 1.64
-10.72 3.28 1.63
-10.73 3.04 1.62
-10.74 2.82 1.62
-10.75 2.59 1.61
-10.76 2.36 1.61
-10.77 2.14 1.60
-10.79 1.92 1.60
-10.80 1.70 1.60
-10.82 1.48 1.59
-10.83 1.26 1.59
-10.85 1.04 1.59
-10.86 0.82 1.59
-10.87 0.60 1.59
-10.88 0.39 1.59
-10.89 0.17 1.59
-10.90 -0.05 1.59
-10.91 -0.27 1.60
-10.92 -0.49 1.60
-10.92 -0.71 1.60
-10.93 -0.93 1.61
-10.93 -1.15 1.61
-10.94 -1.38 1.62
-10.94 -1.60 1.62
-10.94 -1.83 1.63
-10.94 -2.05 1.63
-10.94 -2.28 1.64
-10.94 -2.51 1.65
-10.94 -2.74 1.65
-10.94 -2.98 1.66
-10.93 -3.22 1.67
-10.93 -3.45 1.68
-10.92 -3.69 1.69
-10.94 -3.95 1.71
-11.03 -4.23 1.73
-11.09 -4.51 1.76
-11.13 -4.79 1.78
-11.17 -5.08 1.80
-11.22 -5.37 1.82
-11.26 -5.67 1.85
-11.27 -5.97 1.87
-11.29 -6.27 1.89
-11.30 -6.58 1.92
-11.31 -6.89 1.94
-11.32 -7.21 1.97
-11.34 -7.55 2.00
-11.34 -7.88 2.02
-11.32 -8.21 2.05
-11.31 -8.55 2.08
-11.29 -8.91 2.11
-11.28 -9.27 2.14
-11.26 -9.64 2.17
-11.17 -9.96 2.19
-11.07 -10.27 2.21
-10.97 -10.59 2.23
-10.85 -10.92 2.25
-10.74 -11.24 2.27
-10.62 -11.57 2.29
-10.50 -11.92 2.32
-10.43 -12.33 2.36
-10.33 -12.71 2.39
-10.07 -12.92 2.39
-9.81 -13.13 2.39
-9.55 -13.33 2.39
-9.29 -13.52 2.39
-9.02 -13.71 2.39
-8.74 -13.89 2.39
-8.47 -14.07 2.39
-8.18 -14.25 2.39
-7.90 -14.41 2.39
-7.61 -14.58 2.39
-7.32 -14.73 2.39
-7.03 -14.88 2.39
-6.73 -15.03 2.39
-6.43 -15.17 2.39
-6.39 -15.96 2.49
-6.07 -16.10 2.49
-5.75 -16.22 2.49
-5.43 -16.34 2.49
-5.10 -16.46 2.49
-4.77 -16.57 2.49
-4.44 -16.67 2.49
-4.11 -16.76 2.49
-3.77 -16.85 2.49
-3.44 -16.94 2.49
-3.10 -17.01 2.49
-2.76 -17.08 2.49
-2.41 -17.14 2.49
-2.07 -17.20 2.49
-1.73 -17.25 2.49
-1.38 -17.29 2.49
-1.03 -17.32 2.49
-0.69 -17.35 2.49
-0.34 -17.37 2.49
0.01 -14.98 2.49
0.31 -14.98 2.49
0.61 -14.98 2.49
0.91 -14.98 2.49
1.22 -14.96 2.49
1.52 -14.94 2.49
1.74 -14.30 2.39
2.03 -14.27 2.39
2.32 -14.24 2.39
2.60 -14.20 2.39
2.89 -14.15 2.39
2.14 -9.52 1.61
3.46 -14.04 2.39
3.74 -13.98 2.39
4.03 -13.91 2.39
4.31 -13.83 2.39
4.59 -13.75 2.39
4.87 -13.66 2.39
5.14 -13.57 2.39
5.42 -13.47 2.39
5.69 -13.37 2.39
5.97 -13.28 2.39
6.24 -13.17 2.39
6.50 -13.05 2.39
6.77 -12.92 2.39
7.03 -12.79 2.39
7.29 -12.65 2.39
7.55 -12.51 2.39
7.80 -12.36 2.39
8.05 -12.21 2.39
8.30 -12.06 2.39
8.55 -11.89 2.39
8.79 -11.73 2.39
9.03 -11.56 2.39
9.26 -11.38 2.39
9.49 -11.20 2.39
9.72 -11.01 2.39
9.95 -10.82 2.39
10.17 -10.62 2.39
10.39 -10.42 2.39
10.60 -10.22 2.39
10.81 -10.01 2.39
11.01 -9.80 2.39
11.21 -9.58 2.39
11.41 -9.36 2.39
11.60 -9.13 2.39
11.79 -8.90 2.39
11.97 -8.67 2.39
12.15 -8.43 2.39
12.32 -8.19 2.39
12.49 -7.94 2.39
12.65 -7.69 2.39
12.81 -7.44 2.39
12.96 -7.19 2.39
13.11 -6.93 2.39
13.25 -6.67 2.39
13.39 -6.40 2.39
13.52 -6.14 2.39
13.65 -5.87 2.39
13.77 -5.59 2.39
13.88 -5.32 2.39
13.99 -5.04 2.39
14.10 -4.76 2.39
14.19 -4.48 2.39
14.29 -4.19 2.39
14.37 -3.91 2.39
14.45 -3.62 2.39
14.53 -3.33 2.39
14.60 -3.04 2.39
14.66 -2.75 2.39
14.72 -2.45 2.39
14.77 -2.16 2.39
14.81 -1.86 2.39
14.85 -1.57 2.39
14.88 -1.27 2.39
14.91 -0.97 2.39
14.93 -0.67 2.39
14.95 -0.37 2.39
14.95 -0.07 2.39
14.95 0.23 2.39
14.95 0.53 2.39
14.94 0.83 2.39
14.92 1.13 2.39
14.90 1.43 2.39
14.87 1.73 2.39
14.83 2.02 2.39
14.79 2.32 2.39
14.74 2.62 2.39
14.69 2.91 2.39
14.63 3.21 2.39
14.56 3.50 2.39
14.49 3.79 2.39
14.41 4.08 2.39
14.33 4.37 2.39
14.24 4.66 2.39
14.14 4.94 2.39
14.04 5.23 2.39
13.93 5.51 2.39
13.82 5.78 2.39
13.70 6.06 2.39
13.57 6.33 2.39
13.44 6.60 2.39
13.31 6.87 2.39
13.17 7.14 2.39
13.02 7.40 2.39
12.87 7.66 2.39
12.71 7.91 2.39
12.55 8.17 2.39
12.38 8.41 2.39
12.20 8.66 2.39
12.03 8.90 2.39
11.84 9.14 2.39
11.66 9.37 2.39
11.46 9.60 2.39
11.27 9.83 2.39
11.06 10.05 2.39
10.86 10.27 2.39
10.65 10.48 2.39
10.43 10.69 2.39
10.21 10.89 2.39
9.99 11.09 2.39
9.76 11.29 2.39
9.53 11.48 2.39
9.30 11.66 2.39
9.06 11.84 2.39
8.81 12.02 2.39
8.57 12.19 2.39
8.32 12.35 2.39
8.07 12.51 2.39
7.81 12.67 2.39
7.55 12.82 2.39
7.29 12.96 2.39
7.03 13.10 2.39
6.76 13.23 2.39
6.48 13.35 2.39
6.21 13.47 2.39
5.94 13.58 2.39
5.66 13.69 2.39
5.38 13.80 2.39
5.10 13.90 2.39
4.82 13.99 2.39
4.54 14.08 2.39
4.25 14.16 2.39
3.96 14.23 2.39
3.68 14.30 2.39
3.39 14.37 2.39
3.10 14.42 2.39
2.80 14.48 2.39
2.62 15.15 2.49
2.31 15.19 2.49
2.01 15.22 2.49
1.70 15.25 2.49
1.39 15.28 2.49
1.09 15.29 2.49
0.78 15.30 2.49
0.47 15.31 2.49
0.17 15.30 2.49
-0.14 15.30 2.49
-0.45 15.28 2.49
-0.75 15.26 2.49
-1.06 15.23 2.49
-1.36 15.20 2.49
-1.67 15.16 2.49
-1.97 15.11 2.49
-2.27 15.06 2.49
-2.57 15.00 2.49
-2.87 14.94 2.49
-3.17 14.87 2.49
-3.47 14.80 2.49
-3.76 14.71 2.49
-4.05 14.63 2.49
-4.34 14.53 2.49
-4.63 14.44 2.49
-4.92 14.33 2.49
-5.20 14.22 2.49
-5.34 13.74 2.43
-5.52 13.40 2.39
-5.78 13.28 2.39
-6.05 13.16 2.39
-6.31 13.02 2.39
-6.56 12.89 2.39
-6.82 12.75 2.39
-7.07 12.60 2.39
-7.31 12.45 2.39
-7.56 12.29 2.39
-7.80 12.13 2.39
-8.03 11.96 2.39
-8.27 11.79 2.39
-8.50 11.62 2.39
-8.72 11.44 2.39
-8.95 11.25 2.39
-9.17 11.07 2.39
-9.38 10.87 2.39
-9.95 11.08 2.48
-9.98 10.67 2.43
-10.04 10.31 2.40
-10.10 9.97 2.37
-10.11 9.58 2.33
-10.12 9.21 2.29
-10.12 8.85 2.25
-10.13 8.50 2.21
-10.18 8.20 2.19
-10.22 7.90 2.16
-10.24 7.59 2.13
-10.26 7.29 2.11
-10.28 7.00 2.08
-10.29 6.71 2.06
-10.30 6.43 2.04
-10.34 6.17 2.02
-10.35 5.89 2.00
-10.34 5.61 1.98
-10.33 5.34 1.95
-10.31 5.08 1.93
-10.30 4.82 1.91
-10.29 4.56 1.89
-10.29 4.32 1.88
-10.32 4.08 1.87
-10.34 3.85 1.86
-10.35 3.62 1.85
-10.37 3.40 1.84
-10.38 3.17 1.83
-10.39 2.95 1.82
-10.40 2.73 1.82
-10.41 2.51 1.81
-10.42 2.29 1.80
-10.42 2.07 1.79
-10.43 1.86 1.79
-10.44 1.64 1.79
-10.46 1.43 1.79
-10.47 1.22 1.78
-10.49 1.01 1.78
-10.50 0.80 1.78
-10.51 0.58 1.78
-10.52 0.37 1.78
-10.52 0.16 1.78
-10.52 -0.05 1.78
-10.53 -0.26 1.78
-10.53 -0.47 1.79
-10.54 -0.69 1.79
-10.54 -0.90 1.79
-10.55 -1.11 1.80
-10.55 -1.33 1.80
-10.55 -1.54 1.81
-10.55 -1.76 1.81
-10.55 -1.98 1.82
-10.55 -2.20 1.83
-10.54 -2.42 1.84
-10.54 -2.64 1.84
-10.54 -2.87 1.85
-10.53 -3.10 1.86
-10.52 -3.33 1.87
-10.51 -3.56 1.88
-10.50 -3.79 1.89
-10.48 -4.02 1.90
-10.45 -4.25 1.92
-10.49 -4.51 1.94
-10.56 -4.80 1.97
-10.63 -5.09 2.00
-10.70 -5.39 2.03
-10.78 -5.70 2.07
-10.74 -5.96 2.08
-10.68 -6.22 2.10
-10.68 -6.51 2.12
-10.68 -6.80 2.15
-10.67 -7.11 2.17
-10.67 -7.42 2.20
-10.66 -7.73 2.23
-10.59 -8.01 2.25
-10.50 -8.28 2.27
-10.40 -8.55 2.28
-10.32 -8.83 2.30
-10.23 -9.12 2.32
-10.13 -9.40 2.34
-10.04 -9.70 2.36
-9.94 -10.00 2.39
-9.76 -10.22 2.39
-9.55 -10.41 2.39
-9.34 -10.60 2.39
-9.13 -10.79 2.39
-8.92 -10.98 2.39
-8.70 -11.16 2.39
-8.47 -11.33 2.39
-8.25 -11.51 2.39
-8.02 -11.67 2.39
-7.78 -11.84 2.39
-7.55 -11.99 2.39
-7.31 -12.15 2.39
-7.06 -12.30 2.39
-6.82 -12.44 2.39
-6.57 -12.58 2.39
-6.32 -12.71 2.39
-6.33 -13.40 2.49
-6.06 -13.53 2.49
-5.79 -13.65 2.49
-5.51 -13.77 2.49
-5.24 -13.89 2.49
-4.96 -14.00 2.49
-4.68 -14.10 2.49
-4.40 -14.20 2.49
-4.11 -14.29 2.49
-3.83 -14.38 2.49
-3.54 -14.46 2.49
-3.25 -14.53 2.49
-2.96 -14.60 2.49
-2.67 -14.67 2.49
-2.37 -14.72 2.49
-2.08 -14.78 2.49
-1.78 -14.82 2.49
-1.49 -14.86 2.49
-1.19 -14.90 2.49
-0.89 -14.93 2.49
-0.59 -14.95 2.49
-0.29 -14.97 2.49
0.01 -13.14 2.49
0.28 -13.15 2.49
0.54 -13.15 2.49
0.80 -13.14 2.49
1.07 -13.13 2.49
1.33 -13.11 2.49
1.60 -13.09 2.49
1.78 -12.52 2.39
2.03 -12.49 2.39
2.29 -12.45 2.39
2.54 -12.41 2.39
2.15 -9.52 1.84
3.04 -12.31 2.39
3.28 -12.25 2.39
3.53 -12.19 2.39
3.78 -12.12 2.39
4.02 -12.05 2.39
4.27 -11.98 2.39
4.51 -11.89 2.39
4.75 -11.81 2.39
4.99 -11.72 2.39
5.22 -11.62 2.39
5.46 -11.52 2.39
5.69 -11.41 2.39
5.93 -11.32 2.39
6.16 -11.20 2.39
6.39 -11.08 2.39
6.61 -10.96 2.39
6.83 -10.83 2.39
7.05 -10.70 2.39
7.27 -10.56 2.39
7.48 -10.41 2.39
7.70 -10.27 2.39
7.90 -10.12 2.39
8.11 -9.96 2.39
8.31 -9.80 2.39
8.51 -9.64 2.39
8.71 -9.47 2.39
8.90 -9.30 2.39
9.09 -9.12 2.39
9.28 -8.94 2.39
9.46 -8.76 2.39
9.64 -8.57 2.39
9.81 -8.38 2.39
9.98 -8.18 2.39
10.15 -7.99 2.39
10.31 -7.78 2.39
10.47 -7.58 2.39
10.63 -7.37 2.39
10.78 -7.16 2.39
10.92 -6.95 2.39
11.06 -6.73 2.39
11.20 -6.51 2.39
11.33 -6.28 2.39
11.46 -6.06 2.39
11.59 -5.83 2.39
11.71 -5.60 2.39
11.82 -5.36 2.39
11.93 -5.13 2.39
12.04 -4.89 2.39
12.14 -4.65 2.39
12.23 -4.41 2.39
12.32 -4.16 2.39
12.41 -3.91 2.39
12.49 -3.67 2.39
12.56 -3.42 2.39
12.63 -3.16 2.39
12.70 -2.91 2.39
12.76 -2.66 2.39
12.81 -2.40 2.39
12.86 -2.14 2.39
12.90 -1.89 2.39
12.94 -1.63 2.39
12.98 -1.37 2.39
13.00 -1.11 2.39
13.03 -0.85 2.39
13.04 -0.58 2.39
13.05 -0.32 2.39
13.06 -0.06 2.39
13.06 0.20 2.39
13.06 0.46 2.39
13.05 0.72 2.39
13.03 0.99 2.39
13.01 1.25 2.39
12.99 1.51 2.39
12.96 1.77 2.39
12.92 2.03 2.39
12.87 2.29 2.39
12.83 2.55 2.39
12.77 2.80 2.39
12.72 3.06 2.39
12.65 3.31 2.39
12.59 3.57 2.39
12.51 3.82 2.39
12.43 4.07 2.39
12.35 4.32 2.39
12.26 4.56 2.39
12.17 4.81 2.39
12.07 5.05 2.39
11.96 5.29 2.39
11.85 5.53 2.39
11.74 5.77 2.39
11.62 6.00 2.39
11.50 6.23 2.39
11.37 6.46 2.39
11.24 6.69 2.39
11.10 6.91 2.39
10.96 7.13 2.39
10.81 7.35 2.39
10.66 7.56 2.39
10.50 7.77 2.39
10.34 7.98 2.39
10.18 8.19 2.39
10.01 8.39 2.39
9.84 8.58 2.39
9.66 8.78 2.39
9.49 8.97 2.39
9.30 9.16 2.39
9.11 9.34 2.39
8.92 9.52 2.39
8.73 9.69 2.39
8.53 9.86 2.39
8.33 10.03 2.39
8.12 10.19 2.39
7.91 10.35 2.39
7.70 10.50 2.39
7.49 10.65 2.39
7.27 10.80 2.39
7.05 10.94 2.39
6.83 11.07 2.39
6.59 11.19 2.39
6.37 11.32 2.39
6.14 11.44 2.39
5.90 11.55 2.39
5.67 11.67 2.39
5.43 11.77 2.39
5.19 11.87 2.39
4.95 11.97 2.39
4.71 12.06 2.39
4.46 12.15 2.39
4.22 12.23 2.39
3.97 12.31 2.39
3.72 12.38 2.39
3.47 12.45 2.39
3.22 12.51 2.39
2.96 12.57 2.39
2.71 12.62 2.39
2.56 13.21 2.49
2.29 13.25 2.49
2.03 13.29 2.49
1.76 13.32 2.49
1.49 13.35 2.49
1.22 13.37 2.49
0.95 13.38 2.49
0.68 13.39 2.49
0.41 13.40 2.49
0.15 13.40 2.49
-0.12 13.39 2.49
-0.39 13.38 2.49
-0.66 13.36 2.49
-0.93 13.34 2.49
-1.19 13.31 2.49
-1.46 13.28 2.49
-1.73 13.24 2.49
-1.99 13.19 2.49
-2.25 13.14 2.49
-2.51 13.09 2.49
-2.78 13.03 2.49
-3.03 12.96 2.49
-3.29 12.89 2.49
-3.55 12.82 2.49
-3.80 12.74 2.49
-4.06 12.65 2.49
-4.31 12.56 2.49
-4.56 12.46 2.49
-4.80 12.36 2.49
-5.05 12.26 2.49
-5.29 12.15 2.49
-5.41 11.77 2.44
-5.53 11.42 2.39
-5.75 11.30 2.39
-5.97 11.18 2.39
-6.19 11.05 2.39
-6.41 10.92 2.39
-6.63 10.78 2.39
-6.84 10.64 2.39
-7.05 10.49 2.39
-7.25 10.35 2.39
-7.45 10.19 2.39
-7.65 10.04 2.39
-7.85 9.87 2.39
-8.04 9.71 2.39
-8.23 9.54 2.39
-8.42 9.37 2.39
-8.60 9.19 2.39
-8.78 9.02 2.39
-8.95 8.83 2.39
-9.12 8.65 2.39
-9.29 8.46 2.39
-9.45 8.27 2.39
-9.63 8.08 2.39
-9.69 7.81 2.37
-9.75 7.54 2.35
-9.78 7.25 2.32
-9.80 6.97 2.29
-9.82 6.69 2.27
-9.84 6.42 2.24
-9.88 6.17 2.23
-9.93 5.92 2.21
-9.96 5.67 2.19
-9.96 5.41 2.17
-9.95 5.15 2.14
-9.95 4.90 2.12
-9.94 4.65 2.10
-9.93 4.40 2.08
-9.96 4.18 2.07
-9.98 3.95 2.06
-10.01 3.73 2.05
-10.03 3.51 2.04
-10.04 3.29 2.03
-10.06 3.07 2.02
-10.07 2.86 2.01
-10.08 2.64 2.00
-10.09 2.43 1.99
-10.10 2.22 1.99
-10.10 2.01 1.98
-10.10 1.80 1.97
-10.10 1.59 1.97
-10.12 1.38 1.96
-10.13 1.18 1.96
-10.15 0.97 1.96
-10.16 0.77 1.96
-10.17 0.57 1.96
-10.18 0.36 1.96
-10.18 0.16 1.96
-10.18 -0.05 1.96
-10.18 -0.25 1.96
-10.17 -0.46 1.96
-10.18 -0.66 1.97
-10.18 -0.87 1.97
-10.19 -1.08 1.98
-10.19 -1.28 1.98
-10.19 -1.49 1.99
-10.19 -1.70 1.99
-10.18 -1.91 2.00
-10.18 -2.12 2.01
-10.17 -2.34 2.01
-10.17 -2.55 2.02
-10.16 -2.77 2.03
-10.15 -2.99 2.04
-10.14 -3.21 2.05
-10.13 -3.43 2.06
-10.12 -3.65 2.08
-10.10 -3.88 2.09
-10.08 -4.10 2.10
-10.05 -4.33 2.11
-10.02 -4.55 2.12
-9.99 -4.79 2.14
-10.02 -5.05 2.17
-10.08 -5.34 2.20
-10.14 -5.63 2.24
-10.13 -5.90 2.26
-10.07 -6.14 2.27
-10.01 -6.38 2.29
-9.94 -6.62 2.30
-9.87 -6.86 2.32
-9.80 -7.11 2.33
-9.77 -7.39 2.36
-9.74 -7.68 2.39
-9.58 -7.88 2.39
-9.43 -8.07 2.39
-9.26 -8.26 2.39
-9.10 -8.44 2.39
-8.93 -8.63 2.39
-8.75 -8.81 2.39
-8.58 -8.98 2.39
-8.40 -9.15 2.39
-8.21 -9.32 2.39
-8.03 -9.49 2.39
-7.84 -9.65 2.39
-7.64 -9.81 2.39
-7.45 -9.96 2.39
-7.25 -10.11 2.39
-7.04 -10.26 2.39
-6.84 -10.40 2.39
-6.63 -10.54 2.39
-6.44 -10.71 2.40
-6.25 -10.88 2.41
-6.25 -11.40 2.49
-6.02 -11.53 2.49
-5.79 -11.65 2.49
-5.56 -11.77 2.49
-5.32 -11.89 2.49
-5.08 -12.00 2.49
-4.84 -12.10 2.49
-4.60 -12.20 2.49
-4.36 -12.29 2.49
-4.11 -12.38 2.49
-3.86 -12.47 2.49
-3.61 -12.55 2.49
-3.36 -12.62 2.49
-3.11 -12.70 2.49
-2.85 -12.76 2.49
-2.60 -12.82 2.49
-2.34 -12.88 2.49
-2.08 -12.93 2.49
-1.82 -12.97 2.49
-1.56 -13.01 2.49
-1.30 -13.05 2.49
-1.04 -13.08 2.49
-0.78 -13.10 2.49
-0.52 -13.12 2.49
-0.25 -13.14 2.49
0.01 -11.70 2.49
0.25 -11.70 2.49
0.48 -11.70 2.49
0.72 -11.69 2.49
0.95 -11.68 2.49
1.19 -11.67 2.49
1.42 -11.64 2.49
1.66 -11.62 2.49
1.81 -11.13 2.40
2.03 -11.08 2.39
2.26 -11.04 2.39
2.15 -9.52 2.07
2.70 -10.95 2.39
2.92 -10.90 2.39
3.14 -10.84 2.39
3.36 -10.78 2.39
3.58 -10.72 2.39
3.79 -10.65 2.39
4.01 -10.58 2.39
4.22 -10.50 2.39
4.43 -10.42 2.39
4.65 -10.33 2.39
4.85 -10.24 2.39
5.06 -10.15 2.39
5.27 -10.05 2.39
5.47 -9.94 2.39
5.67 -9.84 2.39
5.87 -9.73 2.39
6.07 -9.62 2.39
6.27 -9.50 2.39
6.46 -9.38 2.39
6.65 -9.25 2.39
6.84 -9.12 2.39
7.02 -8.99 2.39
7.21 -8.85 2.39
7.39 -8.71 2.39
7.56 -8.56 2.39
7.74 -8.41 2.39
7.91 -8.26 2.39
8.07 -8.10 2.39
8.24 -7.94 2.39
8.40 -7.78 2.39
8.56 -7.61 2.39
8.71 -7.44 2.39
8.86 -7.27 2.39
9.01 -7.09 2.39
9.16 -6.91 2.39
9.30 -6.73 2.39
9.43 -6.54 2.39
9.57 -6.36 2.39
9.70 -6.16 2.39
9.82 -5.97 2.39
9.94 -5.78 2.39
10.06 -5.58 2.39
10.17 -5.38 2.39
10.28 -5.17 2.39
10.39 -4.97 2.39
10.49 -4.76 2.39
10.59 -4.55 2.39
10.68 -4.34 2.39
10.77 -4.12 2.39
10.85 -3.91 2.39
10.93 -3.69 2.39
11.01 -3.47 2.39
11.08 -3.25 2.39
11.14 -3.03 2.39
11.21 -2.81 2.39
11.26 -2.58 2.39
11.32 -2.36 2.39
11.36 -2.13 2.39
11.41 -1.90 2.39
11.45 -1.67 2.39
11.48 -1.44 2.39
11.51 -1.21 2.39
11.53 -0.98 2.39
11.55 -0.75 2.39
11.57 -0.52 2.39
11.58 -0.29 2.39
11.58 -0.05 2.39
11.58 0.18 2.39
11.58 0.41 2.39
11.57 0.64 2.39
11.56 0.87 2.39
11.54 1.11 2.39
11.52 1.34 2.39
11.49 1.57 2.39
11.46 1.80 2.39
11.42 2.03 2.39
11.37 2.26 2.39
11.33 2.48 2.39
11.28 2.71 2.39
11.22 2.94 2.39
11.16 3.16 2.39
11.09 3.39 2.39
11.02 3.61 2.39
10.95 3.83 2.39
10.87 4.05 2.39
10.79 4.26 2.39
10.70 4.48 2.39
10.61 4.69 2.39
10.51 4.90 2.39
10.41 5.11 2.39
10.31 5.32 2.39
10.20 5.53 2.39
10.08 5.73 2.39
9.96 5.93 2.39
9.84 6.13 2.39
9.72 6.32 2.39
9.59 6.52 2.39
9.45 6.71 2.39
9.32 6.89 2.39
9.17 7.08 2.39
9.03 7.26 2.39
8.88 7.44 2.39
8.73 7.61 2.39
8.57 7.79 2.39
8.41 7.95 2.39
8.25 8.12 2.39
8.08 8.28 2.39
7.91 8.44 2.39
7.74 8.60 2.39
7.57 8.75 2.39
7.39 8.90 2.39
7.21 9.04 2.39
7.02 9.18 2.39
6.83 9.32 2.39
6.64 9.45 2.39
6.44 9.57 2.39
6.25 9.69 2.39
6.05 9.81 2.39
5.85 9.93 2.39
5.65 10.04 2.39
5.45 10.15 2.39
5.24 10.25 2.39
5.03 10.35 2.39
4.82 10.45 2.39
4.61 10.54 2.39
4.39 10.62 2.39
4.18 10.71 2.39
3.96 10.78 2.39
3.74 10.86 2.39
3.52 10.93 2.39
3.30 10.99 2.39
3.08 11.05 2.39
2.86 11.11 2.39
2.63 11.16 2.39
2.51 11.69 2.49
2.27 11.73 2.49
2.04 11.77 2.49
1.80 11.80 2.49
1.56 11.83 2.49
1.32 11.85 2.49
1.09 11.87 2.49
0.85 11.89 2.49
0.61 11.90 2.49
0.37 11.90 2.49
0.13 11.90 2.49
-0.11 11.89 2.49
-0.35 11.88 2.49
-0.58 11.87 2.49
-0.82 11.85 2.49
-1.06 11.83 2.49
-1.30 11.80 2.49
-1.53 11.76 2.49
-1.77 11.72 2.49
-2.00 11.68 2.49
-2.23 11.63 2.49
-2.47 11.58 2.49
-2.70 11.52 2.49
-2.93 11.46 2.49
-3.15 11.39 2.49
-3.38 11.32 2.49
-3.60 11.25 2.49
-3.83 11.17 2.49
-4.05 11.08 2.49
-4.27 10.99 2.49
-4.49 10.90 2.49
-4.70 10.80 2.49
-4.92 10.70 2.49
-5.13 10.60 2.49
-5.34 10.49 2.49
-5.47 10.23 2.46
-5.51 9.83 2.39
-5.70 9.71 2.39
-5.89 9.59 2.39
-6.08 9.47 2.39
-6.27 9.34 2.39
-6.45 9.21 2.39
-6.63 9.07 2.39
-6.81 8.93 2.39
-6.98 8.79 2.39
-7.16 8.64 2.39
-7.33 8.49 2.39
-7.49 8.34 2.39
-7.65 8.19 2.39
-7.81 8.03 2.39
-7.97 7.86 2.39
-8.12 7.70 2.39
-8.27 7.53 2.39
-8.42 7.36 2.39
-8.56 7.19 2.39
-8.70 7.01 2.39
-8.83 6.83 2.39
-8.97 6.65 2.39
-9.09 6.47 2.39
-9.22 6.28 2.39
-9.34 6.09 2.39
-9.46 5.90 2.39
-9.54 5.69 2.38
-9.58 5.46 2.37
-9.60 5.22 2.35
-9.60 4.97 2.32
-9.60 4.73 2.30
-9.60 4.49 2.28
-9.61 4.26 2.26
-9.64 4.04 2.25
-9.67 3.83 2.24
-9.69 3.62 2.23
-9.72 3.40 2.22
-9.74 3.19 2.21
-9.75 2.98 2.20
-9.77 2.77 2.19
-9.78 2.57 2.18
-9.79 2.36 2.17
-9.80 2.15 2.16
-9.80 1.95 2.15
-9.80 1.74 2.15
-9.80 1.54 2.14
-9.80 1.34 2.14
-9.81 1.14 2.13
-9.83 0.94 2.13
-9.84 0.75 2.13
-9.85 0.55 2.13
-9.86 0.35 2.13
-9.86 0.15 2.13
-9.86 -0.05 2.13
-9.85 -0.24 2.13
-9.85 -0.44 2.13
-9.85 -0.64 2.13
-9.84 -0.84 2.14
-9.85 -1.04 2.14
-9.85 -1.24 2.15
-9.85 -1.44 2.15
-9.85 -1.64 2.16
-9.84 -1.85 2.17
-9.84 -2.05 2.17
-9.83 -2.26 2.18
-9.82 -2.46 2.19
-9.81 -2.67 2.20
-9.80 -2.88 2.21
-9.79 -3.09 2.22
-9.78 -3.31 2.23
-9.76 -3.52 2.25
-9.75 -3.74 2.26
-9.72 -3.96 2.27
-9.69 -4.17 2.28
-9.66 -4.39 2.30
-9.63 -4.61 2.31
-9.60 -4.84 2.33
-9.56 -5.06 2.34
-9.53 -5.29 2.36
-9.55 -5.56 2.39
-9.44 -5.75 2.39
-9.32 -5.94 2.39
-9.20 -6.12 2.39
-9.07 -6.31 2.39
-8.95 -6.49 2.39
-8.82 -6.67 2.39
-8.68 -6.85 2.39
-8.54 -7.02 2.39
-8.40 -7.19 2.39
-8.26 -7.36 2.39
-8.11 -7.53 2.39
-7.96 -7.69 2.39
-7.80 -7.85 2.39
-7.65 -8.01 2.39
-7.48 -8.16 2.39
-7.32 -8.31 2.39
-7.15 -8.46 2.39
-6.98 -8.60 2.39
-6.81 -8.74 2.39
-6.64 -8.88 2.39
-6.46 -9.01 2.39
-6.28 -9.14 2.39
-6.19 -9.41 2.43
-6.16 -9.80 2.49
-5.97 -9.92 2.49
-5.77 -10.04 2.49
-5.57 -10.16 2.49
-5.36 -10.27 2.49
-5.16 -10.38 2.49
-4.95 -10.49 2.49
-4.74 -10.59 2.49
-4.53 -10.69 2.49
-4.31 -10.78 2.49
-4.10 -10.87 2.49
-3.88 -10.95 2.49
-3.66 -11.03 2.49
-3.44 -11.11 2.49
-3.22 -11.18 2.49
-2.99 -11.24 2.49
-2.77 -11.31 2.49
-2.54 -11.36 2.49
-2.31 -11.42 2.49
-2.08 -11.47 2.49
-1.85 -11.51 2.49
-1.62 -11.55 2.49
-1.39 -11.59 2.49
-1.16 -11.62 2.49
-0.93 -11.64 2.49
-0.69 -11.66 2.49
-0.46 -11.68 2.49
-0.22 -11.69 2.49
0.01 -10.53 2.49
0.22 -10.53 2.49
0.43 -10.53 2.49
0.65 -10.52 2.49
0.86 -10.51 2.49
1.07 -10.50 2.49
1.28 -10.48 2.49
1.49 -10.46 2.49
1.70 -10.43 2.49
1.85 -10.06 2.41
2.04 -9.96 2.40
2.15 -9.51 2.30
2.43 -9.85 2.39
2.63 -9.80 2.39
2.83 -9.75 2.39
3.02 -9.70 2.39
3.22 -9.64 2.39
3.41 -9.58 2.39
3.61 -9.51 2.39
3.80 -9.44 2.39
3.99 -9.37 2.39
4.18 -9.29 2.39
4.37 -9.21 2.39
4.55 -9.12 2.39
4.74 -9.03 2.39
4.92 -8.94 2.39
5.10 -8.84 2.39
5.28 -8.74 2.39
5.45 -8.64 2.39
5.63 -8.53 2.39
5.80 -8.42 2.39
5.98 -8.32 2.39
6.15 -8.20 2.39
6.31 -8.08 2.39
6.48 -7.95 2.39
6.64 -7.82 2.39
6.80 -7.69 2.39
6.95 -7.56 2.39
7.11 -7.42 2.39
7.26 -7.28 2.39
7.40 -7.13 2.39
7.55 -6.99 2.39
7.69 -6.84 2.39
7.83 -6.68 2.39
7.96 -6.53 2.39
8.10 -6.37 2.39
8.23 -6.21 2.39
8.35 -6.04 2.39
8.47 -5.88 2.39
8.59 -5.71 2.39
8.71 -5.54 2.39
8.82 -5.36 2.39
8.93 -5.19 2.39
9.04 -5.01 2.39
9.14 -4.83 2.39
9.24 -4.64 2.39
9.33 -4.46 2.39
9.42 -4.27 2.39
9.51 -4.08 2.39
9.59 -3.89 2.39
9.67 -3.70 2.39
9.74 -3.51 2.39
9.82 -3.31 2.39
9.88 -3.12 2.39
9.95 -2.92 2.39
10.01 -2.72 2.39
10.06 -2.52 2.39
10.11 -2.32 2.39
10.16 -2.11 2.39
10.20 -1.91 2.39
10.24 -1.71 2.39
10.27 -1.50 2.39
10.30 -1.29 2.39
10.33 -1.09 2.39
10.35 -0.88 2.39
10.37 -0.67 2.39
10.38 -0.46 2.39
10.39 -0.26 2.39
10.40 -0.05 2.39
10.40 0.16 2.39
10.39 0.37 2.39
10.39 0.58 2.39
10.37 0.79 2.39
10.36 0.99 2.39
10.34 1.20 2.39
10.31 1.41 2.39
10.28 1.61 2.39
10.25 1.82 2.39
10.21 2.03 2.39
10.17 2.23 2.39
10.12 2.43 2.39
10.07 2.64 2.39
10.01 2.84 2.39
9.96 3.04 2.39
9.89 3.24 2.39
9.83 3.43 2.39
9.76 3.63 2.39
9.68 3.83 2.39
9.60 4.02 2.39
9.52 4.21 2.39
9.43 4.40 2.39
9.34 4.59 2.39
9.25 4.77 2.39
9.15 4.96 2.39
9.05 5.14 2.39
8.94 5.32 2.39
8.83 5.50 2.39
8.72 5.67 2.39
8.60 5.85 2.39
8.48 6.02 2.39
8.36 6.19 2.39
8.23 6.35 2.39
8.10 6.52 2.39
7.97 6.68 2.39
7.83 6.83 2.39
7.69 6.99 2.39
7.55 7.14 2.39
7.41 7.29 2.39
7.26 7.43 2.39
7.10 7.58 2.39
6.95 7.72 2.39
6.79 7.85 2.39
6.63 7.98 2.39
6.46 8.10 2.39
6.30 8.23 2.39
6.13 8.35 2.39
5.96 8.47 2.39
5.79 8.59 2.39
5.61 8.70 2.39
5.43 8.81 2.39
5.25 8.91 2.39
5.07 9.01 2.39
4.89 9.11 2.39
4.71 9.21 2.39
4.52 9.30 2.39
4.33 9.38 2.39
4.14 9.46 2.39
3.95 9.54 2.39
3.75 9.62 2.39
3.56 9.69 2.39
3.36 9.75 2.39
3.17 9.81 2.39
2.97 9.87 2.39
2.77 9.93 2.39
2.59 10.05 2.41
2.47 10.45 2.49
2.26 10.50 2.49
2.04 10.54 2.49
1.83 10.57 2.49
1.62 10.60 2.49
1.41 10.63 2.49
1.19 10.65 2.49
0.98 10.67 2.49
0.76 10.68 2.49
0.55 10.69 2.49
0.33 10.69 2.49
0.12 10.69 2.49
-0.10 10.69 2.49
-0.31 10.68 2.49
-0.52 10.67 2.49
-0.74 10.65 2.49
-0.95 10.63 2.49
-1.16 10.60 2.49
-1.38 10.57 2.49
-1.59 10.54 2.49
-1.80 10.50 2.49
-2.01 10.46 2.49
-2.22 10.41 2.49
-2.42 10.36 2.49
-2.63 10.31 2.49
-2.83 10.25 2.49
-3.04 10.18 2.49
-3.24 10.12 2.49
-3.44 10.04 2.49
-3.64 9.97 2.49
-3.84 9.89 2.49
-4.03 9.81 2.49
-4.23 9.72 2.49
-4.42 9.63 2.49
-4.61 9.53 2.49
-4.80 9.43 2.49
-4.99 9.33 2.49
-5.17 9.23 2.49
-5.35 9.12 2.49
-5.51 8.97 2.48
-5.53 8.61 2.42
-5.64 8.40 2.39
-5.80 8.29 2.39
-5.97 8.16 2.39
-6.13 8.04 2.39
-6.29 7.91 2.39
-6.44 7.78 2.39
-6.59 7.65 2.39
-6.74 7.51 2.39
-6.89 7.37 2.39
-7.03 7.23 2.39
-7.17 7.08 2.39
-7.31 6.93 2.39
-7.45 6.78 2.39
-7.58 6.63 2.39
-7.71 6.47 2.39
-7.83 6.31 2.39
-7.95 6.15 2.39
-8.07 5.99 2.39
-8.19 5.82 2.39
-8.30 5.66 2.39
-8.41 5.49 2.39
-8.52 5.31 2.39
-8.62 5.14 2.39
-8.72 4.97 2.39
-8.81 4.79 2.39
-8.90 4.61 2.39
-8.99 4.43 2.39
-9.08 4.24 2.39
-9.16 4.06 2.39
-9.23 3.87 2.39
-9.31 3.69 2.39
-9.38 3.50 2.39
-9.42 3.30 2.39
-9.44 3.10 2.38
-9.46 2.89 2.37
-9.48 2.69 2.36
-9.49 2.49 2.35
-9.50 2.29 2.34
-9.51 2.09 2.33
-9.51 1.89 2.32
-9.51 1.69 2.31
-9.52 1.50 2.31
-9.52 1.30 2.30
-9.52 1.11 2.30
-9.52 0.92 2.29
-9.53 0.72 2.29
-9.54 0.53 2.29
-9.55 0.34 2.29
-9.55 0.15 2.29
-9.55 -0.04 2.29
-9.55 -0.24 2.29
-9.55 -0.43 2.29
-9.54 -0.62 2.29
-9.54 -0.81 2.30
-9.53 -1.01 2.30
-9.52 -1.20 2.30
-9.52 -1.39 2.31
-9.52 -1.59 2.32
-9.52 -1.79 2.32
-9.51 -1.98 2.33
-9.50 -2.18 2.34
-9.49 -2.38 2.35
-9.48 -2.58 2.36
-9.47 -2.78 2.37
-9.46 -2.99 2.38
-9.43 -3.19 2.39
-9.36 -3.38 2.39
-9.29 -3.57 2.39
-9.22 -3.75 2.39
-9.14 -3.94 2.39
-9.06 -4.12 2.39
-8.98 -4.30 2.39
-8.89 -4.48 2.39
-8.80 -4.66 2.39
-8.70 -4.83 2.39
-8.61 -5.01 2.39
-8.50 -5.18 2.39
-8.40 -5.35 2.39
-8.29 -5.52 2.39
-8.18 -5.69 2.39
-8.06 -5.85 2.39
-7.95 -6.01 2.39
-7.82 -6.17 2.39
-7.70 -6.33 2.39
-7.57 -6.48 2.39
-7.44 -6.63 2.39
-7.31 -6.78 2.39
-7.17 -6.93 2.39
-7.03 -7.07 2.39
-6.89 -7.21 2.39
-6.74 -7.35 2.39
-6.60 -7.49 2.39
-6.45 -7.62 2.39
-6.29 -7.75 2.39
-6.14 -7.88 2.39
-6.14 -8.22 2.46
-6.07 -8.47 2.49
-5.90 -8.59 2.49
-5.73 -8.71 2.49
-5.55 -8.83 2.49
-5.38 -8.94 2.49
-5.20 -9.05 2.49
-5.01 -9.15 2.49
-4.83 -9.26 2.49
-4.65 -9.35 2.49
-4.46 -9.45 2.49
-4.27 -9.54 2.49
-4.08 -9.63 2.49
-3.88 -9.71 2.49
-3.69 -9.79 2.49
-3.49 -9.86 2.49
-3.30 -9.94 2.49
-3.10 -10.00 2.49
-2.90 -10.07 2.49
-2.69 -10.13 2.49
-2.49 -10.18 2.49
-2.29 -10.23 2.49
-2.08 -10.28 2.49
-1.88 -10.32 2.49
-1.67 -10.36 2.49
-1.46 -10.40 2.49
-1.25 -10.43 2.49
-1.04 -10.46 2.49
-0.83 -10.48 2.49
-0.62 -10.50 2.49
-0.41 -10.51 2.49
-0.20 -10.52 2.49
0.01 -9.56 2.49
0.20 -9.57 2.49
0.40 -9.56 2.49
0.59 -9.56 2.49
0.78 -9.55 2.49
0.97 -9.53 2.49
1.16 -9.52 2.49
1.35 -9.49 2.49
1.55 -9.47 2.49
1.74 -9.44 2.49
1.88 -9.17 2.43
2.03 -8.98 2.39
2.21 -8.94 2.39
2.39 -8.90 2.39
2.57 -8.85 2.39
2.75 -8.80 2.39
2.92 -8.75 2.39
3.10 -8.69 2.39
3.28 -8.63 2.39
3.45 -8.57 2.39
3.62 -8.50 2.39
3.79 -8.43 2.39
3.96 -8.36 2.39
4.13 -8.28 2.39
4.30 -8.20 2.39
4.46 -8.11 2.39
4.63 -8.02 2.39
4.79 -7.93 2.39
4.95 -7.84 2.39
5.11 -7.74 2.39
5.27 -7.64 2.39
5.42 -7.54 2.39
5.57 -7.43 2.39
5.72 -7.32 2.39
5.87 -7.20 2.39
6.02 -7.10 2.39
6.17 -6.98 2.39
6.31 -6.85 2.39
6.45 -6.73 2.39
6.58 -6.60 2.39
6.72 -6.47 2.39
6.85 -6.34 2.39
6.98 -6.20 2.39
7.10 -6.06 2.39
7.22 -5.92 2.39
7.34 -5.77 2.39
7.46 -5.63 2.39
7.57 -5.48 2.39
7.69 -5.33 2.39
7.79 -5.17 2.39
7.90 -5.02 2.39
8.00 -4.86 2.39
8.10 -4.70 2.39
8.19 -4.54 2.39
8.29 -4.38 2.39
8.37 -4.21 2.39
8.46 -4.04 2.39
8.54 -3.87 2.39
8.62 -3.70 2.39
8.69 -3.53 2.39
8.77 -3.35 2.39
8.83 -3.18 2.39
8.90 -3.00 2.39
8.96 -2.82 2.39
9.02 -2.64 2.39
9.07 -2.46 2.39
9.12 -2.28 2.39
9.16 -2.10 2.39
9.21 -1.92 2.39
9.25 -1.73 2.39
9.28 -1.55 2.39
9.31 -1.36 2.39
9.34 -1.17 2.39
9.36 -0.99 2.39
9.38 -0.80 2.39
9.40 -0.61 2.39
9.41 -0.42 2.39
9.42 -0.23 2.39
9.42 -0.04 2.39
9.42 0.15 2.39
9.42 0.33 2.39
9.41 0.52 2.39
9.40 0.71 2.39
9.38 0.90 2.39
9.37 1.09 2.39
9.34 1.28 2.39
9.32 1.46 2.39
9.29 1.65 2.39
9.25 1.84 2.39
9.21 2.02 2.39
9.17 2.21 2.39
9.12 2.39 2.39
9.07 2.57 2.39
9.02 2.75 2.39
8.96 2.93 2.39
8.90 3.11 2.39
8.84 3.29 2.39
8.77 3.47 2.39
8.70 3.64 2.39
8.63 3.82 2.39
8.55 3.99 2.39
8.46 4.16 2.39
8.38 4.33 2.39
8.29 4.49 2.39
8.20 4.66 2.39
8.10 4.82 2.39
8.00 4.98 2.39
7.90 5.14 2.39
7.80 5.30 2.39
7.69 5.45 2.39
7.58 5.61 2.39
7.46 5.76 2.39
7.34 5.90 2.39
7.22 6.05 2.39
7.10 6.19 2.39
6.97 6.33 2.39
6.84 6.47 2.39
6.71 6.60 2.39
6.58 6.74 2.39
6.43 6.86 2.39
6.29 6.98 2.39
6.15 7.11 2.39
6.00 7.23 2.39
5.86 7.35 2.39
5.71 7.46 2.39
5.55 7.57 2.39
5.40 7.68 2.39
5.24 7.78 2.39
5.09 7.89 2.39
4.93 7.98 2.39
4.76 8.08 2.39
4.60 8.17 2.39
4.43 8.26 2.39
4.27 8.34 2.39
4.10 8.43 2.39
3.93 8.50 2.39
3.75 8.58 2.39
3.58 8.65 2.39
3.40 8.72 2.39
3.23 8.78 2.39
3.05 8.84 2.39
2.87 8.90 2.39
2.69 8.95 2.39
2.55 9.14 2.43
2.43 9.44 2.49
2.24 9.48 2.49
2.05 9.52 2.49
1.86 9.55 2.49
1.66 9.59 2.49
1.47 9.61 2.49
1.28 9.64 2.49
1.08 9.66 2.49
0.89 9.68 2.49
0.69 9.69 2.49
0.50 9.70 2.49
0.30 9.70 2.49
0.11 9.70 2.49
-0.09 9.70 2.49
-0.28 9.69 2.49
-0.47 9.68 2.49
-0.67 9.66 2.49
-0.86 9.64 2.49
-1.05 9.62 2.49
-1.25 9.59 2.49
-1.44 9.56 2.49
-1.63 9.53 2.49
-1.82 9.49 2.49
-2.01 9.45 2.49
-2.20 9.40 2.49
-2.39 9.35 2.49
-2.57 9.30 2.49
-2.76 9.24 2.49
-2.94 9.18 2.49
-3.12 9.12 2.49
-3.30 9.05 2.49
-3.48 8.98 2.49
-3.66 8.90 2.49
-3.84 8.82 2.49
-4.01 8.74 2.49
-4.19 8.66 2.49
-4.36 8.57 2.49
-4.53 8.47 2.49
-4.69 8.38 2.49
-4.86 8.28 2.49
-5.02 8.18 2.49
-5.18 8.07 2.49
-5.34 7.96 2.49
-5.50 7.85 2.49
-5.56 7.61 2.45
-5.58 7.32 2.40
-5.71 7.19 2.39
-5.85 7.07 2.39
-5.99 6.95 2.39
-6.12 6.82 2.39
-6.26 6.69 2.39
-6.39 6.56 2.39
-6.52 6.43 2.39
-6.64 6.30 2.39
-6.76 6.16 2.39
-6.88 6.02 2.39
-7.00 5.88 2.39
-7.11 5.74 2.39
-7.23 5.59 2.39
-7.33 5.44 2.39
-7.44 5.29 2.39
-7.54 5.14 2.39
-7.64 4.99 2.39
-7.74 4.83 2.39
-7.83 4.67 2.39
-7.92 4.51 2.39
-8.01 4.35 2.39
-8.09 4.19 2.39
-8.17 4.02 2.39
-8.25 3.86 2.39
-8.32 3.69 2.39
-8.39 3.52 2.39
-8.46 3.35 2.39
-8.52 3.18 2.39
-8.58 3.01 2.39
-8.64 2.83 2.39
-8.69 2.66 2.39
-8.74 2.48 2.39
-8.79 2.31 2.39
-8.83 2.13 2.39
-8.87 1.95 2.39
-8.90 1.77 2.39
-8.94 1.59 2.39
-8.96 1.41 2.39
-8.99 1.23 2.39
-9.01 1.05 2.39
-9.03 0.87 2.39
-9.04 0.69 2.39
-9.05 0.50 2.39
-9.06 0.32 2.39
-9.06 0.14 2.39
-9.06 -0.04 2.39
-9.06 -0.22 2.39
-9.05 -0.41 2.39
-9.04 -0.59 2.39
-9.03 -0.77 2.39
-9.01 -0.95 2.39
-8.99 -1.13 2.39
-8.96 -1.31 2.39
-8.93 -1.49 2.39
-8.90 -1.67 2.39
-8.86 -1.85 2.39
-8.82 -2.03 2.39
-8.78 -2.20 2.39
-8.73 -2.38 2.39
-8.68 -2.55 2.39
-8.63 -2.73 2.39
-8.57 -2.90 2.39
-8.51 -3.07 2.39
-8.45 -3.24 2.39
-8.38 -3.41 2.39
-8.31 -3.58 2.39
-8.24 -3.75 2.39
-8.16 -3.91 2.39
-8.08 -4.07 2.39
-8.00 -4.24 2.39
-7.91 -4.40 2.39
-7.83 -4.55 2.39
-7.73 -4.71 2.39
-7.64 -4.87 2.39
-7.54 -5.02 2.39
-7.44 -5.17 2.39
-7.33 -5.32 2.39
-7.22 -5.47 2.39
-7.11 -5.61 2.39
-7.00 -5.75 2.39
-6.88 -5.89 2.39
-6.77 -6.03 2.39
-6.64 -6.17 2.39
-6.52 -6.30 2.39
-6.39 -6.43 2.39
-6.26 -6.56 2.39
-6.13 -6.69 2.39
-6.10 -6.92 2.43
-6.10 -7.22 2.49
-5.97 -7.35 2.49
-5.82 -7.47 2.49
-5.67 -7.59 2.49
-5.52 -7.70 2.49
-5.36 -7.81 2.49
-5.21 -7.92 2.49
-5.05 -8.03 2.49
-4.89 -8.13 2.49
-4.72 -8.23 2.49
-4.56 -8.32 2.49
-4.39 -8.41 2.49
-4.22 -8.50 2.49
-4.05 -8.59 2.49
-3.88 -8.67 2.49
-3.70 -8.75 2.49
-3.53 -8.82 2.49
-3.35 -8.90 2.49
-3.17 -8.96 2.49
-2.99 -9.03 2.49
-2.81 -9.09 2.49
-2.63 -9.15 2.49
-2.45 -9.20 2.49
-2.26 -9.25 2.49
-2.08 -9.30 2.49
-1.89 -9.34 2.49
-1.70 -9.38 2.49
-1.51 -9.42 2.49
-1.33 -9.45 2.49
-1.14 -9.48 2.49
-0.95 -9.50 2.49
-0.76 -9.52 2.49
-0.56 -9.54 2.49
-0.37 -9.55 2.49
-0.18 -9.56 2.49
0.01 -8.75 2.49
0.19 -8.75 2.49
0.36 -8.75 2.49
0.54 -8.74 2.49
0.71 -8.74 2.49
0.89 -8.72 2.49
1.07 -8.71 2.49
1.24 -8.69 2.49
1.42 -8.66 2.49
1.59 -8.64 2.49
1.76 -8.60 2.49
1.90 -8.43 2.45
2.02 -8.18 2.39
2.19 -8.14 2.39
2.35 -8.10 2.39
2.51 -8.05 2.39
2.68 -8.00 2.39
2.84 -7.95 2.39
3.00 -7.90 2.39
3.16 -7.84 2.39
3.31 -7.77 2.39
3.47 -7.71 2.39
3.63 -7.64 2.39
3.78 -7.57 2.39
3.93 -7.50 2.39
4.08 -7.42 2.39
4.23 -7.34 2.39
4.38 -7.25 2.39
4.53 -7.17 2.39
4.67 -7.08 2.39
4.81 -6.98 2.39
4.96 -6.89 2.39
5.09 -6.79 2.39
5.23 -6.69 2.39
5.37 -6.58 2.39
5.50 -6.48 2.39
5.63 -6.37 2.39
5.76 -6.26 2.39
5.89 -6.14 2.39
6.01 -6.02 2.39
6.14 -5.91 2.39
6.26 -5.79 2.39
6.38 -5.67 2.39
6.49 -5.54 2.39
6.60 -5.41 2.39
6.71 -5.28 2.39
6.82 -5.14 2.39
6.92 -5.01 2.39
7.02 -4.87 2.39
7.12 -4.73 2.39
7.22 -4.59 2.39
7.31 -4.44 2.39
7.40 -4.30 2.39
7.49 -4.15 2.39
7.57 -4.00 2.39
7.65 -3.85 2.39
7.73 -3.69 2.39
7.80 -3.54 2.39
7.88 -3.38 2.39
7.94 -3.22 2.39
8.01 -3.06 2.39
8.07 -2.90 2.39
8.13 -2.74 2.39
8.18 -2.58 2.39
8.24 -2.42 2.39
8.28 -2.25 2.39
8.33 -2.08 2.39
8.37 -1.92 2.39
8.41 -1.75 2.39
8.45 -1.58 2.39
8.48 -1.41 2.39
8.51 -1.24 2.39
8.53 -1.07 2.39
8.55 -0.90 2.39
8.57 -0.73 2.39
8.58 -0.56 2.39
8.59 -0.38 2.39
8.60 -0.21 2.39
8.60 -0.04 2.39
8.60 0.13 2.39
8.60 0.31 2.39
8.59 0.48 2.39
8.58 0.65 2.39
8.57 0.82 2.39
8.55 0.99 2.39
8.53 1.17 2.39
8.51 1.34 2.39
8.48 1.51 2.39
8.45 1.68 2.39
8.41 1.85 2.39
8.37 2.01 2.39
8.33 2.18 2.39
8.29 2.35 2.39
8.24 2.51 2.39
8.19 2.68 2.39
8.13 2.84 2.39
8.07 3.00 2.39
8.01 3.17 2.39
7.95 3.33 2.39
7.88 3.48 2.39
7.81 3.64 2.39
7.73 3.80 2.39
7.65 3.95 2.39
7.57 4.10 2.39
7.49 4.25 2.39
7.40 4.40 2.39
7.31 4.55 2.39
7.22 4.70 2.39
7.12 4.84 2.39
7.02 4.98 2.39
6.92 5.12 2.39
6.81 5.26 2.39
6.71 5.39 2.39
6.60 5.52 2.39
6.48 5.65 2.39
6.36 5.78 2.39
6.24 5.90 2.39
6.12 6.02 2.39
6.00 6.15 2.39
5.87 6.26 2.39
5.75 6.38 2.39
5.62 6.49 2.39
5.48 6.60 2.39
5.35 6.71 2.39
5.21 6.81 2.39
5.07 6.92 2.39
4.93 7.01 2.39
4.79 7.11 2.39
4.65 7.20 2.39
4.50 7.29 2.39
4.35 7.38 2.39
4.20 7.46 2.39
4.05 7.55 2.39
3.90 7.62 2.39
3.74 7.70 2.39
3.59 7.77 2.39
3.43 7.84 2.39
3.27 7.90 2.39
3.11 7.96 2.39
2.95 8.02 2.39
2.79 8.08 2.39
2.62 8.13 2.39
2.52 8.37 2.45
2.39 8.58 2.49
2.22 8.62 2.49
2.05 8.66 2.49
1.87 8.70 2.49
1.70 8.73 2.49
1.52 8.76 2.49
1.34 8.79 2.49
1.17 8.81 2.49
0.99 8.83 2.49
0.81 8.84 2.49
0.63 8.85 2.49
0.46 8.86 2.49
0.28 8.87 2.49
0.10 8.87 2.49
-0.08 8.86 2.49
-0.26 8.86 2.49
-0.43 8.85 2.49
-0.61 8.83 2.49
-0.79 8.82 2.49
-0.96 8.80 2.49
-1.14 8.77 2.49
-1.31 8.74 2.49
-1.49 8.71 2.49
-1.66 8.68 2.49
-1.84 8.64 2.49
-2.01 8.60 2.49
-2.18 8.55 2.49
-2.35 8.50 2.49
-2.52 8.45 2.49
-2.69 8.40 2.49
-2.85 8.34 2.49
-3.02 8.28 2.49
-3.18 8.21 2.49
-3.35 8.14 2.49
-3.51 8.07 2.49
-3.67 8.00 2.49
-3.83 7.92 2.49
-3.98 7.84 2.49
-4.14 7.75 2.49
-4.29 7.66 2.49
-4.44 7.57 2.49
-4.59 7.48 2.49
-4.74 7.38 2.49
-4.89 7.28 2.49
-5.03 7.18 2.49
-5.17 7.08 2.49
-5.31 6.97 2.49
-5.45 6.86 2.49
-5.58 6.75 2.49
-5.60 6.50 2.44
-5.62 6.26 2.40
-5.72 6.13 2.39
-5.84 6.01 2.39
-5.96 5.89 2.39
-6.08 5.76 2.39
-6.19 5.64 2.39
-6.30 5.51 2.39
-6.41 5.38 2.39
-6.51 5.25 2.39
-6.61 5.12 2.39
-6.71 4.98 2.39
-6.81 4.85 2.39
-6.90 4.71 2.39
-6.99 4.57 2.39
-7.08 4.42 2.39
-7.17 4.28 2.39
-7.25 4.13 2.39
-7.33 3.98 2.39
-7.41 3.84 2.39
-7.48 3.68 2.39
-7.55 3.53 2.39
-7.62 3.38 2.39
-7.68 3.22 2.39
-7.74 3.07 2.39
-7.80 2.91 2.39
-7.86 2.75 2.39
-7.91 2.60 2.39
-7.96 2.44 2.39
-8.00 2.27 2.39
-8.05 2.11 2.39
-8.09 1.95 2.39
-8.12 1.79 2.39
-8.15 1.62 2.39
-8.18 1.46 2.39
-8.21 1.29 2.39
-8.23 1.13 2.39
-8.25 0.96 2.39
-8.27 0.80 2.39
-8.28 0.63 2.39
-8.29 0.46 2.39
-8.30 0.30 2.39
-8.30 0.13 2.39
-8.30 -0.04 2.39
-8.30 -0.20 2.39
-8.29 -0.37 2.39
-8.28 -0.54 2.39
-8.27 -0.70 2.39
-8.25 -0.87 2.39
-8.23 -1.04 2.39
-8.21 -1.20 2.39
-8.18 -1.37 2.39
-8.15 -1.53 2.39
-8.12 -1.69 2.39
-8.08 -1.86 2.39
-8.04 -2.02 2.39
-8.00 -2.18 2.39
-7.95 -2.34 2.39
-7.91 -2.50 2.39
-7.85 -2.66 2.39
-7.80 -2.81 2.39
-7.74 -2.97 2.39
-7.68 -3.12 2.39
-7.62 -3.28 2.39
-7.55 -3.43 2.39
-7.48 -3.58 2.39
-7.40 -3.73 2.39
-7.33 -3.88 2.39
-7.25 -4.03 2.39
-7.17 -4.17 2.39
-7.08 -4.32 2.39
-6.99 -4.46 2.39
-6.90 -4.60 2.39
-6.81 -4.74 2.39
-6.71 -4.87 2.39
-6.62 -5.01 2.39
-6.51 -5.14 2.39
-6.41 -5.27 2.39
-6.30 -5.40 2.39
-6.20 -5.52 2.39
-6.08 -5.65 2.39
-6.06 -5.85 2.43
-6.06 -6.10 2.48
-5.98 -6.27 2.49
-5.86 -6.39 2.49
-5.73 -6.50 2.49
-5.60 -6.62 2.49
-5.46 -6.73 2.49
-5.33 -6.84 2.49
-5.19 -6.95 2.49
-5.05 -7.05 2.49
-4.91 -7.15 2.49
-4.77 -7.25 2.49
-4.62 -7.35 2.49
-4.47 -7.44 2.49
-4.32 -7.53 2.49
-4.17 -7.62 2.49
-4.02 -7.70 2.49
-3.86 -7.78 2.49
-3.71 -7.86 2.49
-3.55 -7.94 2.49
-3.39 -8.01 2.49
-3.23 -8.08 2.49
-3.07 -8.14 2.49
-2.90 -8.21 2.49
-2.74 -8.27 2.49
-2.57 -8.32 2.49
-2.41 -8.37 2.49
-2.24 -8.42 2.49
-2.07 -8.47 2.49
-1.90 -8.51 2.49
-1.73 -8.55 2.49
-1.56 -8.59 2.49
-1.39 -8.62 2.49
-1.21 -8.65 2.49
-1.04 -8.67 2.49
-0.86 -8.69 2.49
-0.69 -8.71 2.49
-0.52 -8.73 2.49
-0.34 -8.74 2.49
-0.16 -8.75 2.49
0.01 -8.06 2.49
0.17 -8.06 2.49
0.34 -8.06 2.49
0.50 -8.05 2.49
0.66 -8.04 2.49
0.82 -8.03 2.49
0.98 -8.01 2.49
1.14 -8.00 2.49
1.30 -7.97 2.49
1.46 -7.95 2.49
1.62 -7.92 2.49
1.78 -7.89 2.49
1.93 -7.79 2.47
2.01 -7.49 2.39
2.16 -7.45 2.39
2.31 -7.41 2.39
2.46 -7.37 2.39
2.61 -7.32 2.39
2.76 -7.27 2.39
2.91 -7.21 2.39
3.05 -7.16 2.39
3.19 -7.10 2.39
3.34 -7.03 2.39
3.48 -6.97 2.39
3.62 -6.90 2.39
3.76 -6.83 2.39
3.90 -6.75 2.39
4.03 -6.67 2.39
4.17 -6.59 2.39
4.30 -6.51 2.39
4.43 -6.43 2.39
4.56 -6.34 2.39
4.69 -6.25 2.39
4.81 -6.15 2.39
4.94 -6.06 2.39
5.06 -5.96 2.39
5.18 -5.86 2.39
5.30 -5.76 2.39
5.41 -5.65 2.39
5.53 -5.54 2.39
5.64 -5.43 2.39
5.75 -5.32 2.39
5.86 -5.20 2.39
5.96 -5.09 2.39
6.07 -4.97 2.39
6.17 -4.85 2.39
6.27 -4.73 2.39
6.37 -4.60 2.39
6.46 -4.48 2.39
6.55 -4.35 2.39
6.64 -4.22 2.39
6.72 -4.08 2.39
6.81 -3.95 2.39
6.89 -3.81 2.39
6.96 -3.68 2.39
7.04 -3.54 2.39
7.11 -3.39 2.39
7.18 -3.25 2.39
7.24 -3.11 2.39
7.30 -2.96 2.39
7.36 -2.82 2.39
7.42 -2.67 2.39
7.47 -2.52 2.39
7.53 -2.37 2.39
7.57 -2.22 2.39
7.62 -2.07 2.39
7.66 -1.92 2.39
7.70 -1.76 2.39
7.73 -1.61 2.39
7.76 -1.45 2.39
7.79 -1.30 2.39
7.82 -1.14 2.39
7.84 -0.98 2.39
7.86 -0.83 2.39
7.88 -0.67 2.39
7.89 -0.51 2.39
7.90 -0.35 2.39
7.91 -0.19 2.39
7.91 -0.04 2.39
7.91 0.12 2.39
7.91 0.28 2.39
7.90 0.44 2.39
7.89 0.60 2.39
7.88 0.76 2.39
7.86 0.91 2.39
7.84 1.07 2.39
7.82 1.23 2.39
7.79 1.39 2.39
7.77 1.54 2.39
7.73 1.70 2.39
7.70 1.85 2.39
7.66 2.01 2.39
7.62 2.16 2.39
7.57 2.31 2.39
7.52 2.46 2.39
7.47 2.61 2.39
7.42 2.76 2.39
7.36 2.91 2.39
7.30 3.06 2.39
7.24 3.20 2.39
7.17 3.35 2.39
7.11 3.49 2.39
7.03 3.63 2.39
6.96 3.77 2.39
6.88 3.91 2.39
6.80 4.05 2.39
6.72 4.18 2.39
6.63 4.32 2.39
6.55 4.45 2.39
6.45 4.58 2.39
6.35 4.70 2.39
6.26 4.83 2.39
6.16 4.95 2.39
6.06 5.07 2.39
5.95 5.19 2.39
5.85 5.31 2.39
5.74 5.43 2.39
5.63 5.54 2.39
5.52 5.65 2.39
5.40 5.76 2.39
5.28 5.86 2.39
5.16 5.97 2.39
5.04 6.07 2.39
4.92 6.17 2.39
4.79 6.26 2.39
4.67 6.36 2.39
4.54 6.45 2.39
4.41 6.54 2.39
4.27 6.62 2.39
4.14 6.71 2.39
4.00 6.79 2.39
3.86 6.86 2.39
3.73 6.94 2.39
3.58 7.01 2.39
3.44 7.08 2.39
3.30 7.14 2.39
3.15 7.21 2.39
3.01 7.27 2.39
2.86 7.32 2.39
2.71 7.38 2.39
2.56 7.43 2.39
2.49 7.73 2.47
2.36 7.85 2.49
2.20 7.89 2.49
2.04 7.93 2.49
1.88 7.97 2.49
1.72 8.00 2.49
1.56 8.03 2.49
1.40 8.06 2.49
1.24 8.08 2.49
1.07 8.10 2.49
0.91 8.12 2.49
0.75 8.13 2.49
0.58 8.15 2.49
0.42 8.15 2.49
0.26 8.16 2.49
0.09 8.16 2.49
-0.07 8.16 2.49
-0.23 8.15 2.49
-0.40 8.14 2.49
-0.56 8.13 2.49
-0.72 8.11 2.49
-0.89 8.09 2.49
-1.05 8.07 2.49
-1.21 8.05 2.49
-1.37 8.02 2.49
-1.53 7.99 2.49
-1.69 7.95 2.49
-1.85 7.91 2.49
-2.01 7.87 2.49
-2.16 7.83 2.49
-2.32 7.78 2.49
-2.47 7.73 2.49
-2.63 7.67 2.49
-2.78 7.62 2.49
-2.93 7.56 2.49
-3.08 7.49 2.49
-3.23 7.43 2.49
-3.38 7.36 2.49
-3.52 7.29 2.49
-3.67 7.21 2.49
-3.81 7.14 2.49
-3.95 7.06 2.49
-4.09 6.97 2.49
-4.23 6.89 2.49
-4.36 6.80 2.49
-4.50 6.71 2.49
-4.63 6.61 2.49
-4.76 6.52 2.49
-4.89 6.42 2.49
-5.01 6.32 2.49
-5.14 6.21 2.49
-5.26 6.11 2.49
-5.38 6.00 2.49
-5.50 5.89 2.49
-5.61 5.77 2.49
-5.64 5.57 2.45
-5.65 5.36 2.41
-5.70 5.19 2.39
-5.80 5.08 2.39
-5.90 4.96 2.39
-6.00 4.84 2.39
-6.09 4.71 2.39
-6.18 4.59 2.39
-6.27 4.46 2.39
-6.36 4.34 2.39
-6.44 4.21 2.39
-6.52 4.07 2.39
-6.60 3.94 2.39
-6.68 3.81 2.39
-6.75 3.67 2.39
-6.82 3.53 2.39
-6.89 3.39 2.39
-6.96 3.25 2.39
-7.02 3.11 2.39
-7.08 2.97 2.39
-7.13 2.83 2.39
-7.19 2.68 2.39
-7.24 2.54 2.39
-7.29 2.39 2.39
-7.33 2.24 2.39
-7.37 2.10 2.39
-7.41 1.95 2.39
-7.45 1.80 2.39
-7.48 1.65 2.39
-7.51 1.50 2.39
-7.54 1.34 2.39
-7.56 1.19 2.39
-7.58 1.04 2.39
-7.60 0.89 2.39
-7.62 0.73 2.39
-7.63 0.58 2.39
-7.64 0.43 2.39
-7.65 0.27 2.39
-7.65 0.12 2.39
-7.65 -0.03 2.39
-7.64 -0.19 2.39
-7.64 -0.34 2.39
-7.63 -0.50 2.39
-7.62 -0.65 2.39
-7.60 -0.80 2.39
-7.58 -0.95 2.39
-7.56 -1.11 2.39
-7.54 -1.26 2.39
-7.51 -1.41 2.39
-7.48 -1.56 2.39
-7.45 -1.71 2.39
-7.41 -1.86 2.39
-7.37 -2.01 2.39
-7.33 -2.16 2.39
-7.29 -2.30 2.39
-7.24 -2.45 2.39
-7.19 -2.59 2.39
-7.13 -2.74 2.39
-7.08 -2.88 2.39
-7.02 -3.02 2.39
-6.96 -3.16 2.39
-6.89 -3.30 2.39
-6.82 -3.44 2.39
-6.75 -3.58 2.39
-6.68 -3.71 2.39
-6.60 -3.84 2.39
-6.53 -3.98 2.39
-6.45 -4.11 2.39
-6.36 -4.24 2.39
-6.28 -4.36 2.39
-6.19 -4.49 2.39
-6.10 -4.61 2.39
-6.02 -4.75 2.40
-6.02 -4.95 2.44
-6.03 -5.16 2.48
-5.96 -5.31 2.49
-5.85 -5.43 2.49
-5.74 -5.55 2.49
-5.63 -5.66 2.49
-5.51 -5.77 2.49
-5.40 -5.89 2.49
-5.28 -5.99 2.49
-5.16 -6.10 2.49
-5.03 -6.20 2.49
-4.91 -6.30 2.49
-4.78 -6.40 2.49
-4.65 -6.50 2.49
-4.52 -6.59 2.49
-4.39 -6.68 2.49
-4.26 -6.77 2.49
-4.12 -6.86 2.49
-3.98 -6.94 2.49
-3.84 -7.02 2.49
-3.70 -7.10 2.49
-3.56 -7.17 2.49
-3.42 -7.24 2.49
-3.27 -7.31 2.49
-3.12 -7.38 2.49
-2.98 -7.44 2.49
-2.83 -7.50 2.49
-2.67 -7.56 2.49
-2.52 -7.61 2.49
-2.37 -7.66 2.49
-2.22 -7.71 2.49
-2.06 -7.76 2.49
-1.91 -7.80 2.49
-1.75 -7.84 2.49
-1.59 -7.87 2.49
-1.43 -7.91 2.49
-1.28 -7.94 2.49
-1.12 -7.96 2.49
-0.96 -7.99 2.49
-0.80 -8.01 2.49
-0.63 -8.02 2.49
-0.47 -8.04 2.49
-0.31 -8.05 2.49
-0.15 -8.05 2.49
0.01 -7.46 2.49
0.16 -7.46 2.49
0.31 -7.46 2.49
0.46 -7.45 2.49
0.61 -7.44 2.49
0.76 -7.43 2.49
0.91 -7.42 2.49
1.06 -7.40 2.49
1.21 -7.38 2.49
1.36 -7.36 2.49
1.50 -7.33 2.49
1.65 -7.30 2.49
1.80 -7.27 2.49
1.94 -7.23 2.49
2.00 -6.90 2.39
2.15 -6.89 2.40
2.28 -6.82 2.39
2.42 -6.77 2.39
2.55 -6.72 2.39
2.69 -6.67 2.39
2.82 -6.62 2.39
2.96 -6.56 2.39
3.09 -6.51 2.39
3.22 -6.44 2.39
3.35 -6.38 2.39
3.48 -6.31 2.39
3.60 -6.25 2.39
3.73 -6.17 2.39
3.86 -6.10 2.39
3.98 -6.02 2.39
4.10 -5.94 2.39
4.22 -5.86 2.39
4.34 -5.78 2.39
4.45 -5.69 2.39
4.57 -5.60 2.39
4.68 -5.51 2.39
4.79 -5.42 2.39
4.90 -5.32 2.39
5.01 -5.23 2.39
5.11 -5.12 2.39
5.22 -5.02 2.39
5.32 -4.92 2.39
5.42 -4.81 2.39
5.51 -4.70 2.39
5.61 -4.59 2.39
5.70 -4.48 2.39
5.79 -4.37 2.39
5.88 -4.25 2.39
5.97 -4.13 2.39
6.05 -4.01 2.39
6.14 -3.90 2.39
6.22 -3.78 2.39
6.29 -3.65 2.39
6.37 -3.53 2.39
6.44 -3.40 2.39
6.51 -3.27 2.39
6.57 -3.14 2.39
6.64 -3.01 2.39
6.70 -2.87 2.39
6.75 -2.74 2.39
6.81 -2.60 2.39
6.86 -2.47 2.39
6.91 -2.33 2.39
6.96 -2.19 2.39
7.00 -2.05 2.39
7.04 -1.91 2.39
7.08 -1.77 2.39
7.12 -1.63 2.39
7.15 -1.49 2.39
7.18 -1.34 2.39
7.20 -1.20 2.39
7.23 -1.05 2.39
7.25 -0.91 2.39
7.27 -0.76 2.39
7.28 -0.62 2.39
7.29 -0.47 2.39
7.30 -0.33 2.39
7.31 -0.18 2.39
7.31 -0.03 2.39
7.31 0.11 2.39
7.31 0.26 2.39
7.30 0.41 2.39
7.29 0.55 2.39
7.28 0.70 2.39
7.27 0.85 2.39
7.25 0.99 2.39
7.23 1.14 2.39
7.20 1.28 2.39
7.18 1.43 2.39
7.15 1.57 2.39
7.12 1.71 2.39
7.08 1.85 2.39
7.04 2.00 2.39
7.00 2.14 2.39
6.96 2.28 2.39
6.91 2.41 2.39
6.86 2.55 2.39
6.81 2.69 2.39
6.75 2.83 2.39
6.69 2.96 2.39
6.63 3.09 2.39
6.57 3.23 2.39
6.50 3.36 2.39
6.43 3.49 2.39
6.35 3.61 2.39
6.28 3.74 2.39
6.20 3.86 2.39
6.13 3.98 2.39
6.04 4.11 2.39
5.96 4.23 2.39
5.87 4.34 2.39
5.78 4.46 2.39
5.69 4.58 2.39
5.60 4.69 2.39
5.50 4.80 2.39
5.41 4.91 2.39
5.31 5.01 2.39
5.20 5.12 2.39
5.10 5.22 2.39
4.99 5.32 2.39
4.88 5.42 2.39
4.77 5.52 2.39
4.66 5.61 2.39
4.55 5.70 2.39
4.43 5.79 2.39
4.31 5.88 2.39
4.19 5.96 2.39
4.07 6.04 2.39
3.95 6.12 2.39
3.83 6.20 2.39
3.70 6.27 2.39
3.57 6.35 2.39
3.44 6.41 2.39
3.31 6.48 2.39
3.18 6.54 2.39
3.05 6.61 2.39
2.92 6.66 2.39
2.78 6.72 2.39
2.65 6.79 2.40
2.51 6.82 2.39
2.47 7.17 2.49
2.33 7.21 2.49
2.18 7.25 2.49
2.04 7.30 2.49
1.89 7.33 2.49
1.74 7.37 2.49
1.59 7.40 2.49
1.44 7.43 2.49
1.29 7.45 2.49
1.14 7.47 2.49
0.99 7.49 2.49
0.84 7.51 2.49
0.69 7.52 2.49
0.54 7.53 2.49
0.39 7.54 2.49
0.24 7.54 2.49
0.09 7.55 2.49
-0.06 7.54 2.49
-0.22 7.54 2.49
-0.37 7.53 2.49
-0.52 7.52 2.49
-0.67 7.50 2.49
-0.82 7.49 2.49
-0.97 7.47 2.49
-1.12 7.44 2.49
-1.27 7.42 2.49
-1.41 7.39 2.49
-1.56 7.36 2.49
-1.71 7.32 2.49
-1.85 7.28 2.49
-2.00 7.24 2.49
-2.14 7.20 2.49
-2.29 7.15 2.49
-2.43 7.10 2.49
-2.57 7.05 2.49
-2.71 6.99 2.49
-2.85 6.94 2.49
-2.99 6.87 2.49
-3.12 6.81 2.49
-3.26 6.75 2.49
-3.39 6.68 2.49
-3.52 6.60 2.49
-3.66 6.53 2.49
-3.78 6.45 2.49
-3.91 6.37 2.49
-4.04 6.29 2.49
-4.16 6.21 2.49
-4.28 6.12 2.49
-4.41 6.03 2.49
-4.52 5.94 2.49
-4.64 5.85 2.49
-4.76 5.75 2.49
-4.87 5.65 2.49
-4.98 5.55 2.49
-5.09 5.45 2.49
-5.20 5.34 2.49
-5.30 5.24 2.49
-5.40 5.13 2.49
-5.50 5.02 2.49
-5.60 4.90 2.49
-5.67 4.76 2.48
-5.67 4.58 2.44
-5.69 4.40 2.41
-5.72 4.25 2.39
-5.81 4.13 2.39
-5.90 4.03 2.40
-5.96 3.89 2.39
-6.04 3.77 2.39
-6.11 3.65 2.39
-6.18 3.53 2.39
-6.25 3.40 2.39
-6.32 3.27 2.39
-6.38 3.14 2.39
-6.44 3.01 2.39
-6.50 2.88 2.39
-6.55 2.75 2.39
-6.61 2.62 2.39
-6.66 2.49 2.39
-6.70 2.35 2.39
-6.75 2.21 2.39
-6.79 2.08 2.39
-6.83 1.94 2.39
-6.86 1.80 2.39
-6.90 1.66 2.39
-6.93 1.53 2.39
-6.96 1.39 2.39
-6.98 1.25 2.39
-7.00 1.10 2.39
-7.02 0.96 2.39
-7.04 0.82 2.39
-7.06 0.68 2.39
-7.07 0.54 2.39
-7.08 0.40 2.39
-7.08 0.25 2.39
-7.08 0.11 2.39
-7.08 -0.03 2.39
-7.08 -0.17 2.39
-7.08 -0.32 2.39
-7.07 -0.46 2.39
-7.06 -0.60 2.39
-7.04 -0.74 2.39
-7.02 -0.88 2.39
-7.00 -1.02 2.39
-6.98 -1.16 2.39
-6.96 -1.30 2.39
-6.93 -1.44 2.39
-6.90 -1.58 2.39
-6.86 -1.72 2.39
-6.83 -1.86 2.39
-6.79 -2.00 2.39
-6.75 -2.13 2.39
-6.70 -2.27 2.39
-6.66 -2.40 2.39
-6.61 -2.54 2.39
-6.55 -2.67 2.39
-6.50 -2.80 2.39
-6.44 -2.93 2.39
-6.38 -3.06 2.39
-6.32 -3.19 2.39
-6.25 -3.31 2.39
-6.19 -3.44 2.39
-6.12 -3.56 2.39
-6.04 -3.68 2.39
-5.99 -3.82 2.40
-5.99 -3.99 2.43
-5.99 -4.17 2.46
-5.98 -4.34 2.49
-5.89 -4.46 2.49
-5.80 -4.58 2.49
-5.71 -4.69 2.49
-5.61 -4.81 2.49
-5.52 -4.92 2.49
-5.42 -5.03 2.49
-5.31 -5.14 2.49
-5.21 -5.24 2.49
-5.11 -5.35 2.49
-5.00 -5.45 2.49
-4.89 -5.55 2.49
-4.78 -5.65 2.49
-4.66 -5.75 2.49
-4.55 -5.84 2.49
-4.43 -5.93 2.49
-4.31 -6.02 2.49
-4.19 -6.11 2.49
-4.07 -6.19 2.49
-3.94 -6.27 2.49
-3.82 -6.35 2.49
-3.69 -6.43 2.49
-3.56 -6.50 2.49
-3.43 -6.57 2.49
-3.30 -6.64 2.49
-3.16 -6.71 2.49
-3.03 -6.77 2.49
-2.89 -6.83 2.49
-2.75 -6.89 2.49
-2.62 -6.95 2.49
-2.48 -7.00 2.49
-2.34 -7.05 2.49
-2.19 -7.10 2.49
-2.05 -7.14 2.49
-1.91 -7.18 2.49
-1.76 -7.22 2.49
-1.62 -7.26 2.49
-1.47 -7.29 2.49
-1.33 -7.32 2.49
-1.18 -7.35 2.49
-1.03 -7.37 2.49
