ply
format ascii 1.0
element vertex 2799
property float32 x
property float32 y
property float32 z
end_header
21.92 16.90 -4.43
21.61 17.37 -4.44
21.31 17.84 -4.45
21.03 18.34 -4.47
20.77 18.85 -4.50
20.50 19.38 -4.52
20.29 19.97 -4.57
20.22 20.71 -4.65
20.02 21.36 -4.70
19.87 22.07 -4.77
19.84 22.95 -4.87
19.74 23.78 -4.97
19.59 24.59 -5.05
19.43 25.42 -5.14
19.40 26.46 -5.28
19.34 27.53 -5.41
19.17 28.48 -5.52
18.95 29.41 -5.63
18.66 30.28 -5.72
17.63 29.95 -5.59
17.60 31.32 -5.78
17.27 33.85 -6.12
-6.54 -3.64 -1.10
35.00 4.74 -4.74
33.48 5.22 -4.55
32.43 5.73 -4.43
31.66 6.25 -4.34
30.91 6.75 -4.26
30.46 7.30 -4.23
29.90 7.80 -4.17
29.32 8.28 -4.12
28.76 8.75 -4.07
28.18 9.19 -4.01
27.66 9.64 -3.97
27.23 10.11 -3.94
26.78 10.56 -3.91
26.20 10.95 -3.86
25.64 11.32 -3.81
25.14 11.71 -3.77
24.69 12.11 -3.74
24.20 12.48 -3.71
23.71 12.84 -3.68
23.21 13.18 -3.64
22.75 13.53 -3.61
22.38 13.92 -3.60
22.01 14.31 -3.59
21.66 14.71 -3.58
21.30 15.10 -3.57
20.95 15.49 -3.57
20.64 15.92 -3.57
20.56 16.53 -3.62
20.50 17.17 -3.67
20.47 17.85 -3.73
20.37 18.50 -3.78
20.11 19.01 -3.80
19.84 19.53 -3.83
19.69 20.17 -3.87
19.66 20.97 -3.95
19.50 21.66 -4.01
19.42 22.46 -4.09
19.39 23.35 -4.18
19.27 24.19 -4.26
19.11 24.99 -4.33
18.84 25.70 -4.39
18.73 26.65 -4.49
18.64 27.69 -4.60
18.55 28.80 -4.72
18.32 29.73 -4.81
17.65 29.99 -4.80
17.23 30.65 -4.85
17.03 31.79 -4.97
16.87 33.05 -5.12
2.63 17.37 -2.42
1.91 17.28 -2.39
-6.54 -3.63 -0.93
0.99 -24.91 -2.50
37.46 2.04 -4.16
34.78 2.60 -3.87
34.65 3.29 -3.87
34.36 3.96 -3.85
33.98 4.61 -3.82
32.60 5.09 -3.68
31.80 5.62 -3.61
31.05 6.13 -3.54
30.54 6.67 -3.50
30.12 7.22 -3.47
29.59 7.72 -3.43
29.03 8.20 -3.39
28.45 8.66 -3.34
27.88 9.10 -3.30
27.34 9.54 -3.26
26.92 10.00 -3.24
26.36 10.40 -3.20
25.79 10.78 -3.16
25.24 11.15 -3.12
24.63 11.48 -3.08
24.06 11.80 -3.04
23.55 12.15 -3.00
23.06 12.49 -2.97
22.63 12.85 -2.95
22.24 13.22 -2.94
21.86 13.60 -2.93
21.50 13.98 -2.92
21.15 14.37 -2.91
20.80 14.75 -2.91
20.42 15.11 -2.90
20.05 15.47 -2.89
19.72 15.85 -2.89
19.55 16.37 -2.91
19.37 16.89 -2.94
19.19 17.43 -2.97
19.16 18.12 -3.02
19.27 18.97 -3.10
19.21 19.68 -3.15
19.11 20.38 -3.20
19.07 21.18 -3.27
19.02 22.00 -3.34
18.85 22.71 -3.39
18.65 23.41 -3.44
18.62 24.36 -3.52
18.33 25.01 -3.56
18.03 25.67 -3.61
17.95 26.68 -3.70
17.91 27.80 -3.80
17.90 29.05 -3.92
17.70 30.06 -4.01
17.55 31.23 -4.12
17.02 31.76 -4.15
16.25 31.86 -4.12
15.57 32.09 -4.10
-6.54 -3.63 -0.76
36.67 1.27 -3.23
35.42 1.94 -3.13
34.46 2.58 -3.05
34.27 3.26 -3.04
33.92 3.91 -3.02
32.80 4.45 -2.93
31.97 5.00 -2.87
31.19 5.52 -2.82
30.62 6.05 -2.78
30.20 6.60 -2.76
29.78 7.14 -2.73
29.29 7.65 -2.71
28.73 8.12 -2.67
28.15 8.57 -2.64
27.59 9.01 -2.60
27.04 9.44 -2.57
26.52 9.85 -2.55
25.92 10.23 -2.51
25.34 10.59 -2.48
24.76 10.94 -2.44
24.09 11.23 -2.40
23.44 11.51 -2.36
22.91 11.82 -2.34
22.51 12.19 -2.32
22.13 12.57 -2.31
21.75 12.94 -2.30
21.38 13.31 -2.29
21.01 13.67 -2.28
20.66 14.04 -2.28
20.29 14.39 -2.27
19.92 14.74 -2.26
19.56 15.09 -2.26
19.20 15.44 -2.25
18.85 15.79 -2.25
18.60 16.23 -2.26
18.36 16.67 -2.27
18.11 17.12 -2.29
17.86 17.58 -2.30
17.57 18.01 -2.31
17.24 18.40 -2.32
16.92 18.79 -2.32
16.63 19.23 -2.34
16.33 19.68 -2.35
16.04 20.14 -2.37
15.76 20.63 -2.39
15.48 21.12 -2.41
15.19 21.62 -2.44
14.96 22.24 -2.47
14.85 23.06 -2.53
14.75 23.94 -2.59
14.84 25.21 -2.70
17.06 30.37 -3.21
16.72 31.20 -3.27
16.36 32.07 -3.32
16.21 33.41 -3.43
16.05 34.84 -3.54
14.73 33.75 -3.40
-6.54 -3.63 -0.59
42.82 0.63 -2.79
36.34 1.26 -2.37
34.55 1.89 -2.26
33.80 2.53 -2.22
33.72 3.21 -2.23
33.21 3.84 -2.20
32.17 4.37 -2.14
31.37 4.91 -2.10
30.70 5.44 -2.07
30.28 5.99 -2.05
29.86 6.53 -2.03
29.46 7.07 -2.02
29.00 7.58 -2.00
28.43 8.04 -1.98
27.86 8.49 -1.95
27.28 8.91 -1.93
26.66 9.31 -1.90
26.02 9.67 -1.87
25.44 10.05 -1.84
24.88 10.41 -1.82
24.22 10.71 -1.79
23.57 10.99 -1.76
22.96 11.27 -1.74
22.39 11.56 -1.71
21.98 11.91 -1.70
21.61 12.27 -1.69
21.24 12.64 -1.69
20.88 13.00 -1.68
20.43 13.30 -1.67
19.99 13.58 -1.65
19.59 13.90 -1.65
19.23 14.23 -1.64
18.87 14.56 -1.64
18.53 14.90 -1.64
18.19 15.24 -1.63
17.86 15.58 -1.63
17.55 15.95 -1.64
17.30 16.37 -1.64
17.05 16.79 -1.65
16.79 17.21 -1.66
16.52 17.63 -1.67
16.25 18.06 -1.68
15.99 18.50 -1.69
15.72 18.95 -1.71
15.45 19.39 -1.72
15.16 19.83 -1.73
14.88 20.30 -1.75
14.64 20.85 -1.77
14.40 21.40 -1.79
14.16 21.98 -1.82
14.07 22.84 -1.87
13.95 23.70 -1.91
13.83 24.62 -1.97
13.81 25.77 -2.04
13.98 27.39 -2.14
14.55 29.99 -2.32
15.14 32.88 -2.52
14.65 33.56 -2.55
14.13 34.23 -2.58
-6.54 -3.63 -0.42
42.25 0.62 -1.80
35.43 1.23 -1.52
34.84 1.91 -1.50
33.77 2.54 -1.46
33.65 3.21 -1.46
32.38 3.74 -1.41
31.58 4.30 -1.38
30.82 4.82 -1.36
30.40 5.39 -1.35
29.97 5.93 -1.34
29.56 6.47 -1.33
29.15 7.00 -1.32
28.69 7.50 -1.31
28.07 7.94 -1.29
27.47 8.37 -1.27
26.88 8.79 -1.26
26.21 9.15 -1.24
25.55 9.50 -1.22
24.99 9.87 -1.20
24.35 10.19 -1.19
23.71 10.48 -1.17
23.10 10.78 -1.15
22.53 11.06 -1.14
21.99 11.35 -1.12
21.46 11.63 -1.11
21.09 11.98 -1.10
20.72 12.33 -1.10
20.27 12.62 -1.09
19.83 12.91 -1.08
19.40 13.19 -1.08
18.99 13.48 -1.07
18.59 13.76 -1.06
18.26 14.09 -1.06
17.93 14.42 -1.06
17.61 14.75 -1.06
17.28 15.08 -1.06
16.96 15.41 -1.06
16.65 15.75 -1.06
16.36 16.11 -1.07
16.08 16.48 -1.07
15.79 16.85 -1.08
15.51 17.23 -1.08
15.24 17.63 -1.09
14.97 18.05 -1.10
14.76 18.53 -1.11
14.57 19.06 -1.12
14.37 19.61 -1.14
14.16 20.16 -1.16
13.93 20.70 -1.17
13.69 21.26 -1.19
13.44 21.82 -1.20
13.29 22.57 -1.23
13.18 23.45 -1.26
13.05 24.36 -1.30
12.95 25.37 -1.34
12.94 26.67 -1.39
13.03 28.29 -1.47
14.05 32.19 -1.65
-6.53 -3.63 -0.25
42.94 -0.22 -0.85
42.26 0.63 -0.85
37.97 1.33 -0.77
35.52 1.96 -0.72
33.60 2.53 -0.69
32.55 3.11 -0.67
31.79 3.68 -0.66
31.02 4.23 -0.65
30.51 4.78 -0.65
30.10 5.34 -0.65
29.68 5.88 -0.64
29.27 6.41 -0.64
28.87 6.94 -0.64
28.26 7.39 -0.63
27.66 7.83 -0.62
27.07 8.25 -0.62
26.43 8.64 -0.61
25.77 9.00 -0.60
25.13 9.35 -0.59
24.49 9.68 -0.59
23.86 9.98 -0.58
23.25 10.28 -0.57
22.67 10.58 -0.57
22.13 10.87 -0.56
21.60 11.15 -0.55
21.08 11.43 -0.55
20.58 11.70 -0.54
20.16 12.00 -0.54
19.76 12.30 -0.54
19.35 12.60 -0.54
18.96 12.89 -0.53
18.56 13.17 -0.53
18.16 13.44 -0.53
17.77 13.71 -0.53
17.44 14.03 -0.53
17.12 14.35 -0.53
16.81 14.67 -0.53
16.51 15.01 -0.53
16.22 15.34 -0.53
15.92 15.68 -0.54
15.64 16.03 -0.54
15.36 16.39 -0.54
15.08 16.75 -0.54
14.80 17.13 -0.55
14.59 17.58 -0.55
14.36 18.03 -0.56
14.12 18.48 -0.56
13.88 18.94 -0.57
13.68 19.48 -0.58
13.47 20.02 -0.59
13.24 20.55 -0.60
12.99 21.09 -0.61
12.80 21.75 -0.62
12.71 22.62 -0.63
12.64 23.60 -0.66
12.60 24.70 -0.68
12.53 25.82 -0.70
12.57 27.30 -0.74
12.82 29.38 -0.79
14.34 34.75 -0.92
13.77 35.35 -0.93
-6.53 -3.63 -0.08
43.41 -0.22 0.11
38.72 0.58 0.10
35.39 1.24 0.08
33.65 1.86 0.07
31.16 2.35 0.06
30.76 2.94 0.06
31.04 3.60 0.06
29.73 4.05 0.05
29.43 4.62 0.05
29.81 5.29 0.04
29.40 5.83 0.04
29.00 6.36 0.03
28.47 6.84 0.03
27.85 7.29 0.03
27.26 7.72 0.02
26.66 8.13 0.02
25.99 8.50 0.02
25.30 8.84 0.01
24.60 9.16 0.01
24.00 9.49 0.01
23.40 9.79 0.00
22.81 10.09 0.00
22.26 10.39 -0.00
21.73 10.68 -0.00
21.15 10.92 -0.01
20.62 11.18 -0.01
20.15 11.46 -0.01
19.71 11.73 -0.01
19.31 12.03 -0.01
18.92 12.32 -0.02
18.53 12.60 -0.02
18.14 12.87 -0.02
17.75 13.14 -0.02
17.37 13.41 -0.02
17.00 13.67 -0.02
16.67 13.97 -0.03
16.38 14.30 -0.03
16.10 14.63 -0.03
15.81 14.96 -0.03
15.52 15.29 -0.03
15.23 15.62 -0.03
14.95 15.96 -0.03
14.71 16.34 -0.03
14.50 16.78 -0.04
14.28 17.21 -0.04
14.06 17.66 -0.04
13.83 18.11 -0.04
13.59 18.55 -0.04
13.34 19.00 -0.04
13.09 19.45 -0.04
12.83 19.93 -0.04
12.68 20.59 -0.05
12.53 21.28 -0.05
12.37 22.01 -0.05
12.29 22.95 -0.05
12.22 23.94 -0.05
12.19 25.13 -0.05
12.14 26.36 -0.06
12.20 27.95 -0.06
12.55 30.41 -0.06
13.43 34.49 -0.07
-14.59 45.38 -0.00
-14.76 42.92 0.00
-15.55 42.44 0.01
-16.52 42.43 0.01
-13.13 31.82 0.01
-13.18 30.21 0.02
-13.34 28.97 0.02
-13.69 28.22 0.02
-14.05 27.55 0.03
-14.23 26.56 0.03
-14.63 26.05 0.03
-14.75 25.06 0.03
-14.96 24.29 0.04
-15.11 23.47 0.04
-15.22 22.63 0.04
-15.30 21.79 0.04
-15.34 20.94 0.05
-15.35 20.10 0.05
-15.34 19.26 0.05
-15.33 18.48 0.05
-15.40 17.83 0.06
-15.48 17.21 0.06
-15.56 16.61 0.06
-15.66 16.06 0.06
-15.89 15.65 0.07
-16.19 15.32 0.07
-16.35 14.86 0.07
-16.43 14.34 0.07
-16.58 13.90 0.08
-16.74 13.47 0.08
-16.77 12.95 0.08
-16.81 12.45 0.08
-16.92 12.01 0.08
-16.99 11.56 0.09
-16.95 11.04 0.09
-16.90 10.53 0.09
-17.11 10.18 0.09
-17.32 9.84 0.10
-17.40 9.43 0.10
-17.48 9.03 0.10
-17.56 8.63 0.10
-17.74 8.28 0.11
-18.44 8.16 0.11
-19.24 8.06 0.12
-19.73 7.80 0.13
-20.51 7.64 0.13
-21.21 7.41 0.14
-21.38 7.00 0.14
-21.56 6.58 0.15
-22.08 6.25 0.15
-23.11 6.05 0.16
-23.58 5.67 0.17
-23.73 5.20 0.17
-23.89 4.74 0.18
-24.31 4.32 0.18
-25.23 3.96 0.19
-25.45 3.47 0.20
-25.46 2.95 0.20
-25.54 2.44 0.21
-25.85 1.95 0.21
-25.98 1.44 0.22
-26.12 0.92 0.22
-26.67 0.40 0.23
-27.80 -0.14 0.24
-27.96 -0.70 0.25
-28.11 -1.27 0.25
-6.53 -3.63 0.09
4.91 -48.74 1.70
5.14 -42.42 1.48
5.29 -37.39 1.31
44.76 -0.22 1.13
35.37 0.54 0.88
33.71 1.19 0.84
30.97 1.72 0.77
30.42 2.30 0.75
30.42 2.92 0.75
30.73 3.57 0.75
29.80 4.07 0.73
29.64 4.65 0.72
29.52 5.24 0.72
29.12 5.78 0.71
28.67 6.29 0.70
28.05 6.75 0.68
27.45 7.19 0.67
26.87 7.62 0.65
26.18 7.99 0.64
25.41 8.32 0.62
24.70 8.64 0.60
24.10 8.97 0.59
23.52 9.30 0.58
22.95 9.61 0.56
22.37 9.90 0.55
21.77 10.16 0.54
21.20 10.42 0.53
20.66 10.67 0.52
20.20 10.95 0.51
19.75 11.23 0.50
19.31 11.50 0.49
18.89 11.77 0.49
18.50 12.05 0.48
18.12 12.33 0.48
17.75 12.60 0.47
17.38 12.87 0.47
17.02 13.14 0.46
16.68 13.42 0.46
16.37 13.72 0.46
16.08 14.04 0.45
15.79 14.36 0.45
15.51 14.68 0.45
15.22 14.99 0.45
14.93 15.31 0.45
14.66 15.65 0.45
14.41 16.02 0.45
14.20 16.44 0.45
13.99 16.86 0.46
13.77 17.30 0.46
13.55 17.74 0.46
13.32 18.18 0.47
13.07 18.61 0.47
12.82 19.06 0.47
12.60 19.57 0.48
12.40 20.13 0.49
12.26 20.84 0.50
12.10 21.54 0.51
11.96 22.33 0.52
11.88 23.28 0.54
11.81 24.34 0.56
11.78 25.57 0.58
10.45 23.93 0.54
11.93 28.90 0.64
13.51 34.69 0.77
-13.22 47.61 1.10
-13.43 44.84 1.05
-13.81 42.96 1.01
-14.32 41.65 0.99
-12.63 34.47 0.83
-12.50 32.12 0.78
-12.53 30.38 0.75
-12.66 29.01 0.73
-12.80 27.81 0.71
-12.96 26.73 0.69
-13.15 25.80 0.68
-13.41 25.03 0.67
-13.71 24.41 0.66
-14.03 23.84 0.66
-14.31 23.24 0.65
-14.44 22.44 0.64
-14.61 21.73 0.63
-14.67 20.90 0.62
-14.71 20.09 0.61
-14.73 19.29 0.59
-14.73 18.51 0.58
-14.79 17.84 0.57
-14.88 17.22 0.57
-14.96 16.64 0.56
-15.06 16.08 0.55
-15.16 15.55 0.55
-15.26 15.04 0.55
-15.35 14.53 0.54
-15.43 14.03 0.54
-15.51 13.54 0.53
-15.58 13.06 0.53
-15.64 12.59 0.53
-15.70 12.13 0.52
-15.76 11.68 0.52
-15.86 11.26 0.52
-15.97 10.86 0.52
-16.02 10.43 0.51
-16.25 10.12 0.52
-16.47 9.81 0.52
-16.70 9.50 0.53
-16.84 9.14 0.53
-16.92 8.75 0.53
-17.03 8.37 0.53
-17.26 8.06 0.53
-17.65 7.82 0.54
-18.32 7.67 0.56
-19.06 7.54 0.58
-19.40 7.23 0.59
-19.75 6.91 0.60
-20.24 6.63 0.62
-20.68 6.31 0.63
-21.30 6.04 0.65
-21.75 5.70 0.66
-22.31 5.37 0.68
-22.86 5.02 0.69
-23.01 4.57 0.70
-23.43 4.16 0.71
-23.81 3.74 0.73
-24.24 3.31 0.74
-24.71 2.87 0.76
-24.83 2.38 0.76
-25.23 1.91 0.78
-25.47 1.41 0.79
-25.60 0.91 0.79
-25.78 0.39 0.80
-26.33 -0.13 0.82
-27.33 -0.68 0.86
-27.47 -1.24 0.87
-27.98 -1.82 0.89
-6.53 -3.63 0.26
-11.11 -33.38 1.26
-11.10 -35.74 1.34
-11.05 -38.28 1.42
-11.10 -45.17 1.66
-7.48 -46.18 1.66
0.01 -43.21 2.49
0.88 -43.25 2.49
1.23 -30.59 1.76
2.51 -41.49 2.39
3.35 -41.48 2.39
4.18 -41.46 2.39
5.07 -41.81 2.41
5.18 -36.60 2.11
5.28 -32.52 1.88
5.35 -29.25 1.70
5.61 -27.56 1.60
5.76 -25.62 1.49
5.79 -23.55 1.38
5.73 -21.45 1.26
35.72 -0.17 1.70
33.96 0.52 1.62
32.60 1.16 1.55
31.96 1.78 1.51
30.49 2.31 1.44
30.45 2.92 1.44
30.32 3.52 1.43
30.03 4.10 1.42
29.63 4.66 1.40
29.24 5.20 1.38
28.85 5.73 1.36
28.25 6.20 1.34
27.65 6.65 1.31
26.98 7.07 1.28
26.29 7.45 1.25
25.53 7.80 1.22
24.80 8.12 1.19
24.20 8.46 1.17
23.61 8.80 1.14
22.98 9.09 1.12
22.38 9.38 1.10
21.82 9.66 1.08
21.24 9.92 1.05
20.70 10.18 1.04
20.24 10.46 1.02
19.80 10.74 1.01
19.34 11.00 0.99
18.88 11.24 0.98
18.50 11.53 0.97
18.14 11.82 0.96
17.77 12.09 0.95
17.41 12.36 0.94
17.05 12.63 0.94
16.71 12.90 0.93
16.40 13.20 0.93
16.10 13.50 0.92
15.80 13.79 0.92
15.52 14.11 0.92
15.24 14.42 0.92
14.95 14.73 0.92
14.68 15.06 0.92
14.42 15.40 0.92
14.16 15.74 0.92
13.93 16.12 0.93
13.72 16.54 0.93
13.50 16.96 0.94
13.28 17.38 0.95
13.05 17.82 0.96
12.82 18.25 0.96
12.60 18.73 0.98
12.38 19.22 0.99
12.15 19.73 1.00
11.98 20.35 1.02
11.85 21.09 1.04
11.67 21.79 1.07
11.55 22.65 1.10
11.46 23.62 1.13
10.96 23.79 1.13
10.38 23.77 1.12
11.43 27.69 1.29
11.69 30.00 1.39
12.08 32.97 1.51
8.21 27.41 1.23
9.46 34.05 1.53
7.78 33.08 1.47
9.57 44.73 1.98
7.50 38.81 1.71
6.26 36.28 1.59
6.63 43.66 1.91
5.77 43.92 1.92
-11.17 47.55 2.18
-11.54 45.08 2.08
-12.01 43.28 2.01
-12.64 42.22 1.98
-13.26 41.27 1.95
-11.88 34.58 1.65
-11.87 32.42 1.56
-11.94 30.69 1.49
-11.98 29.04 1.43
-12.14 27.84 1.38
-12.30 26.73 1.34
-12.43 25.64 1.30
-12.69 24.89 1.28
-12.82 23.95 1.25
-13.15 23.42 1.24
-13.46 22.89 1.23
-13.70 22.25 1.21
-13.87 21.56 1.19
-14.02 20.86 1.17
-14.08 20.06 1.15
-14.13 19.30 1.12
-14.15 18.54 1.10
-14.22 17.88 1.08
-14.29 17.24 1.06
-14.39 16.66 1.04
-14.49 16.11 1.03
-14.59 15.58 1.02
-14.69 15.08 1.01
-14.79 14.58 1.00
-14.88 14.09 0.99
-14.97 13.62 0.98
-15.04 13.14 0.97
-15.12 12.68 0.96
-15.18 12.22 0.95
-15.24 11.77 0.94
-15.30 11.34 0.93
-15.37 10.92 0.93
-15.43 10.50 0.92
-15.46 10.07 0.91
-15.67 9.77 0.92
-15.89 9.47 0.92
-16.11 9.16 0.93
-16.32 8.85 0.93
-16.40 8.48 0.93
-16.60 8.16 0.93
-16.81 7.85 0.94
-17.04 7.55 0.94
-17.57 7.36 0.97
-18.19 7.20 1.00
-18.75 6.99 1.02
-19.09 6.68 1.04
-19.42 6.36 1.05
-19.92 6.08 1.07
-20.52 5.82 1.10
-21.11 5.53 1.13
-21.48 5.17 1.15
-21.85 4.80 1.17
-22.25 4.42 1.19
-22.68 4.03 1.21
-23.12 3.64 1.23
-23.46 3.21 1.25
-23.80 2.77 1.27
-24.16 2.32 1.29
-24.54 1.86 1.31
-24.93 1.39 1.33
-25.10 0.89 1.34
-25.27 0.39 1.36
-25.64 -0.12 1.38
-26.14 -0.65 1.41
-26.86 -1.20 1.45
-27.28 -1.77 1.48
-29.79 -2.54 1.63
-6.53 -3.62 0.42
-10.59 -20.24 1.33
-10.64 -22.50 1.45
-10.86 -24.22 1.55
-10.95 -25.80 1.64
-10.68 -26.63 1.67
-10.72 -28.37 1.77
-10.76 -30.31 1.88
-10.81 -32.50 2.00
-10.87 -35.00 2.14
-10.93 -37.88 2.30
-10.58 -39.64 2.39
-9.79 -39.86 2.39
-7.02 -31.28 1.87
-8.19 -40.26 2.39
-7.38 -40.44 2.39
-6.86 -42.36 2.49
-6.01 -42.52 2.49
-5.16 -42.66 2.49
-4.30 -42.79 2.49
-3.45 -42.90 2.49
-2.59 -43.00 2.49
-1.72 -43.09 2.49
-0.86 -43.16 2.49
0.01 -31.04 2.49
0.63 -31.05 2.49
1.20 -29.79 2.39
1.38 -22.84 1.83
2.40 -29.75 2.39
3.00 -29.73 2.39
3.60 -29.69 2.39
4.20 -29.64 2.39
4.80 -29.58 2.39
5.35 -29.23 2.37
5.41 -26.54 2.16
5.46 -24.28 1.98
5.50 -22.37 1.83
5.54 -20.71 1.70
5.59 -19.35 1.60
5.96 -19.17 1.59
5.67 -17.02 1.42
5.95 -14.83 1.26
36.05 -0.89 2.54
34.21 -0.15 2.40
32.61 0.51 2.29
31.91 1.14 2.24
31.29 1.74 2.19
30.70 2.33 2.15
30.20 2.90 2.11
29.75 3.46 2.08
29.47 4.03 2.06
29.20 4.59 2.05
28.92 5.15 2.03
28.37 5.64 1.99
27.62 6.07 1.95
26.91 6.48 1.90
26.23 6.88 1.86
25.58 7.26 1.82
24.91 7.61 1.78
24.27 7.95 1.74
23.59 8.25 1.70
22.93 8.54 1.66
22.34 8.84 1.63
21.79 9.13 1.60
21.26 9.41 1.57
20.74 9.69 1.55
20.25 9.96 1.52
19.77 10.22 1.50
19.30 10.47 1.48
18.84 10.72 1.46
18.47 11.01 1.44
18.13 11.30 1.43
17.79 11.59 1.42
17.44 11.87 1.41
17.08 12.13 1.40
16.74 12.40 1.39
16.44 12.70 1.38
16.14 12.99 1.38
15.84 13.28 1.37
15.54 13.57 1.37
15.25 13.87 1.37
14.97 14.17 1.37
14.70 14.49 1.37
14.45 14.82 1.37
14.19 15.16 1.37
13.93 15.49 1.38
13.67 15.83 1.38
13.45 16.22 1.39
13.24 16.63 1.40
13.02 17.05 1.41
12.79 17.47 1.43
12.52 17.83 1.43
12.38 18.41 1.46
12.16 18.89 1.48
11.94 19.38 1.50
11.70 19.89 1.52
11.55 20.57 1.55
11.42 21.32 1.59
11.25 22.05 1.63
11.14 22.97 1.68
10.92 23.70 1.71
10.42 23.86 1.71
9.89 23.96 1.70
9.39 24.11 1.70
8.89 24.26 1.70
8.39 24.41 1.70
7.90 24.55 1.70
7.34 24.51 1.68
6.52 23.47 1.60
6.80 26.51 1.80
6.83 29.05 1.96
6.18 28.85 1.94
5.62 29.10 1.95
5.47 31.72 2.12
4.92 32.41 2.16
4.72 35.91 2.39
3.99 35.97 2.39
3.27 36.02 2.39
2.65 37.60 2.49
1.90 37.62 2.49
1.14 37.62 2.49
0.39 37.60 2.49
-0.37 37.57 2.49
-1.12 37.52 2.49
-1.87 37.45 2.49
-2.62 37.36 2.49
-3.37 37.26 2.49
-4.11 37.15 2.49
-4.85 37.01 2.49
-5.40 35.67 2.41
-6.05 35.18 2.39
-6.75 35.01 2.39
-7.44 34.82 2.39
-8.12 34.62 2.39
-8.80 34.40 2.39
-10.17 36.64 2.56
-10.66 35.64 2.51
-10.93 34.04 2.42
-11.22 32.67 2.34
-11.33 30.96 2.24
-11.37 29.24 2.13
-11.49 27.88 2.05
-11.65 26.73 1.99
-11.80 25.65 1.93
-11.99 24.74 1.88
-12.11 23.77 1.83
-12.31 23.01 1.79
-12.60 22.46 1.77
-12.73 21.65 1.73
-13.00 21.12 1.71
-13.25 20.60 1.69
-13.37 19.90 1.66
-13.48 19.22 1.63
-13.58 18.56 1.60
-13.67 17.91 1.57
-13.75 17.28 1.54
-13.82 16.68 1.51
-13.93 16.14 1.49
-14.04 15.62 1.47
-14.14 15.11 1.46
-14.25 14.63 1.44
-14.35 14.15 1.42
-14.44 13.68 1.41
-14.53 13.22 1.39
-14.61 12.77 1.38
-14.68 12.32 1.36
-14.74 11.87 1.35
-14.80 11.44 1.34
-14.87 11.02 1.33
-14.93 10.61 1.31
-14.98 10.20 1.30
-15.01 9.78 1.29
-15.14 9.44 1.29
-15.35 9.15 1.29
-15.56 8.86 1.30
-15.76 8.56 1.30
-15.97 8.26 1.31
-16.18 7.96 1.32
-16.39 7.66 1.32
-16.60 7.35 1.33
-16.97 7.11 1.35
-17.49 6.92 1.38
-18.07 6.74 1.42
-18.47 6.47 1.45
-18.77 6.15 1.46
-19.08 5.83 1.48
-19.68 5.59 1.52
-20.36 5.34 1.57
-20.85 5.02 1.60
-21.21 4.66 1.62
-21.50 4.28 1.64
-21.92 3.90 1.67
-22.39 3.52 1.71
-22.81 3.12 1.74
-23.12 2.69 1.76
-23.45 2.26 1.78
-23.82 1.81 1.81
-24.25 1.35 1.85
-24.61 0.88 1.88
-24.78 0.39 1.89
-25.12 -0.11 1.92
-25.53 -0.63 1.96
-26.04 -1.16 2.00
-26.62 -1.73 2.05
-27.37 -2.33 2.11
-30.10 -3.17 2.33
-45.43 -5.71 3.54
-45.94 -6.71 3.59
-46.59 -7.76 3.66
-47.58 -8.91 3.76
-48.57 -10.11 3.86
-6.53 -3.62 0.59
-10.50 -12.91 1.34
-10.43 -13.37 1.37
-10.48 -15.24 1.49
-10.78 -17.10 1.64
-10.48 -17.39 1.64
-10.49 -18.24 1.70
-10.51 -19.16 1.77
-10.54 -20.15 1.84
-10.56 -21.22 1.92
-10.59 -22.39 2.01
-10.62 -23.67 2.10
-10.65 -25.08 2.21
-10.68 -26.63 2.32
-10.44 -27.61 2.39
-9.88 -27.82 2.39
-6.97 -20.94 1.79
-6.81 -21.92 1.86
-6.84 -23.69 1.99
-7.13 -26.72 2.24
-7.05 -28.71 2.39
-6.75 -30.10 2.49
-6.15 -30.24 2.49
-5.54 -30.37 2.49
-4.93 -30.49 2.49
-4.32 -30.59 2.49
-3.71 -30.69 2.49
-3.09 -30.78 2.49
-2.48 -30.85 2.49
-1.86 -30.91 2.49
-1.24 -30.97 2.49
-0.62 -31.01 2.49
0.01 -24.20 2.49
0.49 -24.21 2.49
0.98 -24.21 2.49
1.41 -23.20 2.39
1.50 -18.62 1.92
1.74 -17.24 1.78
2.81 -23.12 2.39
3.27 -23.08 2.39
3.74 -23.02 2.39
4.20 -22.96 2.39
4.67 -22.89 2.39
5.13 -22.82 2.39
5.50 -22.36 2.35
5.54 -20.71 2.19
5.57 -19.27 2.04
5.60 -18.00 1.92
5.62 -16.88 1.81
5.65 -15.88 1.71
5.67 -14.99 1.63
5.76 -14.34 1.57
5.79 -12.24 1.37
6.10 -12.24 1.38
35.95 -1.60 3.36
34.31 -0.84 3.20
32.62 -0.14 3.03
31.92 0.50 2.96
31.24 1.12 2.90
30.65 1.71 2.84
30.15 2.29 2.79
29.66 2.86 2.75
29.21 3.40 2.71
28.94 3.96 2.69
28.57 4.50 2.66
28.07 5.00 2.62
27.55 5.48 2.57
26.84 5.90 2.51
26.17 6.30 2.46
25.45 6.67 2.40
24.57 6.97 2.33
24.11 7.37 2.29
23.53 7.71 2.25
22.88 8.01 2.20
22.30 8.31 2.16
21.76 8.61 2.12
21.09 8.84 2.07
20.55 9.10 2.03
20.13 9.41 2.01
19.72 9.70 1.98
19.26 9.96 1.95
18.81 10.21 1.92
18.45 10.50 1.91
18.11 10.79 1.89
17.77 11.08 1.88
17.44 11.36 1.86
17.11 11.64 1.85
16.77 11.91 1.84
16.47 12.20 1.83
16.17 12.50 1.82
15.88 12.78 1.82
15.59 13.07 1.81
15.30 13.36 1.81
15.00 13.64 1.81
14.72 13.94 1.80
14.47 14.26 1.81
14.22 14.59 1.81
13.97 14.92 1.81
13.72 15.25 1.82
13.46 15.58 1.83
13.20 15.92 1.83
12.99 16.32 1.85
12.77 16.72 1.86
12.50 17.07 1.87
12.24 17.43 1.88
11.97 17.79 1.90
11.80 18.32 1.93
11.72 19.03 1.98
11.50 19.54 2.00
11.27 20.06 2.03
11.13 20.78 2.08
10.99 21.53 2.14
10.80 22.27 2.19
10.52 22.85 2.22
10.24 23.46 2.26
9.89 23.96 2.29
9.39 24.11 2.29
6.24 17.03 1.60
6.11 17.77 1.66
6.16 19.15 1.78
6.21 20.73 1.91
6.25 22.49 2.06
6.21 24.20 2.21
6.18 26.29 2.39
5.65 26.40 2.39
5.12 26.50 2.39
4.59 26.59 2.39
4.05 26.67 2.39
3.51 26.73 2.39
2.97 26.78 2.39
2.47 27.18 2.42
1.98 28.01 2.49
1.41 28.03 2.49
0.85 28.03 2.49
0.29 28.02 2.49
-0.27 28.00 2.49
-0.83 27.97 2.49
-1.39 27.93 2.49
-1.95 27.87 2.49
-2.51 27.81 2.49
-3.06 27.73 2.49
-3.62 27.64 2.49
-4.17 27.53 2.49
-4.71 27.42 2.49
-5.26 27.29 2.49
-5.61 26.28 2.41
-6.07 25.89 2.39
-6.58 25.73 2.39
-7.09 25.57 2.39
-7.60 25.40 2.39
-8.09 25.21 2.39
-8.59 25.01 2.39
-9.08 24.81 2.39
-9.56 24.59 2.39
-10.26 24.90 2.44
-10.69 24.52 2.43
-11.02 23.97 2.40
-11.36 23.45 2.37
-11.53 22.63 2.31
-11.68 21.83 2.26
-11.80 21.04 2.20
-12.02 20.44 2.17
-12.15 19.75 2.13
-12.28 19.09 2.08
-12.40 18.46 2.04
-12.51 17.84 2.01
-12.64 17.27 1.97
-12.80 16.77 1.95
-12.93 16.26 1.92
-13.05 15.75 1.89
-13.30 15.41 1.89
-13.54 15.07 1.88
-13.73 14.67 1.87
-13.83 14.20 1.85
-13.93 13.74 1.82
-14.02 13.29 1.80
-14.11 12.85 1.79
-14.20 12.41 1.77
-14.26 11.97 1.75
-14.33 11.54 1.73
-14.39 11.12 1.71
-14.46 10.72 1.70
-14.52 10.32 1.68
-14.55 9.91 1.67
-14.58 9.51 1.65
-14.65 9.14 1.64
-14.45 8.62 1.60
-15.05 8.57 1.65
-15.18 8.25 1.65
-15.22 7.88 1.64
-15.61 7.69 1.66
-15.98 7.47 1.69
-16.19 7.18 1.70
-16.40 6.88 1.71
-16.89 6.69 1.75
-17.41 6.49 1.79
-17.75 6.22 1.82
-18.16 5.96 1.85
-18.45 5.64 1.87
-18.74 5.32 1.89
-19.45 5.11 1.95
-20.20 4.87 2.02
-20.60 4.53 2.06
-20.84 4.15 2.07
-21.04 3.75 2.09
-21.46 3.38 2.13
-22.11 3.03 2.19
-22.49 2.62 2.22
-22.79 2.20 2.25
-23.11 1.76 2.28
-23.49 1.31 2.32
-23.93 0.86 2.37
-24.30 0.38 2.41
-24.63 -0.11 2.44
-24.97 -0.61 2.48
-25.43 -1.13 2.53
-25.89 -1.67 2.58
-26.70 -2.27 2.67
-27.66 -2.91 2.78
-40.58 -5.09 4.09
-42.73 -6.23 4.32
-43.62 -7.26 4.43
-45.01 -8.43 4.59
-45.95 -9.56 4.71
-47.40 -10.86 4.89
-48.06 -12.03 4.99
-6.53 -3.62 0.76
-10.50 -6.39 1.26
-10.36 -6.59 1.26
-10.29 -6.84 1.27
-10.61 -8.71 1.41
-10.33 -8.83 1.40
-10.34 -9.20 1.43
-10.39 -10.87 1.55
-10.37 -11.29 1.58
-10.47 -11.87 1.64
-10.36 -12.23 1.66
-10.37 -12.75 1.70
-10.38 -13.31 1.75
-10.40 -13.89 1.80
-10.41 -14.51 1.85
-10.43 -15.16 1.91
-10.44 -15.86 1.97
-10.46 -16.60 2.03
-10.48 -17.39 2.10
-10.49 -18.24 2.18
-10.51 -19.16 2.27
-10.54 -20.15 2.36
-10.27 -20.64 2.39
-9.85 -20.84 2.39
-6.82 -15.21 1.73
-6.67 -15.72 1.77
-6.69 -16.69 1.86
-6.72 -17.77 1.97
-7.71 -21.73 2.39
-6.96 -20.94 2.29
-6.84 -22.02 2.39
-6.67 -23.12 2.49
-6.21 -23.25 2.49
-5.74 -23.38 2.49
-5.27 -23.49 2.49
-4.80 -23.60 2.49
-4.33 -23.70 2.49
-3.85 -23.79 2.49
-3.37 -23.87 2.49
-2.89 -23.95 2.49
-2.41 -24.01 2.49
-1.93 -24.07 2.49
-1.45 -24.11 2.49
-0.96 -24.15 2.49
-0.48 -24.18 2.49
0.01 -19.81 2.49
0.41 -19.81 2.49
0.80 -19.81 2.49
1.20 -19.80 2.49
1.53 -18.97 2.39
1.57 -15.49 1.95
1.76 -14.46 1.83
2.68 -18.88 2.39
3.06 -18.83 2.39
3.44 -18.78 2.39
3.82 -18.72 2.39
4.20 -18.65 2.39
4.57 -18.58 2.39
4.95 -18.50 2.39
5.33 -18.41 2.39
5.60 -17.99 2.35
5.63 -16.87 2.21
5.65 -15.87 2.10
5.67 -14.97 1.99
5.69 -14.15 1.89
5.70 -13.41 1.81
5.72 -12.73 1.73
5.73 -12.10 1.66
5.90 -11.83 1.64
6.14 -11.72 1.64
5.81 -10.58 1.49
5.87 -10.19 1.45
5.98 -8.32 1.26
6.15 -8.21 1.26
38.34 -3.25 4.47
34.45 -2.22 4.01
33.44 -1.48 3.88
32.58 -0.79 3.78
31.84 -0.13 3.68
31.14 0.49 3.60
30.29 1.09 3.50
29.67 1.66 3.43
29.29 2.23 3.38
28.92 2.79 3.34
27.77 3.24 3.21
26.75 3.67 3.10
26.51 4.18 3.08
26.27 4.68 3.05
26.02 5.18 3.03
25.34 5.57 2.96
24.52 5.91 2.88
24.07 6.32 2.84
23.63 6.71 2.80
23.20 7.09 2.76
22.71 7.45 2.72
22.10 7.74 2.66
21.41 7.98 2.59
20.75 8.22 2.53
20.34 8.53 2.50
19.93 8.83 2.47
19.54 9.13 2.44
19.16 9.42 2.41
18.77 9.71 2.38
18.42 10.00 2.36
18.05 10.28 2.34
17.69 10.55 2.32
17.34 10.81 2.30
16.98 11.07 2.28
16.65 11.34 2.26
16.38 11.64 2.25
16.09 11.93 2.25
15.80 12.21 2.24
15.51 12.49 2.23
15.22 12.76 2.22
14.93 13.04 2.22
14.64 13.32 2.21
14.37 13.61 2.21
14.11 13.90 2.21
13.89 14.25 2.22
13.67 14.60 2.23
13.45 14.95 2.24
13.22 15.31 2.25
12.99 15.66 2.27
12.74 16.01 2.28
12.49 16.35 2.29
12.23 16.69 2.30
11.96 17.04 2.32
11.70 17.39 2.33
11.42 17.75 2.35
11.22 18.22 2.38
11.12 18.90 2.44
11.02 19.62 2.50
10.86 20.27 2.55
10.55 20.68 2.58
6.23 12.85 1.59
6.12 13.28 1.62
6.06 13.88 1.68
6.06 14.68 1.76
6.08 15.60 1.86
6.09 16.62 1.97
6.11 17.76 2.09
6.16 19.15 2.24
6.17 20.60 2.39
5.76 20.71 2.39
5.34 20.82 2.39
4.92 20.92 2.39
4.50 21.01 2.39
4.08 21.09 2.39
3.65 21.16 2.39
3.22 21.22 2.39
2.80 21.27 2.39
2.37 21.31 2.39
2.02 22.27 2.49
1.58 22.30 2.49
1.13 22.31 2.49
0.68 22.32 2.49
0.23 22.32 2.49
-0.22 22.30 2.49
-0.66 22.28 2.49
-1.11 22.25 2.49
-1.55 22.21 2.49
-2.00 22.16 2.49
-2.44 22.10 2.49
-2.88 22.03 2.49
-3.32 21.95 2.49
-3.76 21.87 2.49
-4.19 21.77 2.49
-4.62 21.67 2.49
-5.05 21.55 2.49
-5.48 21.43 2.49
-5.73 20.68 2.42
-6.06 20.28 2.39
-6.46 20.13 2.39
-6.86 19.98 2.39
-7.25 19.82 2.39
-7.64 19.65 2.39
-8.02 19.48 2.39
-8.41 19.29 2.39
-8.78 19.10 2.39
-9.15 18.90 2.39
-9.52 18.70 2.39
-10.14 18.96 2.45
-10.43 18.59 2.43
-10.71 18.23 2.42
-10.99 17.87 2.40
-11.24 17.48 2.38
-11.48 17.10 2.36
-11.66 16.63 2.33
-11.78 16.11 2.29
-11.89 15.59 2.26
-11.99 15.09 2.22
-12.16 14.68 2.20
-12.38 14.35 2.19
-12.52 13.93 2.17
-12.65 13.53 2.14
-12.88 13.23 2.14
-13.16 12.98 2.14
-13.43 12.73 2.15
-13.70 12.47 2.15
-13.79 12.06 2.13
-13.86 11.64 2.11
-9.96 8.02 1.49
-9.96 7.70 1.47
-10.17 7.54 1.48
-12.02 8.55 1.73
-12.57 8.56 1.78
-13.12 8.56 1.84
-13.72 8.56 1.90
-14.37 8.57 1.97
-14.52 8.27 1.97
-10.01 5.44 1.35
-10.02 5.19 1.33
-14.65 7.22 1.93
-15.09 7.06 1.98
-15.62 6.93 2.03
-15.99 6.71 2.06
-16.33 6.47 2.09
-16.65 6.21 2.12
-16.84 5.90 2.13
-17.03 5.59 2.14
-10.07 3.08 1.26
-10.09 2.87 1.26
-10.13 2.66 1.26
-19.22 4.64 2.38
-20.02 4.41 2.47
-20.21 4.03 2.48
-20.40 3.64 2.50
-20.60 3.25 2.52
-21.02 2.88 2.56
-21.66 2.53 2.64
-22.17 2.14 2.70
-22.47 1.71 2.73
-22.77 1.28 2.77
-10.33 0.37 1.26
-10.32 0.16 1.26
-24.12 -0.10 2.94
-24.49 -0.59 2.99
-24.85 -1.10 3.04
-25.30 -1.63 3.10
-25.66 -2.17 3.15
-26.78 -2.81 3.30
-28.00 -3.51 3.46
-37.07 -5.40 4.60
-39.49 -6.57 4.92
-10.18 -1.90 1.27
-10.18 -2.12 1.28
-10.19 -2.33 1.29
-46.15 -11.55 5.88
-47.12 -12.80 6.04
-47.53 -13.94 6.13
-10.23 -4.15 1.37
-10.23 -4.40 1.39
-6.53 -3.62 0.93
-10.49 -6.38 1.54
-10.28 -6.54 1.53
-10.29 -6.84 1.55
-10.56 -7.65 1.64
-10.39 -7.85 1.64
-10.27 -8.08 1.64
-10.28 -8.43 1.67
-10.28 -8.79 1.70
-10.29 -9.16 1.73
-10.30 -9.55 1.77
-10.31 -9.95 1.80
-10.32 -10.36 1.84
-10.33 -10.80 1.88
-10.34 -11.25 1.93
-10.35 -11.73 1.97
-10.36 -12.23 2.02
-10.37 -12.75 2.07
-10.38 -13.31 2.13
-10.40 -13.89 2.19
-10.41 -14.51 2.26
-10.43 -15.16 2.32
-10.40 -15.79 2.39
-10.08 -16.00 2.39
-9.75 -16.19 2.39
-9.42 -16.38 2.39
-6.86 -12.50 1.80
-6.59 -12.60 1.80
-6.63 -13.32 1.88
-6.64 -14.03 1.96
-6.65 -14.83 2.06
-7.38 -17.39 2.39
-6.99 -17.42 2.37
-6.68 -17.67 2.39
-6.60 -18.57 2.49
-6.22 -18.70 2.49
-5.85 -18.83 2.49
-5.47 -18.94 2.49
-5.09 -19.05 2.49
-4.70 -19.16 2.49
-4.32 -19.25 2.49
-3.93 -19.34 2.49
-3.54 -19.42 2.49
-3.15 -19.49 2.49
-2.76 -19.56 2.49
-2.37 -19.62 2.49
-1.98 -19.67 2.49
-1.58 -19.71 2.49
-1.18 -19.75 2.49
-0.79 -19.77 2.49
-0.39 -19.80 2.49
0.01 -16.75 2.49
0.34 -16.76 2.49
0.68 -16.76 2.49
1.02 -16.75 2.49
1.35 -16.73 2.49
1.62 -16.02 2.39
1.61 -13.21 1.97
1.66 -11.71 1.75
2.59 -15.92 2.39
2.91 -15.87 2.39
3.23 -15.82 2.39
3.55 -15.76 2.39
3.87 -15.69 2.39
4.18 -15.62 2.39
4.50 -15.55 2.39
4.81 -15.46 2.39
5.13 -15.37 2.39
5.44 -15.28 2.39
5.67 -14.96 2.36
5.69 -14.15 2.24
5.70 -13.40 2.14
5.72 -12.72 2.05
5.73 -12.10 1.96
5.74 -11.52 1.89
5.76 -10.99 1.82
5.77 -10.49 1.75
5.78 -10.03 1.69
5.79 -9.59 1.64
5.98 -9.47 1.64
6.17 -9.35 1.64
5.87 -8.16 1.46
5.94 -7.92 1.44
6.20 -7.93 1.46
34.10 -3.57 4.78
33.40 -2.82 4.67
32.55 -2.09 4.53
32.04 -1.42 4.45
31.54 -0.76 4.38
30.85 -0.12 4.28
29.88 0.48 4.14
28.49 1.03 3.94
25.89 1.46 3.58
24.53 1.87 3.40
23.83 2.30 3.30
23.13 2.70 3.21
22.48 3.09 3.12
21.93 3.46 3.05
21.79 3.89 3.04
21.70 4.32 3.04
21.60 4.75 3.03
21.50 5.19 3.03
21.38 5.61 3.03
21.17 6.01 3.01
20.95 6.41 2.99
20.73 6.80 2.98
20.54 7.20 2.97
20.36 7.59 2.96
19.86 7.87 2.91
19.37 8.12 2.86
18.89 8.37 2.81
18.54 8.67 2.78
18.28 8.99 2.77
18.01 9.32 2.75
17.75 9.64 2.74
17.41 9.91 2.71
17.07 10.18 2.69
16.73 10.43 2.67
16.46 10.73 2.66
16.19 11.03 2.65
15.93 11.32 2.64
15.66 11.61 2.63
15.39 11.89 2.62
15.11 12.16 2.61
14.82 12.44 2.61
14.55 12.71 2.60
14.29 13.00 2.60
14.02 13.28 2.60
13.75 13.56 2.60
13.49 13.84 2.60
13.27 14.17 2.61
13.05 14.51 2.62
12.83 14.85 2.64
12.56 15.15 2.64
12.28 15.43 2.65
6.40 8.38 1.41
6.24 8.52 1.42
6.25 8.90 1.46
11.29 16.78 2.71
11.05 17.17 2.74
6.21 10.08 1.59
6.05 10.28 1.60
6.09 10.84 1.67
6.10 11.38 1.73
6.10 11.96 1.80
6.11 12.60 1.88
6.12 13.28 1.96
6.06 13.88 2.03
6.06 14.68 2.13
6.08 15.60 2.24
6.09 16.62 2.37
5.80 16.87 2.39
5.46 16.98 2.39
5.12 17.08 2.39
4.78 17.18 2.39
4.43 17.27 2.39
4.08 17.35 2.39
3.73 17.42 2.39
3.38 17.49 2.39
3.03 17.55 2.39
2.68 17.60 2.39
2.32 17.65 2.39
2.05 18.45 2.49
1.68 18.48 2.49
1.31 18.50 2.49
0.94 18.52 2.49
0.57 18.53 2.49
0.19 18.53 2.49
-0.18 18.52 2.49
-0.55 18.50 2.49
-0.92 18.48 2.49
-1.29 18.44 2.49
-1.66 18.41 2.49
-2.03 18.36 2.49
-2.39 18.30 2.49
-2.76 18.24 2.49
-3.12 18.17 2.49
-3.48 18.09 2.49
-3.84 18.01 2.49
-4.20 17.91 2.49
-4.55 17.81 2.49
-4.91 17.71 2.49
-5.26 17.59 2.49
-5.60 17.47 2.49
-5.81 16.95 2.44
-6.03 16.49 2.39
-6.36 16.35 2.39
-6.68 16.21 2.39
-6.99 16.06 2.39
-7.31 15.90 2.39
-7.62 15.74 2.39
-7.93 15.57 2.39
-8.23 15.39 2.39
-8.53 15.21 2.39
-8.83 15.03 2.39
-9.12 14.83 2.39
-9.40 14.63 2.39
-9.69 14.43 2.39
-10.10 14.42 2.42
-10.31 14.10 2.41
-10.51 13.79 2.39
-10.71 13.47 2.38
-10.93 13.20 2.37
-11.15 12.93 2.36
-11.36 12.65 2.36
-11.57 12.38 2.35
-11.75 12.07 2.34
-11.90 11.75 2.32
-9.88 9.37 1.89
-9.89 9.00 1.86
-9.89 8.65 1.83
-9.90 8.32 1.80
-9.91 7.99 1.78
-9.92 7.67 1.75
-9.92 7.36 1.73
-9.93 7.06 1.71
-9.94 6.77 1.69
-9.94 6.49 1.67
-9.95 6.21 1.65
-9.96 5.94 1.63
-9.97 5.68 1.62
-9.99 5.43 1.60
-10.00 5.18 1.59
-10.08 4.97 1.59
-10.35 4.84 1.62
-14.60 6.48 2.26
-15.07 6.33 2.32
-15.44 6.12 2.36
-15.78 5.89 2.39
-16.02 5.62 2.42
-16.20 5.32 2.43
-10.07 3.08 1.50
-10.07 2.86 1.49
-10.08 2.65 1.49
-18.23 4.40 2.68
-18.54 4.08 2.72
-18.84 3.76 2.75
-19.20 3.43 2.80
-19.84 3.13 2.89
-20.17 2.77 2.93
-20.58 2.41 2.98
-20.92 2.02 3.03
-21.27 1.63 3.08
-22.15 1.25 3.20
-10.13 0.37 1.46
-10.13 0.16 1.47
-10.14 -0.04 1.47
-23.67 -0.57 3.43
-24.34 -1.08 3.54
-24.73 -1.59 3.60
-25.05 -2.12 3.66
-25.86 -2.71 3.78
-27.00 -3.38 3.96
-27.71 -4.03 4.08
-33.24 -5.52 4.92
-10.18 -1.90 1.51
-10.18 -2.12 1.52
-10.19 -2.33 1.53
-43.73 -10.94 6.60
-44.79 -12.16 6.80
-45.60 -13.37 6.97
-46.65 -14.70 7.18
-10.55 -3.56 1.64
-10.46 -3.77 1.64
-10.19 -3.90 1.61
-10.19 -4.14 1.62
-10.19 -4.38 1.63
-10.19 -4.62 1.65
-10.20 -4.87 1.67
-10.20 -5.13 1.69
-10.21 -5.39 1.71
-6.53 -3.62 1.10
-10.22 -5.94 1.75
-10.23 -6.22 1.77
-10.23 -6.51 1.80
-10.24 -6.80 1.82
-10.25 -7.11 1.85
-10.25 -7.42 1.88
-10.26 -7.75 1.91
-10.27 -8.08 1.94
-10.28 -8.43 1.97
-10.28 -8.79 2.01
-10.29 -9.16 2.05
-10.30 -9.54 2.09
-10.31 -9.94 2.13
-10.32 -10.36 2.18
-10.33 -10.80 2.23
-10.34 -11.25 2.28
-10.35 -11.73 2.33
-10.36 -12.23 2.39
-10.11 -12.43 2.39
-9.85 -12.63 2.39
-9.60 -12.82 2.39
-9.34 -13.01 2.39
-6.71 -9.76 1.77
-6.54 -9.93 1.78
-6.54 -10.38 1.83
-6.58 -10.93 1.91
-6.57 -11.43 1.97
-6.57 -11.98 2.04
-6.84 -13.07 2.20
-6.88 -13.83 2.31
-6.81 -14.40 2.38
-6.54 -14.59 2.39
-6.52 -15.35 2.49
-6.21 -15.48 2.49
-5.90 -15.61 2.49
-5.58 -15.72 2.49
-5.27 -15.83 2.49
-4.95 -15.94 2.49
-4.63 -16.03 2.49
-4.30 -16.13 2.49
-3.98 -16.21 2.49
-3.65 -16.29 2.49
-3.33 -16.37 2.49
-3.00 -16.43 2.49
-2.67 -16.49 2.49
-2.34 -16.55 2.49
-2.00 -16.60 2.49
-1.67 -16.64 2.49
-1.34 -16.68 2.49
-1.00 -16.70 2.49
-0.67 -16.73 2.49
-0.33 -16.74 2.49
0.01 -14.50 2.49
0.30 -14.51 2.49
0.59 -14.50 2.49
0.88 -14.49 2.49
1.17 -14.48 2.49
1.47 -14.46 2.49
1.68 -13.83 2.39
1.64 -11.51 1.99
1.67 -10.26 1.78
1.90 -10.39 1.81
2.79 -13.68 2.39
3.07 -13.63 2.39
3.35 -13.57 2.39
3.62 -13.51 2.39
3.89 -13.44 2.39
4.16 -13.37 2.39
4.43 -13.29 2.39
4.70 -13.21 2.39
4.97 -13.12 2.39
5.24 -13.03 2.39
5.50 -12.93 2.39
5.72 -12.72 2.37
5.73 -12.09 2.27
5.74 -11.52 2.18
5.76 -10.98 2.10
5.77 -10.49 2.03
5.78 -10.02 1.96
5.79 -9.59 1.90
5.80 -9.18 1.84
5.81 -8.80 1.78
5.81 -8.44 1.73
5.82 -8.10 1.68
5.83 -7.77 1.64
5.96 -7.62 1.63
6.14 -7.53 1.64
5.92 -5.93 1.40
5.92 -5.70 1.38
6.04 -5.59 1.38
34.89 -14.97 6.25
35.86 -14.54 6.37
38.33 -14.65 6.75
39.96 -7.46 6.62
34.36 -5.70 5.67
33.50 -4.87 5.51
32.84 -4.10 5.38
32.29 -3.38 5.27
31.79 -2.68 5.18
31.37 -2.01 5.09
30.95 -1.36 5.02
29.70 -0.71 4.81
27.39 -0.11 4.43
25.27 0.41 4.08
23.60 0.86 3.81
22.22 1.25 3.59
21.36 1.63 3.45
20.89 2.02 3.38
20.47 2.40 3.31
20.12 2.77 3.26
19.78 3.12 3.22
19.45 3.47 3.17
19.27 3.84 3.15
19.14 4.21 3.14
19.00 4.59 3.13
18.87 4.96 3.12
18.72 5.32 3.11
18.58 5.69 3.10
18.44 6.05 3.10
18.30 6.41 3.09
18.16 6.78 3.09
18.00 7.13 3.08
17.85 7.49 3.08
17.67 7.84 3.07
17.48 8.18 3.07
17.29 8.51 3.06
17.09 8.84 3.05
16.89 9.17 3.05
16.68 9.50 3.04
16.45 9.81 3.03
16.24 10.13 3.03
16.01 10.44 3.02
15.76 10.73 3.01
15.50 11.02 3.01
15.24 11.30 3.00
14.98 11.58 2.99
14.72 11.86 2.98
14.46 12.14 2.98
14.20 12.41 2.97
13.95 12.69 2.97
6.30 5.97 1.37
6.19 6.10 1.37
6.19 6.35 1.40
12.90 13.78 2.97
12.66 14.08 2.98
12.39 14.35 2.98
12.12 14.62 2.99
6.43 8.08 1.62
6.13 8.02 1.59
5.98 8.17 1.59
6.00 8.55 1.64
6.01 8.94 1.69
6.03 9.36 1.75
6.04 9.82 1.81
6.06 10.30 1.88
6.09 10.84 1.95
6.10 11.38 2.03
6.10 11.96 2.11
6.11 12.60 2.20
6.12 13.28 2.30
6.06 13.88 2.38
5.81 14.07 2.39
5.53 14.19 2.39
5.24 14.29 2.39
4.95 14.40 2.39
4.66 14.49 2.39
4.37 14.58 2.39
4.08 14.66 2.39
3.78 14.74 2.39
3.48 14.81 2.39
3.19 14.87 2.39
2.89 14.93 2.39
2.59 14.98 2.39
2.28 15.03 2.39
2.07 15.72 2.49
1.75 15.75 2.49
1.44 15.78 2.49
1.12 15.80 2.49
0.80 15.81 2.49
0.48 15.82 2.49
0.17 15.82 2.49
-0.15 15.81 2.49
-0.47 15.80 2.49
-0.78 15.78 2.49
-1.10 15.76 2.49
-1.41 15.72 2.49
-1.73 15.68 2.49
-2.04 15.64 2.49
-2.35 15.59 2.49
-2.66 15.53 2.49
-2.97 15.46 2.49
-3.28 15.39 2.49
-3.59 15.31 2.49
-3.89 15.23 2.49
-4.19 15.14 2.49
-4.49 15.04 2.49
-4.79 14.94 2.49
-5.09 14.83 2.49
-5.38 14.72 2.49
-5.67 14.60 2.49
-5.87 14.27 2.46
-5.98 13.74 2.39
-6.25 13.61 2.39
-6.52 13.47 2.39
-6.78 13.33 2.39
-7.04 13.18 2.39
-7.30 13.03 2.39
-7.56 12.87 2.39
-7.81 12.70 2.39
-8.05 12.53 2.39
-8.30 12.36 2.39
-8.53 12.18 2.39
-8.77 12.00 2.39
-9.00 11.81 2.39
-9.23 11.62 2.39
-9.45 11.42 2.39
-9.67 11.22 2.39
-9.88 11.01 2.39
-10.23 10.95 2.42
-10.40 10.69 2.41
-10.56 10.43 2.40
-9.88 9.37 2.21
-9.89 9.01 2.17
-9.89 8.66 2.13
-9.90 8.32 2.10
-9.91 7.99 2.07
-9.92 7.67 2.04
-9.92 7.37 2.01
-9.93 7.07 1.99
-9.94 6.77 1.96
-9.94 6.49 1.94
-9.95 6.21 1.92
-9.95 5.94 1.90
-9.96 5.68 1.88
-9.97 5.42 1.86
-9.97 5.17 1.84
-9.98 4.92 1.83
-9.98 4.67 1.81
-9.99 4.43 1.80
-9.99 4.20 1.79
-10.00 3.97 1.78
-10.00 3.74 1.76
-10.01 3.51 1.75
-10.01 3.29 1.74
-10.02 3.07 1.74
-10.02 2.85 1.73
-10.03 2.64 1.72
-10.03 2.42 1.71
-10.04 2.21 1.71
-10.04 2.00 1.70
-10.05 1.80 1.70
-10.05 1.59 1.70
-10.06 1.38 1.69
-10.06 1.18 1.69
-10.07 0.97 1.69
-10.07 0.77 1.69
-10.07 0.57 1.69
-10.08 0.37 1.69
-10.08 0.16 1.69
-10.09 -0.04 1.69
-10.09 -0.24 1.70
-10.10 -0.44 1.70
-10.10 -0.65 1.70
-10.11 -0.85 1.71
-10.11 -1.06 1.71
-10.12 -1.26 1.72
-10.12 -1.47 1.73
-10.12 -1.68 1.73
-10.13 -1.89 1.74
-10.13 -2.10 1.75
-10.14 -2.32 1.76
-10.14 -2.53 1.77
-10.15 -2.75 1.78
-10.15 -2.98 1.80
-10.16 -3.20 1.81
-10.16 -3.43 1.82
-10.17 -3.66 1.84
-10.17 -3.89 1.85
-10.18 -4.13 1.87
-10.18 -4.37 1.89
-10.19 -4.62 1.91
-10.20 -4.87 1.93
-10.20 -5.13 1.95
-10.21 -5.39 1.97
-6.53 -3.62 1.28
-10.22 -5.94 2.02
-10.23 -6.22 2.05
-10.23 -6.51 2.08
-10.24 -6.80 2.11
-10.25 -7.11 2.14
-10.25 -7.42 2.17
-10.26 -7.75 2.21
-10.27 -8.08 2.24
-10.28 -8.43 2.28
-10.28 -8.79 2.32
-10.29 -9.16 2.37
-10.20 -9.45 2.39
-10.00 -9.65 2.39
-9.80 -9.84 2.39
-9.60 -10.04 2.39
-9.39 -10.22 2.39
-9.18 -10.41 2.39
-8.97 -10.59 2.39
-6.50 -7.99 1.77
-6.49 -8.32 1.82
-6.52 -8.71 1.88
-6.54 -9.11 1.93
-6.52 -9.48 1.98
-6.54 -9.92 2.05
-7.39 -11.72 2.39
-6.73 -11.18 2.25
-6.75 -11.72 2.33
-6.67 -12.14 2.39
-6.47 -12.38 2.41
-6.44 -12.93 2.49
-6.18 -13.06 2.49
-5.91 -13.18 2.49
-5.65 -13.30 2.49
-5.38 -13.41 2.49
-5.11 -13.52 2.49
-4.83 -13.62 2.49
-4.56 -13.71 2.49
-4.28 -13.80 2.49
-4.01 -13.89 2.49
-3.73 -13.97 2.49
-3.45 -14.04 2.49
-3.16 -14.11 2.49
-2.88 -14.17 2.49
-2.60 -14.23 2.49
-2.31 -14.28 2.49
-2.02 -14.33 2.49
-1.73 -14.37 2.49
-1.45 -14.41 2.49
-1.16 -14.44 2.49
-0.87 -14.46 2.49
-0.58 -14.48 2.49
-0.28 -14.49 2.49
0.01 -12.77 2.49
0.26 -12.77 2.49
0.52 -12.77 2.49
0.78 -12.76 2.49
1.03 -12.75 2.49
1.29 -12.73 2.49
1.55 -12.71 2.49
1.73 -12.15 2.39
1.66 -10.22 2.02
1.69 -9.19 1.82
1.81 -8.84 1.75
1.99 -8.83 1.76
2.95 -11.95 2.39
3.19 -11.89 2.39
3.43 -11.83 2.39
3.67 -11.77 2.39
3.90 -11.70 2.39
4.14 -11.62 2.39
4.38 -11.54 2.39
4.61 -11.46 2.39
4.84 -11.37 2.39
5.07 -11.28 2.39
5.30 -11.18 2.39
5.53 -11.08 2.39
5.76 -10.98 2.39
5.77 -10.48 2.31
5.78 -10.02 2.23
5.79 -9.59 2.16
5.80 -9.18 2.09
5.81 -8.80 2.03
5.81 -8.44 1.97
5.82 -8.09 1.91
5.83 -7.77 1.86
5.84 -7.46 1.82
5.84 -7.17 1.77
5.85 -6.89 1.73
5.85 -6.62 1.69
5.86 -6.37 1.65
5.87 -6.13 1.62
5.90 -5.91 1.59
5.92 -5.70 1.57
6.02 -5.57 1.56
6.20 -5.50 1.58
25.78 -17.86 5.94
25.17 -16.70 5.72
5.96 -3.79 1.34
5.97 -3.62 1.32
5.97 -3.46 1.30
6.06 -3.35 1.31
27.85 -14.69 5.94
28.41 -14.26 5.99
29.33 -14.00 6.12
30.22 -13.68 6.24
31.35 -13.44 6.41
32.26 -13.07 6.54
33.02 -12.61 6.63
33.83 -12.15 6.74
36.74 -12.37 7.26
40.50 -12.74 7.94
33.68 -7.69 6.44
32.45 -6.73 6.18
32.17 -6.00 6.09
31.90 -5.29 6.01
31.58 -4.58 5.93
31.20 -3.89 5.84
30.82 -3.22 5.75
29.74 -2.50 5.53
28.02 -1.79 5.20
26.77 -1.17 4.96
25.18 -0.60 4.66
23.51 -0.09 4.35
22.15 0.36 4.09
21.09 0.77 3.89
20.19 1.14 3.73
19.46 1.49 3.60
19.11 1.85 3.54
18.81 2.20 3.48
18.53 2.55 3.44
18.32 2.89 3.41
18.10 3.23 3.38
17.89 3.57 3.35
17.75 3.91 3.33
17.61 4.25 3.32
17.47 4.59 3.31
17.33 4.93 3.30
17.21 5.27 3.29
17.09 5.61 3.29
16.93 5.94 3.28
16.75 6.25 3.26
16.57 6.57 3.25
16.37 6.87 3.24
16.18 7.18 3.22
15.98 7.47 3.21
15.77 7.77 3.20
15.56 8.05 3.19
6.40 3.48 1.32
6.13 3.49 1.28
6.13 3.66 1.30
6.13 3.83 1.31
6.14 4.00 1.33
14.15 9.64 3.10
13.90 9.88 3.09
13.68 10.14 3.08
13.46 10.40 3.08
13.23 10.66 3.07
12.99 10.91 3.07
12.76 11.15 3.06
6.46 5.88 1.58
6.28 5.95 1.56
6.18 6.09 1.57
6.17 6.33 1.60
6.15 6.58 1.63
6.15 6.85 1.66
6.16 7.14 1.70
6.17 7.44 1.74
6.10 7.67 1.77
5.98 7.84 1.78
5.99 8.18 1.83
6.00 8.55 1.88
6.01 8.94 1.94
6.03 9.36 2.01
6.04 9.82 2.08
6.06 10.30 2.15
6.09 10.84 2.24
6.10 11.38 2.33
6.03 11.82 2.39
5.79 11.94 2.39
5.55 12.05 2.39
5.31 12.16 2.39
5.06 12.26 2.39
4.82 12.36 2.39
4.57 12.46 2.39
4.32 12.54 2.39
4.06 12.63 2.39
3.81 12.71 2.39
3.55 12.78 2.39
3.30 12.84 2.39
3.04 12.91 2.39
2.78 12.96 2.39
2.52 13.01 2.39
2.25 13.06 2.39
2.08 13.66 2.49
1.80 13.70 2.49
1.53 13.73 2.49
1.25 13.75 2.49
0.98 13.77 2.49
0.70 13.78 2.49
0.42 13.79 2.49
0.15 13.79 2.49
-0.13 13.79 2.49
-0.41 13.78 2.49
-0.68 13.76 2.49
-0.96 13.74 2.49
-1.23 13.71 2.49
-1.51 13.68 2.49
-1.78 13.64 2.49
-2.05 13.60 2.49
-2.32 13.55 2.49
-2.59 13.49 2.49
-2.86 13.43 2.49
-3.13 13.36 2.49
-3.39 13.29 2.49
-3.66 13.21 2.49
-3.92 13.13 2.49
-4.18 13.04 2.49
-4.44 12.94 2.49
-4.69 12.85 2.49
-4.95 12.74 2.49
-5.20 12.63 2.49
-5.45 12.52 2.49
-5.69 12.40 2.49
-5.92 12.23 2.48
-5.94 11.68 2.40
-6.15 11.51 2.39
-6.38 11.38 2.39
-6.60 11.24 2.39
-6.82 11.10 2.39
-7.03 10.95 2.39
-7.25 10.80 2.39
-7.46 10.65 2.39
-7.66 10.49 2.39
-7.87 10.32 2.39
-8.07 10.15 2.39
-8.26 9.98 2.39
-8.45 9.81 2.39
-8.64 9.63 2.39
-8.83 9.45 2.39
-9.01 9.26 2.39
-9.18 9.07 2.39
-9.36 8.88 2.39
-9.52 8.68 2.39
-9.69 8.48 2.39
-9.85 8.28 2.39
-9.91 7.99 2.37
-9.92 7.68 2.33
-9.92 7.37 2.30
-9.93 7.07 2.27
-9.94 6.78 2.24
-9.94 6.49 2.22
-9.95 6.22 2.19
-9.95 5.95 2.17
-9.96 5.68 2.15
-9.97 5.42 2.12
-9.97 5.17 2.11
-9.98 4.92 2.09
-9.98 4.68 2.07
-9.99 4.44 2.05
-9.99 4.20 2.04
-10.00 3.97 2.02
-10.00 3.74 2.01
-10.01 3.51 2.00
-10.01 3.29 1.99
-10.02 3.07 1.98
-10.02 2.85 1.97
-10.03 2.64 1.96
-10.03 2.43 1.95
-10.04 2.22 1.95
-10.04 2.01 1.94
-10.05 1.80 1.94
-10.05 1.59 1.93
-10.06 1.39 1.93
-10.06 1.18 1.93
-10.07 0.98 1.93
-10.07 0.77 1.92
-10.07 0.57 1.92
-10.08 0.37 1.92
-10.08 0.17 1.93
-10.09 -0.04 1.93
-10.09 -0.24 1.93
-10.10 -0.44 1.93
-10.10 -0.65 1.94
-10.11 -0.85 1.94
-10.11 -1.06 1.95
-10.12 -1.26 1.96
-10.12 -1.47 1.96
-10.12 -1.68 1.97
-10.13 -1.89 1.98
-10.13 -2.10 1.99
-10.14 -2.32 2.00
-10.14 -2.53 2.02
-10.15 -2.75 2.03
-10.15 -2.97 2.04
-10.16 -3.20 2.06
-10.16 -3.43 2.07
-10.17 -3.66 2.09
-10.17 -3.89 2.11
-10.18 -4.13 2.13
-10.18 -4.37 2.15
-10.19 -4.62 2.17
-10.20 -4.87 2.19
-10.20 -5.13 2.22
-10.21 -5.39 2.24
-6.49 -3.60 1.44
-10.22 -5.93 2.30
-10.23 -6.22 2.33
-10.23 -6.50 2.36
-10.23 -6.80 2.39
-10.09 -7.00 2.39
-9.94 -7.20 2.39
-9.79 -7.39 2.39
-9.64 -7.58 2.39
-9.48 -7.77 2.39
-6.74 -5.75 1.73
-9.15 -8.14 2.39
-8.98 -8.32 2.39
-6.48 -6.25 1.76
-6.45 -6.48 1.79
-6.46 -6.75 1.83
-6.48 -7.05 1.87
-6.50 -7.37 1.92
-6.49 -7.66 1.96
-6.49 -7.97 2.01
-6.52 -8.36 2.07
-6.72 -8.98 2.19
-7.12 -9.92 2.39
-6.71 -9.76 2.32
-6.72 -10.20 2.39
-6.51 -10.33 2.39
-6.43 -10.67 2.44
-6.35 -11.04 2.49
-6.13 -11.16 2.49
-5.90 -11.28 2.49
-5.67 -11.40 2.49
-5.44 -11.51 2.49
-5.21 -11.62 2.49
-4.97 -11.72 2.49
-4.74 -11.82 2.49
-4.50 -11.91 2.49
-4.26 -12.00 2.49
-4.02 -12.08 2.49
-3.77 -12.16 2.49
-3.53 -12.24 2.49
-3.28 -12.31 2.49
-3.04 -12.37 2.49
-2.79 -12.43 2.49
-2.54 -12.49 2.49
-2.29 -12.54 2.49
-2.03 -12.58 2.49
-1.78 -12.62 2.49
-1.53 -12.66 2.49
-1.27 -12.69 2.49
-1.02 -12.72 2.49
-0.76 -12.74 2.49
-0.51 -12.75 2.49
-0.25 -12.77 2.49
0.01 -11.40 2.49
0.24 -11.40 2.49
0.47 -11.40 2.49
0.70 -11.39 2.49
0.92 -11.38 2.49
1.15 -11.36 2.49
1.38 -11.34 2.49
1.60 -11.28 2.48
1.76 -10.82 2.39
1.69 -9.19 2.04
1.72 -8.42 1.87
1.82 -8.06 1.80
1.99 -8.09 1.81
2.84 -10.61 2.39
3.06 -10.55 2.39
3.27 -10.50 2.39
3.48 -10.43 2.39
3.69 -10.37 2.39
3.90 -10.29 2.39
4.11 -10.22 2.39
4.32 -10.14 2.39
4.52 -10.06 2.39
4.73 -9.97 2.39
4.93 -9.88 2.39
5.13 -9.78 2.39
5.33 -9.68 2.39
5.53 -9.58 2.39
5.79 -9.58 2.42
5.80 -9.18 2.34
5.81 -8.79 2.27
5.81 -8.43 2.21
5.82 -8.09 2.15
5.83 -7.77 2.09
5.84 -7.46 2.04
5.84 -7.17 1.99
5.85 -6.89 1.94
5.85 -6.62 1.90
5.86 -6.36 1.86
5.87 -6.12 1.82
5.87 -5.88 1.78
5.88 -5.66 1.75
5.88 -5.44 1.71
5.89 -5.23 1.68
5.89 -5.02 1.65
5.93 -4.85 1.64
6.03 -4.73 1.64
6.12 -4.62 1.64
6.22 -4.49 1.64
6.31 -4.37 1.64
24.39 -16.18 6.23
5.96 -3.79 1.50
5.97 -3.62 1.48
5.97 -3.46 1.47
6.06 -3.35 1.47
26.78 -14.12 6.42
27.34 -13.72 6.48
27.84 -13.28 6.53
28.30 -12.81 6.57
28.77 -12.33 6.61
29.32 -11.88 6.68
29.81 -11.38 6.73
30.26 -10.86 6.78
30.30 -10.20 6.74
30.30 -9.52 6.69
30.29 -8.86 6.64
30.28 -8.20 6.59
6.02 -1.50 1.30
6.02 -1.37 1.30
6.02 -1.25 1.29
6.02 -1.12 1.28
29.50 -4.88 6.26
28.76 -4.17 6.08
28.01 -3.49 5.90
27.29 -2.85 5.73
26.12 -2.19 5.47
25.00 -1.60 5.23
23.50 -1.03 4.91
22.01 -0.52 4.59
20.95 -0.07 4.36
20.10 0.33 4.18
19.39 0.71 4.03
18.70 1.06 3.89
18.14 1.39 3.78
17.80 1.73 3.71
17.62 2.07 3.68
6.23 0.86 1.30
6.07 0.96 1.27
6.07 1.09 1.28
6.08 1.21 1.28
6.08 1.34 1.29
16.58 4.01 3.52
16.45 4.33 3.51
16.31 4.64 3.50
16.17 4.95 3.49
16.03 5.26 3.48
15.88 5.57 3.47
15.70 5.87 3.45
15.51 6.15 3.43
15.32 6.43 3.42
15.13 6.71 3.40
14.93 6.99 3.39
14.74 7.26 3.37
14.53 7.52 3.36
6.40 3.48 1.49
6.13 3.49 1.45
6.13 3.66 1.46
6.13 3.83 1.48
6.14 4.00 1.50
13.12 8.94 3.25
6.51 4.63 1.64
6.42 4.76 1.64
6.33 4.89 1.64
6.23 5.02 1.64
6.13 5.15 1.64
6.12 5.35 1.66
6.13 5.58 1.69
6.13 5.81 1.72
6.14 6.05 1.76
6.14 6.31 1.80
6.15 6.57 1.83
6.15 6.85 1.88
6.16 7.14 1.92
6.17 7.44 1.97
6.10 7.67 2.00
5.98 7.84 2.01
5.99 8.18 2.07
6.00 8.55 2.13
6.01 8.94 2.19
6.03 9.36 2.27
6.04 9.82 2.35
5.95 10.12 2.39
5.75 10.24 2.39
5.54 10.35 2.39
5.34 10.46 2.39
5.13 10.57 2.39
4.91 10.67 2.39
4.70 10.77 2.39
4.48 10.86 2.39
4.26 10.94 2.39
4.04 11.03 2.39
3.82 11.11 2.39
3.60 11.18 2.39
3.37 11.25 2.39
3.15 11.31 2.39
2.92 11.37 2.39
2.69 11.43 2.39
2.46 11.48 2.39
2.23 11.52 2.39
2.08 12.06 2.49
1.84 12.10 2.49
1.60 12.13 2.49
1.35 12.16 2.49
1.11 12.18 2.49
0.86 12.20 2.49
0.62 12.21 2.49
0.38 12.21 2.49
0.13 12.21 2.49
-0.11 12.21 2.49
-0.36 12.20 2.49
-0.60 12.19 2.49
-0.85 12.17 2.49
-1.09 12.15 2.49
-1.33 12.12 2.49
-1.58 12.08 2.49
-1.82 12.04 2.49
-2.06 12.00 2.49
-2.30 11.95 2.49
-2.53 11.90 2.49
-2.77 11.84 2.49
-3.01 11.78 2.49
-3.24 11.71 2.49
-3.47 11.63 2.49
-3.70 11.56 2.49
-3.93 11.47 2.49
-4.16 11.39 2.49
-4.38 11.29 2.49
-4.61 11.20 2.49
-4.83 11.10 2.49
-5.05 10.99 2.49
-5.26 10.88 2.49
-5.48 10.77 2.49
-5.69 10.65 2.49
-5.90 10.53 2.49
-5.97 10.17 2.44
-6.05 9.84 2.39
-6.24 9.72 2.39
-6.43 9.58 2.39
-6.61 9.45 2.39
-6.80 9.30 2.39
-6.98 9.16 2.39
-7.16 9.01 2.39
-7.33 8.86 2.39
-7.50 8.71 2.39
-7.67 8.55 2.39
-6.18 6.62 1.89
-6.17 6.35 1.84
-6.17 6.10 1.81
-6.18 5.87 1.78
-6.21 5.66 1.76
-8.60 7.53 2.39
-8.75 7.35 2.39
-8.89 7.17 2.39
-9.02 6.99 2.39
-9.15 6.80 2.39
-9.28 6.61 2.39
-9.40 6.42 2.39
-9.52 6.22 2.39
-9.64 6.03 2.39
-9.75 5.83 2.39
-9.86 5.63 2.39
-9.96 5.42 2.39
-9.97 5.17 2.37
-9.98 4.92 2.35
-9.98 4.68 2.33
-9.99 4.44 2.31
-9.99 4.20 2.29
-10.00 3.97 2.28
-10.00 3.74 2.26
-10.01 3.52 2.25
-10.01 3.29 2.24
-10.02 3.07 2.22
-10.02 2.86 2.21
-10.03 2.64 2.20
-10.03 2.43 2.20
-10.04 2.22 2.19
-10.04 2.01 2.18
-10.05 1.80 2.18
-10.05 1.59 2.17
-10.06 1.39 2.17
-10.06 1.18 2.16
-10.07 0.98 2.16
-10.07 0.78 2.16
-10.07 0.57 2.16
-10.08 0.37 2.16
-10.08 0.17 2.16
-10.09 -0.04 2.16
-10.09 -0.24 2.17
-10.10 -0.44 2.17
-10.10 -0.65 2.18
-10.11 -0.85 2.18
-10.11 -1.05 2.19
-10.12 -1.26 2.20
-10.12 -1.47 2.20
-10.12 -1.68 2.21
-10.13 -1.89 2.22
-10.13 -2.10 2.24
-10.14 -2.32 2.25
-10.14 -2.53 2.26
-10.15 -2.75 2.28
-10.15 -2.97 2.29
-10.16 -3.20 2.31
-10.16 -3.42 2.32
-10.17 -3.66 2.34
-10.17 -3.89 2.36
-10.18 -4.13 2.38
-10.11 -4.34 2.39
-10.02 -4.54 2.39
-9.92 -4.74 2.39
-9.82 -4.93 2.39
-9.71 -5.13 2.39
-6.49 -3.60 1.62
-9.49 -5.51 2.39
-9.37 -5.70 2.39
-9.25 -5.88 2.39
-9.13 -6.06 2.39
-9.00 -6.24 2.39
-8.87 -6.42 2.39
-6.44 -4.86 1.76
-6.42 -5.05 1.78
-6.43 -5.27 1.82
-6.44 -5.50 1.85
-6.46 -5.75 1.89
-6.47 -5.99 1.93
-6.46 -6.23 1.96
-6.45 -6.48 2.00
-6.46 -6.75 2.05
-7.39 -8.04 2.39
-7.22 -8.18 2.39
-7.06 -8.32 2.39
-6.78 -8.33 2.35
-6.71 -8.60 2.39
-6.54 -8.73 2.39
-6.40 -8.91 2.40
-6.40 -9.30 2.47
-6.26 -9.50 2.49
-6.06 -9.62 2.49
-5.87 -9.74 2.49
-5.67 -9.85 2.49
-5.47 -9.97 2.49
-5.27 -10.07 2.49
-5.06 -10.18 2.49
-4.86 -10.28 2.49
-4.65 -10.37 2.49
-4.44 -10.46 2.49
-4.23 -10.55 2.49
-4.02 -10.63 2.49
-3.80 -10.71 2.49
-3.59 -10.79 2.49
-3.37 -10.86 2.49
-3.15 -10.92 2.49
-2.93 -10.99 2.49
-2.71 -11.04 2.49
-2.49 -11.10 2.49
-2.26 -11.15 2.49
-2.04 -11.19 2.49
-1.82 -11.23 2.49
-1.59 -11.27 2.49
-1.36 -11.30 2.49
-1.14 -11.33 2.49
-0.91 -11.35 2.49
-0.68 -11.37 2.49
-0.45 -11.39 2.49
-0.22 -11.40 2.49
0.01 -10.29 2.49
0.21 -10.29 2.49
0.42 -10.28 2.49
0.63 -10.28 2.49
0.83 -10.26 2.49
1.04 -10.25 2.49
1.25 -10.23 2.49
1.45 -10.20 2.49
1.63 -10.02 2.45
1.79 -9.73 2.39
1.95 -9.52 2.35
1.75 -7.75 1.92
1.75 -7.11 1.77
2.02 -7.52 1.88
2.76 -9.52 2.39
2.95 -9.46 2.39
3.14 -9.41 2.39
3.33 -9.34 2.39
3.52 -9.28 2.39
3.71 -9.21 2.39
3.89 -9.14 2.39
4.08 -9.06 2.39
4.26 -8.99 2.39
4.44 -8.90 2.39
4.63 -8.82 2.39
4.80 -8.73 2.39
4.98 -8.63 2.39
5.16 -8.53 2.39
5.33 -8.43 2.39
5.50 -8.33 2.39
5.67 -8.22 2.39
5.82 -8.09 2.38
5.83 -7.76 2.32
5.84 -7.46 2.26
5.84 -7.16 2.21
5.85 -6.88 2.15
5.85 -6.62 2.11
5.86 -6.36 2.06
5.87 -6.12 2.02
5.87 -5.88 1.98
5.88 -5.65 1.94
5.88 -5.44 1.90
5.89 -5.22 1.87
5.89 -5.02 1.84
5.89 -4.82 1.81
5.90 -4.63 1.78
5.90 -4.45 1.75
5.91 -4.27 1.72
5.91 -4.09 1.70
5.91 -3.92 1.68
5.92 -3.75 1.66
5.92 -3.59 1.64
5.94 -3.44 1.62
5.95 -3.29 1.60
6.02 -3.17 1.60
6.16 -3.09 1.62
6.27 -2.99 1.64
6.34 -2.87 1.64
27.37 -11.73 7.00
27.65 -11.19 7.00
27.83 -10.62 6.99
27.90 -10.01 6.95
28.01 -9.42 6.93
28.12 -8.83 6.90
28.09 -8.21 6.85
28.11 -7.60 6.81
6.02 -1.50 1.45
6.02 -1.37 1.44
6.02 -1.25 1.43
6.02 -1.12 1.43
26.90 -4.45 6.35
26.27 -3.81 6.18
25.67 -3.19 6.02
25.05 -2.61 5.86
23.68 -1.99 5.52
22.27 -1.42 5.18
20.97 -0.91 4.87
19.95 -0.47 4.63
19.24 -0.07 4.46
18.57 0.31 4.30
18.05 0.66 4.18
17.57 1.00 4.07
17.11 1.32 3.97
16.70 1.62 3.88
16.54 1.94 3.85
6.23 0.86 1.45
6.07 0.96 1.42
6.07 1.09 1.42
6.08 1.21 1.43
6.08 1.34 1.43
