ply
format ascii 1.0
element vertex 2854
property float32 x
property float32 y
property float32 z
end_header
10.70 -19.49 3.66
11.09 -19.28 3.66
11.47 -19.05 3.66
11.84 -18.79 3.66
10.36 -15.74 3.10
10.19 -14.82 2.96
10.22 -14.25 2.89
10.38 -13.88 2.86
9.67 -12.40 2.59
10.11 -12.44 2.64
10.54 -12.44 2.69
9.72 -11.02 2.42
9.86 -10.74 2.40
10.24 -10.72 2.44
10.66 -10.72 2.49
10.87 -10.49 2.49
10.02 -9.30 2.25
10.33 -9.20 2.28
10.75 -9.20 2.33
11.20 -9.20 2.39
11.56 -9.11 2.42
10.32 -7.81 2.13
10.16 -7.36 2.07
10.21 -7.10 2.05
10.21 -6.80 2.02
10.19 -6.49 1.99
10.30 -6.27 1.99
10.39 -6.04 1.98
10.72 -5.95 2.02
10.94 -5.79 2.04
11.05 -5.57 2.04
11.54 -5.53 2.11
12.15 -5.52 2.20
12.65 -5.45 2.27
11.71 -4.77 2.08
11.49 -4.41 2.03
11.60 -4.18 2.03
11.82 -4.00 2.06
12.65 -4.00 2.19
12.65 -3.72 2.17
12.65 -3.45 2.16
12.65 -3.18 2.15
12.65 -2.91 2.14
12.65 -2.64 2.13
12.65 -2.38 2.12
12.65 -2.11 2.11
12.65 -1.85 2.11
12.65 -1.60 2.10
12.65 -1.34 2.10
12.65 -1.08 2.09
12.65 -0.83 2.09
12.65 -0.57 2.09
12.65 -0.32 2.08
12.65 -0.06 2.08
12.65 0.19 2.08
12.65 0.44 2.09
12.65 0.70 2.09
22.17 1.67 3.66
22.13 2.12 3.66
22.09 2.56 3.66
22.03 3.00 3.66
21.97 3.45 3.66
21.89 3.89 3.66
21.81 4.32 3.66
21.72 4.76 3.66
21.62 5.20 3.66
21.51 5.63 3.66
21.45 6.08 3.67
21.33 6.51 3.67
21.19 6.93 3.67
21.05 7.36 3.67
20.90 7.78 3.67
20.74 8.20 3.67
20.57 8.61 3.67
20.39 9.02 3.67
20.21 9.43 3.67
20.01 9.83 3.67
19.81 10.23 3.67
19.60 10.63 3.67
19.39 11.02 3.67
19.16 11.41 3.67
18.93 11.79 3.67
18.62 12.12 3.66
18.37 12.49 3.66
18.12 12.86 3.66
17.86 13.22 3.66
17.59 13.58 3.66
17.02 13.69 3.60
17.01 14.26 3.66
10.91 9.52 2.39
10.48 9.52 2.33
10.06 9.52 2.28
15.83 15.59 3.66
15.95 16.36 3.76
15.62 16.67 3.76
15.28 16.98 3.76
14.94 17.29 3.76
14.59 17.58 3.76
14.23 17.87 3.76
13.87 18.15 3.76
13.50 18.43 3.76
13.13 18.70 3.76
12.75 18.96 3.76
12.37 19.21 3.76
11.98 19.45 3.76
8.11 13.78 2.63
11.19 19.92 3.76
10.79 20.14 3.76
10.38 20.35 3.76
2.36 4.87 0.89
9.56 20.75 3.76
9.14 20.94 3.76
8.72 21.12 3.76
8.29 21.29 3.76
7.86 21.45 3.76
7.43 21.60 3.76
6.99 21.75 3.76
6.56 21.88 3.76
6.12 22.01 3.76
5.67 22.13 3.76
5.23 22.24 3.76
4.78 22.34 3.76
4.33 22.43 3.76
3.88 22.51 3.76
3.43 22.59 3.76
2.97 22.65 3.76
2.52 22.71 3.76
2.06 22.75 3.76
1.60 22.79 3.76
1.15 22.82 3.76
0.69 22.83 3.76
0.23 22.84 3.76
-0.23 22.84 3.76
-0.69 22.83 3.76
-1.15 22.82 3.76
-1.60 22.79 3.76
-2.06 22.75 3.76
-2.52 22.71 3.76
-2.97 22.65 3.76
-3.43 22.59 3.76
-3.88 22.51 3.76
-4.33 22.43 3.76
-4.78 22.34 3.76
-5.23 22.24 3.76
-5.67 22.13 3.76
-6.00 21.58 3.69
-6.38 21.28 3.66
-6.80 21.15 3.66
-7.23 21.01 3.66
-7.65 20.86 3.66
-8.06 20.70 3.66
-8.48 20.54 3.66
-8.89 20.36 3.66
-9.29 20.18 3.66
-9.70 19.99 3.66
-9.97 19.54 3.61
-9.97 18.61 3.48
-9.97 17.74 3.35
-9.97 16.94 3.24
-9.97 16.19 3.13
-9.97 15.48 3.03
-9.97 14.82 2.94
-9.97 14.20 2.86
-10.13 13.83 2.82
-40.49 27.53 8.07
-41.00 26.69 8.06
-41.37 25.77 8.03
-42.31 25.19 8.11
-46.75 11.23 7.92
-46.46 10.18 7.84
-30.89 6.12 5.19
-28.31 5.03 4.74
-26.77 4.20 4.46
-25.66 3.50 4.27
-21.02 2.44 3.49
-20.71 1.98 3.43
-20.40 1.54 3.37
-20.06 1.11 3.31
-19.60 0.69 3.23
-19.18 0.29 3.16
-18.86 -0.09 3.11
-18.56 -0.47 3.06
-18.25 -0.82 3.01
-17.84 -1.17 2.94
-17.44 -1.49 2.88
-17.07 -1.81 2.83
-16.77 -2.12 2.79
-16.48 -2.42 2.74
-16.19 -2.71 2.70
-15.92 -2.99 2.67
-15.65 -3.27 2.63
-15.39 -3.54 2.60
-15.14 -3.80 2.57
-14.93 -4.07 2.55
-14.74 -4.33 2.53
-14.54 -4.59 2.51
-14.34 -4.85 2.49
-14.18 -5.12 2.48
-14.03 -5.38 2.48
-13.87 -5.64 2.47
-13.72 -5.90 2.46
-13.56 -6.16 2.45
-13.41 -6.42 2.45
-13.25 -6.68 2.44
-13.10 -6.94 2.44
-13.06 -7.25 2.46
-13.01 -7.57 2.48
-12.96 -7.89 2.50
-12.90 -8.22 2.52
-12.85 -8.55 2.54
-12.79 -8.89 2.57
-12.73 -9.23 2.59
-12.71 -9.61 2.62
-12.69 -10.00 2.66
-12.67 -10.41 2.70
-12.66 -10.82 2.74
-12.60 -11.23 2.78
-12.54 -11.63 2.82
-12.53 -12.10 2.87
-12.52 -12.58 2.92
-12.50 -13.07 2.98
-12.42 -13.53 3.03
-12.53 -14.21 3.12
-12.75 -15.06 3.25
-12.61 -15.51 3.29
-12.49 -16.01 3.35
-12.37 -16.53 3.40
-12.24 -17.06 3.46
-12.06 -17.54 3.51
-11.87 -18.03 3.56
-11.67 -18.53 3.61
-11.45 -19.02 3.66
-11.27 -19.60 3.73
-11.09 -20.21 3.80
-10.79 -20.64 3.84
-9.90 -19.89 3.66
-9.50 -20.09 3.66
-9.09 -20.27 3.66
-8.68 -20.45 3.66
-6.50 -16.21 2.88
-7.85 -20.78 3.66
-7.44 -20.94 3.66
-7.01 -21.08 3.66
-6.59 -21.22 3.66
-6.16 -21.35 3.66
-5.89 -22.07 3.76
-5.45 -22.19 3.76
-5.00 -22.29 3.76
-4.56 -22.39 3.76
-4.10 -22.47 3.76
-3.65 -22.55 3.76
-3.20 -22.62 3.76
-2.74 -22.68 3.76
-2.29 -22.73 3.76
-1.83 -22.77 3.76
-1.37 -22.80 3.76
-0.92 -22.83 3.76
-0.46 -22.84 3.76
-0.00 -20.02 3.76
0.40 -20.02 3.76
0.80 -20.01 3.76
1.21 -19.99 3.76
1.61 -19.96 3.76
2.01 -19.92 3.76
2.34 -19.33 3.66
2.73 -19.28 3.66
3.11 -19.22 3.66
3.50 -19.16 3.66
3.88 -19.08 3.66
4.27 -19.00 3.66
4.65 -18.91 3.66
5.02 -18.81 3.66
5.40 -18.71 3.66
5.78 -18.60 3.66
6.15 -18.49 3.66
6.52 -18.36 3.66
6.89 -18.23 3.66
7.25 -18.09 3.66
7.62 -17.94 3.66
7.97 -17.78 3.66
8.33 -17.62 3.66
8.68 -17.45 3.66
9.03 -17.27 3.66
9.37 -17.09 3.66
9.72 -16.89 3.66
10.05 -16.70 3.66
10.39 -16.49 3.66
10.36 -15.74 3.54
10.19 -14.82 3.38
8.96 -12.49 2.89
9.28 -12.40 2.91
9.70 -12.44 2.97
10.11 -12.44 3.01
9.34 -11.04 2.72
9.53 -10.81 2.71
9.84 -10.72 2.73
10.24 -10.72 2.79
10.52 -10.57 2.80
9.62 -9.29 2.51
9.92 -9.20 2.54
10.33 -9.20 2.60
10.75 -9.20 2.66
11.20 -9.20 2.72
11.56 -9.11 2.77
10.32 -7.81 2.43
10.14 -7.35 2.35
10.05 -6.98 2.30
10.13 -6.74 2.29
10.19 -6.49 2.27
10.30 -6.27 2.27
10.39 -6.04 2.26
10.61 -5.89 2.28
10.84 -5.74 2.30
11.11 -5.60 2.34
11.54 -5.53 2.41
12.15 -5.52 2.51
11.16 -4.80 2.28
11.06 -4.50 2.25
11.05 -4.24 2.22
11.17 -4.03 2.23
11.28 -3.82 2.24
11.49 -3.63 2.27
11.95 -3.52 2.34
12.65 -3.45 2.46
12.65 -3.18 2.45
12.65 -2.91 2.44
12.65 -2.64 2.43
12.65 -2.38 2.42
12.65 -2.11 2.41
12.65 -1.85 2.40
12.65 -1.60 2.40
12.65 -1.34 2.39
12.65 -1.08 2.39
12.65 -0.83 2.38
12.65 -0.57 2.38
12.65 -0.32 2.38
12.65 -0.06 2.38
12.65 0.19 2.38
12.65 0.44 2.38
12.65 0.70 2.38
18.33 1.38 3.46
18.30 1.75 3.46
18.26 2.12 3.46
18.21 2.48 3.46
19.25 3.02 3.66
19.19 3.41 3.66
19.12 3.79 3.66
19.04 4.17 3.66
18.95 4.55 3.66
18.85 4.93 3.66
18.75 5.31 3.66
18.64 5.69 3.66
18.58 6.08 3.67
18.45 6.45 3.67
18.32 6.82 3.67
18.18 7.18 3.67
18.03 7.55 3.67
17.87 7.91 3.67
17.71 8.26 3.67
17.54 8.62 3.67
17.36 8.97 3.67
17.18 9.32 3.67
16.99 9.66 3.67
16.79 10.00 3.67
16.59 10.33 3.67
16.38 10.66 3.67
16.16 10.99 3.67
15.94 11.31 3.67
15.71 11.63 3.67
15.41 11.90 3.66
15.17 12.21 3.66
14.92 12.51 3.66
10.91 9.52 2.72
10.48 9.52 2.66
10.06 9.52 2.60
13.87 13.67 3.66
13.60 13.94 3.66
13.31 14.21 3.66
13.03 14.48 3.66
12.73 14.73 3.66
12.43 14.99 3.66
12.13 15.23 3.66
11.82 15.47 3.66
11.51 15.71 3.66
11.51 16.39 3.76
11.18 16.61 3.76
10.84 16.83 3.76
10.50 17.05 3.76
8.13 13.82 3.01
9.81 17.46 3.76
9.46 17.65 3.76
9.10 17.84 3.76
2.36 4.87 1.02
8.38 18.19 3.76
8.01 18.35 3.76
7.64 18.51 3.76
7.26 18.65 3.76
6.89 18.79 3.76
6.51 18.93 3.76
6.13 19.06 3.76
5.74 19.17 3.76
5.36 19.29 3.76
4.97 19.39 3.76
4.58 19.49 3.76
4.19 19.57 3.76
3.79 19.65 3.76
3.40 19.73 3.76
3.00 19.79 3.76
2.60 19.85 3.76
2.21 19.89 3.76
1.81 19.94 3.76
1.41 19.97 3.76
1.00 20.00 3.76
0.60 20.01 3.76
0.20 20.02 3.76
-0.20 20.02 3.76
-0.60 20.01 3.76
-1.00 20.00 3.76
-1.41 19.97 3.76
-1.81 19.94 3.76
-2.21 19.90 3.76
-2.61 19.85 3.76
-3.00 19.80 3.76
-3.40 19.73 3.76
-3.80 19.66 3.76
-4.19 19.58 3.76
-4.58 19.49 3.76
-4.97 19.40 3.76
-5.36 19.29 3.76
-5.75 19.18 3.76
-6.00 18.64 3.68
-6.33 18.42 3.66
-6.70 18.28 3.66
-7.07 18.15 3.66
-7.43 18.00 3.66
-7.79 17.85 3.66
-8.15 17.69 3.66
-8.50 17.52 3.66
-8.85 17.35 3.66
-9.20 17.17 3.66
-9.54 16.98 3.66
-9.88 16.78 3.66
-9.97 16.19 3.57
-9.97 15.48 3.46
-9.97 14.82 3.36
-9.97 14.20 3.26
-9.97 13.61 3.17
-9.97 13.05 3.09
-9.97 12.52 3.01
-9.97 12.02 2.93
-9.97 11.54 2.87
-10.02 11.14 2.82
-37.45 28.91 8.89
-37.41 27.70 8.75
-37.81 26.84 8.72
-38.22 25.99 8.69
-38.73 25.22 8.69
-39.41 24.55 8.73
-40.24 23.95 8.80
-41.07 23.35 8.88
-41.88 22.71 8.95
-42.72 22.06 9.04
-43.50 21.37 9.11
-44.47 20.75 9.22
-47.48 12.42 9.22
-47.78 11.48 9.24
-29.06 6.37 5.59
-27.69 5.49 5.31
-20.28 3.60 3.87
-19.41 3.04 3.69
-19.26 2.63 3.65
-19.11 2.22 3.62
-18.95 1.81 3.58
-18.80 1.42 3.54
-18.63 1.03 3.51
-18.43 0.65 3.47
-18.24 0.27 3.43
-17.96 -0.09 3.38
-17.68 -0.44 3.33
-17.41 -0.79 3.28
-17.07 -1.11 3.21
-16.77 -1.43 3.16
-16.48 -1.74 3.12
-16.20 -2.04 3.07
-15.93 -2.33 3.03
-15.66 -2.62 2.98
-15.40 -2.89 2.94
-15.14 -3.16 2.91
-14.95 -3.43 2.88
-14.75 -3.70 2.86
-14.56 -3.97 2.84
-14.37 -4.23 2.81
-14.18 -4.48 2.79
-13.99 -4.73 2.78
-13.82 -4.98 2.76
-13.67 -5.24 2.75
-13.52 -5.50 2.74
-13.37 -5.75 2.73
-13.21 -6.01 2.73
-13.06 -6.26 2.72
-12.92 -6.51 2.72
-12.77 -6.76 2.72
-12.66 -7.03 2.72
-12.63 -7.35 2.75
-12.57 -7.66 2.77
-12.52 -7.97 2.79
-12.46 -8.29 2.81
-12.40 -8.62 2.84
-12.34 -8.95 2.87
-11.98 -9.06 2.82
-11.77 -9.28 2.82
-12.17 -9.99 2.96
-12.14 -10.39 3.00
-12.11 -10.79 3.05
-12.06 -11.18 3.09
-11.98 -11.56 3.13
-11.90 -11.96 3.17
-11.83 -12.37 3.22
-11.80 -12.85 3.28
-11.73 -13.30 3.33
-11.64 -13.75 3.39
-11.55 -14.20 3.44
-11.46 -14.69 3.50
-11.44 -15.28 3.59
-11.27 -15.71 3.63
-11.10 -16.15 3.68
-10.84 -16.47 3.71
-10.56 -16.77 3.73
-10.28 -17.07 3.75
-9.71 -16.88 3.66
-9.37 -17.07 3.66
-9.02 -17.26 3.66
-8.67 -17.43 3.66
-8.32 -17.61 3.66
-7.97 -17.77 3.66
-7.61 -17.92 3.66
-6.50 -16.20 3.28
-6.88 -18.22 3.66
-6.52 -18.35 3.66
-6.15 -18.48 3.66
-5.94 -19.12 3.76
-5.55 -19.24 3.76
-5.17 -19.34 3.76
-4.78 -19.44 3.76
-4.39 -19.54 3.76
-3.99 -19.62 3.76
-3.60 -19.70 3.76
-3.20 -19.77 3.76
-2.80 -19.83 3.76
-2.41 -19.88 3.76
-2.01 -19.92 3.76
-1.61 -19.96 3.76
-1.21 -19.99 3.76
-0.80 -20.01 3.76
-0.40 -20.02 3.76
-0.00 -17.80 3.76
0.36 -17.80 3.76
0.71 -17.79 3.76
1.07 -17.77 3.76
1.43 -17.75 3.76
1.78 -17.71 3.76
2.08 -17.19 3.66
2.43 -17.15 3.66
2.77 -17.09 3.66
3.11 -17.03 3.66
3.45 -16.97 3.66
3.79 -16.90 3.66
4.13 -16.82 3.66
4.47 -16.73 3.66
4.80 -16.64 3.66
5.14 -16.54 3.66
5.47 -16.43 3.66
5.80 -16.32 3.66
6.13 -16.21 3.66
6.45 -16.08 3.66
6.77 -15.95 3.66
7.09 -15.81 3.66
7.41 -15.67 3.66
7.72 -15.51 3.66
8.03 -15.36 3.66
8.34 -15.19 3.66
8.64 -15.02 3.66
8.94 -14.85 3.66
9.24 -14.66 3.66
9.53 -14.47 3.66
9.82 -14.28 3.66
9.01 -12.56 3.27
9.31 -12.44 3.28
9.70 -12.44 3.34
9.00 -11.08 3.02
9.07 -10.71 2.97
9.45 -10.71 3.02
9.84 -10.72 3.08
10.15 -10.62 3.10
9.41 -9.46 2.82
9.49 -9.16 2.79
9.92 -9.20 2.86
10.33 -9.20 2.92
10.75 -9.20 2.99
11.20 -9.20 3.06
11.56 -9.11 3.11
10.32 -7.81 2.74
10.16 -7.36 2.65
10.04 -6.97 2.58
10.08 -6.71 2.56
10.19 -6.49 2.55
10.30 -6.27 2.55
10.39 -6.04 2.54
10.57 -5.87 2.55
10.78 -5.71 2.58
11.05 -5.57 2.62
11.54 -5.53 2.71
12.15 -5.52 2.82
10.97 -4.72 2.53
10.92 -4.44 2.49
10.94 -4.20 2.48
11.06 -3.99 2.48
11.17 -3.78 2.49
11.39 -3.60 2.53
11.85 -3.48 2.61
12.65 -3.45 2.77
12.65 -3.18 2.76
12.65 -2.91 2.74
12.65 -2.64 2.73
12.65 -2.38 2.72
12.65 -2.11 2.71
12.65 -1.85 2.70
12.65 -1.60 2.70
12.65 -1.34 2.69
12.65 -1.08 2.68
12.65 -0.83 2.68
12.65 -0.57 2.68
12.65 -0.32 2.68
12.65 -0.06 2.67
12.65 0.19 2.67
12.65 0.44 2.68
12.65 0.70 2.68
16.30 1.23 3.45
16.27 1.56 3.46
16.27 1.89 3.46
16.27 2.22 3.47
16.27 2.55 3.48
17.06 3.03 3.66
17.00 3.37 3.66
16.93 3.71 3.66
16.85 4.05 3.66
16.76 4.39 3.66
16.67 4.72 3.66
16.58 5.06 3.66
16.47 5.39 3.66
16.36 5.72 3.66
16.29 6.06 3.67
16.16 6.39 3.67
16.03 6.71 3.67
15.89 7.03 3.67
15.75 7.35 3.67
15.60 7.66 3.67
15.44 7.98 3.67
15.28 8.28 3.67
15.11 8.59 3.67
14.93 8.89 3.67
14.75 9.19 3.67
14.56 9.48 3.67
14.37 9.77 3.67
14.17 10.06 3.67
13.97 10.34 3.67
13.76 10.62 3.67
13.54 10.89 3.67
13.32 11.16 3.67
10.91 9.52 3.06
10.48 9.52 2.99
10.06 9.52 2.93
12.34 12.15 3.66
12.09 12.40 3.66
11.84 12.64 3.66
11.58 12.87 3.66
11.32 13.10 3.66
11.06 13.33 3.66
10.79 13.55 3.66
10.51 13.76 3.66
10.23 13.97 3.66
9.95 14.17 3.66
9.67 14.37 3.66
9.37 14.56 3.66
9.08 14.74 3.66
8.16 13.87 3.40
8.48 15.10 3.66
8.18 15.26 3.66
7.87 15.42 3.66
2.36 4.87 1.14
7.24 15.73 3.66
7.12 16.31 3.76
6.79 16.45 3.76
6.46 16.59 3.76
6.12 16.71 3.76
5.79 16.83 3.76
5.45 16.94 3.76
5.11 17.05 3.76
4.76 17.15 3.76
4.42 17.24 3.76
4.07 17.33 3.76
3.72 17.40 3.76
3.37 17.48 3.76
3.02 17.54 3.76
2.67 17.60 3.76
2.32 17.65 3.76
1.96 17.69 3.76
1.61 17.73 3.76
1.25 17.75 3.76
0.89 17.78 3.76
0.54 17.79 3.76
0.18 17.80 3.76
-0.18 17.80 3.76
-0.54 17.79 3.76
-0.89 17.78 3.76
-1.25 17.75 3.76
-1.61 17.73 3.76
-1.96 17.69 3.76
-2.32 17.65 3.76
-2.67 17.60 3.76
-3.02 17.55 3.76
-3.37 17.48 3.76
-3.73 17.41 3.76
-4.07 17.33 3.76
-4.42 17.25 3.76
-4.77 17.15 3.76
-5.11 17.06 3.76
-5.45 16.95 3.76
-5.79 16.84 3.76
-6.00 16.37 3.69
-6.28 16.14 3.66
-6.61 16.01 3.66
-6.93 15.87 3.66
-7.24 15.73 3.66
-7.56 15.58 3.66
-7.87 15.43 3.66
-8.18 15.26 3.66
-8.48 15.10 3.66
-8.78 14.92 3.66
-9.08 14.74 3.66
-9.38 14.56 3.66
-9.67 14.37 3.66
-9.95 14.17 3.66
-9.97 13.61 3.57
-9.97 13.05 3.47
-9.97 12.52 3.38
-9.97 12.02 3.30
-9.97 11.54 3.22
-9.97 11.08 3.15
-9.97 10.64 3.08
-9.97 10.22 3.02
-9.97 9.82 2.96
-9.97 9.43 2.90
-9.97 9.06 2.85
-10.04 8.76 2.82
-10.21 8.56 2.82
-34.97 28.14 9.49
-35.34 27.28 9.44
-35.77 26.49 9.41
-36.17 25.68 9.38
-36.71 24.96 9.38
-37.33 24.30 9.42
-37.96 23.65 9.45
-38.63 23.00 9.50
-39.34 22.36 9.57
-40.10 21.74 9.64
-40.74 21.04 9.69
-41.31 20.30 9.73
-41.93 19.57 9.78
-42.53 18.82 9.83
-43.28 18.12 9.92
-44.23 17.48 10.05
-45.22 16.83 10.20
-26.97 7.06 5.89
-25.15 6.04 5.47
-18.60 4.08 4.02
-17.96 3.56 3.87
-17.55 3.11 3.77
-17.45 2.74 3.73
-17.35 2.37 3.70
-17.25 2.00 3.67
-17.13 1.64 3.64
-17.01 1.28 3.61
-16.94 0.94 3.59
-16.81 0.59 3.56
-16.68 0.25 3.53
-16.55 -0.08 3.50
-16.42 -0.41 3.47
-16.28 -0.74 3.45
-16.06 -1.05 3.40
-15.82 -1.35 3.36
-15.59 -1.65 3.31
-15.35 -1.94 3.27
-15.13 -2.22 3.23
-14.95 -2.50 3.20
-14.78 -2.78 3.18
-14.65 -3.06 3.16
-14.52 -3.34 3.15
-14.38 -3.61 3.13
-14.20 -3.87 3.11
-14.01 -4.12 3.09
-13.83 -4.37 3.07
-13.65 -4.62 3.05
-13.47 -4.86 3.03
-13.32 -5.11 3.02
-13.17 -5.36 3.01
-13.03 -5.61 3.00
-12.89 -5.86 2.99
-12.74 -6.10 2.99
-12.60 -6.35 2.98
-12.45 -6.59 2.98
-12.31 -6.83 2.98
-12.24 -7.12 2.99
-12.20 -7.43 3.02
-12.15 -7.74 3.05
-12.10 -8.05 3.07
-12.04 -8.36 3.10
-11.97 -8.68 3.13
-10.63 -8.04 2.82
-10.56 -8.32 2.84
-10.88 -8.94 2.98
-11.71 -10.02 3.26
-11.64 -10.36 3.29
-11.59 -10.75 3.34
-11.53 -11.14 3.39
-11.45 -11.51 3.43
-11.36 -11.89 3.48
-11.27 -12.27 3.52
-11.17 -12.67 3.57
-11.08 -13.08 3.62
-10.87 -13.38 3.64
-10.66 -13.67 3.66
-10.45 -13.96 3.69
-10.22 -14.25 3.71
-9.81 -14.27 3.66
-9.52 -14.46 3.66
-9.23 -14.65 3.66
-8.93 -14.83 3.66
-8.63 -15.01 3.66
-8.33 -15.18 3.66
-8.02 -15.34 3.66
-7.71 -15.50 3.66
-7.40 -15.65 3.66
-7.09 -15.80 3.66
-6.77 -15.94 3.66
-6.45 -16.07 3.66
-6.12 -16.20 3.66
-5.96 -16.78 3.76
-5.62 -16.89 3.76
-5.28 -17.00 3.76
-4.94 -17.11 3.76
-4.59 -17.20 3.76
-4.25 -17.29 3.76
-3.90 -17.37 3.76
-3.55 -17.45 3.76
-3.20 -17.51 3.76
-2.85 -17.58 3.76
-2.49 -17.63 3.76
-2.14 -17.68 3.76
-1.78 -17.71 3.76
-1.43 -17.75 3.76
-1.07 -17.77 3.76
-0.71 -17.79 3.76
-0.36 -17.80 3.76
-0.00 -16.01 3.76
0.32 -16.01 3.76
0.64 -16.00 3.76
0.96 -15.98 3.76
1.28 -15.96 3.76
1.60 -15.93 3.76
1.92 -15.90 3.76
2.18 -15.42 3.66
2.49 -15.37 3.66
2.80 -15.32 3.66
3.11 -15.26 3.66
3.41 -15.20 3.66
3.72 -15.12 3.66
4.02 -15.05 3.66
4.32 -14.96 3.66
4.62 -14.87 3.66
4.92 -14.78 3.66
5.21 -14.68 3.66
5.51 -14.57 3.66
5.80 -14.46 3.66
6.09 -14.35 3.66
6.38 -14.22 3.66
6.66 -14.09 3.66
6.94 -13.95 3.66
7.22 -13.81 3.66
7.50 -13.66 3.66
7.77 -13.51 3.66
8.04 -13.35 3.66
8.31 -13.19 3.66
8.57 -13.02 3.66
8.83 -12.84 3.66
9.03 -12.59 3.64
9.31 -12.44 3.65
9.42 -12.08 3.60
9.02 -11.09 3.36
9.07 -10.71 3.30
9.45 -10.72 3.36
9.78 -10.65 3.40
9.00 -9.42 3.06
9.15 -9.20 3.05
9.53 -9.20 3.11
9.92 -9.20 3.18
10.33 -9.20 3.25
10.75 -9.20 3.33
11.20 -9.20 3.41
11.56 -9.11 3.46
10.32 -7.81 3.04
10.16 -7.36 2.95
10.21 -7.10 2.92
10.19 -6.78 2.88
10.19 -6.49 2.84
10.30 -6.27 2.83
10.39 -6.04 2.82
10.68 -5.93 2.87
10.90 -5.77 2.90
11.05 -5.57 2.91
11.54 -5.53 3.01
12.15 -5.52 3.14
10.98 -4.72 2.81
10.92 -4.44 2.77
10.93 -4.19 2.75
11.05 -3.99 2.76
11.17 -3.78 2.77
11.39 -3.60 2.81
11.82 -3.48 2.90
12.65 -3.45 3.08
12.65 -3.18 3.07
12.65 -2.91 3.05
12.65 -2.64 3.04
12.65 -2.38 3.03
12.65 -2.11 3.01
12.65 -1.85 3.01
12.65 -1.60 3.00
12.65 -1.34 2.99
12.65 -1.08 2.98
12.65 -0.83 2.98
12.65 -0.57 2.98
12.65 -0.32 2.97
12.65 -0.06 2.97
12.65 0.19 2.97
12.65 0.44 2.98
12.65 0.70 2.98
15.54 1.17 3.66
15.52 1.48 3.66
15.48 1.79 3.66
15.44 2.11 3.66
15.40 2.41 3.66
15.35 2.72 3.66
15.29 3.03 3.66
15.22 3.34 3.66
15.15 3.64 3.66
15.08 3.95 3.66
15.00 4.25 3.66
14.91 4.55 3.66
14.81 4.85 3.66
14.71 5.14 3.66
14.61 5.44 3.66
14.49 5.73 3.66
14.38 6.02 3.66
14.29 6.32 3.67
14.16 6.61 3.67
14.03 6.89 3.67
13.89 7.17 3.67
13.74 7.45 3.67
13.59 7.72 3.67
13.43 8.00 3.67
13.27 8.26 3.67
13.10 8.53 3.67
12.92 8.79 3.67
12.75 9.05 3.67
12.56 9.30 3.67
12.37 9.55 3.67
12.18 9.80 3.67
11.98 10.04 3.67
10.88 9.50 3.40
11.57 10.51 3.67
11.35 10.74 3.67
11.14 10.97 3.67
10.91 11.19 3.67
10.69 11.41 3.67
10.45 11.62 3.67
10.22 11.83 3.67
9.94 11.99 3.66
9.70 12.18 3.66
9.45 12.38 3.66
9.20 12.56 3.66
8.95 12.74 3.66
8.69 12.92 3.66
8.43 13.09 3.66
8.17 13.26 3.66
7.90 13.42 3.66
7.63 13.58 3.66
7.35 13.73 3.66
7.08 13.87 3.66
2.36 4.87 1.27
6.51 14.15 3.66
6.23 14.27 3.66
5.94 14.40 3.66
5.65 14.51 3.66
5.36 14.62 3.66
5.06 14.73 3.66
4.90 15.24 3.76
4.59 15.33 3.76
4.29 15.42 3.76
3.97 15.51 3.76
3.66 15.58 3.76
3.35 15.65 3.76
3.03 15.72 3.76
2.72 15.78 3.76
2.40 15.83 3.76
2.08 15.87 3.76
1.76 15.91 3.76
1.44 15.94 3.76
1.12 15.97 3.76
0.80 15.99 3.76
0.48 16.00 3.76
0.16 16.01 3.76
-0.16 16.01 3.76
-0.48 16.00 3.76
-0.80 15.99 3.76
-1.12 15.97 3.76
-1.44 15.94 3.76
-1.76 15.91 3.76
-2.08 15.88 3.76
-2.40 15.83 3.76
-2.72 15.78 3.76
-3.04 15.72 3.76
-3.35 15.66 3.76
-3.66 15.59 3.76
-3.98 15.51 3.76
-4.29 15.43 3.76
-4.60 15.34 3.76
-4.90 15.24 3.76
-5.21 15.14 3.76
-5.51 15.04 3.76
-5.81 14.92 3.76
-6.00 14.54 3.70
-6.23 14.27 3.66
-6.52 14.15 3.66
-6.80 14.01 3.66
-7.08 13.87 3.66
-7.35 13.73 3.66
-7.63 13.58 3.66
-7.90 13.42 3.66
-8.17 13.26 3.66
-8.43 13.09 3.66
-8.69 12.92 3.66
-8.95 12.75 3.66
-9.21 12.56 3.66
-9.46 12.38 3.66
-9.70 12.18 3.66
-9.94 11.99 3.66
-9.97 11.54 3.58
-9.97 11.08 3.50
-9.97 10.64 3.43
-9.97 10.22 3.36
-9.97 9.82 3.29
-9.97 9.43 3.23
-9.97 9.06 3.17
-9.97 8.70 3.11
-9.97 8.36 3.06
-9.97 8.02 3.01
-9.97 7.70 2.96
-9.97 7.38 2.92
-9.97 7.08 2.87
-9.96 6.77 2.83
-10.04 6.54 2.82
-36.51 22.74 10.11
-37.20 22.14 10.17
-37.87 21.53 10.24
-38.42 20.83 10.27
-38.98 20.14 10.31
-39.54 19.43 10.35
-39.91 18.63 10.35
-40.33 17.84 10.36
-40.70 17.04 10.37
-41.02 16.21 10.37
-41.36 15.39 10.37
-41.17 14.39 10.25
-41.00 13.41 10.14
-17.95 5.48 4.41
-17.12 4.85 4.18
-16.82 4.40 4.09
-16.53 3.97 4.00
-16.25 3.56 3.91
-16.01 3.17 3.84
-15.91 2.82 3.80
-15.80 2.48 3.76
-15.68 2.14 3.72
-15.57 1.80 3.68
-15.45 1.48 3.65
-15.37 1.16 3.62
-15.35 0.85 3.61
-15.32 0.54 3.60
-15.28 0.23 3.59
-15.24 -0.08 3.58
-15.20 -0.38 3.57
-15.15 -0.68 3.56
-15.04 -0.98 3.54
-14.88 -1.27 3.51
-14.72 -1.56 3.48
-14.56 -1.84 3.45
-14.41 -2.11 3.42
-14.25 -2.38 3.40
-14.09 -2.65 3.37
-13.94 -2.91 3.35
-13.82 -3.18 3.33
-13.71 -3.44 3.32
-13.58 -3.70 3.31
-13.46 -3.96 3.30
-13.34 -4.21 3.29
-13.21 -4.47 3.28
-13.08 -4.72 3.27
-12.98 -4.98 3.27
-12.85 -5.23 3.26
-12.71 -5.47 3.25
-12.57 -5.71 3.25
-12.43 -5.96 3.24
-12.29 -6.19 3.24
-12.15 -6.43 3.23
-12.01 -6.67 3.23
-11.87 -6.91 3.23
-11.83 -7.20 3.25
-10.17 -6.47 2.83
-9.98 -6.64 2.82
-9.97 -6.93 2.85
-9.99 -7.24 2.90
-10.26 -7.76 3.02
-10.56 -8.32 3.16
-10.88 -8.94 3.31
-11.35 -9.71 3.51
-11.28 -10.04 3.55
-11.20 -10.39 3.59
-11.12 -10.73 3.63
-10.99 -11.04 3.66
-10.80 -11.30 3.67
-10.61 -11.56 3.69
-10.41 -11.81 3.70
-10.22 -12.06 3.72
-9.82 -12.09 3.66
-9.58 -12.28 3.66
-9.33 -12.47 3.66
-9.08 -12.65 3.66
-8.82 -12.83 3.66
-8.56 -13.01 3.66
-8.30 -13.18 3.66
-8.03 -13.34 3.66
-7.76 -13.50 3.66
-7.49 -13.65 3.66
-7.22 -13.80 3.66
-6.94 -13.94 3.66
-6.66 -14.08 3.66
-6.37 -14.21 3.66
-6.09 -14.34 3.66
-5.96 -14.86 3.76
-5.66 -14.98 3.76
-5.36 -15.09 3.76
-5.06 -15.19 3.76
-4.75 -15.29 3.76
-4.44 -15.39 3.76
-4.13 -15.47 3.76
-3.82 -15.55 3.76
-3.51 -15.62 3.76
-3.19 -15.69 3.76
-2.88 -15.75 3.76
-2.56 -15.81 3.76
-2.24 -15.86 3.76
-1.92 -15.90 3.76
-1.60 -15.93 3.76
-1.28 -15.96 3.76
-0.96 -15.98 3.76
-0.64 -16.00 3.76
-0.32 -16.01 3.76
-0.00 -14.54 3.76
0.29 -14.53 3.76
0.58 -14.52 3.76
0.87 -14.51 3.76
1.17 -14.49 3.76
1.46 -14.46 3.76
1.75 -14.43 3.76
2.03 -14.38 3.76
2.26 -13.96 3.66
2.54 -13.91 3.66
2.82 -13.85 3.66
3.10 -13.79 3.66
3.37 -13.73 3.66
3.65 -13.66 3.66
3.92 -13.58 3.66
4.19 -13.50 3.66
4.46 -13.41 3.66
4.73 -13.32 3.66
5.00 -13.22 3.66
5.26 -13.12 3.66
5.52 -13.01 3.66
5.78 -12.90 3.66
6.04 -12.78 3.66
6.30 -12.67 3.66
6.56 -12.54 3.66
6.81 -12.40 3.66
7.05 -12.26 3.66
7.30 -12.12 3.66
7.54 -11.97 3.66
7.78 -11.82 3.66
8.01 -11.66 3.66
8.25 -11.50 3.66
8.48 -11.33 3.66
8.70 -11.16 3.66
8.92 -10.98 3.66
9.07 -10.71 3.63
9.36 -10.61 3.66
9.42 -10.26 3.61
9.54 -9.98 3.57
9.15 -9.20 3.36
9.53 -9.20 3.43
9.92 -9.20 3.50
10.33 -9.20 3.58
10.75 -9.20 3.66
10.93 -8.98 3.66
11.11 -8.76 3.66
10.32 -7.81 3.35
10.16 -7.36 3.25
10.19 -7.08 3.21
10.21 -6.80 3.18
10.19 -6.49 3.13
10.30 -6.27 3.12
10.39 -6.04 3.11
10.72 -5.95 3.17
10.90 -5.77 3.19
11.05 -5.57 3.20
11.54 -5.53 3.31
12.15 -5.52 3.46
10.98 -4.72 3.09
10.92 -4.44 3.05
10.93 -4.19 3.03
11.03 -3.98 3.04
11.15 -3.77 3.05
11.37 -3.59 3.09
11.78 -3.46 3.18
11.90 -3.24 3.19
12.21 -3.06 3.26
12.65 -2.91 3.36
12.65 -2.64 3.35
12.65 -2.38 3.33
12.65 -2.11 3.32
12.65 -1.85 3.31
12.65 -1.60 3.30
12.65 -1.34 3.29
12.65 -1.08 3.29
12.65 -0.83 3.28
12.65 -0.57 3.28
12.65 -0.32 3.28
12.65 -0.06 3.28
12.65 0.19 3.28
12.65 0.44 3.28
12.65 0.70 3.28
14.11 1.06 3.66
14.08 1.35 3.66
14.05 1.63 3.66
14.02 1.91 3.66
13.98 2.19 3.66
13.93 2.47 3.66
13.88 2.75 3.66
13.82 3.03 3.66
13.76 3.31 3.66
13.69 3.58 3.66
13.61 3.86 3.66
13.53 4.13 3.66
13.45 4.40 3.66
13.36 4.67 3.66
13.26 4.93 3.66
13.16 5.20 3.66
13.05 5.46 3.66
12.94 5.72 3.66
12.82 5.98 3.66
12.73 6.26 3.67
12.61 6.51 3.67
12.47 6.76 3.67
12.33 7.01 3.67
12.19 7.26 3.67
12.04 7.50 3.67
11.89 7.74 3.67
11.73 7.98 3.67
11.57 8.21 3.67
11.40 8.44 3.67
11.23 8.67 3.67
11.05 8.89 3.67
10.87 9.11 3.67
10.69 9.33 3.67
10.45 9.50 3.66
10.04 9.50 3.58
10.11 9.96 3.67
9.91 10.16 3.67
9.70 10.35 3.67
9.49 10.55 3.67
9.28 10.74 3.67
9.06 10.92 3.67
8.84 11.10 3.67
8.61 11.27 3.67
8.39 11.44 3.67
8.15 11.61 3.67
7.92 11.77 3.67
7.65 11.89 3.66
7.41 12.04 3.66
7.17 12.18 3.66
6.92 12.32 3.66
6.68 12.46 3.66
6.42 12.59 3.66
2.36 4.87 1.40
5.91 12.84 3.66
5.65 12.96 3.66
5.39 13.07 3.66
5.13 13.17 3.66
4.86 13.27 3.66
4.60 13.37 3.66
4.33 13.46 3.66
4.06 13.54 3.66
3.80 13.66 3.67
3.61 14.08 3.76
3.32 14.15 3.76
3.04 14.21 3.76
2.75 14.27 3.76
2.47 14.32 3.76
2.18 14.37 3.76
1.89 14.41 3.76
1.60 14.44 3.76
1.31 14.47 3.76
1.02 14.49 3.76
0.73 14.51 3.76
0.44 14.52 3.76
0.15 14.53 3.76
-0.15 14.53 3.76
-0.44 14.52 3.76
-0.73 14.51 3.76
-1.02 14.49 3.76
-1.31 14.47 3.76
-1.60 14.44 3.76
-1.89 14.41 3.76
-2.18 14.37 3.76
-2.47 14.32 3.76
-2.76 14.27 3.76
-3.04 14.21 3.76
-3.33 14.15 3.76
-3.61 14.08 3.76
-3.89 14.00 3.76
-4.17 13.92 3.76
-4.45 13.84 3.76
-4.73 13.75 3.76
-5.00 13.65 3.76
-5.27 13.54 3.76
-5.55 13.44 3.76
-5.81 13.32 3.76
-6.00 13.03 3.71
-6.17 12.72 3.66
-6.42 12.59 3.66
-6.68 12.46 3.66
-6.92 12.33 3.66
-7.17 12.18 3.66
-7.41 12.04 3.66
-7.65 11.89 3.66
-7.89 11.73 3.66
-8.12 11.57 3.66
-8.36 11.40 3.66
-8.58 11.23 3.66
-8.81 11.06 3.66
-9.03 10.88 3.66
-9.24 10.70 3.66
-9.46 10.51 3.66
-9.67 10.32 3.66
-9.87 10.12 3.66
-9.97 9.82 3.62
-9.97 9.43 3.55
-9.97 9.06 3.49
-9.97 8.70 3.43
-9.97 8.36 3.37
-9.97 8.02 3.31
-9.97 7.70 3.26
-9.97 7.38 3.21
-9.97 7.08 3.17
-9.97 6.78 3.12
-9.97 6.49 3.08
-9.97 6.21 3.04
-9.97 5.94 3.00
-9.97 5.67 2.97
-9.97 5.41 2.94
-9.97 5.15 2.91
-9.97 4.90 2.88
-9.96 4.65 2.85
-10.01 4.43 2.83
-10.09 4.22 2.83
-10.12 4.00 2.82
-16.18 6.02 4.47
-15.76 5.51 4.32
-15.49 5.07 4.22
-15.31 4.67 4.15
-15.14 4.29 4.07
-15.01 3.93 4.02
-14.87 3.57 3.96
-14.74 3.23 3.91
-14.63 2.90 3.86
-14.53 2.58 3.82
-14.43 2.26 3.78
-14.34 1.95 3.75
-14.24 1.65 3.71
-14.13 1.35 3.68
-14.07 1.06 3.65
-14.04 0.78 3.64
-14.00 0.49 3.63
-13.96 0.21 3.61
-13.92 -0.07 3.60
-13.88 -0.35 3.59
-13.83 -0.63 3.59
-13.79 -0.90 3.58
-13.75 -1.18 3.57
-13.71 -1.45 3.57
-13.66 -1.72 3.56
-13.60 -1.99 3.56
-13.54 -2.26 3.56
-13.45 -2.53 3.54
-13.31 -2.78 3.52
-13.19 -3.03 3.50
-13.08 -3.28 3.49
-12.96 -3.53 3.48
-12.85 -3.78 3.47
-12.73 -4.02 3.46
-12.61 -4.27 3.45
-12.49 -4.51 3.44
-10.16 -3.90 2.82
-10.08 -4.10 2.82
-10.05 -4.33 2.83
-9.96 -4.53 2.83
-9.97 -4.77 2.86
-9.97 -5.02 2.89
-9.97 -5.28 2.92
-9.97 -5.54 2.95
-9.97 -5.80 2.99
-9.97 -6.07 3.02
-9.97 -6.35 3.06
-9.97 -6.63 3.10
-9.97 -6.93 3.14
-9.99 -7.24 3.20
-10.26 -7.76 3.33
-10.56 -8.32 3.48
-10.88 -8.94 3.65
-10.94 -9.36 3.73
-10.79 -9.61 3.74
-10.64 -9.87 3.76
-10.48 -10.12 3.77
-9.97 -10.02 3.66
-9.77 -10.22 3.66
-9.56 -10.41 3.66
-9.35 -10.60 3.66
-9.14 -10.79 3.66
-8.92 -10.97 3.66
-8.69 -11.15 3.66
-8.47 -11.32 3.66
-8.24 -11.49 3.66
-8.01 -11.65 3.66
-7.77 -11.81 3.66
-7.53 -11.96 3.66
-7.29 -12.11 3.66
-7.05 -12.25 3.66
-6.80 -12.39 3.66
-6.55 -12.53 3.66
-6.30 -12.66 3.66
-6.04 -12.78 3.66
-5.95 -13.26 3.76
-5.68 -13.38 3.76
-5.41 -13.49 3.76
-5.14 -13.60 3.76
-4.86 -13.70 3.76
-4.59 -13.79 3.76
-4.31 -13.88 3.76
-4.03 -13.97 3.76
-3.75 -14.04 3.76
-3.47 -14.12 3.76
-3.18 -14.18 3.76
-2.90 -14.24 3.76
-2.61 -14.30 3.76
-2.32 -14.35 3.76
-2.04 -14.39 3.76
-1.75 -14.43 3.76
-1.46 -14.46 3.76
-1.17 -14.49 3.76
-0.87 -14.51 3.76
-0.58 -14.52 3.76
-0.29 -14.53 3.76
-0.00 -13.29 3.76
0.27 -13.29 3.76
0.53 -13.28 3.76
0.80 -13.27 3.76
1.07 -13.25 3.76
1.33 -13.23 3.76
1.60 -13.20 3.76
1.86 -13.16 3.76
2.07 -12.76 3.66
2.32 -12.72 3.66
2.58 -12.67 3.66
2.83 -12.62 3.66
3.08 -12.56 3.66
3.34 -12.49 3.66
3.59 -12.42 3.66
3.83 -12.35 3.66
4.08 -12.27 3.66
4.33 -12.18 3.66
4.57 -12.10 3.66
4.81 -12.00 3.66
5.05 -11.90 3.66
5.29 -11.80 3.66
5.53 -11.69 3.66
5.76 -11.58 3.66
5.99 -11.46 3.66
6.22 -11.34 3.66
6.45 -11.22 3.66
6.67 -11.08 3.66
6.90 -10.95 3.66
7.11 -10.81 3.66
7.33 -10.66 3.66
7.54 -10.51 3.66
7.75 -10.36 3.66
7.96 -10.20 3.66
8.16 -10.04 3.66
8.36 -9.88 3.66
8.56 -9.71 3.66
8.75 -9.53 3.66
8.94 -9.35 3.66
9.13 -9.17 3.66
9.31 -8.99 3.66
9.49 -8.80 3.66
9.66 -8.61 3.66
9.83 -8.41 3.66
10.00 -8.21 3.66
10.16 -8.01 3.66
10.32 -7.80 3.66
10.08 -7.31 3.52
10.14 -7.05 3.50
10.21 -6.80 3.47
10.19 -6.49 3.42
10.30 -6.27 3.41
10.39 -6.04 3.40
10.72 -5.95 3.47
10.92 -5.78 3.50
11.05 -5.57 3.50
11.54 -5.53 3.62
11.21 -5.09 3.48
10.98 -4.72 3.38
10.92 -4.44 3.34
10.92 -4.19 3.31
11.03 -3.98 3.32
11.14 -3.77 3.33
11.35 -3.59 3.37
11.73 -3.45 3.46
11.82 -3.22 3.47
11.82 -2.97 3.45
12.61 -2.90 3.66
12.65 -2.64 3.66
12.65 -2.38 3.64
12.65 -2.11 3.63
12.65 -1.85 3.62
12.65 -1.60 3.61
12.65 -1.34 3.60
12.65 -1.08 3.59
12.65 -0.83 3.59
12.65 -0.57 3.59
12.65 -0.32 3.58
12.65 -0.06 3.58
12.65 0.19 3.58
12.65 0.44 3.58
12.65 0.70 3.59
12.90 0.97 3.66
12.88 1.23 3.66
12.85 1.49 3.66
12.82 1.75 3.66
12.78 2.00 3.66
12.74 2.26 3.66
12.69 2.52 3.66
12.64 2.77 3.66
12.58 3.02 3.66
12.52 3.28 3.66
12.45 3.53 3.66
12.38 3.78 3.66
12.30 4.02 3.66
12.21 4.27 3.66
12.13 4.51 3.66
12.03 4.76 3.66
11.94 5.00 3.66
11.83 5.24 3.66
11.73 5.47 3.66
11.61 5.71 3.66
11.50 5.94 3.66
11.41 6.19 3.67
11.28 6.41 3.67
11.15 6.64 3.67
11.01 6.86 3.67
10.87 7.08 3.67
10.73 7.30 3.67
10.58 7.51 3.67
10.43 7.72 3.67
10.27 7.93 3.67
10.11 8.13 3.67
9.95 8.34 3.67
9.78 8.53 3.67
9.60 8.73 3.67
9.43 8.92 3.67
9.24 9.11 3.67
9.06 9.29 3.67
8.87 9.47 3.67
8.68 9.65 3.67
8.48 9.82 3.67
8.29 9.99 3.67
8.08 10.15 3.67
7.88 10.31 3.67
7.67 10.47 3.67
7.46 10.62 3.67
7.24 10.77 3.67
7.03 10.91 3.67
6.81 11.05 3.67
6.58 11.18 3.67
6.33 11.27 3.66
6.11 11.40 3.66
5.88 11.52 3.66
2.36 4.87 1.53
5.41 11.74 3.66
5.17 11.85 3.66
4.93 11.95 3.66
4.69 12.05 3.66
4.45 12.14 3.66
4.20 12.23 3.66
3.96 12.31 3.66
3.71 12.39 3.66
3.46 12.46 3.66
3.21 12.52 3.66
2.96 12.59 3.66
2.78 13.00 3.76
2.52 13.05 3.76
2.26 13.10 3.76
1.99 13.14 3.76
1.73 13.18 3.76
1.46 13.21 3.76
1.20 13.24 3.76
0.93 13.26 3.76
0.67 13.27 3.76
0.40 13.28 3.76
0.13 13.29 3.76
-0.13 13.29 3.76
-0.40 13.28 3.76
-0.67 13.27 3.76
-0.93 13.26 3.76
-1.20 13.24 3.76
-1.46 13.21 3.76
-1.73 13.18 3.76
-1.99 13.14 3.76
-2.26 13.10 3.76
-2.52 13.05 3.76
-2.78 13.00 3.76
-3.04 12.94 3.76
-3.30 12.88 3.76
-3.56 12.81 3.76
-3.82 12.73 3.76
-4.07 12.66 3.76
-4.32 12.57 3.76
-4.57 12.48 3.76
-4.82 12.39 3.76
-5.07 12.29 3.76
-5.32 12.18 3.76
-5.56 12.08 3.76
-5.80 11.96 3.76
-6.00 11.76 3.74
-6.11 11.40 3.66
-6.33 11.27 3.66
-6.56 11.14 3.66
-6.78 11.01 3.66
-7.00 10.87 3.66
-7.22 10.73 3.66
-7.43 10.58 3.66
-7.64 10.43 3.66
-7.85 10.27 3.66
-8.05 10.11 3.66
-8.26 9.95 3.66
-8.45 9.78 3.66
-8.65 9.61 3.66
-8.84 9.44 3.66
-9.03 9.26 3.66
-9.21 9.07 3.66
-9.39 8.89 3.66
-9.57 8.70 3.66
-9.74 8.50 3.66
-9.91 8.31 3.66
-9.97 8.02 3.62
-9.97 7.70 3.57
-9.97 7.38 3.51
-9.97 7.08 3.46
-9.97 6.78 3.41
-9.97 6.49 3.37
-9.97 6.21 3.32
-9.97 5.94 3.28
-9.97 5.67 3.25
-9.97 5.41 3.21
-9.97 5.15 3.18
-9.97 4.90 3.14
-9.97 4.65 3.11
-9.97 4.41 3.09
-9.97 4.17 3.06
-9.97 3.94 3.03
-9.97 3.71 3.01
-9.97 3.48 2.99
-9.97 3.26 2.97
-9.97 3.04 2.95
-9.97 2.82 2.93
-9.97 2.61 2.92
-9.97 2.40 2.90
-9.97 2.19 2.89
-9.97 1.98 2.88
-9.97 1.77 2.87
-9.97 1.56 2.86
-9.96 1.36 2.85
-9.96 1.15 2.84
-9.97 0.95 2.84
-9.96 0.75 2.83
-9.96 0.55 2.82
-10.00 0.35 2.83
-9.96 0.15 2.82
-9.96 -0.05 2.82
-10.00 -0.25 2.83
-10.00 -0.45 2.83
-9.96 -0.65 2.83
-9.96 -0.85 2.83
-9.97 -1.05 2.84
-9.96 -1.26 2.84
-9.96 -1.46 2.85
-9.97 -1.67 2.86
-9.97 -1.87 2.87
-9.97 -2.08 2.88
-9.97 -2.29 2.90
-9.97 -2.50 2.91
-9.97 -2.72 2.93
-9.97 -2.93 2.94
-9.97 -3.15 2.96
-9.97 -3.37 2.98
-9.97 -3.60 3.00
-9.97 -3.82 3.02
-9.97 -4.06 3.05
-9.97 -4.29 3.07
-9.97 -4.53 3.10
-9.97 -4.77 3.13
-9.97 -5.02 3.16
-9.97 -5.28 3.19
-9.97 -5.54 3.23
-9.97 -5.80 3.27
-9.97 -6.07 3.30
-9.97 -6.35 3.35
-9.97 -6.63 3.39
-9.97 -6.93 3.44
-9.99 -7.24 3.49
-10.26 -7.76 3.64
-10.56 -8.32 3.81
-9.99 -8.21 3.66
-9.83 -8.40 3.66
-9.65 -8.60 3.66
-9.48 -8.79 3.66
-9.30 -8.98 3.66
-9.12 -9.17 3.66
-8.93 -9.35 3.66
-8.74 -9.52 3.66
-8.55 -9.70 3.66
-8.36 -9.87 3.66
-8.16 -10.03 3.66
-7.95 -10.19 3.66
-7.75 -10.35 3.66
-7.54 -10.51 3.66
-7.32 -10.65 3.66
-7.11 -10.80 3.66
-6.89 -10.94 3.66
-6.67 -11.08 3.66
-6.45 -11.21 3.66
-6.23 -11.35 3.66
-6.02 -11.51 3.68
-5.92 -11.90 3.76
-5.68 -12.02 3.76
-5.44 -12.13 3.76
-5.20 -12.24 3.76
-4.95 -12.34 3.76
-4.70 -12.44 3.76
-4.45 -12.53 3.76
-4.20 -12.61 3.76
-3.94 -12.70 3.76
-3.69 -12.77 3.76
-3.43 -12.84 3.76
-3.17 -12.91 3.76
-2.91 -12.97 3.76
-2.65 -13.03 3.76
-2.39 -13.08 3.76
-2.13 -13.12 3.76
-1.86 -13.16 3.76
-1.60 -13.20 3.76
-1.33 -13.23 3.76
-1.07 -13.25 3.76
-0.80 -13.27 3.76
-0.53 -13.28 3.76
-0.27 -13.29 3.76
-0.00 -12.24 3.76
0.25 -12.23 3.76
0.49 -12.23 3.76
0.74 -12.21 3.76
0.98 -12.20 3.76
1.23 -12.17 3.76
1.47 -12.15 3.76
1.71 -12.12 3.76
1.96 -12.08 3.76
2.14 -11.71 3.66
2.37 -11.66 3.66
2.61 -11.61 3.66
2.84 -11.56 3.66
3.07 -11.50 3.66
3.30 -11.43 3.66
3.53 -11.37 3.66
3.76 -11.29 3.66
3.98 -11.21 3.66
4.21 -11.13 3.66
4.43 -11.05 3.66
4.65 -10.95 3.66
4.87 -10.86 3.66
5.09 -10.76 3.66
5.30 -10.65 3.66
5.51 -10.55 3.66
5.72 -10.43 3.66
5.93 -10.32 3.66
6.14 -10.20 3.66
6.35 -10.08 3.66
6.55 -9.95 3.66
6.75 -9.81 3.66
6.94 -9.68 3.66
7.13 -9.54 3.66
7.32 -9.39 3.66
7.51 -9.24 3.66
7.70 -9.09 3.66
7.88 -8.93 3.66
8.05 -8.77 3.66
8.23 -8.61 3.66
8.40 -8.44 3.66
8.57 -8.27 3.66
8.73 -8.10 3.66
8.89 -7.92 3.66
9.05 -7.74 3.66
9.20 -7.56 3.66
9.35 -7.37 3.66
9.50 -7.18 3.66
9.64 -6.99 3.66
9.78 -6.80 3.66
9.91 -6.60 3.66
10.05 -6.40 3.66
10.17 -6.19 3.66
10.29 -5.99 3.66
10.41 -5.78 3.66
10.53 -5.57 3.66
10.64 -5.36 3.66
10.74 -5.14 3.66
10.84 -4.93 3.66
10.93 -4.70 3.66
10.89 -4.43 3.61
10.87 -4.17 3.58
10.98 -3.96 3.59
11.08 -3.75 3.60
11.29 -3.57 3.64
11.43 -3.36 3.66
11.49 -3.13 3.66
11.55 -2.90 3.66
11.61 -2.67 3.66
11.66 -2.43 3.66
11.70 -2.20 3.66
11.75 -1.96 3.66
11.78 -1.73 3.66
11.82 -1.49 3.66
11.84 -1.25 3.66
11.87 -1.01 3.66
11.88 -0.78 3.66
11.90 -0.54 3.66
11.91 -0.30 3.66
11.91 -0.06 3.66
11.63 0.18 3.58
11.48 0.40 3.53
11.49 0.64 3.54
11.52 0.87 3.55
11.86 1.13 3.66
11.83 1.37 3.66
11.80 1.61 3.66
11.77 1.85 3.66
11.73 2.08 3.66
11.68 2.32 3.66
11.63 2.55 3.66
11.58 2.78 3.66
11.52 3.01 3.66
11.46 3.25 3.66
11.39 3.47 3.66
11.32 3.70 3.66
11.24 3.93 3.66
11.16 4.15 3.66
11.08 4.38 3.66
10.99 4.60 3.66
10.89 4.82 3.66
10.79 5.04 3.66
10.69 5.25 3.66
10.58 5.47 3.66
10.47 5.68 3.66
10.35 5.89 3.66
10.26 6.11 3.67
10.14 6.31 3.67
10.01 6.52 3.67
9.88 6.72 3.67
9.74 6.91 3.67
9.60 7.11 3.67
9.45 7.30 3.67
9.31 7.49 3.67
9.15 7.67 3.67
9.00 7.85 3.67
8.84 8.03 3.67
8.68 8.21 3.67
8.51 8.38 3.67
8.34 8.55 3.67
8.17 8.72 3.67
7.99 8.88 3.67
7.81 9.04 3.67
7.63 9.19 3.67
7.44 9.34 3.67
7.25 9.49 3.67
7.06 9.63 3.67
6.86 9.77 3.67
6.67 9.91 3.67
6.47 10.04 3.67
6.26 10.17 3.67
6.04 10.26 3.66
5.83 10.37 3.66
5.62 10.49 3.66
5.41 10.60 3.66
2.36 4.87 1.67
4.98 10.81 3.66
4.76 10.91 3.66
4.54 11.00 3.66
4.32 11.09 3.66
4.10 11.17 3.66
3.87 11.25 3.66
3.64 11.33 3.66
3.42 11.40 3.66
3.19 11.47 3.66
2.95 11.53 3.66
2.72 11.58 3.66
2.49 11.64 3.66
2.32 12.01 3.76
2.08 12.05 3.76
1.83 12.09 3.76
1.59 12.13 3.76
1.35 12.16 3.76
1.10 12.18 3.76
0.86 12.20 3.76
0.61 12.22 3.76
0.37 12.23 3.76
0.12 12.23 3.76
-0.12 12.23 3.76
-0.37 12.23 3.76
-0.61 12.22 3.76
-0.86 12.20 3.76
-1.10 12.18 3.76
-1.35 12.16 3.76
-1.59 12.13 3.76
-1.83 12.09 3.76
-2.08 12.06 3.76
-2.32 12.01 3.76
-2.56 11.97 3.76
-2.80 11.91 3.76
-3.04 11.85 3.76
-3.28 11.79 3.76
-3.51 11.72 3.76
-3.75 11.65 3.76
-3.98 11.57 3.76
-4.21 11.49 3.76
-4.44 11.40 3.76
-4.67 11.31 3.76
-4.89 11.21 3.76
-5.12 11.11 3.76
-5.34 11.01 3.76
-5.56 10.90 3.76
-5.78 10.79 3.76
-5.99 10.67 3.76
-6.04 10.26 3.66
-6.24 10.13 3.66
-6.44 10.01 3.66
-6.64 9.87 3.66
-6.84 9.74 3.66
-7.03 9.60 3.66
-7.22 9.46 3.66
-7.41 9.31 3.66
-7.60 9.16 3.66
-7.78 9.00 3.66
-7.96 8.85 3.66
-8.14 8.69 3.66
-8.31 8.52 3.66
-8.48 8.35 3.66
-8.64 8.18 3.66
-8.81 8.00 3.66
-8.97 7.83 3.66
-9.12 7.64 3.66
-9.27 7.46 3.66
-9.42 7.27 3.66
-9.56 7.08 3.66
-9.70 6.89 3.66
-9.84 6.69 3.66
-9.97 6.49 3.66
-9.97 6.21 3.61
-9.97 5.94 3.57
-9.97 5.67 3.53
-9.97 5.41 3.49
-9.97 5.15 3.45
-9.97 4.90 3.42
-9.97 4.65 3.38
-9.97 4.41 3.35
-9.97 4.17 3.32
-9.97 3.94 3.30
-9.97 3.71 3.27
-9.97 3.48 3.25
-9.97 3.26 3.23
-9.97 3.04 3.21
-9.97 2.82 3.19
-9.97 2.61 3.17
-9.97 2.40 3.15
-9.97 2.19 3.14
-9.97 1.98 3.13
-9.97 1.77 3.11
-9.97 1.56 3.10
-9.97 1.36 3.09
-9.97 1.16 3.09
-9.97 0.95 3.08
-9.97 0.75 3.08
-9.97 0.55 3.07
-9.97 0.35 3.07
-9.97 0.15 3.07
-9.97 -0.05 3.07
-9.97 -0.25 3.07
-9.97 -0.45 3.07
-9.97 -0.65 3.07
-9.97 -0.85 3.08
-9.97 -1.05 3.08
-9.97 -1.26 3.09
-9.97 -1.46 3.10
-9.97 -1.67 3.11
-9.97 -1.87 3.12
-9.97 -2.08 3.13
-9.97 -2.29 3.15
-9.97 -2.50 3.16
-9.97 -2.72 3.18
-9.97 -2.93 3.20
-9.97 -3.15 3.22
-9.97 -3.37 3.24
-9.97 -3.60 3.26
-9.97 -3.82 3.28
-9.97 -4.06 3.31
-9.97 -4.29 3.34
-9.97 -4.53 3.37
-9.97 -4.77 3.40
-9.97 -5.02 3.43
-9.97 -5.28 3.47
-9.97 -5.54 3.51
-9.97 -5.80 3.55
-9.97 -6.07 3.59
-9.97 -6.35 3.64
-9.91 -6.59 3.66
-9.77 -6.79 3.66
-9.63 -6.99 3.66
-9.49 -7.18 3.66
-9.35 -7.37 3.66
-9.20 -7.55 3.66
-9.04 -7.74 3.66
-8.89 -7.92 3.66
-8.73 -8.09 3.66
-8.56 -8.27 3.66
-8.39 -8.44 3.66
-8.22 -8.60 3.66
-8.05 -8.77 3.66
-7.87 -8.93 3.66
-7.69 -9.08 3.66
-7.51 -9.23 3.66
-7.32 -9.38 3.66
-7.13 -9.53 3.66
-6.94 -9.67 3.66
-6.74 -9.81 3.66
-6.54 -9.94 3.66
-6.34 -10.07 3.66
-6.14 -10.19 3.66
-6.01 -10.45 3.71
-5.89 -10.73 3.76
-5.67 -10.84 3.76
-5.45 -10.95 3.76
-5.23 -11.06 3.76
-5.01 -11.16 3.76
-4.78 -11.26 3.76
-4.55 -11.36 3.76
-4.33 -11.45 3.76
-4.10 -11.53 3.76
-3.86 -11.61 3.76
-3.63 -11.69 3.76
-3.39 -11.76 3.76
-3.16 -11.82 3.76
-2.92 -11.88 3.76
-2.68 -11.94 3.76
-2.44 -11.99 3.76
-2.20 -12.04 3.76
-1.96 -12.08 3.76
-1.71 -12.12 3.76
-1.47 -12.15 3.76
-1.23 -12.17 3.76
-0.98 -12.20 3.76
-0.74 -12.21 3.76
-0.49 -12.23 3.76
-0.25 -12.23 3.76
-0.00 -11.32 3.76
0.23 -11.32 3.76
0.45 -11.31 3.76
0.68 -11.30 3.76
0.91 -11.29 3.76
1.13 -11.26 3.76
1.36 -11.24 3.76
1.59 -11.21 3.76
1.81 -11.18 3.76
2.03 -11.13 3.76
2.20 -10.79 3.66
2.41 -10.74 3.66
2.63 -10.69 3.66
2.84 -10.64 3.66
3.05 -10.58 3.66
3.27 -10.52 3.66
3.48 -10.45 3.66
3.69 -10.38 3.66
3.89 -10.30 3.66
4.10 -10.22 3.66
4.30 -10.14 3.66
4.51 -10.05 3.66
4.71 -9.96 3.66
4.91 -9.86 3.66
5.10 -9.76 3.66
5.30 -9.65 3.66
5.49 -9.55 3.66
5.68 -9.43 3.66
5.87 -9.32 3.66
6.06 -9.20 3.66
6.24 -9.08 3.66
6.42 -8.95 3.66
6.60 -8.82 3.66
6.78 -8.69 3.66
6.95 -8.55 3.66
7.12 -8.41 3.66
7.29 -8.27 3.66
7.45 -8.12 3.66
7.61 -7.97 3.66
7.77 -7.81 3.66
7.93 -7.65 3.66
8.08 -7.49 3.66
8.23 -7.33 3.66
8.37 -7.16 3.66
8.52 -6.99 3.66
8.65 -6.82 3.66
8.79 -6.65 3.66
8.92 -6.47 3.66
9.05 -6.29 3.66
9.17 -6.11 3.66
9.29 -5.92 3.66
9.41 -5.73 3.66
9.52 -5.54 3.66
9.63 -5.35 3.66
9.74 -5.16 3.66
9.84 -4.96 3.66
9.94 -4.76 3.66
10.03 -4.56 3.66
10.12 -4.36 3.66
10.21 -4.15 3.66
10.29 -3.95 3.66
10.37 -3.74 3.66
10.44 -3.53 3.66
10.51 -3.32 3.66
10.57 -3.11 3.66
10.63 -2.90 3.66
10.69 -2.68 3.66
10.74 -2.47 3.66
10.79 -2.25 3.66
10.83 -2.03 3.66
10.87 -1.82 3.66
10.90 -1.60 3.66
10.93 -1.38 3.66
10.96 -1.16 3.66
10.98 -0.94 3.66
11.00 -0.72 3.66
11.01 -0.50 3.66
11.02 -0.28 3.66
11.02 -0.06 3.66
10.96 0.17 3.64
10.88 0.38 3.62
10.86 0.60 3.62
10.94 0.83 3.65
10.97 1.05 3.66
10.95 1.27 3.66
10.92 1.49 3.66
10.89 1.71 3.66
10.85 1.93 3.66
10.81 2.14 3.66
10.76 2.36 3.66
10.71 2.58 3.66
10.66 2.79 3.66
10.60 3.00 3.66
10.54 3.22 3.66
10.47 3.43 3.66
10.40 3.64 3.66
10.33 3.84 3.66
10.25 4.05 3.66
10.17 4.26 3.66
10.08 4.46 3.66
9.99 4.66 3.66
9.89 4.86 3.66
9.79 5.06 3.66
9.69 5.25 3.66
9.58 5.45 3.66
9.47 5.64 3.66
9.35 5.83 3.66
9.24 6.01 3.66
9.14 6.21 3.67
9.01 6.40 3.67
8.88 6.58 3.67
8.75 6.75 3.67
8.61 6.93 3.67
8.47 7.10 3.67
8.33 7.27 3.67
8.18 7.43 3.67
8.03 7.60 3.67
7.87 7.76 3.67
7.72 7.91 3.67
7.56 8.07 3.67
7.39 8.22 3.67
7.23 8.36 3.67
7.06 8.51 3.67
6.88 8.65 3.67
6.71 8.78 3.67
6.53 8.91 3.67
6.35 9.04 3.67
6.17 9.17 3.67
5.96 9.26 3.66
5.77 9.38 3.66
5.59 9.49 3.66
5.39 9.60 3.66
5.20 9.71 3.66
5.00 9.81 3.66
2.36 4.87 1.80
4.61 10.00 3.66
4.40 10.09 3.66
4.20 10.18 3.66
4.00 10.26 3.66
3.79 10.34 3.66
3.58 10.41 3.66
3.37 10.48 3.66
3.16 10.55 3.66
2.95 10.61 3.66
2.73 10.67 3.66
2.52 10.72 3.66
2.30 10.77 3.66
2.15 11.11 3.76
1.92 11.15 3.76
1.70 11.19 3.76
1.47 11.22 3.76
1.25 11.25 3.76
1.02 11.27 3.76
0.79 11.29 3.76
0.57 11.30 3.76
0.34 11.31 3.76
0.11 11.32 3.76
-0.11 11.32 3.76
-0.34 11.31 3.76
-0.57 11.30 3.76
-0.79 11.29 3.76
-1.02 11.27 3.76
-1.25 11.25 3.76
-1.47 11.22 3.76
-1.70 11.19 3.76
-1.92 11.15 3.76
-2.15 11.12 3.76
-2.37 11.07 3.76
-2.59 11.02 3.76
-2.81 10.97 3.76
-3.03 10.91 3.76
-3.25 10.85 3.76
-3.47 10.78 3.76
-3.68 10.71 3.76
-3.90 10.63 3.76
-4.11 10.55 3.76
-4.32 10.47 3.76
-4.53 10.38 3.76
-4.74 10.28 3.76
-4.94 10.19 3.76
-5.15 10.09 3.76
-5.35 9.98 3.76
-5.55 9.87 3.76
-5.74 9.76 3.76
-5.94 9.64 3.76
-6.00 9.32 3.68
-6.15 9.14 3.66
-6.33 9.01 3.66
-6.51 8.88 3.66
-6.69 8.75 3.66
-6.86 8.61 3.66
-7.03 8.47 3.66
-7.20 8.33 3.66
-7.37 8.19 3.66
-7.53 8.04 3.66
-7.69 7.88 3.66
-7.84 7.73 3.66
-8.00 7.57 3.66
-8.15 7.41 3.66
-8.30 7.24 3.66
-8.44 7.07 3.66
-8.58 6.90 3.66
-8.72 6.73 3.66
-8.85 6.55 3.66
-8.98 6.37 3.66
-9.11 6.19 3.66
-9.23 6.01 3.66
-9.35 5.82 3.66
-9.46 5.63 3.66
-9.57 5.44 3.66
-9.68 5.25 3.66
-9.78 5.05 3.66
-9.88 4.86 3.66
-9.97 4.65 3.66
-9.97 4.41 3.62
-9.97 4.17 3.59
-9.97 3.94 3.56
-9.97 3.71 3.54
-9.97 3.48 3.51
-9.97 3.26 3.49
-9.97 3.04 3.46
-9.97 2.82 3.44
-9.97 2.61 3.43
-9.97 2.40 3.41
-9.97 2.19 3.39
-9.97 1.98 3.38
-9.97 1.77 3.37
-9.97 1.56 3.35
-9.97 1.36 3.34
-9.97 1.16 3.34
-9.97 0.95 3.33
-9.97 0.75 3.32
-9.97 0.55 3.32
-9.97 0.35 3.32
-9.97 0.15 3.31
-9.97 -0.05 3.31
-9.97 -0.25 3.31
-9.97 -0.45 3.32
-9.97 -0.65 3.32
-9.97 -0.85 3.33
-9.97 -1.05 3.33
-9.97 -1.26 3.34
-9.97 -1.46 3.35
-9.97 -1.67 3.36
-9.97 -1.87 3.37
-9.97 -2.08 3.39
-9.97 -2.29 3.40
-9.97 -2.50 3.42
-9.97 -2.72 3.43
-9.97 -2.93 3.45
-9.97 -3.15 3.48
-9.97 -3.37 3.50
-9.97 -3.60 3.52
-9.97 -3.82 3.55
-9.97 -4.06 3.58
-9.97 -4.29 3.61
-9.97 -4.53 3.64
-9.93 -4.76 3.66
-9.83 -4.95 3.66
-9.73 -5.15 3.66
-9.63 -5.35 3.66
-9.52 -5.54 3.66
-9.40 -5.73 3.66
-9.29 -5.92 3.66
-9.17 -6.10 3.66
-9.04 -6.28 3.66
-8.91 -6.46 3.66
-8.78 -6.64 3.66
-8.65 -6.82 3.66
-8.51 -6.99 3.66
-8.37 -7.16 3.66
-8.22 -7.32 3.66
-8.07 -7.49 3.66
-7.92 -7.65 3.66
-7.77 -7.81 3.66
-7.61 -7.96 3.66
-7.45 -8.11 3.66
-7.28 -8.26 3.66
-7.12 -8.40 3.66
-6.95 -8.54 3.66
-6.77 -8.68 3.66
-6.60 -8.82 3.66
-6.42 -8.95 3.66
-6.24 -9.07 3.66
-6.05 -9.20 3.66
-6.01 -9.55 3.75
-5.84 -9.70 3.76
-5.64 -9.81 3.76
-5.45 -9.93 3.76
-5.25 -10.03 3.76
-5.04 -10.14 3.76
-4.84 -10.24 3.76
-4.63 -10.33 3.76
-4.42 -10.42 3.76
-4.21 -10.51 3.76
-4.00 -10.59 3.76
-3.79 -10.67 3.76
-3.57 -10.74 3.76
-3.36 -10.81 3.76
-3.14 -10.88 3.76
-2.92 -10.94 3.76
-2.70 -11.00 3.76
-2.48 -11.05 3.76
-2.26 -11.09 3.76
-2.03 -11.14 3.76
-1.81 -11.18 3.76
-1.59 -11.21 3.76
-1.36 -11.24 3.76
-1.13 -11.26 3.76
-0.91 -11.29 3.76
-0.68 -11.30 3.76
-0.45 -11.31 3.76
-0.23 -11.32 3.76
-0.00 -10.52 3.76
0.21 -10.52 3.76
0.42 -10.52 3.76
0.63 -10.51 3.76
0.84 -10.49 3.76
1.05 -10.47 3.76
1.26 -10.45 3.76
1.47 -10.42 3.76
1.68 -10.39 3.76
1.89 -10.35 3.76
2.04 -10.04 3.67
2.24 -9.99 3.66
2.44 -9.94 3.66
2.64 -9.89 3.66
2.84 -9.83 3.66
3.04 -9.78 3.66
3.23 -9.71 3.66
3.43 -9.65 3.66
3.62 -9.57 3.66
3.81 -9.50 3.66
4.00 -9.42 3.66
4.19 -9.34 3.66
4.37 -9.25 3.66
4.56 -9.16 3.66
4.74 -9.07 3.66
4.92 -8.97 3.66
5.10 -8.87 3.66
5.28 -8.77 3.66
5.46 -8.66 3.66
5.63 -8.55 3.66
5.80 -8.44 3.66
5.97 -8.32 3.66
6.14 -8.20 3.66
6.30 -8.08 3.66
6.46 -7.95 3.66
6.62 -7.82 3.66
6.77 -7.68 3.66
6.93 -7.55 3.66
7.08 -7.40 3.66
7.22 -7.26 3.66
7.37 -7.11 3.66
7.51 -6.97 3.66
7.65 -6.81 3.66
7.78 -6.66 3.66
7.92 -6.50 3.66
8.05 -6.34 3.66
8.17 -6.18 3.66
8.29 -6.01 3.66
8.41 -5.84 3.66
8.53 -5.67 3.66
8.64 -5.50 3.66
8.75 -5.33 3.66
8.85 -5.15 3.66
8.96 -4.97 3.66
9.05 -4.79 3.66
9.15 -4.61 3.66
9.24 -4.42 3.66
9.33 -4.24 3.66
9.41 -4.05 3.66
9.49 -3.86 3.66
9.56 -3.67 3.66
9.64 -3.48 3.66
9.70 -3.28 3.66
9.77 -3.09 3.66
9.83 -2.89 3.66
9.88 -2.69 3.66
9.94 -2.49 3.66
9.98 -2.29 3.66
10.03 -2.09 3.66
10.07 -1.89 3.66
10.10 -1.69 3.66
10.13 -1.49 3.66
10.16 -1.28 3.66
10.19 -1.08 3.66
10.21 -0.87 3.66
10.22 -0.67 3.66
10.23 -0.46 3.66
10.24 -0.26 3.66
10.24 -0.05 3.66
10.24 0.15 3.66
10.24 0.36 3.66
10.23 0.57 3.66
10.21 0.77 3.66
10.20 0.98 3.66
10.18 1.18 3.66
10.15 1.38 3.66
10.12 1.59 3.66
10.09 1.79 3.66
10.05 1.99 3.66
10.01 2.19 3.66
9.96 2.39 3.66
9.91 2.59 3.66
9.86 2.79 3.66
9.80 2.99 3.66
9.74 3.18 3.66
9.67 3.38 3.66
9.60 3.57 3.66
9.53 3.77 3.66
9.45 3.96 3.66
9.37 4.14 3.66
9.28 4.33 3.66
9.19 4.52 3.66
9.10 4.70 3.66
9.00 4.88 3.66
8.91 5.06 3.66
8.80 5.24 3.66
8.69 5.42 3.66
8.58 5.59 3.66
8.47 5.76 3.66
8.35 5.93 3.66
8.26 6.11 3.67
8.13 6.28 3.67
8.00 6.44 3.67
7.87 6.60 3.67
7.74 6.76 3.67
7.60 6.91 3.67
7.46 7.06 3.67
7.32 7.21 3.67
7.17 7.35 3.67
7.02 7.50 3.67
6.87 7.64 3.67
6.72 7.77 3.67
6.56 7.91 3.67
6.40 8.04 3.67
6.24 8.16 3.67
6.05 8.26 3.66
5.88 8.38 3.66
5.71 8.49 3.66
5.54 8.61 3.66
5.37 8.71 3.66
5.19 8.82 3.66
5.01 8.92 3.66
4.83 9.02 3.66
4.65 9.12 3.66
2.36 4.87 1.94
4.28 9.30 3.66
4.09 9.38 3.66
3.91 9.46 3.66
3.71 9.54 3.66
3.52 9.61 3.66
3.33 9.68 3.66
3.13 9.74 3.66
2.94 9.80 3.66
2.74 9.86 3.66
2.54 9.91 3.66
2.34 9.96 3.66
2.14 10.01 3.66
1.99 10.33 3.76
1.79 10.37 3.76
1.58 10.41 3.76
1.37 10.43 3.76
1.16 10.46 3.76
0.95 10.48 3.76
0.74 10.49 3.76
0.53 10.51 3.76
0.32 10.52 3.76
0.11 10.52 3.76
-0.11 10.52 3.76
-0.32 10.52 3.76
-0.53 10.51 3.76
-0.74 10.49 3.76
-0.95 10.48 3.76
-1.16 10.46 3.76
-1.37 10.43 3.76
-1.58 10.41 3.76
-1.79 10.37 3.76
-1.99 10.33 3.76
-2.20 10.29 3.76
-2.41 10.24 3.76
-2.61 10.19 3.76
-2.82 10.14 3.76
-3.02 10.08 3.76
-3.22 10.02 3.76
-3.42 9.95 3.76
-3.62 9.88 3.76
-3.82 9.81 3.76
-4.02 9.73 3.76
-4.21 9.65 3.76
-4.40 9.56 3.76
-4.59 9.47 3.76
-4.78 9.37 3.76
-4.97 9.28 3.76
-5.15 9.18 3.76
-5.34 9.07 3.76
-5.52 8.96 3.76
-5.70 8.85 3.76
-5.87 8.73 3.76
-6.00 8.54 3.73
-6.05 8.26 3.66
-6.21 8.13 3.66
-6.38 8.01 3.66
-6.54 7.88 3.66
-6.69 7.74 3.66
-6.85 7.61 3.66
-7.00 7.47 3.66
-7.15 7.33 3.66
-7.29 7.18 3.66
-7.43 7.04 3.66
-7.57 6.88 3.66
-7.71 6.73 3.66
-7.84 6.58 3.66
-7.98 6.42 3.66
-8.10 6.25 3.66
-8.23 6.09 3.66
-8.35 5.92 3.66
-8.46 5.76 3.66
-8.58 5.58 3.66
-8.69 5.41 3.66
-8.80 5.24 3.66
-8.90 5.06 3.66
-9.00 4.88 3.66
-9.09 4.70 3.66
-9.19 4.51 3.66
-9.28 4.33 3.66
-9.36 4.14 3.66
-9.44 3.95 3.66
-9.52 3.76 3.66
-9.59 3.57 3.66
-9.66 3.38 3.66
-9.73 3.18 3.66
-9.79 2.99 3.66
-9.85 2.79 3.66
-9.90 2.59 3.66
-9.95 2.39 3.66
-9.97 2.19 3.65
-9.97 1.98 3.63
-9.97 1.77 3.62
-9.97 1.56 3.61
-9.97 1.36 3.60
-9.97 1.16 3.59
-9.97 0.95 3.58
-9.97 0.75 3.58
-9.97 0.55 3.57
-9.97 0.35 3.57
-9.97 0.15 3.57
-9.97 -0.05 3.57
-9.97 -0.25 3.57
-9.97 -0.45 3.57
-9.97 -0.65 3.57
-9.97 -0.85 3.58
-9.97 -1.05 3.58
-9.97 -1.26 3.59
-9.97 -1.46 3.60
-9.97 -1.67 3.61
-9.97 -1.87 3.63
-9.97 -2.08 3.64
-9.97 -2.29 3.66
-9.93 -2.49 3.66
-9.88 -2.69 3.66
-9.82 -2.89 3.66
-9.76 -3.08 3.66
-9.70 -3.28 3.66
-9.63 -3.47 3.66
-9.56 -3.67 3.66
-9.48 -3.86 3.66
-9.40 -4.05 3.66
-9.32 -4.23 3.66
-9.23 -4.42 3.66
-9.14 -4.61 3.66
-9.05 -4.79 3.66
-8.95 -4.97 3.66
-8.85 -5.15 3.66
-8.74 -5.32 3.66
-8.63 -5.50 3.66
-8.52 -5.67 3.66
-8.41 -5.84 3.66
-8.29 -6.01 3.66
-8.16 -6.17 3.66
-8.04 -6.34 3.66
-7.91 -6.50 3.66
-7.78 -6.65 3.66
-7.64 -6.81 3.66
-7.50 -6.96 3.66
-7.36 -7.11 3.66
-7.22 -7.26 3.66
-7.07 -7.40 3.66
-6.92 -7.54 3.66
-6.77 -7.68 3.66
-6.61 -7.81 3.66
-6.46 -7.94 3.66
-6.30 -8.07 3.66
-6.13 -8.20 3.66
-6.02 -8.39 3.69
-5.96 -8.67 3.76
-5.79 -8.79 3.76
-5.61 -8.90 3.76
-5.43 -9.02 3.76
-5.25 -9.12 3.76
-5.06 -9.23 3.76
-4.88 -9.33 3.76
-4.69 -9.42 3.76
-4.50 -9.51 3.76
-4.31 -9.60 3.76
-4.11 -9.69 3.76
-3.92 -9.77 3.76
-3.72 -9.84 3.76
-3.52 -9.92 3.76
-3.32 -9.99 3.76
-3.12 -10.05 3.76
-2.92 -10.11 3.76
-2.72 -10.17 3.76
-2.51 -10.22 3.76
-2.31 -10.27 3.76
-2.10 -10.31 3.76
-1.89 -10.35 3.76
-1.68 -10.39 3.76
-1.47 -10.42 3.76
-1.26 -10.45 3.76
-1.05 -10.47 3.76
-0.84 -10.49 3.76
-0.63 -10.50 3.76
-0.42 -10.52 3.76
-0.21 -10.52 3.76
-0.00 -9.82 3.76
0.20 -9.82 3.76
0.39 -9.81 3.76
0.59 -9.80 3.76
0.79 -9.79 3.76
0.98 -9.77 3.76
1.18 -9.75 3.76
1.38 -9.72 3.76
1.57 -9.69 3.76
1.76 -9.66 3.76
1.96 -9.62 3.76
2.09 -9.32 3.66
2.28 -9.28 3.66
2.46 -9.23 3.66
2.65 -9.18 3.66
2.83 -9.12 3.66
3.02 -9.06 3.66
3.20 -9.00 3.66
3.38 -8.93 3.66
3.56 -8.87 3.66
3.73 -8.79 3.66
3.91 -8.72 3.66
4.08 -8.64 3.66
4.26 -8.55 3.66
4.43 -8.46 3.66
4.59 -8.37 3.66
4.76 -8.28 3.66
4.93 -8.18 3.66
5.09 -8.08 3.66
5.25 -7.98 3.66
5.41 -7.87 3.66
5.57 -7.76 3.66
5.72 -7.65 3.66
5.87 -7.53 3.66
6.02 -7.41 3.66
6.18 -7.29 3.66
6.32 -7.17 3.66
6.46 -7.04 3.66
6.60 -6.91 3.66
6.74 -6.78 3.66
6.88 -6.64 3.66
7.01 -6.50 3.66
7.14 -6.36 3.66
7.26 -6.21 3.66
7.39 -6.07 3.66
7.51 -5.92 3.66
7.62 -5.76 3.66
7.74 -5.61 3.66
7.85 -5.45 3.66
7.96 -5.30 3.66
8.06 -5.13 3.66
8.16 -4.97 3.66
8.26 -4.81 3.66
8.36 -4.64 3.66
8.45 -4.47 3.66
8.54 -4.30 3.66
8.62 -4.13 3.66
8.70 -3.95 3.66
8.78 -3.78 3.66
8.85 -3.60 3.66
8.92 -3.42 3.66
8.99 -3.24 3.66
9.05 -3.06 3.66
9.11 -2.88 3.66
9.17 -2.70 3.66
9.22 -2.51 3.66
9.27 -2.33 3.66
9.32 -2.14 3.66
9.36 -1.95 3.66
9.39 -1.76 3.66
9.43 -1.58 3.66
9.46 -1.39 3.66
9.48 -1.20 3.66
9.51 -1.01 3.66
9.52 -0.81 3.66
9.54 -0.62 3.66
9.55 -0.43 3.66
9.56 -0.24 3.66
9.56 -0.05 3.66
9.56 0.14 3.66
9.55 0.34 3.66
9.54 0.53 3.66
9.53 0.72 3.66
9.52 0.91 3.66
9.50 1.10 3.66
9.47 1.29 3.66
9.44 1.48 3.66
9.41 1.67 3.66
9.38 1.86 3.66
9.34 2.05 3.66
9.29 2.23 3.66
9.25 2.42 3.66
9.20 2.60 3.66
9.14 2.79 3.66
9.08 2.97 3.66
9.02 3.15 3.66
8.96 3.33 3.66
8.89 3.51 3.66
8.82 3.69 3.66
8.74 3.87 3.66
8.66 4.04 3.66
8.58 4.22 3.66
8.49 4.39 3.66
8.40 4.56 3.66
8.31 4.72 3.66
8.21 4.89 3.66
8.11 5.05 3.66
8.01 5.22 3.66
7.90 5.38 3.66
7.79 5.53 3.66
7.68 5.69 3.66
7.57 5.84 3.66
