ply
format ascii 1.0
element vertex 2987
property float32 x
property float32 y
property float32 z
end_header
-4.22 -11.86 2.50
-3.98 -11.94 2.50
-3.74 -12.01 2.50
-3.50 -12.08 2.50
-3.25 -12.14 2.50
-3.01 -12.20 2.50
-2.76 -12.25 2.50
-2.52 -12.30 2.50
-2.27 -12.34 2.50
-2.02 -12.38 2.50
-1.77 -12.41 2.50
-1.52 -12.44 2.50
-1.27 -12.46 2.50
-1.02 -12.47 2.50
-0.77 -12.48 2.50
-0.52 -12.49 2.50
-0.27 -12.49 2.50
-0.02 -11.17 2.50
0.21 -11.16 2.50
0.43 -11.14 2.50
0.65 -11.12 2.50
0.87 -11.10 2.50
1.09 -11.07 2.50
1.31 -11.04 2.50
1.53 -11.00 2.50
1.75 -10.96 2.50
1.93 -10.71 2.45
2.10 -10.41 2.39
2.30 -10.36 2.39
2.51 -10.30 2.39
2.71 -10.24 2.39
2.91 -10.18 2.39
3.11 -10.11 2.39
3.31 -10.03 2.39
3.51 -9.96 2.39
3.70 -9.88 2.39
3.90 -9.79 2.39
4.09 -9.70 2.39
4.28 -9.61 2.39
4.47 -9.51 2.39
4.65 -9.41 2.39
4.83 -9.30 2.39
4.23 -7.77 2.02
4.19 -7.33 1.93
4.29 -7.17 1.91
4.39 -7.01 1.89
4.46 -6.82 1.87
4.53 -6.62 1.84
4.63 -6.49 1.83
4.74 -6.37 1.83
4.97 -6.41 1.87
5.10 -6.31 1.87
5.19 -6.17 1.86
5.29 -6.03 1.85
5.48 -6.00 1.88
5.73 -6.03 1.93
5.87 -5.93 1.94
5.97 -5.80 1.93
6.15 -5.74 1.96
3.80 -3.40 1.19
3.75 -3.23 1.15
3.77 -3.12 1.14
3.82 -3.03 1.14
3.86 -2.94 1.13
3.91 -2.85 1.13
3.98 -2.79 1.14
4.06 -2.72 1.15
4.14 -2.65 1.16
4.22 -2.59 1.16
4.30 -2.52 1.17
4.36 -2.44 1.18
4.43 -2.36 1.18
4.49 -2.28 1.19
4.61 -2.22 1.21
4.73 -2.17 1.23
5.18 -2.25 1.34
5.29 -2.17 1.36
5.37 -2.08 1.37
4.07 -1.48 1.03
4.00 -1.37 1.01
3.97 -1.27 0.99
3.95 -1.17 0.98
3.93 -1.08 0.97
3.99 -1.01 0.99
4.10 -0.95 1.01
4.22 -0.89 1.03
4.29 -0.82 1.05
4.50 -0.77 1.10
7.80 -1.17 1.90
11.93 -1.54 2.90
11.87 -1.29 2.88
11.80 -1.04 2.86
11.72 -0.80 2.84
11.70 -0.56 2.83
11.67 -0.32 2.83
11.65 -0.09 2.82
11.62 0.14 2.82
11.58 0.38 2.81
11.52 0.61 2.80
11.46 0.83 2.79
11.39 1.06 2.79
11.33 1.29 2.78
11.29 1.51 2.78
7.62 1.18 1.88
7.33 1.28 1.82
7.34 1.44 1.83
7.32 1.59 1.83
7.56 1.80 1.90
5.30 1.37 1.34
5.05 1.42 1.29
4.73 1.43 1.21
4.64 1.51 1.20
2.67 0.93 0.69
2.34 0.87 0.61
2.47 0.97 0.65
2.34 0.97 0.62
2.21 0.98 0.60
2.05 0.95 0.56
4.30 2.10 1.18
4.37 2.25 1.21
4.38 2.37 1.23
4.37 2.48 1.24
4.32 2.56 1.24
4.29 2.67 1.25
4.31 2.80 1.27
4.41 2.99 1.32
4.45 3.15 1.35
4.46 3.29 1.37
4.47 3.44 1.40
4.56 3.66 1.45
4.54 3.80 1.47
4.52 3.94 1.49
4.50 4.08 1.51
5.36 5.07 1.83
5.27 5.18 1.84
5.25 5.37 1.87
5.14 5.48 1.87
5.05 5.60 1.87
4.99 5.77 1.90
4.96 5.97 1.93
4.94 6.20 1.97
5.07 6.63 2.08
4.97 6.79 2.09
4.84 6.89 2.09
4.73 7.02 2.11
4.62 7.17 2.12
4.97 8.07 2.36
4.80 8.16 2.36
4.71 8.39 2.39
4.54 8.48 2.39
4.37 8.57 2.39
4.20 8.66 2.39
4.02 8.74 2.39
3.85 8.82 2.39
3.67 8.90 2.39
3.49 8.97 2.39
3.31 9.04 2.39
3.13 9.11 2.39
2.94 9.17 2.39
2.76 9.23 2.39
2.57 9.29 2.39
2.39 9.34 2.39
2.20 9.40 2.39
2.10 9.85 2.50
1.90 9.89 2.50
1.70 9.93 2.50
1.50 9.97 2.50
1.30 10.00 2.50
1.10 10.03 2.50
0.90 10.05 2.50
0.69 10.07 2.50
0.49 10.09 2.50
0.29 10.11 2.50
0.09 10.12 2.50
-0.12 10.12 2.50
-0.32 10.12 2.50
-0.53 10.12 2.50
-0.73 10.11 2.50
-0.93 10.10 2.50
-1.14 10.09 2.50
-1.34 10.07 2.50
-1.55 10.05 2.50
-1.75 10.03 2.50
-1.95 10.00 2.50
-2.15 9.96 2.50
-2.36 9.93 2.50
-2.56 9.88 2.50
-2.76 9.84 2.50
-2.96 9.79 2.50
-3.16 9.74 2.50
-3.35 9.68 2.50
-3.55 9.62 2.50
-3.75 9.55 2.50
-3.94 9.49 2.50
-4.14 9.41 2.50
-4.33 9.34 2.50
-4.52 9.26 2.50
-4.71 9.17 2.50
-4.90 9.09 2.50
-5.09 8.99 2.50
-5.27 8.90 2.50
-5.45 8.80 2.50
-5.64 8.70 2.50
-5.82 8.59 2.50
-5.86 8.29 2.44
-5.91 8.02 2.39
-6.08 7.91 2.39
-6.24 7.80 2.39
-6.41 7.68 2.39
-6.57 7.56 2.39
-6.73 7.43 2.39
-6.88 7.30 2.39
-7.03 7.17 2.39
-7.18 7.04 2.39
-7.33 6.90 2.39
-7.48 6.76 2.39
-7.62 6.61 2.39
-7.76 6.47 2.39
-7.90 6.32 2.39
-8.03 6.16 2.39
-8.17 6.01 2.39
-8.29 5.85 2.39
-8.42 5.69 2.39
-8.54 5.52 2.39
-8.66 5.36 2.39
-8.78 5.19 2.39
-8.89 5.02 2.39
-9.00 4.84 2.39
-9.11 4.67 2.39
-9.21 4.49 2.39
-9.31 4.31 2.39
-9.40 4.13 2.39
-9.49 3.94 2.39
-9.58 3.75 2.39
-9.67 3.57 2.39
-9.75 3.38 2.39
-9.83 3.18 2.39
-9.90 2.99 2.39
-10.10 2.83 2.42
-10.14 2.62 2.42
-10.19 2.42 2.41
-10.23 2.21 2.41
-10.28 2.01 2.41
-10.33 1.80 2.41
-10.38 1.60 2.41
-10.42 1.39 2.41
-10.45 1.18 2.41
-10.47 0.97 2.41
-10.50 0.76 2.41
-10.52 0.55 2.41
-10.54 0.34 2.40
-10.57 0.13 2.41
-10.59 -0.08 2.41
-10.61 -0.29 2.41
-10.63 -0.51 2.42
-10.63 -0.72 2.42
-10.62 -0.93 2.42
-10.62 -1.15 2.42
-10.61 -1.36 2.42
-10.59 -1.58 2.42
-10.57 -1.79 2.42
-10.55 -2.01 2.42
-10.52 -2.22 2.43
-10.49 -2.43 2.43
-10.46 -2.65 2.43
-10.42 -2.86 2.43
-10.38 -3.08 2.43
-10.34 -3.29 2.44
-10.29 -3.50 2.44
-10.03 -3.64 2.39
-9.96 -3.84 2.39
-9.89 -4.04 2.39
-9.81 -4.24 2.39
-9.73 -4.44 2.39
-9.65 -4.64 2.39
-6.27 -3.17 1.57
-9.47 -5.03 2.39
-9.37 -5.22 2.39
-9.27 -5.41 2.39
-9.16 -5.60 2.39
-9.06 -5.78 2.39
-8.94 -5.97 2.39
-8.83 -6.15 2.39
-8.70 -6.32 2.39
-8.58 -6.50 2.39
-8.45 -6.67 2.39
-8.32 -6.84 2.39
-8.18 -7.01 2.39
-8.04 -7.18 2.39
-7.90 -7.34 2.39
-7.76 -7.50 2.39
-7.61 -7.65 2.39
-7.45 -7.81 2.39
-7.30 -7.96 2.39
-7.14 -8.10 2.39
-6.98 -8.24 2.39
-6.81 -8.38 2.39
-6.64 -8.52 2.39
-6.47 -8.65 2.39
-6.30 -8.78 2.39
-6.12 -8.91 2.39
-6.09 -9.26 2.45
-6.01 -9.54 2.50
-5.82 -9.66 2.50
-5.62 -9.77 2.50
-5.42 -9.88 2.50
-5.22 -9.99 2.50
-5.02 -10.09 2.50
-4.82 -10.18 2.50
-4.61 -10.28 2.50
-4.41 -10.37 2.50
-4.20 -10.45 2.50
-3.99 -10.53 2.50
-3.77 -10.60 2.50
-3.56 -10.67 2.50
-3.34 -10.74 2.50
-3.13 -10.80 2.50
-2.91 -10.86 2.50
-2.69 -10.91 2.50
-2.47 -10.96 2.50
-2.25 -11.00 2.50
-2.03 -11.04 2.50
-1.81 -11.07 2.50
-1.58 -11.10 2.50
-1.36 -11.12 2.50
-1.14 -11.14 2.50
-0.91 -11.16 2.50
-0.69 -11.17 2.50
-0.47 -11.17 2.50
-0.24 -11.17 2.50
-0.02 -10.09 2.50
0.18 -10.08 2.50
0.39 -10.07 2.50
0.59 -10.06 2.50
0.79 -10.04 2.50
0.99 -10.01 2.50
1.19 -9.98 2.50
1.39 -9.95 2.50
1.58 -9.91 2.50
1.78 -9.87 2.50
1.95 -9.69 2.46
2.08 -9.37 2.39
2.27 -9.32 2.39
2.45 -9.27 2.39
2.63 -9.21 2.39
2.81 -9.15 2.39
3.00 -9.08 2.39
3.17 -9.01 2.39
3.35 -8.94 2.39
3.53 -8.86 2.39
3.70 -8.78 2.39
3.87 -8.70 2.39
4.04 -8.61 2.39
4.21 -8.52 2.39
4.37 -8.43 2.39
4.21 -7.73 2.22
4.18 -7.32 2.13
4.26 -7.13 2.10
4.35 -6.95 2.07
4.40 -6.74 2.04
4.48 -6.56 2.01
4.57 -6.41 2.00
4.67 -6.29 1.99
4.80 -6.19 1.99
4.93 -6.11 2.00
5.07 -6.02 2.01
5.21 -5.94 2.02
5.42 -5.94 2.05
5.68 -5.98 2.11
5.75 -5.82 2.09
5.86 -5.70 2.09
3.73 -3.48 1.31
3.70 -3.31 1.27
3.68 -3.17 1.25
3.71 -3.07 1.24
3.75 -2.97 1.23
3.79 -2.89 1.23
3.84 -2.80 1.23
3.91 -2.74 1.23
3.99 -2.67 1.24
4.07 -2.61 1.25
4.16 -2.55 1.26
4.24 -2.49 1.28
4.32 -2.42 1.28
4.38 -2.34 1.29
4.45 -2.26 1.30
4.55 -2.20 1.32
4.66 -2.14 1.34
4.78 -2.08 1.36
4.91 -2.02 1.39
5.18 -2.01 1.45
4.09 -1.49 1.14
4.02 -1.37 1.11
3.99 -1.28 1.10
3.97 -1.18 1.09
3.94 -1.09 1.08
3.97 -1.01 1.08
4.05 -0.94 1.10
4.18 -0.89 1.13
4.27 -0.82 1.15
4.35 -0.74 1.17
4.75 -0.71 1.27
4.32 -0.56 1.15
4.26 -0.46 1.13
4.32 -0.38 1.15
11.07 -0.76 2.95
11.05 -0.53 2.94
11.03 -0.31 2.94
11.01 -0.09 2.93
10.98 0.13 2.93
10.96 0.35 2.92
10.93 0.57 2.92
6.60 0.48 1.77
6.52 0.61 1.75
6.51 0.74 1.75
5.93 0.79 1.60
5.83 0.90 1.58
5.83 1.02 1.59
5.83 1.14 1.60
5.81 1.26 1.60
5.37 1.28 1.48
5.20 1.35 1.44
4.72 1.33 1.32
4.64 1.40 1.31
4.51 1.46 1.28
2.63 0.91 0.75
2.34 0.87 0.67
2.47 0.97 0.72
2.34 0.97 0.68
2.22 0.98 0.65
2.05 0.95 0.61
4.18 2.05 1.26
4.16 2.14 1.27
4.20 2.27 1.30
4.28 2.42 1.33
4.26 2.53 1.34
4.24 2.63 1.35
4.22 2.74 1.37
4.31 2.92 1.41
4.40 3.11 1.47
4.41 3.26 1.49
4.42 3.40 1.52
4.46 3.58 1.56
4.55 3.80 1.61
4.50 3.92 1.63
4.46 4.05 1.64
4.58 4.33 1.72
5.24 5.16 2.00
5.21 5.34 2.03
5.12 5.46 2.04
5.00 5.55 2.04
4.94 5.71 2.06
4.88 5.88 2.08
4.89 6.14 2.14
5.15 6.73 2.31
4.97 6.78 2.29
4.81 6.85 2.28
4.70 6.99 2.30
4.62 7.17 2.33
4.54 7.38 2.36
4.45 7.56 2.39
4.29 7.65 2.39
4.14 7.73 2.39
3.98 7.81 2.39
3.83 7.89 2.39
3.67 7.97 2.39
3.51 8.04 2.39
3.34 8.11 2.39
3.18 8.18 2.39
3.02 8.24 2.39
2.85 8.31 2.39
2.68 8.36 2.39
2.51 8.42 2.39
2.34 8.47 2.39
2.18 8.54 2.40
2.09 8.93 2.50
1.91 8.98 2.50
1.73 9.02 2.50
1.55 9.05 2.50
1.37 9.08 2.50
1.18 9.11 2.50
1.00 9.14 2.50
0.82 9.16 2.50
0.63 9.18 2.50
0.45 9.20 2.50
0.26 9.21 2.50
0.08 9.22 2.50
-0.11 9.22 2.50
-0.30 9.22 2.50
-0.48 9.22 2.50
-0.67 9.22 2.50
-0.85 9.21 2.50
-1.04 9.19 2.50
-1.22 9.18 2.50
-1.41 9.16 2.50
-1.59 9.13 2.50
-1.78 9.10 2.50
-1.96 9.07 2.50
-2.15 9.04 2.50
-2.33 9.00 2.50
-2.51 8.96 2.50
-2.69 8.91 2.50
-2.88 8.86 2.50
-3.06 8.81 2.50
-3.24 8.76 2.50
-3.41 8.70 2.50
-3.59 8.63 2.50
-3.77 8.57 2.50
-3.94 8.50 2.50
-4.12 8.42 2.50
-4.29 8.35 2.50
-4.46 8.26 2.50
-4.63 8.18 2.50
-4.80 8.09 2.50
-4.96 8.00 2.50
-5.13 7.91 2.50
-5.29 7.81 2.50
-5.45 7.71 2.50
-5.61 7.61 2.50
-5.77 7.50 2.50
-5.87 7.33 2.47
-5.88 7.04 2.41
-5.97 6.87 2.39
-6.11 6.75 2.39
-6.26 6.63 2.39
-6.39 6.51 2.39
-6.53 6.39 2.39
-6.66 6.26 2.39
-6.80 6.14 2.39
-6.92 6.00 2.39
-7.05 5.87 2.39
-7.18 5.73 2.39
-7.30 5.59 2.39
-7.42 5.45 2.39
-7.53 5.31 2.39
-7.64 5.16 2.39
-7.76 5.01 2.39
-7.86 4.86 2.39
-7.97 4.71 2.39
-8.07 4.55 2.39
-8.17 4.39 2.39
-8.26 4.23 2.39
-8.36 4.07 2.39
-8.44 3.91 2.39
-8.53 3.74 2.39
-8.61 3.57 2.39
-8.69 3.40 2.39
-8.77 3.23 2.39
-8.84 3.06 2.39
-8.91 2.88 2.39
-8.97 2.71 2.39
-9.04 2.53 2.39
-9.09 2.35 2.39
-9.15 2.17 2.39
-9.20 1.99 2.39
-9.25 1.80 2.39
-9.29 1.62 2.39
-9.33 1.43 2.39
-9.37 1.25 2.39
-9.40 1.06 2.39
-9.43 0.87 2.39
-9.45 0.69 2.39
-9.47 0.50 2.39
-9.49 0.31 2.39
-9.50 0.12 2.39
-9.51 -0.07 2.39
-9.52 -0.26 2.39
-9.52 -0.46 2.39
-9.52 -0.65 2.39
-9.51 -0.84 2.39
-9.50 -1.03 2.39
-9.49 -1.22 2.39
-9.47 -1.41 2.39
-9.45 -1.60 2.39
-9.42 -1.79 2.39
-9.39 -1.98 2.39
-9.36 -2.17 2.39
-9.32 -2.36 2.39
-9.28 -2.55 2.39
-9.23 -2.74 2.39
-9.18 -2.92 2.39
-9.13 -3.11 2.39
-9.07 -3.29 2.39
-9.01 -3.48 2.39
-8.94 -3.66 2.39
-8.87 -3.84 2.39
-8.80 -4.02 2.39
-8.72 -4.19 2.39
-6.27 -3.17 1.74
-8.56 -4.55 2.39
-8.47 -4.72 2.39
-8.38 -4.89 2.39
-8.28 -5.06 2.39
-8.18 -5.23 2.39
-8.08 -5.39 2.39
-7.97 -5.55 2.39
-7.86 -5.72 2.39
-7.75 -5.87 2.39
-7.63 -6.03 2.39
-7.52 -6.18 2.39
-7.39 -6.34 2.39
-7.27 -6.48 2.39
-7.14 -6.63 2.39
-7.01 -6.77 2.39
-6.87 -6.91 2.39
-6.73 -7.05 2.39
-6.59 -7.19 2.39
-6.45 -7.32 2.39
-6.30 -7.45 2.39
-6.15 -7.57 2.39
-6.08 -7.80 2.42
-6.08 -8.13 2.49
-5.93 -8.27 2.50
-5.77 -8.39 2.50
-5.60 -8.50 2.50
-5.43 -8.61 2.50
-5.25 -8.72 2.50
-5.08 -8.82 2.50
-4.90 -8.92 2.50
-4.72 -9.02 2.50
-4.54 -9.11 2.50
-4.35 -9.20 2.50
-4.17 -9.28 2.50
-3.98 -9.36 2.50
-3.79 -9.44 2.50
-3.60 -9.51 2.50
-3.41 -9.58 2.50
-3.22 -9.64 2.50
-3.02 -9.70 2.50
-2.83 -9.76 2.50
-2.63 -9.81 2.50
-2.43 -9.85 2.50
-2.23 -9.90 2.50
-2.03 -9.94 2.50
-1.83 -9.97 2.50
-1.63 -10.00 2.50
-1.43 -10.03 2.50
-1.23 -10.05 2.50
-1.03 -10.07 2.50
-0.83 -10.08 2.50
-0.62 -10.09 2.50
-0.42 -10.10 2.50
-0.22 -10.10 2.50
-0.02 -9.20 2.50
0.17 -9.19 2.50
0.35 -9.18 2.50
0.53 -9.17 2.50
0.72 -9.15 2.50
0.90 -9.13 2.50
1.08 -9.10 2.50
1.26 -9.07 2.50
1.44 -9.04 2.50
1.62 -9.00 2.50
1.80 -8.96 2.50
1.96 -8.83 2.47
2.06 -8.50 2.39
2.23 -8.45 2.39
2.40 -8.40 2.39
2.57 -8.34 2.39
2.73 -8.28 2.39
2.89 -8.22 2.39
3.05 -8.16 2.39
3.21 -8.09 2.39
3.37 -8.01 2.39
3.53 -7.94 2.39
3.69 -7.86 2.39
3.84 -7.78 2.39
3.99 -7.69 2.39
4.14 -7.60 2.39
4.19 -7.34 2.34
4.28 -7.16 2.31
4.38 -7.00 2.29
4.45 -6.81 2.26
4.52 -6.62 2.23
4.59 -6.45 2.20
4.67 -6.29 2.18
4.76 -6.14 2.16
4.85 -6.01 2.15
4.95 -5.89 2.15
5.14 -5.87 2.18
5.39 -5.92 2.24
5.59 -5.89 2.27
5.64 -5.71 2.25
4.51 -4.38 1.76
3.64 -3.40 1.40
3.62 -3.25 1.37
3.63 -3.13 1.35
3.66 -3.03 1.34
3.69 -2.93 1.33
3.73 -2.84 1.32
3.77 -2.75 1.32
3.84 -2.69 1.32
3.92 -2.63 1.34
4.01 -2.58 1.35
4.10 -2.52 1.36
4.19 -2.46 1.38
4.26 -2.38 1.39
4.33 -2.31 1.40
4.40 -2.24 1.40
4.49 -2.17 1.42
4.60 -2.11 1.44
4.70 -2.04 1.46
4.83 -1.99 1.49
4.28 -1.66 1.31
4.10 -1.50 1.25
4.04 -1.38 1.22
4.02 -1.29 1.21
3.99 -1.19 1.20
3.96 -1.09 1.18
3.95 -1.01 1.17
4.02 -0.94 1.19
4.13 -0.88 1.21
4.18 -0.80 1.23
4.18 -0.71 1.22
4.15 -0.62 1.21
4.15 -0.54 1.21
4.20 -0.46 1.22
4.33 -0.38 1.26
6.75 -0.46 1.96
10.41 -0.50 3.02
10.39 -0.29 3.02
10.36 -0.09 3.01
10.33 0.12 3.00
10.29 0.33 3.00
6.57 0.34 1.92
6.37 0.46 1.86
6.26 0.58 1.84
6.20 0.70 1.82
5.58 0.74 1.64
5.55 0.85 1.64
5.62 0.98 1.67
5.71 1.12 1.70
5.42 1.17 1.62
5.27 1.25 1.59
5.13 1.33 1.55
4.62 1.30 1.41
4.48 1.35 1.37
4.37 1.42 1.35
4.33 1.50 1.35
2.34 0.87 0.73
2.47 0.97 0.78
2.34 0.97 0.75
2.08 0.91 0.67
2.08 0.97 0.68
4.18 2.04 1.37
4.15 2.13 1.38
4.11 2.22 1.38
4.11 2.33 1.40
4.18 2.48 1.44
4.16 2.58 1.45
4.14 2.68 1.46
4.11 2.78 1.47
4.34 3.07 1.58
4.36 3.22 1.61
4.37 3.37 1.63
4.38 3.51 1.66
4.55 3.80 1.76
4.49 3.91 1.77
4.42 4.01 1.77
4.36 4.11 1.78
5.30 5.21 2.21
5.22 5.34 2.22
5.13 5.47 2.23
4.99 5.54 2.21
4.92 5.69 2.24
4.90 5.90 2.28
4.88 6.12 2.33
4.89 6.40 2.39
4.76 6.49 2.39
4.63 6.59 2.39
4.49 6.68 2.39
4.36 6.77 2.39
4.22 6.85 2.39
4.08 6.94 2.39
3.94 7.02 2.39
3.80 7.10 2.39
3.66 7.17 2.39
3.51 7.25 2.39
3.37 7.32 2.39
3.22 7.38 2.39
3.07 7.45 2.39
2.92 7.51 2.39
2.77 7.57 2.39
2.61 7.62 2.39
2.46 7.68 2.39
2.31 7.73 2.39
2.19 7.90 2.43
2.08 8.16 2.50
1.92 8.20 2.50
1.75 8.24 2.50
1.59 8.27 2.50
1.42 8.31 2.50
1.25 8.34 2.50
1.08 8.36 2.50
0.92 8.39 2.50
0.75 8.41 2.50
0.58 8.43 2.50
0.41 8.44 2.50
0.24 8.45 2.50
0.07 8.46 2.50
-0.10 8.46 2.50
-0.27 8.46 2.50
-0.44 8.46 2.50
-0.61 8.45 2.50
-0.78 8.44 2.50
-0.95 8.43 2.50
-1.12 8.42 2.50
-1.29 8.40 2.50
-1.46 8.37 2.50
-1.63 8.35 2.50
-1.80 8.32 2.50
-1.97 8.29 2.50
-2.14 8.25 2.50
-2.31 8.21 2.50
-2.47 8.17 2.50
-2.64 8.13 2.50
-2.80 8.08 2.50
-2.97 8.03 2.50
-3.13 7.97 2.50
-3.29 7.91 2.50
-3.45 7.85 2.50
-3.61 7.79 2.50
-3.77 7.72 2.50
-3.93 7.65 2.50
-4.09 7.57 2.50
-4.24 7.50 2.50
-4.40 7.41 2.50
-4.55 7.33 2.50
-4.70 7.24 2.50
-4.85 7.16 2.50
-5.00 7.06 2.50
-5.14 6.97 2.50
-5.29 6.87 2.50
-5.43 6.77 2.50
-5.57 6.66 2.50
-5.71 6.56 2.50
-5.84 6.45 2.50
-5.89 6.24 2.46
-5.90 6.00 2.41
-5.98 5.85 2.39
-6.10 5.73 2.39
-6.22 5.61 2.39
-6.34 5.49 2.39
-6.45 5.37 2.39
-6.57 5.24 2.39
-6.68 5.12 2.39
-6.79 4.99 2.39
-6.89 4.85 2.39
-6.99 4.72 2.39
-7.09 4.58 2.39
-7.19 4.44 2.39
-7.29 4.30 2.39
-7.38 4.16 2.39
-7.47 4.01 2.39
-7.56 3.87 2.39
-7.64 3.72 2.39
-7.72 3.57 2.39
-7.80 3.42 2.39
-7.87 3.26 2.39
-7.94 3.11 2.39
-8.01 2.95 2.39
-8.08 2.79 2.39
-8.14 2.63 2.39
-8.20 2.47 2.39
-8.26 2.31 2.39
-8.31 2.14 2.39
-8.36 1.98 2.39
-8.40 1.81 2.39
-8.45 1.65 2.39
-8.49 1.48 2.39
-8.52 1.31 2.39
-8.55 1.14 2.39
-8.58 0.97 2.39
-8.61 0.80 2.39
-8.63 0.62 2.39
-8.65 0.45 2.39
-8.66 0.28 2.39
-8.67 0.10 2.39
-8.68 -0.07 2.39
-8.69 -0.24 2.39
-8.69 -0.42 2.39
-8.68 -0.59 2.39
-8.68 -0.77 2.39
-8.67 -0.94 2.39
-8.65 -1.12 2.39
-8.64 -1.29 2.39
-8.62 -1.46 2.39
-8.59 -1.64 2.39
-8.56 -1.81 2.39
-8.53 -1.98 2.39
-8.50 -2.15 2.39
-8.46 -2.33 2.39
-8.41 -2.50 2.39
-8.37 -2.67 2.39
-8.32 -2.83 2.39
-8.27 -3.00 2.39
-8.21 -3.17 2.39
-8.15 -3.33 2.39
-8.08 -3.50 2.39
-8.02 -3.66 2.39
-7.95 -3.82 2.39
-6.27 -3.17 1.90
-7.80 -4.14 2.39
-7.72 -4.30 2.39
-7.63 -4.46 2.39
-7.54 -4.61 2.39
-7.45 -4.76 2.39
-7.36 -4.91 2.39
-7.26 -5.06 2.39
-7.16 -5.21 2.39
-7.06 -5.35 2.39
-6.95 -5.49 2.39
-6.85 -5.63 2.39
-6.73 -5.77 2.39
-6.62 -5.91 2.39
-6.50 -6.04 2.39
-6.38 -6.17 2.39
-6.26 -6.30 2.39
-6.13 -6.42 2.39
-6.06 -6.61 2.42
-6.06 -6.88 2.47
-5.99 -7.08 2.50
-5.84 -7.19 2.50
-5.70 -7.31 2.50
-5.55 -7.42 2.50
-5.40 -7.53 2.50
-5.25 -7.64 2.50
-5.10 -7.74 2.50
-4.94 -7.85 2.50
-4.78 -7.94 2.50
-4.62 -8.04 2.50
-4.46 -8.13 2.50
-4.30 -8.21 2.50
-4.13 -8.30 2.50
-3.97 -8.38 2.50
-3.80 -8.45 2.50
-3.63 -8.53 2.50
-3.45 -8.60 2.50
-3.28 -8.66 2.50
-3.11 -8.72 2.50
-2.93 -8.78 2.50
-2.75 -8.84 2.50
-2.58 -8.89 2.50
-2.40 -8.93 2.50
-2.22 -8.98 2.50
-2.04 -9.02 2.50
-1.85 -9.05 2.50
-1.67 -9.08 2.50
-1.49 -9.11 2.50
-1.31 -9.14 2.50
-1.12 -9.16 2.50
-0.94 -9.17 2.50
-0.76 -9.19 2.50
-0.57 -9.19 2.50
-0.39 -9.20 2.50
-0.20 -9.20 2.50
-0.02 -8.44 2.50
0.15 -8.44 2.50
0.32 -8.43 2.50
0.49 -8.41 2.50
0.66 -8.40 2.50
0.82 -8.38 2.50
0.99 -8.35 2.50
1.16 -8.33 2.50
1.32 -8.30 2.50
1.49 -8.26 2.50
1.65 -8.23 2.50
1.81 -8.19 2.50
1.97 -8.11 2.49
2.05 -7.76 2.39
2.20 -7.71 2.39
2.35 -7.66 2.39
2.51 -7.61 2.39
2.66 -7.55 2.39
2.80 -7.49 2.39
2.95 -7.43 2.39
3.10 -7.36 2.39
3.24 -7.29 2.39
3.38 -7.22 2.39
3.53 -7.15 2.39
3.66 -7.07 2.39
3.80 -6.99 2.39
3.94 -6.90 2.39
4.07 -6.82 2.39
4.20 -6.73 2.39
4.33 -6.64 2.39
4.46 -6.54 2.39
4.59 -6.45 2.39
4.68 -6.31 2.38
4.75 -6.14 2.35
4.83 -5.98 2.33
4.89 -5.82 2.31
5.06 -5.79 2.33
4.80 -5.27 2.16
4.56 -4.81 2.02
4.39 -4.45 1.90
3.68 -3.58 1.56
3.64 -3.40 1.52
3.61 -3.24 1.48
3.61 -3.11 1.46
3.63 -3.01 1.44
3.66 -2.91 1.43
3.69 -2.81 1.42
3.71 -2.71 1.41
3.79 -2.66 1.42
3.87 -2.60 1.43
3.95 -2.54 1.45
4.04 -2.48 1.46
4.13 -2.42 1.48
4.21 -2.36 1.49
4.30 -2.30 1.50
4.38 -2.23 1.52
4.49 -2.17 1.54
4.61 -2.12 1.57
4.72 -2.05 1.60
4.85 -2.00 1.63
4.27 -1.66 1.42
4.13 -1.51 1.37
4.07 -1.39 1.34
4.04 -1.29 1.32
4.01 -1.20 1.30
3.98 -1.10 1.29
3.95 -1.01 1.27
4.00 -0.93 1.28
4.08 -0.87 1.30
4.07 -0.78 1.30
4.05 -0.69 1.29
4.05 -0.61 1.28
4.12 -0.53 1.30
4.18 -0.46 1.32
4.33 -0.39 1.36
5.44 -0.37 1.71
6.63 -0.32 2.09
9.60 -0.27 3.03
9.60 -0.08 3.03
9.59 0.11 3.03
6.63 0.21 2.09
6.32 0.33 2.00
6.24 0.45 1.98
6.18 0.57 1.96
6.15 0.69 1.96
5.50 0.73 1.76
5.40 0.83 1.73
5.34 0.93 1.72
5.30 1.03 1.71
5.28 1.14 1.72
5.17 1.23 1.69
4.61 1.19 1.51
4.49 1.26 1.48
4.35 1.31 1.45
4.27 1.39 1.43
4.23 1.46 1.43
2.34 0.86 0.80
2.48 0.97 0.85
2.34 0.97 0.81
2.12 0.93 0.74
4.18 1.94 1.47
4.16 2.03 1.48
4.13 2.12 1.49
4.10 2.21 1.49
4.09 2.32 1.51
4.10 2.43 1.53
4.08 2.53 1.54
4.05 2.63 1.55
4.02 2.73 1.56
3.99 2.83 1.57
3.96 2.93 1.58
4.34 3.34 1.76
4.35 3.49 1.79
4.51 3.77 1.89
4.45 3.88 1.90
4.39 3.98 1.90
4.34 4.10 1.92
4.53 4.45 2.04
5.20 5.32 2.39
5.09 5.42 2.39
4.98 5.53 2.39
4.87 5.62 2.39
4.75 5.72 2.39
4.63 5.81 2.39
4.52 5.91 2.39
4.40 5.99 2.39
4.27 6.08 2.39
4.15 6.17 2.39
4.02 6.25 2.39
3.90 6.33 2.39
3.77 6.41 2.39
3.64 6.48 2.39
3.51 6.55 2.39
3.38 6.62 2.39
3.24 6.69 2.39
3.11 6.76 2.39
2.97 6.82 2.39
2.83 6.88 2.39
2.69 6.93 2.39
2.55 6.99 2.39
2.41 7.04 2.39
2.27 7.09 2.39
2.17 7.29 2.44
2.07 7.49 2.50
1.92 7.53 2.50
1.77 7.57 2.50
1.62 7.61 2.50
1.46 7.64 2.50
1.31 7.67 2.50
1.15 7.70 2.50
1.00 7.72 2.50
0.84 7.74 2.50
0.69 7.76 2.50
0.53 7.78 2.50
0.38 7.79 2.50
0.22 7.80 2.50
0.06 7.81 2.50
-0.10 7.81 2.50
-0.25 7.81 2.50
-0.41 7.81 2.50
-0.57 7.80 2.50
-0.73 7.79 2.50
-0.88 7.78 2.50
-1.04 7.77 2.50
-1.20 7.75 2.50
-1.35 7.73 2.50
-1.51 7.70 2.50
-1.66 7.68 2.50
-1.82 7.65 2.50
-1.97 7.61 2.50
-2.13 7.58 2.50
-2.28 7.54 2.50
-2.44 7.49 2.50
-2.59 7.45 2.50
-2.74 7.40 2.50
-2.89 7.35 2.50
-3.04 7.29 2.50
-3.19 7.24 2.50
-3.33 7.18 2.50
-3.48 7.11 2.50
-3.63 7.05 2.50
-3.77 6.98 2.50
-3.91 6.91 2.50
-4.05 6.83 2.50
-4.19 6.76 2.50
-4.33 6.68 2.50
-4.47 6.59 2.50
-4.61 6.51 2.50
-4.74 6.42 2.50
-4.87 6.33 2.50
-5.00 6.23 2.50
-5.13 6.14 2.50
-5.26 6.04 2.50
-5.38 5.94 2.50
-5.51 5.83 2.50
-5.63 5.73 2.50
-5.75 5.62 2.50
-5.86 5.50 2.50
-5.90 5.32 2.46
-5.91 5.12 2.42
-5.94 4.94 2.39
-6.05 4.83 2.39
-6.15 4.71 2.39
-6.25 4.59 2.39
-6.35 4.47 2.39
-6.44 4.34 2.39
-6.53 4.22 2.39
-6.62 4.09 2.39
-6.71 3.96 2.39
-6.79 3.83 2.39
-6.87 3.69 2.39
-6.95 3.56 2.39
-7.03 3.42 2.39
-7.10 3.28 2.39
-7.17 3.14 2.39
-7.24 3.00 2.39
-7.31 2.86 2.39
-7.37 2.71 2.39
-7.43 2.57 2.39
-7.49 2.42 2.39
-7.54 2.27 2.39
-7.59 2.12 2.39
-7.64 1.97 2.39
-7.68 1.82 2.39
-7.73 1.66 2.39
-7.76 1.51 2.39
-7.80 1.36 2.39
-7.83 1.20 2.39
-7.86 1.04 2.39
-7.89 0.89 2.39
-7.91 0.73 2.39
-7.93 0.57 2.39
-7.95 0.41 2.39
-7.96 0.25 2.39
-7.97 0.09 2.39
-7.98 -0.07 2.39
-7.98 -0.23 2.39
-7.98 -0.39 2.39
-7.98 -0.55 2.39
-7.97 -0.71 2.39
-7.96 -0.87 2.39
-7.95 -1.03 2.39
-7.93 -1.19 2.39
-7.91 -1.35 2.39
-7.89 -1.50 2.39
-7.86 -1.66 2.39
-7.83 -1.82 2.39
-7.80 -1.98 2.39
-7.76 -2.14 2.39
-7.72 -2.29 2.39
-7.68 -2.45 2.39
-7.64 -2.60 2.39
-7.59 -2.76 2.39
-7.53 -2.91 2.39
-7.48 -3.06 2.39
-7.42 -3.21 2.39
-7.36 -3.36 2.39
-7.29 -3.51 2.39
-6.26 -3.17 2.07
-7.15 -3.80 2.39
-7.08 -3.95 2.39
-7.00 -4.09 2.39
-6.92 -4.23 2.39
-6.84 -4.37 2.39
-6.75 -4.51 2.39
-6.66 -4.64 2.39
-6.57 -4.78 2.39
-6.48 -4.91 2.39
-6.38 -5.04 2.39
-6.28 -5.17 2.39
-6.18 -5.30 2.39
-6.07 -5.42 2.39
-6.05 -5.62 2.43
-6.05 -5.85 2.47
-5.99 -6.03 2.50
-5.87 -6.15 2.50
-5.74 -6.26 2.50
-5.62 -6.38 2.50
-5.49 -6.49 2.50
-5.36 -6.60 2.50
-5.23 -6.71 2.50
-5.09 -6.81 2.50
-4.96 -6.91 2.50
-4.82 -7.01 2.50
-4.68 -7.10 2.50
-4.53 -7.20 2.50
-4.39 -7.28 2.50
-4.24 -7.37 2.50
-4.09 -7.45 2.50
-3.94 -7.53 2.50
-3.79 -7.61 2.50
-3.64 -7.68 2.50
-3.48 -7.75 2.50
-3.33 -7.82 2.50
-3.17 -7.88 2.50
-3.01 -7.94 2.50
-2.85 -8.00 2.50
-2.69 -8.06 2.50
-2.53 -8.11 2.50
-2.36 -8.15 2.50
-2.20 -8.20 2.50
-2.03 -8.24 2.50
-1.87 -8.27 2.50
-1.70 -8.30 2.50
-1.54 -8.33 2.50
-1.37 -8.36 2.50
-1.20 -8.38 2.50
-1.03 -8.40 2.50
-0.86 -8.42 2.50
-0.69 -8.43 2.50
-0.53 -8.44 2.50
-0.36 -8.44 2.50
-0.19 -8.44 2.50
-0.02 -7.79 2.50
0.14 -7.79 2.50
0.29 -7.78 2.50
0.45 -7.77 2.50
0.60 -7.75 2.50
0.76 -7.73 2.50
0.91 -7.71 2.50
1.07 -7.69 2.50
1.22 -7.66 2.50
1.37 -7.63 2.50
1.52 -7.60 2.50
1.67 -7.56 2.50
1.82 -7.52 2.50
1.97 -7.48 2.50
2.03 -7.12 2.39
2.19 -7.13 2.41
2.31 -7.03 2.39
2.45 -6.98 2.39
2.59 -6.92 2.39
2.72 -6.86 2.39
2.86 -6.80 2.39
2.99 -6.74 2.39
3.12 -6.67 2.39
3.26 -6.60 2.39
3.38 -6.53 2.39
3.51 -6.46 2.39
3.64 -6.38 2.39
3.76 -6.30 2.39
3.88 -6.22 2.39
4.00 -6.14 2.39
4.12 -6.05 2.39
4.24 -5.96 2.39
4.36 -5.87 2.39
4.47 -5.78 2.39
3.77 -4.67 1.97
3.84 -4.57 1.96
3.91 -4.47 1.95
4.04 -4.44 1.97
4.26 -4.50 2.04
4.27 -4.33 2.00
3.68 -3.59 1.69
3.65 -3.41 1.65
3.62 -3.25 1.61
3.60 -3.11 1.57
3.63 -3.01 1.56
3.65 -2.91 1.54
3.68 -2.81 1.53
3.72 -2.72 1.53
3.79 -2.66 1.54
3.87 -2.60 1.55
3.96 -2.54 1.56
4.04 -2.49 1.58
4.15 -2.44 1.60
4.25 -2.38 1.62
4.34 -2.32 1.64
4.43 -2.26 1.66
4.54 -2.20 1.69
4.65 -2.14 1.71
4.75 -2.07 1.73
4.88 -2.01 1.77
4.27 -1.66 1.54
4.16 -1.52 1.49
4.12 -1.41 1.46
4.08 -1.31 1.44
4.04 -1.21 1.42
4.00 -1.11 1.40
3.97 -1.01 1.38
3.97 -0.93 1.38
4.06 -0.86 1.40
4.05 -0.78 1.39
4.01 -0.69 1.37
4.01 -0.60 1.37
4.08 -0.53 1.39
4.16 -0.46 1.42
4.22 -0.38 1.44
4.46 -0.31 1.52
5.20 -0.25 1.77
5.35 -0.15 1.82
5.47 -0.05 1.86
6.70 0.08 2.28
6.31 0.20 2.15
6.21 0.32 2.12
6.17 0.44 2.11
6.13 0.57 2.10
5.83 0.66 2.00
5.68 0.75 1.96
5.35 0.82 1.85
5.27 0.92 1.83
5.23 1.02 1.82
5.13 1.11 1.80
5.02 1.19 1.77
4.49 1.16 1.59
4.37 1.22 1.56
4.26 1.29 1.53
4.19 1.36 1.51
4.14 1.43 1.51
2.34 0.86 0.86
2.30 0.90 0.85
2.27 0.94 0.85
4.12 1.81 1.55
4.14 1.92 1.57
4.13 2.02 1.58
4.11 2.11 1.59
4.08 2.20 1.60
4.06 2.30 1.61
4.00 2.37 1.60
3.94 2.44 1.60
3.91 2.54 1.61
3.89 2.63 1.62
3.86 2.73 1.64
3.84 2.83 1.65
3.82 2.94 1.67
4.33 3.47 1.92
4.48 3.74 2.02
4.42 3.85 2.03
4.37 3.96 2.04
4.34 4.09 2.07
4.37 4.29 2.12
4.47 4.57 2.22
4.72 5.03 2.39
4.62 5.13 2.39
4.51 5.22 2.39
4.41 5.31 2.39
4.30 5.39 2.39
4.19 5.48 2.39
4.08 5.56 2.39
3.96 5.64 2.39
3.85 5.72 2.39
3.73 5.80 2.39
3.62 5.87 2.39
3.50 5.94 2.39
3.38 6.01 2.39
3.26 6.08 2.39
3.13 6.15 2.39
3.01 6.21 2.39
2.88 6.27 2.39
2.76 6.33 2.39
2.63 6.38 2.39
2.50 6.43 2.39
2.38 6.50 2.40
2.24 6.53 2.39
2.17 6.76 2.46
2.06 6.90 2.50
1.92 6.95 2.50
1.78 6.99 2.50
1.64 7.02 2.50
1.50 7.06 2.50
1.36 7.09 2.50
1.21 7.11 2.50
1.07 7.14 2.50
0.93 7.16 2.50
0.78 7.18 2.50
0.64 7.20 2.50
0.49 7.21 2.50
0.35 7.22 2.50
0.20 7.23 2.50
0.06 7.24 2.50
-0.09 7.24 2.50
-0.24 7.24 2.50
-0.38 7.24 2.50
-0.53 7.23 2.50
-0.67 7.23 2.50
-0.82 7.21 2.50
-0.97 7.20 2.50
-1.11 7.18 2.50
-1.26 7.16 2.50
-1.40 7.14 2.50
-1.54 7.12 2.50
-1.69 7.09 2.50
-1.83 7.06 2.50
-1.98 7.02 2.50
-2.12 6.99 2.50
-2.26 6.95 2.50
-2.40 6.90 2.50
-2.54 6.86 2.50
-2.68 6.81 2.50
-2.82 6.76 2.50
-2.96 6.71 2.50
-3.09 6.65 2.50
-3.23 6.59 2.50
-3.36 6.53 2.50
-3.50 6.47 2.50
-3.63 6.40 2.50
-3.76 6.33 2.50
-3.89 6.26 2.50
-4.02 6.18 2.50
-4.14 6.11 2.50
-4.27 6.03 2.50
-4.39 5.94 2.50
-4.51 5.86 2.50
-4.63 5.77 2.50
-4.75 5.68 2.50
-4.87 5.59 2.50
-4.99 5.50 2.50
-5.10 5.40 2.50
-5.21 5.30 2.50
-5.32 5.20 2.50
-5.43 5.09 2.50
-5.54 4.99 2.50
-5.64 4.88 2.50
-5.74 4.77 2.50
-5.84 4.66 2.50
-5.91 4.52 2.48
-5.91 4.34 2.44
-5.92 4.16 2.41
-5.96 4.02 2.39
-6.05 3.90 2.39
-6.13 3.78 2.39
-6.21 3.66 2.39
-6.29 3.54 2.39
-6.36 3.41 2.39
-6.43 3.29 2.39
-6.50 3.16 2.39
-6.57 3.03 2.39
-6.64 2.90 2.39
-6.70 2.77 2.39
-6.76 2.64 2.39
-6.82 2.51 2.39
-6.87 2.37 2.39
-6.92 2.23 2.39
-6.97 2.10 2.39
-7.02 1.96 2.39
-7.06 1.82 2.39
-7.10 1.68 2.39
-7.14 1.54 2.39
-7.18 1.39 2.39
-7.21 1.25 2.39
-7.24 1.11 2.39
-7.27 0.96 2.39
-7.29 0.82 2.39
-7.31 0.67 2.39
-7.33 0.53 2.39
-7.34 0.38 2.39
-7.35 0.23 2.39
-7.36 0.08 2.39
-7.37 -0.06 2.39
-7.37 -0.21 2.39
-7.37 -0.36 2.39
-7.37 -0.51 2.39
-7.36 -0.65 2.39
-7.35 -0.80 2.39
-7.34 -0.95 2.39
-7.32 -1.10 2.39
-7.31 -1.24 2.39
-7.28 -1.39 2.39
-7.26 -1.54 2.39
-7.23 -1.68 2.39
-7.20 -1.83 2.39
-7.17 -1.97 2.39
-7.13 -2.12 2.39
-7.09 -2.26 2.39
-7.05 -2.40 2.39
-7.00 -2.55 2.39
-6.95 -2.69 2.39
-6.90 -2.83 2.39
-6.85 -2.97 2.39
-6.79 -3.10 2.39
-6.73 -3.24 2.39
-6.26 -3.17 2.25
-6.60 -3.51 2.39
-6.53 -3.64 2.39
-6.46 -3.78 2.39
-6.39 -3.91 2.39
-6.31 -4.03 2.39
-6.23 -4.16 2.39
-6.15 -4.29 2.39
-6.06 -4.41 2.39
-6.04 -4.58 2.42
-6.03 -4.77 2.45
-6.04 -4.97 2.49
-5.94 -5.10 2.50
-5.84 -5.22 2.50
-5.74 -5.33 2.50
-5.63 -5.45 2.50
-5.52 -5.56 2.50
-5.41 -5.67 2.50
-5.30 -5.78 2.50
-5.18 -5.88 2.50
-5.06 -5.99 2.50
-4.94 -6.09 2.50
-4.82 -6.19 2.50
-4.70 -6.28 2.50
-4.57 -6.38 2.50
-4.44 -6.47 2.50
-4.31 -6.55 2.50
-4.18 -6.64 2.50
-4.05 -6.72 2.50
-3.91 -6.80 2.50
-3.78 -6.88 2.50
-3.64 -6.95 2.50
-3.50 -7.02 2.50
-3.36 -7.09 2.50
-3.21 -7.15 2.50
-3.07 -7.22 2.50
-2.92 -7.27 2.50
-2.78 -7.33 2.50
-2.63 -7.38 2.50
-2.48 -7.43 2.50
-2.33 -7.48 2.50
-2.18 -7.52 2.50
-2.03 -7.56 2.50
-1.88 -7.60 2.50
-1.73 -7.63 2.50
-1.57 -7.66 2.50
-1.42 -7.69 2.50
-1.26 -7.71 2.50
-1.11 -7.74 2.50
-0.95 -7.75 2.50
-0.80 -7.77 2.50
-0.64 -7.78 2.50
-0.49 -7.79 2.50
-0.33 -7.79 2.50
-0.17 -7.79 2.50
-0.02 -7.23 2.50
0.13 -7.22 2.50
0.27 -7.22 2.50
0.41 -7.20 2.50
0.56 -7.19 2.50
0.70 -7.18 2.50
0.84 -7.16 2.50
0.99 -7.13 2.50
1.13 -7.11 2.50
1.27 -7.08 2.50
1.41 -7.05 2.50
1.55 -7.02 2.50
1.69 -6.98 2.50
1.83 -6.94 2.50
1.97 -6.90 2.50
2.01 -6.57 2.39
2.14 -6.52 2.39
2.27 -6.47 2.39
2.40 -6.42 2.39
2.53 -6.37 2.39
2.65 -6.31 2.39
2.78 -6.26 2.39
2.90 -6.19 2.39
3.02 -6.13 2.39
3.14 -6.06 2.39
3.26 -6.00 2.39
3.38 -5.93 2.39
3.49 -5.85 2.39
3.60 -5.78 2.39
3.72 -5.70 2.39
3.83 -5.62 2.39
3.94 -5.54 2.39
4.04 -5.45 2.39
3.55 -4.59 2.05
3.61 -4.48 2.03
3.67 -4.38 2.02
3.75 -4.29 2.02
3.84 -4.22 2.02
3.94 -4.15 2.03
4.03 -4.08 2.03
3.93 -3.83 1.95
3.66 -3.43 1.78
3.63 -3.27 1.73
3.60 -3.11 1.69
3.62 -3.00 1.67
3.65 -2.90 1.66
3.69 -2.82 1.66
3.74 -2.74 1.65
3.80 -2.66 1.66
3.88 -2.61 1.67
3.96 -2.55 1.68
4.07 -2.50 1.71
4.18 -2.46 1.74
4.28 -2.40 1.76
4.38 -2.34 1.78
4.47 -2.28 1.80
4.58 -2.22 1.83
4.68 -2.15 1.85
4.78 -2.08 1.88
4.86 -2.00 1.89
4.27 -1.66 1.65
4.19 -1.53 1.61
4.16 -1.43 1.59
4.12 -1.32 1.57
4.09 -1.22 1.54
4.05 -1.12 1.52
4.01 -1.03 1.50
3.99 -0.94 1.49
4.10 -0.87 1.52
4.08 -0.78 1.51
4.03 -0.69 1.49
3.99 -0.60 1.47
4.04 -0.53 1.48
4.14 -0.46 1.52
4.20 -0.38 1.54
4.31 -0.30 1.57
4.55 -0.22 1.66
4.71 -0.14 1.72
5.67 -0.05 2.07
5.66 0.06 2.07
5.80 0.18 2.12
6.17 0.32 2.26
6.13 0.44 2.25
6.11 0.56 2.25
5.69 0.64 2.10
5.59 0.74 2.07
5.33 0.82 1.98
5.18 0.90 1.93
5.09 0.99 1.91
4.98 1.07 1.87
4.45 1.05 1.69
4.37 1.13 1.66
4.26 1.19 1.63
4.18 1.26 1.61
4.11 1.33 1.59
4.05 1.40 1.58
2.34 0.86 0.92
2.34 0.92 0.93
4.05 1.68 1.62
4.07 1.79 1.64
4.09 1.89 1.67
4.07 1.99 1.68
4.06 2.08 1.69
4.01 2.16 1.69
3.94 2.23 1.68
3.88 2.30 1.67
3.82 2.37 1.67
3.78 2.45 1.67
3.75 2.54 1.68
3.72 2.63 1.69
3.69 2.72 1.70
3.67 2.82 1.72
3.72 2.99 1.77
4.46 3.73 2.16
4.41 3.84 2.17
4.38 3.97 2.20
4.33 4.09 2.21
4.28 4.21 2.23
4.34 4.44 2.31
4.40 4.69 2.39
4.30 4.78 2.39
4.21 4.86 2.39
4.11 4.94 2.39
4.01 5.03 2.39
3.90 5.10 2.39
3.80 5.18 2.39
3.69 5.26 2.39
3.59 5.33 2.39
3.48 5.40 2.39
3.37 5.47 2.39
3.26 5.54 2.39
3.15 5.60 2.39
3.03 5.67 2.39
2.92 5.73 2.39
2.80 5.78 2.39
2.69 5.84 2.39
2.57 5.89 2.39
2.45 5.94 2.39
2.33 5.99 2.39
2.21 6.04 2.39
2.16 6.31 2.48
2.05 6.39 2.50
1.92 6.43 2.50
1.79 6.47 2.50
1.66 6.51 2.50
1.53 6.54 2.50
1.40 6.57 2.50
1.26 6.60 2.50
1.13 6.63 2.50
1.00 6.65 2.50
0.86 6.67 2.50
0.73 6.69 2.50
0.59 6.71 2.50
0.46 6.72 2.50
0.32 6.73 2.50
0.19 6.74 2.50
0.05 6.74 2.50
-0.08 6.75 2.50
-0.22 6.74 2.50
-0.36 6.74 2.50
-0.49 6.74 2.50
-0.63 6.73 2.50
-0.76 6.72 2.50
-0.90 6.70 2.50
-1.04 6.69 2.50
-1.17 6.67 2.50
-1.31 6.65 2.50
-1.44 6.62 2.50
-1.57 6.60 2.50
-1.71 6.57 2.50
-1.84 6.54 2.50
-1.97 6.50 2.50
-2.10 6.47 2.50
-2.24 6.43 2.50
-2.37 6.38 2.50
-2.50 6.34 2.50
-2.62 6.29 2.50
-2.75 6.24 2.50
-2.88 6.19 2.50
-3.01 6.13 2.50
-3.13 6.08 2.50
-3.25 6.02 2.50
-3.38 5.95 2.50
-3.50 5.89 2.50
-3.62 5.82 2.50
-3.74 5.75 2.50
-3.86 5.68 2.50
-3.97 5.61 2.50
-4.09 5.53 2.50
-4.20 5.45 2.50
-4.31 5.37 2.50
-4.42 5.28 2.50
-4.53 5.20 2.50
-4.64 5.11 2.50
-4.75 5.02 2.50
-4.85 4.93 2.50
-4.95 4.83 2.50
-5.05 4.74 2.50
-5.15 4.64 2.50
-5.25 4.54 2.50
-5.34 4.43 2.50
-5.43 4.33 2.50
-5.52 4.22 2.50
-5.61 4.11 2.50
-5.70 4.00 2.50
-5.78 3.89 2.50
-5.86 3.78 2.50
-5.92 3.65 2.49
-5.92 3.49 2.46
-5.93 3.33 2.43
-5.94 3.18 2.40
-5.98 3.05 2.39
-6.04 2.94 2.39
-6.12 2.82 2.40
-6.17 2.70 2.39
-6.23 2.57 2.39
-6.28 2.45 2.39
-6.33 2.33 2.39
-6.38 2.20 2.39
-6.43 2.07 2.39
-6.48 1.95 2.39
-6.52 1.82 2.39
-6.56 1.69 2.39
-6.60 1.56 2.39
-6.63 1.42 2.39
-6.67 1.29 2.39
-6.70 1.16 2.39
-6.72 1.03 2.39
-6.75 0.89 2.39
-6.77 0.76 2.39
-6.79 0.62 2.39
-6.80 0.49 2.39
-6.82 0.35 2.39
-6.83 0.21 2.39
-6.84 0.08 2.39
-6.84 -0.06 2.39
-6.84 -0.20 2.39
-6.84 -0.33 2.39
-6.84 -0.47 2.39
-6.83 -0.61 2.39
-6.82 -0.75 2.39
-6.81 -0.88 2.39
-6.80 -1.02 2.39
-6.78 -1.16 2.39
-6.76 -1.29 2.39
-6.74 -1.43 2.39
-6.71 -1.56 2.39
-6.68 -1.70 2.39
-6.65 -1.83 2.39
-6.62 -1.97 2.39
-6.58 -2.10 2.39
-6.54 -2.23 2.39
-6.50 -2.36 2.39
-6.45 -2.49 2.39
-6.40 -2.62 2.39
-6.35 -2.75 2.39
-6.30 -2.88 2.39
-6.24 -3.01 2.39
-6.20 -3.14 2.40
-6.12 -3.26 2.39
-6.06 -3.38 2.39
-6.03 -3.52 2.41
-6.02 -3.68 2.43
-6.02 -3.85 2.46
-6.02 -4.02 2.49
-5.95 -4.15 2.50
-5.86 -4.27 2.50
-5.78 -4.38 2.50
-5.69 -4.50 2.50
-5.60 -4.61 2.50
-5.51 -4.73 2.50
-5.42 -4.84 2.50
-5.32 -4.95 2.50
-5.22 -5.05 2.50
-5.12 -5.16 2.50
-5.02 -5.26 2.50
-4.91 -5.36 2.50
-4.80 -5.46 2.50
-4.70 -5.55 2.50
-4.58 -5.65 2.50
-4.47 -5.74 2.50
-4.36 -5.82 2.50
-4.24 -5.91 2.50
-4.12 -5.99 2.50
-4.00 -6.08 2.50
-3.88 -6.15 2.50
-3.75 -6.23 2.50
-3.63 -6.30 2.50
-3.50 -6.38 2.50
-3.37 -6.44 2.50
-3.24 -6.51 2.50
-3.11 -6.57 2.50
-2.98 -6.63 2.50
-2.85 -6.69 2.50
-2.71 -6.74 2.50
-2.58 -6.80 2.50
-2.44 -6.84 2.50
-2.30 -6.89 2.50
-2.16 -6.93 2.50
-2.02 -6.97 2.50
-1.88 -7.01 2.50
-1.74 -7.05 2.50
-1.60 -7.08 2.50
-1.46 -7.11 2.50
-1.32 -7.13 2.50
-1.17 -7.15 2.50
-1.03 -7.17 2.50
-0.88 -7.19 2.50
-0.74 -7.20 2.50
-0.60 -7.21 2.50
-0.45 -7.22 2.50
-0.31 -7.23 2.50
-0.16 -7.23 2.50
-0.02 -6.73 2.50
0.12 -6.73 2.50
0.25 -6.72 2.50
0.39 -6.71 2.50
0.52 -6.70 2.50
0.65 -6.68 2.50
0.79 -6.67 2.50
0.92 -6.65 2.50
1.05 -6.62 2.50
1.18 -6.60 2.50
1.31 -6.57 2.50
1.44 -6.54 2.50
1.57 -6.50 2.50
1.70 -6.47 2.50
1.83 -6.43 2.50
1.96 -6.39 2.50
2.01 -6.11 2.40
2.12 -6.03 2.39
2.24 -5.99 2.39
2.35 -5.94 2.39
2.47 -5.89 2.39
2.59 -5.83 2.39
2.70 -5.77 2.39
2.81 -5.72 2.39
2.93 -5.65 2.39
3.04 -5.59 2.39
3.15 -5.52 2.39
3.25 -5.46 2.39
3.36 -5.39 2.39
3.46 -5.31 2.39
3.57 -5.24 2.39
3.67 -5.16 2.39
3.47 -4.69 2.21
3.50 -4.53 2.16
3.55 -4.41 2.14
3.60 -4.30 2.12
3.69 -4.22 2.13
3.78 -4.16 2.13
3.88 -4.10 2.14
3.97 -4.03 2.15
3.90 -3.81 2.07
3.72 -3.48 1.94
3.66 -3.29 1.87
3.62 -3.12 1.82
3.62 -3.00 1.79
3.66 -2.91 1.78
3.70 -2.83 1.78
3.75 -2.75 1.78
3.80 -2.67 1.78
3.88 -2.61 1.79
3.98 -2.56 1.81
4.09 -2.52 1.84
4.21 -2.48 1.87
4.31 -2.42 1.90
4.41 -2.36 1.92
4.52 -2.30 1.95
4.62 -2.24 1.98
4.71 -2.17 2.00
4.74 -2.07 2.00
4.39 -1.81 1.83
4.27 -1.66 1.77
4.23 -1.55 1.74
4.20 -1.44 1.72
4.17 -1.34 1.70
4.13 -1.24 1.67
4.10 -1.14 1.65
4.07 -1.04 1.63
4.03 -0.95 1.61
4.13 -0.88 1.64
4.10 -0.79 1.62
4.06 -0.70 1.60
4.00 -0.61 1.58
4.02 -0.53 1.58
4.08 -0.45 1.60
4.19 -0.38 1.64
4.26 -0.30 1.67
4.49 -0.22 1.76
4.65 -0.14 1.82
5.43 -0.05 2.13
5.43 0.06 2.12
5.43 0.17 2.13
5.50 0.28 2.16
5.68 0.40 2.23
5.33 0.49 2.10
5.61 0.63 2.21
5.50 0.73 2.18
5.09 0.78 2.02
4.96 0.86 1.98
4.89 0.95 1.96
4.82 1.04 1.94
4.35 1.03 1.76
4.26 1.10 1.74
4.17 1.17 1.71
4.10 1.24 1.69
4.03 1.30 1.67
3.97 1.37 1.66
2.34 0.86 0.99
2.34 0.92 0.99
4.00 1.66 1.71
4.02 1.76 1.74
4.03 1.87 1.76
4.02 1.96 1.77
3.97 2.03 1.77
3.90 2.10 1.76
3.84 2.17 1.75
3.77 2.24 1.74
3.71 2.30 1.73
3.66 2.37 1.73
3.63 2.46 1.74
3.60 2.54 1.75
3.57 2.63 1.76
3.53 2.72 1.77
3.57 2.86 1.82
3.63 3.03 1.88
4.42 3.84 2.33
4.37 3.96 2.34
4.30 4.06 2.35
4.23 4.16 2.36
4.20 4.30 2.39
4.11 4.38 2.39
4.02 4.46 2.39
3.93 4.54 2.39
3.84 4.62 2.39
3.75 4.70 2.39
3.65 4.77 2.39
3.55 4.85 2.39
3.45 4.92 2.39
3.35 4.98 2.39
3.25 5.05 2.39
3.15 5.12 2.39
3.05 5.18 2.39
2.94 5.24 2.39
2.84 5.30 2.39
2.73 5.35 2.39
2.62 5.41 2.39
2.51 5.46 2.39
2.40 5.51 2.39
2.29 5.56 2.39
2.18 5.60 2.39
2.15 5.89 2.50
2.03 5.93 2.50
1.91 5.98 2.50
1.79 6.01 2.50
1.67 6.05 2.50
1.55 6.08 2.50
1.43 6.12 2.50
1.30 6.15 2.50
1.18 6.17 2.50
1.06 6.20 2.50
0.93 6.22 2.50
0.81 6.24 2.50
0.68 6.25 2.50
0.55 6.27 2.50
0.43 6.28 2.50
0.30 6.29 2.50
0.17 6.30 2.50
0.05 6.30 2.50
-0.08 6.30 2.50
-0.21 6.30 2.50
-0.33 6.30 2.50
-0.46 6.30 2.50
-0.59 6.29 2.50
-0.72 6.28 2.50
-0.84 6.27 2.50
-0.97 6.25 2.50
-1.10 6.23 2.50
-1.22 6.21 2.50
-1.35 6.19 2.50
-1.47 6.17 2.50
-1.60 6.14 2.50
-1.72 6.11 2.50
-1.85 6.08 2.50
-1.97 6.04 2.50
-2.09 6.00 2.50
-2.21 5.96 2.50
-2.33 5.92 2.50
-2.45 5.88 2.50
-2.57 5.83 2.50
-2.69 5.78 2.50
-2.81 5.73 2.50
-2.93 5.68 2.50
-3.04 5.62 2.50
-3.16 5.56 2.50
-3.27 5.50 2.50
-3.38 5.44 2.50
-3.49 5.37 2.50
-3.60 5.30 2.50
-3.71 5.23 2.50
-3.82 5.16 2.50
-3.92 5.09 2.50
-4.03 5.01 2.50
-4.13 4.93 2.50
-4.23 4.85 2.50
-4.33 4.77 2.50
-4.43 4.69 2.50
-4.53 4.60 2.50
-4.62 4.51 2.50
-4.72 4.42 2.50
-4.81 4.33 2.50
-4.90 4.23 2.50
-4.99 4.14 2.50
-5.07 4.04 2.50
-5.16 3.94 2.50
-5.24 3.84 2.50
-5.32 3.74 2.50
-5.40 3.63 2.50
-5.47 3.52 2.50
-5.55 3.42 2.50
-5.62 3.31 2.50
-5.69 3.20 2.50
-5.76 3.08 2.50
-5.82 2.97 2.50
-5.88 2.86 2.50
-5.93 2.73 2.49
-5.93 2.59 2.47
-5.94 2.45 2.45
-5.94 2.32 2.43
-5.95 2.18 2.41
-5.96 2.05 2.39
-6.00 1.93 2.39
-6.04 1.81 2.39
-6.08 1.69 2.39
-6.14 1.58 2.40
-6.15 1.45 2.39
-6.19 1.33 2.39
-6.22 1.20 2.39
-6.24 1.08 2.39
-6.27 0.95 2.39
-6.29 0.83 2.39
-6.31 0.70 2.39
-6.33 0.58 2.39
-6.34 0.45 2.39
-6.36 0.32 2.39
-6.36 0.20 2.39
-6.37 0.07 2.39
-6.38 -0.06 2.39
-6.38 -0.19 2.39
-6.38 -0.31 2.39
-6.37 -0.44 2.39
-6.37 -0.57 2.39
-6.36 -0.70 2.39
-6.35 -0.82 2.39
-6.33 -0.95 2.39
-6.32 -1.08 2.39
-6.30 -1.21 2.39
-6.28 -1.33 2.39
-6.25 -1.46 2.39
-6.22 -1.58 2.39
-6.19 -1.71 2.39
-6.16 -1.83 2.39
-6.13 -1.96 2.39
-6.09 -2.08 2.39
-6.05 -2.20 2.39
-6.01 -2.33 2.39
-6.01 -2.46 2.41
-6.01 -2.61 2.43
-6.01 -2.75 2.45
-6.01 -2.90 2.47
-6.01 -3.05 2.50
-5.95 -3.17 2.50
-5.89 -3.29 2.50
-5.82 -3.40 2.50
-5.75 -3.52 2.50
-5.68 -3.64 2.50
-5.61 -3.75 2.50
-5.54 -3.86 2.50
-5.46 -3.97 2.50
-5.38 -4.08 2.50
-5.30 -4.19 2.50
-5.22 -4.30 2.50
-5.13 -4.40 2.50
-5.04 -4.50 2.50
-4.95 -4.61 2.50
-4.86 -4.70 2.50
-4.77 -4.80 2.50
-4.67 -4.90 2.50
-4.57 -4.99 2.50
-4.47 -5.08 2.50
-4.37 -5.17 2.50
-4.27 -5.26 2.50
-4.16 -5.34 2.50
-4.06 -5.42 2.50
-3.95 -5.50 2.50
-3.84 -5.58 2.50
-3.72 -5.66 2.50
-3.61 -5.73 2.50
-3.49 -5.80 2.50
-3.38 -5.87 2.50
-3.26 -5.94 2.50
-3.14 -6.00 2.50
-3.02 -6.06 2.50
-2.90 -6.12 2.50
-2.77 -6.18 2.50
-2.65 -6.23 2.50
-2.53 -6.28 2.50
-2.40 -6.33 2.50
-2.27 -6.37 2.50
-2.14 -6.42 2.50
-2.01 -6.46 2.50
-1.88 -6.49 2.50
-1.75 -6.53 2.50
-1.62 -6.56 2.50
-1.49 -6.59 2.50
-1.36 -6.62 2.50
-1.23 -6.64 2.50
-1.09 -6.66 2.50
-0.96 -6.68 2.50
-0.83 -6.70 2.50
-0.69 -6.71 2.50
-0.56 -6.72 2.50
-0.42 -6.73 2.50
-0.29 -6.73 2.50
-0.15 -6.73 2.50
-0.02 -6.29 2.50
0.11 -6.29 2.50
0.23 -6.28 2.50
0.36 -6.27 2.50
0.48 -6.26 2.50
0.61 -6.25 2.50
0.73 -6.23 2.50
0.86 -6.21 2.50
0.98 -6.19 2.50
1.10 -6.17 2.50
1.23 -6.14 2.50
1.35 -6.11 2.50
1.47 -6.08 2.50
1.59 -6.05 2.50
1.71 -6.01 2.50
1.83 -5.97 2.50
1.95 -5.93 2.50
2.01 -5.72 2.42
2.09 -5.60 2.39
2.21 -5.59 2.41
2.31 -5.51 2.39
2.42 -5.45 2.39
2.52 -5.40 2.39
2.63 -5.35 2.39
2.74 -5.29 2.39
2.84 -5.23 2.39
2.94 -5.17 2.39
3.04 -5.11 2.39
3.14 -5.04 2.39
3.24 -4.97 2.39
3.34 -4.90 2.39
3.43 -4.83 2.39
3.47 -4.69 2.36
3.47 -4.49 2.29
3.51 -4.36 2.26
3.55 -4.23 2.23
3.63 -4.16 2.24
3.73 -4.11 2.25
3.83 -4.05 2.26
3.92 -3.98 2.27
3.87 -3.78 2.20
3.77 -3.53 2.10
3.71 -3.34 2.03
3.66 -3.16 1.97
3.62 -3.01 1.92
3.67 -2.92 1.91
3.72 -2.84 1.91
3.77 -2.76 1.91
3.81 -2.68 1.90
3.90 -2.62 1.92
4.01 -2.58 1.95
4.13 -2.54 1.98
4.38 -2.58 2.08
4.37 -2.46 2.06
4.45 -2.39 2.07
4.56 -2.33 2.10
4.64 -2.25 2.12
4.67 -2.15 2.12
4.71 -2.06 2.12
4.77 -1.97 2.13
4.33 -1.69 1.92
4.26 -1.56 1.87
4.24 -1.46 1.85
4.23 -1.36 1.83
4.19 -1.25 1.81
4.15 -1.15 1.78
4.12 -1.06 1.76
4.08 -0.96 1.74
4.15 -0.89 1.76
4.16 -0.80 1.76
4.10 -0.71 1.73
4.03 -0.61 1.70
4.00 -0.52 1.68
4.08 -0.45 1.71
4.19 -0.38 1.75
4.24 -0.30 1.77
4.47 -0.22 1.87
4.58 -0.14 1.91
4.71 -0.05 1.97
4.93 0.05 2.06
4.82 0.15 2.01
4.81 0.24 2.01
4.81 0.34 2.02
4.89 0.45 2.05
5.09 0.57 2.15
5.26 0.69 2.22
4.83 0.74 2.05
4.77 0.83 2.03
4.72 0.92 2.02
4.67 1.01 2.01
4.39 1.04 1.89
4.22 1.09 1.83
4.11 1.15 1.80
4.05 1.22 1.78
3.98 1.29 1.76
3.92 1.35 1.74
2.34 0.86 1.05
2.34 0.92 1.06
3.96 1.64 1.81
3.98 1.74 1.83
3.98 1.84 1.85
3.92 1.91 1.84
3.86 1.98 1.83
3.80 2.05 1.82
3.74 2.11 1.81
3.67 2.18 1.81
3.61 2.24 1.80
3.55 2.30 1.79
3.52 2.38 1.80
3.50 2.47 1.82
3.48 2.57 1.83
3.46 2.66 1.85
3.43 2.75 1.86
3.46 2.89 1.91
3.53 3.07 1.98
4.18 3.79 2.39
4.10 3.87 2.39
4.02 3.95 2.39
3.94 4.03 2.39
3.86 4.11 2.39
3.78 4.19 2.39
3.69 4.26 2.39
3.60 4.34 2.39
3.51 4.41 2.39
3.42 4.48 2.39
3.33 4.54 2.39
3.24 4.61 2.39
3.15 4.67 2.39
3.05 4.74 2.39
2.95 4.80 2.39
2.86 4.86 2.39
2.76 4.91 2.39
2.66 4.97 2.39
2.56 5.02 2.39
2.46 5.07 2.39
2.36 5.13 2.40
2.25 5.17 2.39
2.16 5.24 2.40
2.13 5.48 2.50
2.02 5.53 2.50
1.91 5.57 2.50
1.79 5.60 2.50
1.68 5.64 2.50
1.57 5.67 2.50
1.45 5.71 2.50
1.34 5.74 2.50
1.22 5.76 2.50
1.11 5.79 2.50
0.99 5.81 2.50
0.87 5.83 2.50
0.75 5.85 2.50
0.64 5.87 2.50
0.52 5.88 2.50
0.40 5.89 2.50
0.28 5.90 2.50
0.16 5.91 2.50
0.04 5.91 2.50
-0.08 5.91 2.50
-0.20 5.91 2.50
-0.32 5.91 2.50
-0.43 5.90 2.50
-0.55 5.90 2.50
-0.67 5.89 2.50
-0.79 5.88 2.50
-0.91 5.86 2.50
-1.03 5.84 2.50
-1.15 5.82 2.50
-1.26 5.80 2.50
-1.38 5.78 2.50
-1.50 5.75 2.50
-1.62 5.73 2.50
-1.73 5.70 2.50
-1.85 5.66 2.50
-1.96 5.63 2.50
-2.08 5.59 2.50
-2.19 5.55 2.50
-2.30 5.51 2.50
-2.41 5.46 2.50
-2.52 5.42 2.50
-2.63 5.37 2.50
-2.74 5.32 2.50
-2.85 5.27 2.50
-2.96 5.21 2.50
-3.07 5.15 2.50
-3.17 5.09 2.50
-3.27 5.03 2.50
-3.38 4.97 2.50
-3.48 4.90 2.50
-3.58 4.84 2.50
-3.68 4.77 2.50
-3.78 4.69 2.50
-3.87 4.62 2.50
-3.97 4.54 2.50
-4.06 4.47 2.50
-4.15 4.39 2.50
-4.24 4.31 2.50
-4.33 4.22 2.50
-4.42 4.14 2.50
-4.50 4.05 2.50
-4.59 3.96 2.50
-4.67 3.87 2.50
-4.75 3.78 2.50
-4.83 3.69 2.50
-4.91 3.59 2.50
-4.98 3.50 2.50
-5.05 3.40 2.50
-5.13 3.30 2.50
-5.19 3.20 2.50
-5.26 3.09 2.50
-5.33 2.99 2.50
-5.39 2.89 2.50
-5.45 2.78 2.50
-5.51 2.67 2.50
-5.57 2.56 2.50
-5.62 2.45 2.50
-5.67 2.34 2.50
-5.72 2.23 2.50
-5.77 2.11 2.50
-5.82 2.00 2.50
-5.86 1.88 2.50
-5.90 1.77 2.50
-5.94 1.65 2.50
-5.95 1.53 2.49
-5.95 1.40 2.47
-5.95 1.27 2.46
-5.95 1.15 2.45
-5.96 1.03 2.44
-5.96 0.91 2.43
-5.96 0.78 2.42
-5.97 0.66 2.42
-5.97 0.54 2.41
-5.97 0.42 2.41
-5.97 0.30 2.40
-5.98 0.18 2.40
-5.98 0.06 2.40
-5.98 -0.06 2.40
-5.98 -0.18 2.40
-5.98 -0.30 2.40
-5.98 -0.42 2.40
-5.99 -0.54 2.40
-5.99 -0.66 2.41
-5.99 -0.78 2.41
-5.99 -0.90 2.42
-5.99 -1.02 2.42
-5.99 -1.15 2.43
-5.99 -1.27 2.44
-5.99 -1.40 2.45
-5.99 -1.53 2.46
-5.99 -1.65 2.47
-5.99 -1.79 2.49
-5.98 -1.91 2.50
-5.94 -2.03 2.50
-5.90 -2.15 2.50
-5.86 -2.27 2.50
-5.82 -2.39 2.50
-5.77 -2.50 2.50
-5.72 -2.62 2.50
-5.67 -2.73 2.50
-5.62 -2.85 2.50
-5.56 -2.96 2.50
-5.50 -3.07 2.50
-5.44 -3.18 2.50
-5.38 -3.29 2.50
-5.31 -3.40 2.50
-5.25 -3.51 2.50
-5.18 -3.61 2.50
-5.10 -3.72 2.50
-5.03 -3.82 2.50
-4.95 -3.92 2.50
-4.88 -4.02 2.50
-4.80 -4.11 2.50
-4.71 -4.21 2.50
-4.63 -4.30 2.50
-4.54 -4.40 2.50
-4.46 -4.49 2.50
-4.37 -4.58 2.50
-4.27 -4.66 2.50
-4.18 -4.75 2.50
-4.09 -4.83 2.50
-3.99 -4.91 2.50
-3.89 -4.99 2.50
-3.79 -5.07 2.50
-3.69 -5.14 2.50
-3.58 -5.22 2.50
-3.48 -5.29 2.50
-3.37 -5.36 2.50
-3.27 -5.42 2.50
-3.16 -5.49 2.50
-3.05 -5.55 2.50
-2.94 -5.61 2.50
-2.82 -5.66 2.50
-2.71 -5.72 2.50
-2.59 -5.77 2.50
-2.48 -5.82 2.50
-2.36 -5.87 2.50
-2.24 -5.91 2.50
-2.12 -5.96 2.50
-2.00 -6.00 2.50
-1.88 -6.03 2.50
-1.76 -6.07 2.50
-1.64 -6.10 2.50
-1.52 -6.13 2.50
-1.39 -6.16 2.50
-1.27 -6.19 2.50
-1.15 -6.21 2.50
-1.02 -6.23 2.50
-0.90 -6.24 2.50
-0.77 -6.26 2.50
-0.65 -6.27 2.50
-0.52 -6.28 2.50
-0.40 -6.29 2.50
-0.27 -6.29 2.50
-0.14 -6.29 2.50
-0.02 -5.90 2.50
0.10 -5.90 2.50
0.22 -5.89 2.50
0.34 -5.88 2.50
0.45 -5.87 2.50
0.57 -5.86 2.50
0.69 -5.85 2.50
0.80 -5.83 2.50
0.92 -5.81 2.50
1.03 -5.79 2.50
1.15 -5.76 2.50
1.26 -5.73 2.50
1.38 -5.71 2.50
1.49 -5.67 2.50
1.60 -5.64 2.50
1.71 -5.60 2.50
1.82 -5.57 2.50
1.93 -5.52 2.50
2.01 -5.38 2.45
2.06 -5.21 2.39
2.17 -5.17 2.39
2.27 -5.12 2.39
2.37 -5.07 2.39
2.47 -5.02 2.39
2.56 -4.96 2.39
2.66 -4.91 2.39
2.76 -4.85 2.39
2.85 -4.79 2.39
2.95 -4.73 2.39
3.04 -4.67 2.39
3.13 -4.60 2.39
3.22 -4.54 2.39
3.31 -4.47 2.39
3.39 -4.40 2.39
3.48 -4.33 2.39
3.56 -4.25 2.39
3.64 -4.17 2.39
3.72 -4.10 2.39
3.80 -4.02 2.39
3.88 -3.94 2.39
3.89 -3.80 2.35
3.82 -3.59 2.27
3.75 -3.38 2.19
3.69 -3.19 2.11
3.63 -3.01 2.05
3.67 -2.93 2.04
3.72 -2.85 2.03
3.77 -2.77 2.03
3.85 -2.71 2.05
3.94 -2.65 2.07
4.05 -2.61 2.10
4.45 -2.75 2.28
4.50 -2.65 2.28
4.52 -2.55 2.27
4.55 -2.44 2.26
4.57 -2.34 2.25
4.61 -2.24 2.24
4.65 -2.14 2.24
4.68 -2.05 2.24
4.74 -1.96 2.25
4.47 -1.74 2.11
4.32 -1.59 2.02
4.30 -1.48 2.00
4.22 -1.36 1.95
4.20 -1.26 1.93
4.19 -1.17 1.91
4.16 -1.07 1.89
4.12 -0.97 1.87
4.15 -0.89 1.87
4.20 -0.81 1.89
4.15 -0.72 1.86
4.09 -0.62 1.83
4.04 -0.53 1.80
4.11 -0.46 1.83
4.18 -0.38 1.86
4.24 -0.30 1.88
4.44 -0.22 1.97
4.53 -0.14 2.01
4.57 -0.05 2.03
4.52 0.05 2.01
4.50 0.14 2.00
4.50 0.23 2.01
4.50 0.32 2.01
4.61 0.42 2.06
4.92 0.55 2.20
5.32 0.70 2.39
4.72 0.72 2.13
4.66 0.81 2.11
4.60 0.89 2.09
4.55 0.98 2.08
4.38 1.03 2.01
4.18 1.08 1.93
4.09 1.14 1.90
4.05 1.22 1.89
3.98 1.29 1.87
3.92 1.35 1.86
2.35 0.86 1.12
2.34 0.92 1.13
3.96 1.64 1.92
3.91 1.72 1.92
3.86 1.78 1.91
3.80 1.85 1.90
3.74 1.92 1.89
3.68 1.98 1.88
3.62 2.05 1.87
3.57 2.11 1.87
3.53 2.19 1.87
3.48 2.26 1.87
3.45 2.33 1.87
3.43 2.42 1.89
3.40 2.51 1.90
3.38 2.60 1.92
3.36 2.69 1.94
3.33 2.78 1.95
3.35 2.92 2.00
3.41 3.09 2.07
3.86 3.64 2.39
3.78 3.72 2.39
3.71 3.79 2.39
3.63 3.87 2.39
3.55 3.94 2.39
3.47 4.01 2.39
3.39 4.08 2.39
3.30 4.14 2.39
3.22 4.21 2.39
3.13 4.27 2.39
3.05 4.34 2.39
2.96 4.40 2.39
2.87 4.46 2.39
2.78 4.51 2.39
2.69 4.57 2.39
2.59 4.62 2.39
2.50 4.67 2.39
2.41 4.72 2.39
2.31 4.77 2.39
2.21 4.82 2.39
2.15 4.93 2.43
2.11 5.12 2.50
2.00 5.16 2.50
1.90 5.20 2.50
1.79 5.24 2.50
1.69 5.27 2.50
1.58 5.31 2.50
1.47 5.34 2.50
1.37 5.37 2.50
1.26 5.39 2.50
1.15 5.42 2.50
1.04 5.44 2.50
0.93 5.47 2.50
0.82 5.48 2.50
0.71 5.50 2.50
0.60 5.52 2.50
0.49 5.53 2.50
0.37 5.54 2.50
0.26 5.55 2.50
0.15 5.55 2.50
0.04 5.56 2.50
-0.07 5.56 2.50
-0.19 5.56 2.50
-0.30 5.56 2.50
-0.41 5.55 2.50
-0.52 5.54 2.50
-0.63 5.54 2.50
-0.75 5.52 2.50
-0.86 5.51 2.50
-0.97 5.49 2.50
-1.08 5.48 2.50
-1.19 5.46 2.50
-1.30 5.43 2.50
-1.41 5.41 2.50
-1.52 5.38 2.50
-1.63 5.35 2.50
-1.74 5.32 2.50
-1.85 5.29 2.50
-1.95 5.25 2.50
-2.06 5.22 2.50
-2.16 5.18 2.50
-2.27 5.14 2.50
-2.37 5.09 2.50
-2.48 5.05 2.50
-2.58 5.00 2.50
-2.68 4.95 2.50
-2.78 4.90 2.50
-2.88 4.84 2.50
-2.98 4.79 2.50
-3.08 4.73 2.50
-3.18 4.67 2.50
-3.27 4.61 2.50
-3.37 4.54 2.50
-3.46 4.48 2.50
-3.55 4.41 2.50
-3.64 4.34 2.50
-3.73 4.27 2.50
-3.82 4.20 2.50
-3.90 4.12 2.50
-3.99 4.04 2.50
-4.07 3.97 2.50
-4.15 3.89 2.50
-4.23 3.80 2.50
-4.31 3.72 2.50
-4.39 3.64 2.50
-4.46 3.55 2.50
-4.54 3.46 2.50
-4.61 3.37 2.50
-4.68 3.28 2.50
-4.75 3.19 2.50
-4.81 3.10 2.50
-4.88 3.00 2.50
-4.94 2.90 2.50
-5.00 2.81 2.50
-5.06 2.71 2.50
-5.12 2.61 2.50
-5.17 2.51 2.50
-5.23 2.40 2.50
-5.28 2.30 2.50
-5.33 2.20 2.50
-5.37 2.09 2.50
-5.42 1.98 2.50
-5.46 1.87 2.50
-5.50 1.77 2.50
-5.54 1.66 2.50
-5.57 1.55 2.50
-5.61 1.44 2.50
-5.64 1.32 2.50
-5.67 1.21 2.50
-5.70 1.10 2.50
-5.72 0.98 2.50
-5.74 0.87 2.50
-5.76 0.76 2.50
-5.78 0.64 2.50
-5.80 0.53 2.50
-5.81 0.41 2.50
-5.82 0.29 2.50
-5.83 0.18 2.50
-5.83 0.06 2.50
-5.84 -0.06 2.50
-5.84 -0.17 2.50
-5.84 -0.29 2.50
-5.83 -0.41 2.50
-5.83 -0.52 2.50
-5.82 -0.64 2.50
-5.81 -0.76 2.50
-5.80 -0.87 2.50
-5.78 -0.99 2.50
-5.76 -1.11 2.50
-5.74 -1.22 2.50
-5.72 -1.34 2.50
-5.69 -1.45 2.50
-5.67 -1.57 2.50
-5.64 -1.68 2.50
-5.60 -1.79 2.50
-5.57 -1.91 2.50
-5.53 -2.02 2.50
-5.49 -2.13 2.50
-5.45 -2.24 2.50
-5.41 -2.35 2.50
-5.36 -2.46 2.50
-5.32 -2.56 2.50
-5.27 -2.67 2.50
-5.21 -2.78 2.50
-5.16 -2.88 2.50
-5.10 -2.99 2.50
-5.04 -3.09 2.50
-4.98 -3.19 2.50
-4.92 -3.29 2.50
-4.85 -3.39 2.50
-4.79 -3.48 2.50
-4.72 -3.58 2.50
-4.64 -3.67 2.50
-4.57 -3.77 2.50
-4.50 -3.86 2.50
-4.42 -3.95 2.50
-4.34 -4.04 2.50
-4.26 -4.12 2.50
-4.18 -4.21 2.50
-4.09 -4.29 2.50
-4.01 -4.37 2.50
-3.92 -4.45 2.50
-3.83 -4.53 2.50
-3.74 -4.61 2.50
-3.65 -4.68 2.50
-3.55 -4.75 2.50
-3.46 -4.82 2.50
-3.36 -4.89 2.50
-3.26 -4.96 2.50
-3.16 -5.02 2.50
-3.06 -5.08 2.50
-2.96 -5.14 2.50
-2.86 -5.20 2.50
-2.75 -5.26 2.50
-2.65 -5.31 2.50
-2.54 -5.36 2.50
-2.43 -5.41 2.50
-2.32 -5.46 2.50
-2.21 -5.50 2.50
-2.10 -5.54 2.50
-1.99 -5.58 2.50
-1.88 -5.62 2.50
-1.77 -5.66 2.50
-1.65 -5.69 2.50
-1.54 -5.72 2.50
-1.42 -5.75 2.50
-1.31 -5.78 2.50
-1.19 -5.80 2.50
-1.08 -5.82 2.50
-0.96 -5.84 2.50
-0.84 -5.86 2.50
-0.72 -5.87 2.50
-0.61 -5.88 2.50
-0.49 -5.89 2.50
-0.37 -5.90 2.50
-0.25 -5.90 2.50
-0.14 -5.90 2.50
-0.02 -5.55 2.50
0.09 -5.55 2.50
0.20 -5.54 2.50
0.31 -5.53 2.50
0.42 -5.52 2.50
0.53 -5.51 2.50
0.64 -5.50 2.50
0.75 -5.48 2.50
0.86 -5.46 2.50
0.97 -5.44 2.50
1.08 -5.42 2.50
1.19 -5.39 2.50
1.29 -5.37 2.50
1.40 -5.34 2.50
1.51 -5.31 2.50
1.61 -5.27 2.50
1.71 -5.24 2.50
1.82 -5.20 2.50
1.92 -5.16 2.50
2.01 -5.08 2.48
2.04 -4.86 2.39
2.13 -4.82 2.39
2.23 -4.77 2.39
2.32 -4.72 2.39
2.41 -4.67 2.39
2.50 -4.62 2.39
2.59 -4.57 2.39
2.68 -4.51 2.39
2.77 -4.45 2.39
2.86 -4.39 2.39
2.94 -4.33 2.39
3.03 -4.27 2.39
3.11 -4.21 2.39
3.19 -4.14 2.39
3.27 -4.07 2.39
3.35 -4.00 2.39
3.43 -3.93 2.39
3.50 -3.86 2.39
3.58 -3.79 2.39
3.65 -3.71 2.39
3.72 -3.64 2.39
3.79 -3.56 2.39
3.78 -3.41 2.35
3.72 -3.22 2.26
3.66 -3.04 2.19
3.67 -2.93 2.17
3.75 -2.87 2.18
3.82 -2.81 2.19
3.90 -2.74 2.20
3.98 -2.68 2.22
4.17 -2.69 2.30
4.38 -2.70 2.38
4.45 -2.62 2.39
4.49 -2.53 2.39
4.53 -2.43 2.39
4.56 -2.33 2.38
4.59 -2.23 2.37
4.63 -2.14 2.37
4.68 -2.05 2.38
4.75 -1.96 2.39
4.78 -1.87 2.39
4.46 -1.64 2.22
4.22 -1.46 2.08
4.17 -1.35 2.05
4.15 -1.25 2.03
4.16 -1.16 2.02
4.16 -1.07 2.01
4.13 -0.97 1.99
4.11 -0.88 1.97
4.15 -0.80 1.98
4.21 -0.73 2.00
4.15 -0.63 1.97
4.09 -0.54 1.94
4.13 -0.46 1.95
4.18 -0.38 1.97
4.23 -0.30 1.99
4.37 -0.22 2.06
4.44 -0.13 2.09
4.40 -0.04 2.07
4.35 0.04 2.05
4.33 0.13 2.05
4.34 0.22 2.05
4.38 0.31 2.08
4.46 0.40 2.11
4.55 0.51 2.17
5.01 0.66 2.39
4.73 0.72 2.27
4.59 0.79 2.21
4.54 0.88 2.19
4.49 0.96 2.18
4.42 1.04 2.15
4.13 1.06 2.02
4.06 1.13 2.00
4.02 1.21 1.99
3.98 1.29 1.99
3.92 1.35 1.97
2.35 0.86 1.19
2.34 0.92 1.20
3.85 1.60 1.98
3.80 1.66 1.97
3.74 1.73 1.96
3.68 1.80 1.95
3.63 1.86 1.95
3.59 1.93 1.94
3.55 2.00 1.94
3.51 2.07 1.94
3.46 2.14 1.94
3.42 2.21 1.95
3.38 2.28 1.95
3.35 2.37 1.96
3.33 2.45 1.98
3.31 2.54 1.99
3.28 2.63 2.01
3.26 2.72 2.03
3.23 2.81 2.05
3.71 3.36 2.39
3.64 3.43 2.39
3.57 3.50 2.39
3.50 3.58 2.39
3.42 3.64 2.39
3.35 3.71 2.39
3.27 3.78 2.39
3.19 3.84 2.39
3.12 3.91 2.39
3.04 3.97 2.39
2.96 4.03 2.39
2.87 4.09 2.39
2.79 4.15 2.39
2.71 4.20 2.39
2.62 4.25 2.39
2.53 4.31 2.39
2.45 4.36 2.39
2.36 4.41 2.39
2.27 4.45 2.39
2.18 4.50 2.39
2.14 4.65 2.45
2.08 4.78 2.50
1.98 4.82 2.50
1.89 4.86 2.50
1.79 4.90 2.50
1.69 4.94 2.50
1.59 4.97 2.50
1.49 5.00 2.50
1.39 5.03 2.50
1.29 5.06 2.50
1.18 5.09 2.50
1.08 5.11 2.50
0.98 5.13 2.50
0.88 5.15 2.50
0.77 5.17 2.50
0.67 5.19 2.50
0.56 5.20 2.50
0.46 5.21 2.50
