ply
format ascii 1.0
element vertex 2903
property float32 x
property float32 y
property float32 z
end_header
-12.55 10.94 2.00
-12.41 10.39 1.94
-12.44 9.99 1.91
-12.42 9.58 1.88
-12.40 9.17 1.85
-12.37 8.77 1.81
-12.37 8.39 1.79
-12.37 8.04 1.76
-12.39 7.70 1.74
-12.43 7.38 1.72
-12.46 7.07 1.70
-12.50 6.76 1.69
-12.54 6.46 1.67
-12.59 6.18 1.66
-12.62 5.88 1.65
-12.65 5.58 1.63
-12.66 5.29 1.62
-12.68 5.00 1.61
-12.70 4.72 1.60
-12.72 4.43 1.58
-12.74 4.16 1.57
-12.78 3.89 1.57
-12.82 3.62 1.56
-12.85 3.35 1.56
-12.89 3.09 1.55
-12.92 2.82 1.55
-12.96 2.56 1.54
-12.96 2.29 1.53
-12.94 2.02 1.52
-12.92 1.75 1.52
-12.91 1.49 1.51
-12.89 1.22 1.50
-12.87 0.96 1.50
-12.85 0.70 1.49
-12.83 0.44 1.48
-12.84 0.18 1.48
-12.86 -0.07 1.48
-12.88 -0.33 1.49
-12.88 -0.59 1.49
-12.89 -0.85 1.49
-12.90 -1.11 1.49
-12.90 -1.37 1.49
-12.90 -1.64 1.49
-12.90 -1.90 1.49
-12.90 -2.16 1.50
-12.90 -2.43 1.50
-12.90 -2.70 1.51
-12.90 -2.97 1.51
-12.89 -3.24 1.52
-12.89 -3.52 1.52
-12.92 -3.81 1.53
-12.96 -4.10 1.55
-13.00 -4.41 1.56
-13.05 -4.71 1.58
-13.09 -5.03 1.59
-13.12 -5.35 1.61
-13.14 -5.66 1.62
-13.13 -5.97 1.63
-13.11 -6.29 1.65
-13.10 -6.61 1.66
-13.08 -6.93 1.67
-13.06 -7.26 1.69
-13.07 -7.61 1.71
-13.05 -7.95 1.72
-13.01 -8.29 1.74
-12.96 -8.63 1.75
-12.92 -8.98 1.77
-12.87 -9.34 1.79
-12.84 -9.72 1.81
-12.82 -10.11 1.84
-12.80 -10.52 1.86
-12.78 -10.94 1.89
-12.76 -11.37 1.92
-12.72 -11.80 1.95
-12.72 -12.28 1.98
-12.71 -12.78 2.02
-12.71 -13.30 2.06
-12.68 -13.81 2.10
-12.61 -14.31 2.14
-12.54 -14.82 2.17
-12.47 -15.34 2.21
-12.36 -15.85 2.25
-12.18 -16.29 2.28
-12.00 -16.73 2.30
-11.81 -17.18 2.33
-11.61 -17.64 2.36
-11.41 -18.11 2.39
-11.20 -18.60 2.43
-10.98 -19.09 2.46
-10.73 -19.56 2.49
-10.49 -20.06 2.53
-10.25 -20.59 2.57
-9.14 -19.33 2.39
-8.75 -19.51 2.39
-8.36 -19.68 2.39
-7.96 -19.84 2.39
-7.56 -19.99 2.39
-7.15 -20.14 2.39
-6.75 -20.27 2.39
-6.34 -20.40 2.39
-5.93 -20.52 2.39
-5.51 -20.63 2.39
-5.17 -21.03 2.43
-4.88 -21.72 2.49
-4.44 -21.80 2.49
-4.00 -21.88 2.49
-3.56 -21.94 2.49
-3.12 -22.00 2.49
-2.68 -22.05 2.49
-2.23 -22.09 2.49
-1.79 -22.12 2.49
-1.34 -22.14 2.49
-0.90 -22.15 2.49
-0.45 -22.15 2.49
-0.01 -18.41 2.49
0.36 -18.39 2.49
0.73 -18.37 2.49
1.10 -18.34 2.49
1.46 -18.31 2.49
1.83 -18.27 2.49
2.19 -18.21 2.49
2.56 -18.16 2.49
2.80 -17.34 2.39
3.14 -17.27 2.39
3.49 -17.19 2.39
3.83 -17.11 2.39
4.17 -17.02 2.39
4.51 -16.92 2.39
4.84 -16.81 2.39
5.17 -16.70 2.39
5.50 -16.58 2.39
5.83 -16.45 2.39
6.15 -16.32 2.39
6.48 -16.18 2.39
6.80 -16.05 2.39
7.12 -15.90 2.39
7.43 -15.74 2.39
7.73 -15.58 2.39
8.04 -15.41 2.39
8.34 -15.23 2.39
8.64 -15.04 2.39
8.93 -14.86 2.39
9.22 -14.66 2.39
9.50 -14.46 2.39
9.78 -14.25 2.39
10.05 -14.04 2.39
10.32 -13.82 2.39
10.59 -13.60 2.39
10.85 -13.37 2.39
11.11 -13.14 2.39
8.94 -10.16 1.89
9.14 -9.98 1.89
11.84 -12.41 2.39
12.08 -12.16 2.39
12.31 -11.91 2.39
12.53 -11.64 2.39
12.75 -11.38 2.39
12.96 -11.11 2.39
13.17 -10.84 2.39
13.37 -10.56 2.39
13.57 -10.28 2.39
13.76 -10.00 2.39
13.94 -9.71 2.39
14.12 -9.42 2.39
14.29 -9.12 2.39
14.46 -8.82 2.39
13.54 -7.89 2.22
13.91 -7.74 2.25
14.92 -7.92 2.39
15.06 -7.61 2.39
15.19 -7.30 2.39
2.57 -1.17 0.40
2.59 -1.12 0.40
15.56 -6.35 2.39
15.67 -6.03 2.39
15.77 -5.71 2.39
15.87 -5.39 2.39
13.43 -4.26 2.02
13.83 -4.08 2.06
16.12 -4.41 2.39
16.19 -4.08 2.39
16.25 -3.75 2.39
16.31 -3.42 2.39
16.36 -3.09 2.39
16.40 -2.76 2.39
16.44 -2.42 2.39
16.47 -2.09 2.39
16.49 -1.76 2.39
13.34 -1.15 1.93
13.33 -0.88 1.93
16.52 -0.76 2.39
16.52 -0.43 2.39
16.51 -0.10 2.39
16.50 0.23 2.39
16.47 0.56 2.39
16.45 0.89 2.39
16.41 1.22 2.39
16.37 1.55 2.39
16.32 1.88 2.39
16.27 2.20 2.39
16.21 2.53 2.39
13.26 2.34 1.97
13.22 2.61 1.97
15.99 3.49 2.39
15.91 3.81 2.39
15.82 4.13 2.39
15.72 4.44 2.39
15.62 4.75 2.39
15.51 5.06 2.39
15.39 5.37 2.39
15.27 5.67 2.39
15.14 5.97 2.39
15.01 6.27 2.39
13.69 6.05 2.20
13.12 6.11 2.13
13.11 6.43 2.15
14.43 7.44 2.39
14.27 7.73 2.39
14.10 8.01 2.39
13.93 8.28 2.39
13.76 8.56 2.39
13.57 8.83 2.39
13.39 9.10 2.39
13.20 9.36 2.39
13.00 9.62 2.39
12.80 9.87 2.39
12.59 10.12 2.39
12.38 10.37 2.39
12.14 10.59 2.39
11.75 10.67 2.35
11.73 11.09 2.39
11.50 11.32 2.39
11.26 11.54 2.39
11.03 11.77 2.39
10.79 11.98 2.39
10.54 12.19 2.39
10.29 12.40 2.39
10.04 12.60 2.39
9.78 12.80 2.39
9.52 12.99 2.39
9.26 13.18 2.39
8.99 13.36 2.39
8.72 13.54 2.39
8.45 13.71 2.39
8.17 13.88 2.39
7.89 14.04 2.39
7.60 14.19 2.39
7.32 14.34 2.39
7.03 14.49 2.39
6.74 14.63 2.39
6.44 14.76 2.39
6.14 14.89 2.39
5.84 15.01 2.39
5.54 15.11 2.39
5.23 15.22 2.39
4.93 15.32 2.39
4.62 15.42 2.39
4.31 15.52 2.39
4.00 15.60 2.39
3.68 15.68 2.39
3.37 15.76 2.39
3.05 15.83 2.39
2.73 15.89 2.39
2.41 15.95 2.39
2.09 16.00 2.39
1.78 16.14 2.41
1.51 16.77 2.49
1.18 16.81 2.49
0.84 16.83 2.49
0.50 16.86 2.49
0.16 16.87 2.49
-0.18 16.88 2.49
-0.52 16.88 2.49
-0.86 16.87 2.49
-1.20 16.86 2.49
-1.53 16.84 2.49
-1.87 16.82 2.49
-2.21 16.79 2.49
-2.55 16.75 2.49
-2.89 16.70 2.49
-3.23 16.65 2.49
-3.56 16.59 2.49
-3.90 16.53 2.49
-4.23 16.46 2.49
-4.56 16.38 2.49
-4.89 16.30 2.49
-5.22 16.21 2.49
-5.55 16.11 2.49
-5.88 16.01 2.49
-6.20 15.90 2.49
-6.26 15.13 2.39
-6.56 15.01 2.39
-6.87 14.89 2.39
-7.17 14.76 2.39
-7.47 14.62 2.39
-7.77 14.48 2.39
-8.07 14.33 2.39
-8.36 14.18 2.39
-8.65 14.02 2.39
-8.94 13.85 2.39
-9.22 13.68 2.39
-9.50 13.51 2.39
-9.78 13.33 2.39
-10.06 13.14 2.39
-11.11 13.93 2.57
-11.31 13.61 2.55
-11.46 13.23 2.52
-11.61 12.88 2.50
-11.80 12.57 2.48
-11.96 12.24 2.46
-12.12 11.92 2.44
-12.15 11.48 2.40
-11.78 10.69 2.28
-11.80 10.28 2.24
-11.83 9.90 2.21
-11.86 9.53 2.17
-11.87 9.15 2.14
-11.85 8.76 2.10
-11.86 8.40 2.07
-11.87 8.05 2.04
-11.88 7.72 2.01
-11.88 7.39 1.99
-11.93 7.08 1.97
-11.97 6.79 1.95
-12.01 6.50 1.93
-12.06 6.22 1.92
-12.12 5.94 1.91
-12.17 5.66 1.90
-12.19 5.38 1.88
-12.22 5.10 1.87
-12.24 4.82 1.85
-12.26 4.55 1.84
-12.27 4.28 1.83
-12.29 4.01 1.81
-12.31 3.74 1.80
-12.35 3.49 1.80
-12.39 3.23 1.79
-12.42 2.97 1.79
-12.46 2.72 1.78
-12.48 2.46 1.78
-12.48 2.20 1.77
-12.47 1.94 1.76
-12.46 1.69 1.75
-12.44 1.43 1.74
-12.43 1.18 1.73
-12.41 0.93 1.73
-12.39 0.67 1.72
-12.38 0.42 1.72
-12.36 0.18 1.71
-12.35 -0.07 1.71
-12.37 -0.32 1.71
-12.38 -0.57 1.71
-12.39 -0.82 1.71
-12.41 -1.07 1.72
-12.42 -1.32 1.72
-12.43 -1.58 1.72
-12.40 -1.83 1.72
-12.37 -2.08 1.72
-12.38 -2.33 1.73
-12.38 -2.59 1.73
-12.38 -2.85 1.74
-12.38 -3.12 1.75
-12.38 -3.38 1.76
-12.37 -3.65 1.76
-12.35 -3.91 1.77
-12.41 -4.21 1.79
-12.57 -4.54 1.82
-12.72 -4.89 1.86
-12.78 -5.21 1.88
-12.81 -5.52 1.90
-12.81 -5.83 1.92
-12.79 -6.14 1.93
-12.77 -6.44 1.94
-12.76 -6.76 1.96
-12.73 -7.08 1.98
-12.71 -7.40 2.00
-12.69 -7.74 2.02
-12.64 -8.06 2.03
-12.54 -8.35 2.04
-12.43 -8.65 2.05
-12.32 -8.94 2.06
-12.21 -9.24 2.07
-12.09 -9.54 2.08
-12.06 -9.91 2.11
-12.07 -10.33 2.15
-12.02 -10.71 2.18
-11.97 -11.10 2.20
-11.91 -11.51 2.24
-11.85 -11.92 2.27
-11.78 -12.33 2.30
-11.75 -12.80 2.34
-11.73 -13.31 2.39
-11.70 -13.82 2.44
-11.57 -14.23 2.47
-11.43 -14.66 2.51
-11.27 -15.07 2.54
-11.10 -15.47 2.57
-10.93 -15.90 2.60
-10.77 -16.36 2.64
-10.60 -16.84 2.68
-9.16 -15.21 2.39
-8.85 -15.39 2.39
-8.54 -15.57 2.39
-8.23 -15.73 2.39
-7.91 -15.90 2.39
-7.59 -16.05 2.39
-7.27 -16.20 2.39
-6.94 -16.34 2.39
-6.61 -16.47 2.39
-6.28 -16.60 2.39
-5.94 -16.72 2.39
-5.60 -16.83 2.39
-5.29 -17.04 2.41
-5.13 -17.77 2.49
-4.78 -17.87 2.49
-4.42 -17.96 2.49
-4.05 -18.04 2.49
-3.69 -18.11 2.49
-3.33 -18.17 2.49
-2.96 -18.23 2.49
-2.59 -18.28 2.49
-2.22 -18.32 2.49
-1.86 -18.35 2.49
-1.49 -18.38 2.49
-1.12 -18.40 2.49
-0.75 -18.41 2.49
-0.38 -18.41 2.49
-0.01 -15.74 2.49
0.31 -15.73 2.49
0.62 -15.71 2.49
0.94 -15.69 2.49
1.25 -15.66 2.49
1.56 -15.62 2.49
1.88 -15.58 2.49
2.19 -15.53 2.49
2.50 -15.47 2.49
2.71 -14.88 2.41
2.98 -14.71 2.39
3.27 -14.64 2.39
3.57 -14.56 2.39
3.85 -14.48 2.39
4.14 -14.39 2.39
4.43 -14.29 2.39
4.71 -14.19 2.39
4.99 -14.09 2.39
5.27 -13.98 2.39
5.54 -13.86 2.39
5.82 -13.73 2.39
6.09 -13.61 2.39
6.35 -13.47 2.39
5.22 -10.51 1.89
5.42 -10.40 1.89
5.71 -10.43 1.91
7.40 -12.89 2.39
7.65 -12.73 2.39
7.90 -12.57 2.39
8.14 -12.40 2.39
8.38 -12.22 2.39
8.62 -12.04 2.39
8.85 -11.86 2.39
9.08 -11.67 2.39
9.31 -11.47 2.39
9.53 -11.28 2.39
9.74 -11.07 2.39
9.96 -10.87 2.39
10.16 -10.66 2.39
10.37 -10.44 2.39
10.57 -10.22 2.39
10.76 -10.00 2.39
10.95 -9.77 2.39
11.13 -9.54 2.39
11.31 -9.31 2.39
11.49 -9.07 2.39
11.66 -8.83 2.39
11.82 -8.59 2.39
11.98 -8.35 2.39
12.14 -8.10 2.39
12.29 -7.84 2.39
12.43 -7.59 2.39
12.57 -7.33 2.39
12.70 -7.07 2.39
12.83 -6.81 2.39
12.95 -6.55 2.39
13.07 -6.28 2.39
2.57 -1.17 0.47
2.59 -1.12 0.47
13.39 -5.47 2.39
13.49 -5.19 2.39
13.58 -4.92 2.39
13.66 -4.64 2.39
13.45 -4.27 2.34
13.81 -4.08 2.39
13.88 -3.80 2.39
13.94 -3.52 2.39
14.00 -3.23 2.39
14.05 -2.95 2.39
14.10 -2.66 2.39
14.13 -2.38 2.39
14.17 -2.09 2.39
14.20 -1.81 2.39
14.22 -1.52 2.39
13.34 -1.15 2.24
13.33 -0.88 2.24
14.25 -0.66 2.39
14.25 -0.37 2.39
14.24 -0.09 2.39
14.23 0.20 2.39
14.22 0.49 2.39
14.19 0.77 2.39
14.16 1.05 2.39
14.13 1.34 2.39
14.09 1.62 2.39
14.05 1.90 2.39
14.00 2.18 2.39
13.43 2.37 2.31
13.25 2.61 2.29
13.81 3.01 2.39
13.74 3.29 2.39
13.66 3.56 2.39
13.58 3.83 2.39
13.49 4.10 2.39
13.40 4.37 2.39
13.30 4.64 2.39
13.20 4.90 2.39
13.09 5.16 2.39
12.98 5.42 2.39
12.86 5.68 2.39
12.74 5.93 2.39
12.61 6.18 2.39
12.47 6.43 2.39
12.34 6.68 2.39
12.20 6.92 2.39
12.05 7.16 2.39
11.90 7.40 2.39
11.74 7.64 2.39
11.58 7.87 2.39
11.42 8.09 2.39
11.25 8.32 2.39
11.07 8.54 2.39
10.90 8.76 2.39
10.72 8.97 2.39
10.53 9.18 2.39
10.34 9.39 2.39
10.15 9.59 2.39
9.95 9.79 2.39
9.75 9.99 2.39
9.54 10.18 2.39
9.34 10.37 2.39
9.12 10.55 2.39
8.91 10.73 2.39
8.69 10.91 2.39
8.47 11.08 2.39
8.24 11.24 2.39
8.01 11.41 2.39
7.78 11.56 2.39
7.55 11.72 2.39
7.31 11.87 2.39
7.07 12.01 2.39
6.83 12.15 2.39
6.58 12.28 2.39
6.33 12.41 2.39
6.08 12.54 2.39
5.82 12.65 2.39
5.57 12.76 2.39
5.31 12.87 2.39
5.05 12.98 2.39
4.79 13.08 2.39
4.53 13.17 2.39
4.26 13.26 2.39
4.00 13.35 2.39
3.73 13.43 2.39
3.46 13.50 2.39
3.19 13.57 2.39
2.91 13.64 2.39
2.64 13.70 2.39
2.36 13.75 2.39
2.09 13.80 2.39
1.84 14.06 2.43
1.60 14.48 2.49
1.31 14.51 2.49
1.02 14.54 2.49
0.72 14.56 2.49
0.43 14.58 2.49
0.14 14.59 2.49
-0.15 14.60 2.49
-0.45 14.60 2.49
-0.74 14.59 2.49
-1.03 14.58 2.49
-1.33 14.56 2.49
-1.62 14.54 2.49
-1.91 14.51 2.49
-2.21 14.48 2.49
-2.50 14.44 2.49
-2.79 14.39 2.49
-3.08 14.34 2.49
-3.37 14.28 2.49
-3.66 14.22 2.49
-3.94 14.15 2.49
-4.23 14.08 2.49
-4.51 14.00 2.49
-4.80 13.91 2.49
-5.08 13.82 2.49
-5.36 13.73 2.49
-5.64 13.63 2.49
-5.91 13.52 2.49
-6.19 13.41 2.49
-6.19 12.74 2.39
-6.45 12.62 2.39
-6.71 12.50 2.39
-6.96 12.37 2.39
-7.22 12.23 2.39
-7.47 12.10 2.39
-7.71 11.95 2.39
-7.96 11.80 2.39
-8.20 11.65 2.39
-8.44 11.49 2.39
-8.67 11.33 2.39
-8.91 11.16 2.39
-9.14 10.99 2.39
-9.36 10.81 2.39
-9.59 10.63 2.39
-9.80 10.44 2.39
-10.02 10.25 2.39
-10.98 10.79 2.57
-11.17 10.55 2.56
-11.22 10.17 2.52
-11.26 9.81 2.48
-11.30 9.45 2.45
-11.34 9.10 2.41
-11.36 8.75 2.38
-11.37 8.40 2.34
-11.39 8.06 2.31
-11.40 7.74 2.28
-11.42 7.42 2.25
-11.43 7.10 2.22
-11.46 6.81 2.20
-11.51 6.52 2.18
-11.57 6.25 2.17
-11.62 5.99 2.15
-11.68 5.72 2.14
-11.73 5.46 2.13
-11.77 5.19 2.11
-11.79 4.92 2.10
-11.82 4.66 2.08
-11.84 4.39 2.07
-11.86 4.13 2.05
-11.87 3.87 2.04
-11.89 3.61 2.03
-11.91 3.36 2.02
-11.95 3.11 2.01
-11.98 2.87 2.01
-12.02 2.62 2.00
-12.03 2.37 1.99
-12.03 2.12 1.98
-12.03 1.87 1.98
-12.02 1.63 1.97
-12.01 1.38 1.96
-12.00 1.13 1.95
-11.98 0.89 1.94
-11.96 0.65 1.94
-11.95 0.41 1.93
-11.94 0.17 1.93
-11.93 -0.07 1.92
-11.91 -0.31 1.92
-11.90 -0.55 1.92
-11.92 -0.79 1.92
-11.93 -1.03 1.93
-11.94 -1.27 1.93
-11.94 -1.52 1.93
-11.92 -1.76 1.93
-11.89 -2.00 1.93
-11.86 -2.24 1.93
-11.83 -2.48 1.94
-11.82 -2.72 1.94
-11.81 -2.98 1.95
-11.81 -3.23 1.96
-11.80 -3.48 1.97
-11.78 -3.73 1.97
-11.75 -3.99 1.98
-11.72 -4.24 1.99
-11.68 -4.49 1.99
-11.70 -4.77 2.01
-11.82 -5.10 2.05
-11.95 -5.44 2.09
-11.99 -5.75 2.12
-11.94 -6.03 2.13
-11.89 -6.30 2.14
-11.84 -6.58 2.15
-11.78 -6.87 2.16
-11.73 -7.15 2.18
-11.67 -7.44 2.19
-11.59 -7.72 2.21
-11.50 -8.00 2.22
-11.41 -8.28 2.23
-11.31 -8.56 2.25
-11.21 -8.84 2.26
-11.10 -9.13 2.27
-10.98 -9.40 2.29
-10.87 -9.69 2.30
-10.89 -10.10 2.35
-10.89 -10.53 2.39
-10.90 -10.96 2.44
-10.89 -11.40 2.49
-10.81 -11.78 2.52
-10.72 -12.17 2.56
-10.63 -12.57 2.60
-10.54 -12.97 2.64
-9.32 -11.95 2.39
-9.08 -12.14 2.39
-8.84 -12.32 2.39
-8.59 -12.50 2.39
-8.34 -12.67 2.39
-8.08 -12.83 2.39
-7.82 -12.99 2.39
-7.56 -13.15 2.39
-7.30 -13.30 2.39
-7.03 -13.44 2.39
-6.76 -13.58 2.39
-6.48 -13.71 2.39
-6.21 -13.84 2.39
-5.93 -13.96 2.39
-5.65 -14.07 2.39
-5.38 -14.23 2.40
-5.29 -14.90 2.49
-4.99 -15.00 2.49
-4.69 -15.09 2.49
-4.39 -15.18 2.49
-4.08 -15.26 2.49
-3.77 -15.34 2.49
-3.46 -15.41 2.49
-3.15 -15.47 2.49
-2.84 -15.53 2.49
-2.53 -15.58 2.49
-2.22 -15.62 2.49
-1.90 -15.66 2.49
-1.59 -15.69 2.49
-1.27 -15.71 2.49
-0.96 -15.73 2.49
-0.64 -15.74 2.49
-0.32 -15.74 2.49
-0.01 -13.73 2.49
0.27 -13.72 2.49
0.54 -13.71 2.49
0.82 -13.69 2.49
1.09 -13.66 2.49
1.36 -13.63 2.49
1.64 -13.60 2.49
1.91 -13.55 2.49
2.18 -13.51 2.49
2.45 -13.45 2.49
2.65 -13.07 2.43
2.86 -12.78 2.39
3.11 -12.71 2.39
3.36 -12.64 2.39
3.62 -12.57 2.39
3.86 -12.48 2.39
4.11 -12.40 2.39
4.36 -12.31 2.39
4.60 -12.21 2.39
4.84 -12.11 2.39
5.08 -12.00 2.39
5.32 -11.89 2.39
5.55 -11.77 2.39
5.78 -11.65 2.39
5.96 -11.42 2.37
6.17 -11.27 2.37
6.46 -11.26 2.39
6.69 -11.13 2.39
6.90 -10.99 2.39
7.12 -10.84 2.39
7.33 -10.69 2.39
7.54 -10.53 2.39
7.74 -10.37 2.39
7.94 -10.21 2.39
8.14 -10.04 2.39
8.33 -9.87 2.39
8.52 -9.69 2.39
8.71 -9.51 2.39
8.89 -9.33 2.39
9.07 -9.14 2.39
9.25 -8.95 2.39
9.42 -8.76 2.39
9.58 -8.56 2.39
9.75 -8.36 2.39
9.90 -8.15 2.39
10.06 -7.95 2.39
10.21 -7.74 2.39
10.35 -7.53 2.39
10.49 -7.31 2.39
10.63 -7.09 2.39
8.48 -5.42 1.89
8.58 -5.24 1.89
8.70 -5.08 1.89
11.13 -6.20 2.39
11.25 -5.97 2.39
11.36 -5.74 2.39
11.46 -5.51 2.39
2.57 -1.17 0.53
2.59 -1.12 0.53
11.74 -4.80 2.39
11.83 -4.56 2.39
11.91 -4.31 2.39
11.98 -4.07 2.39
12.05 -3.83 2.39
12.12 -3.58 2.39
12.18 -3.33 2.39
12.24 -3.09 2.39
12.29 -2.84 2.39
12.33 -2.59 2.39
12.37 -2.34 2.39
12.41 -2.09 2.39
12.44 -1.84 2.39
12.46 -1.59 2.39
12.49 -1.34 2.39
12.50 -1.08 2.39
12.51 -0.83 2.39
12.52 -0.58 2.39
12.52 -0.33 2.39
12.51 -0.08 2.39
12.50 0.17 2.39
12.49 0.42 2.39
12.47 0.68 2.39
12.45 0.92 2.39
12.42 1.17 2.39
12.39 1.42 2.39
12.35 1.67 2.39
12.30 1.92 2.39
12.26 2.16 2.39
12.20 2.41 2.39
12.14 2.65 2.39
12.08 2.89 2.39
12.01 3.13 2.39
11.94 3.37 2.39
11.87 3.61 2.39
11.79 3.84 2.39
11.70 4.08 2.39
11.61 4.31 2.39
11.52 4.54 2.39
11.42 4.77 2.39
11.31 4.99 2.39
11.21 5.22 2.39
11.09 5.44 2.39
10.98 5.66 2.39
10.86 5.88 2.39
10.73 6.09 2.39
10.60 6.30 2.39
10.47 6.51 2.39
10.34 6.72 2.39
10.19 6.92 2.39
10.05 7.12 2.39
9.90 7.32 2.39
9.75 7.52 2.39
9.59 7.71 2.39
9.43 7.90 2.39
9.27 8.09 2.39
9.10 8.27 2.39
8.93 8.45 2.39
8.76 8.62 2.39
8.58 8.80 2.39
8.40 8.96 2.39
8.22 9.13 2.39
8.03 9.29 2.39
7.84 9.45 2.39
7.65 9.60 2.39
7.46 9.76 2.39
7.26 9.90 2.39
7.06 10.05 2.39
6.85 10.18 2.39
6.65 10.32 2.39
6.44 10.45 2.39
6.23 10.58 2.39
6.01 10.70 2.39
5.79 10.81 2.39
5.57 10.92 2.39
5.35 11.03 2.39
5.13 11.14 2.39
4.90 11.24 2.39
4.68 11.34 2.39
4.45 11.43 2.39
4.22 11.52 2.39
3.99 11.60 2.39
3.75 11.68 2.39
3.52 11.75 2.39
3.28 11.82 2.39
3.04 11.89 2.39
2.80 11.95 2.39
2.56 12.01 2.39
2.32 12.06 2.39
2.09 12.14 2.40
1.88 12.46 2.45
1.66 12.71 2.49
1.41 12.75 2.49
1.15 12.78 2.49
0.89 12.80 2.49
0.64 12.82 2.49
0.38 12.83 2.49
0.12 12.84 2.49
-0.14 12.85 2.49
-0.40 12.85 2.49
-0.65 12.84 2.49
-0.91 12.83 2.49
-1.17 12.81 2.49
-1.43 12.79 2.49
-1.69 12.77 2.49
-1.94 12.74 2.49
-2.20 12.70 2.49
-2.45 12.66 2.49
-2.71 12.61 2.49
-2.96 12.56 2.49
-3.22 12.51 2.49
-3.47 12.45 2.49
-3.72 12.38 2.49
-3.97 12.31 2.49
-4.22 12.23 2.49
-4.47 12.15 2.49
-4.71 12.07 2.49
-4.96 11.98 2.49
-5.20 11.88 2.49
-5.44 11.78 2.49
-5.68 11.68 2.49
-5.92 11.57 2.49
-6.13 11.42 2.49
-6.13 10.88 2.39
-6.34 10.75 2.39
-6.56 10.63 2.39
-6.78 10.50 2.39
-6.99 10.37 2.39
-7.20 10.23 2.39
-7.41 10.09 2.39
-7.62 9.95 2.39
-7.82 9.80 2.39
-8.02 9.65 2.39
-8.22 9.49 2.39
-8.42 9.33 2.39
-8.61 9.17 2.39
-8.80 9.00 2.39
-8.98 8.83 2.39
-9.16 8.65 2.39
-9.34 8.47 2.39
-9.52 8.29 2.39
-9.69 8.10 2.39
-9.86 7.91 2.39
-10.02 7.72 2.39
-10.61 7.83 2.49
-10.69 7.57 2.47
-10.77 7.30 2.45
-10.84 7.04 2.44
-10.90 6.77 2.42
-11.00 6.53 2.41
-11.09 6.29 2.40
-11.15 6.03 2.38
-11.21 5.77 2.37
-11.26 5.52 2.35
-11.31 5.26 2.34
-11.37 5.01 2.33
-11.40 4.75 2.31
-11.42 4.50 2.30
-11.44 4.24 2.28
-11.46 3.99 2.27
-11.48 3.74 2.25
-11.50 3.49 2.24
-11.51 3.25 2.23
-11.54 3.00 2.22
-11.57 2.77 2.21
-11.61 2.53 2.21
-11.61 2.29 2.20
-11.61 2.05 2.19
-11.61 1.81 2.18
-11.60 1.57 2.17
-11.60 1.33 2.16
-11.59 1.09 2.16
-11.58 0.86 2.15
-11.56 0.63 2.14
-11.55 0.39 2.14
-11.54 0.16 2.13
-11.53 -0.07 2.13
-11.51 -0.30 2.12
-11.50 -0.53 2.12
-11.49 -0.76 2.12
-11.48 -0.99 2.12
-11.49 -1.23 2.12
-11.49 -1.46 2.13
-11.48 -1.69 2.13
-11.45 -1.93 2.13
-11.42 -2.16 2.13
-11.39 -2.39 2.13
-11.35 -2.62 2.13
-11.32 -2.85 2.14
-11.28 -3.09 2.14
-11.28 -3.33 2.15
-11.27 -3.57 2.16
-11.23 -3.81 2.17
-11.20 -4.05 2.18
-11.17 -4.29 2.18
-11.13 -4.54 2.19
-11.09 -4.78 2.20
-11.05 -5.03 2.21
-11.00 -5.28 2.22
-11.09 -5.60 2.26
-11.04 -5.85 2.27
-10.98 -6.11 2.29
-10.92 -6.36 2.30
-10.86 -6.62 2.31
-10.79 -6.88 2.33
-10.72 -7.14 2.34
-10.65 -7.41 2.36
-10.56 -7.67 2.37
-10.46 -7.92 2.38
-10.36 -8.17 2.39
-10.25 -8.42 2.41
-10.13 -8.68 2.42
-10.02 -8.93 2.43
-9.90 -9.19 2.45
-9.49 -9.17 2.39
-9.31 -9.36 2.39
-9.12 -9.55 2.39
-8.93 -9.73 2.39
-8.73 -9.91 2.39
-8.54 -10.09 2.39
-8.33 -10.26 2.39
-8.13 -10.42 2.39
-7.92 -10.58 2.39
-7.70 -10.74 2.39
-7.49 -10.90 2.39
-7.27 -11.04 2.39
-7.05 -11.19 2.39
-6.82 -11.33 2.39
-6.59 -11.46 2.39
-6.36 -11.59 2.39
-6.13 -11.72 2.39
-5.89 -11.84 2.39
-5.65 -11.95 2.39
-5.44 -12.13 2.40
-5.39 -12.69 2.49
-5.14 -12.80 2.49
-4.88 -12.90 2.49
-4.62 -12.99 2.49
-4.36 -13.08 2.49
-4.09 -13.16 2.49
-3.83 -13.24 2.49
-3.56 -13.31 2.49
-3.29 -13.38 2.49
-3.02 -13.44 2.49
-2.75 -13.49 2.49
-2.48 -13.54 2.49
-2.21 -13.59 2.49
-1.93 -13.62 2.49
-1.66 -13.66 2.49
-1.38 -13.68 2.49
-1.11 -13.70 2.49
-0.83 -13.72 2.49
-0.56 -13.73 2.49
-0.28 -13.73 2.49
-0.01 -12.16 2.49
0.24 -12.16 2.49
0.48 -12.15 2.49
0.72 -12.13 2.49
0.96 -12.11 2.49
1.21 -12.08 2.49
1.45 -12.05 2.49
1.69 -12.01 2.49
1.93 -11.97 2.49
2.17 -11.93 2.49
2.40 -11.88 2.49
2.60 -11.65 2.46
2.76 -11.27 2.39
2.98 -11.21 2.39
3.20 -11.14 2.39
3.43 -11.07 2.39
3.64 -10.99 2.39
3.86 -10.91 2.39
4.08 -10.83 2.39
4.29 -10.74 2.39
4.50 -10.64 2.39
4.71 -10.55 2.39
4.92 -10.44 2.39
5.13 -10.34 2.39
5.33 -10.23 2.39
5.53 -10.11 2.39
5.73 -9.99 2.39
5.93 -9.87 2.39
6.12 -9.74 2.39
6.31 -9.61 2.39
6.50 -9.48 2.39
6.69 -9.35 2.39
6.87 -9.21 2.39
7.05 -9.06 2.39
7.23 -8.91 2.39
5.83 -6.90 1.89
5.96 -6.78 1.89
6.10 -6.66 1.89
7.90 -8.28 2.39
8.06 -8.12 2.39
8.21 -7.95 2.39
8.36 -7.78 2.39
8.51 -7.60 2.39
8.66 -7.43 2.39
8.80 -7.25 2.39
8.94 -7.06 2.39
9.07 -6.88 2.39
9.20 -6.69 2.39
9.33 -6.50 2.39
9.45 -6.31 2.39
9.57 -6.11 2.39
9.68 -5.92 2.39
7.81 -4.56 1.91
7.95 -4.43 1.92
10.00 -5.31 2.39
10.10 -5.11 2.39
10.19 -4.90 2.39
2.57 -1.17 0.60
2.59 -1.12 0.60
10.45 -4.27 2.39
10.52 -4.05 2.39
10.59 -3.84 2.39
10.66 -3.62 2.39
10.73 -3.41 2.39
10.79 -3.19 2.39
10.84 -2.97 2.39
10.89 -2.75 2.39
10.94 -2.53 2.39
10.98 -2.31 2.39
11.01 -2.09 2.39
11.05 -1.86 2.39
11.08 -1.64 2.39
11.10 -1.42 2.39
11.12 -1.19 2.39
8.77 -0.76 1.89
8.78 -0.59 1.89
8.78 -0.41 1.89
11.15 -0.29 2.39
11.15 -0.07 2.39
11.14 0.15 2.39
11.13 0.38 2.39
11.11 0.60 2.39
11.09 0.82 2.39
11.07 1.04 2.39
11.04 1.27 2.39
11.00 1.49 2.39
10.97 1.71 2.39
10.92 1.93 2.39
10.88 2.14 2.39
10.83 2.36 2.39
10.77 2.58 2.39
10.71 2.79 2.39
10.65 3.00 2.39
10.58 3.22 2.39
10.51 3.43 2.39
10.43 3.64 2.39
10.35 3.84 2.39
10.27 4.05 2.39
10.18 4.25 2.39
10.09 4.45 2.39
10.00 4.65 2.39
9.90 4.85 2.39
9.79 5.05 2.39
9.69 5.24 2.39
7.73 4.39 1.93
7.60 4.52 1.92
7.48 4.65 1.92
9.22 5.99 2.39
9.10 6.18 2.39
8.97 6.36 2.39
8.84 6.53 2.39
8.70 6.71 2.39
8.56 6.88 2.39
8.42 7.05 2.39
8.27 7.21 2.39
8.12 7.38 2.39
7.97 7.54 2.39
7.82 7.70 2.39
7.66 7.85 2.39
7.50 8.00 2.39
7.34 8.15 2.39
7.17 8.29 2.39
7.00 8.43 2.39
6.83 8.57 2.39
6.66 8.71 2.39
6.48 8.84 2.39
6.30 8.97 2.39
6.12 9.09 2.39
5.93 9.20 2.39
5.74 9.32 2.39
5.55 9.43 2.39
5.36 9.54 2.39
5.17 9.65 2.39
4.97 9.75 2.39
4.78 9.85 2.39
4.58 9.94 2.39
4.38 10.03 2.39
4.17 10.12 2.39
3.97 10.20 2.39
3.76 10.28 2.39
3.56 10.35 2.39
3.35 10.42 2.39
3.14 10.49 2.39
2.93 10.55 2.39
2.72 10.61 2.39
2.50 10.67 2.39
2.29 10.72 2.39
2.07 10.76 2.39
1.92 11.19 2.48
1.71 11.31 2.49
1.48 11.34 2.49
1.25 11.37 2.49
1.03 11.40 2.49
0.80 11.42 2.49
0.57 11.44 2.49
0.34 11.45 2.49
0.11 11.46 2.49
-0.12 11.46 2.49
-0.35 11.46 2.49
-0.58 11.45 2.49
-0.81 11.44 2.49
-1.04 11.43 2.49
-1.27 11.41 2.49
-1.50 11.39 2.49
-1.73 11.36 2.49
-1.96 11.33 2.49
-2.19 11.29 2.49
-2.42 11.25 2.49
-2.64 11.20 2.49
-2.87 11.15 2.49
-3.10 11.10 2.49
-3.32 11.04 2.49
-3.54 10.97 2.49
-3.76 10.91 2.49
-3.98 10.83 2.49
-4.20 10.76 2.49
-4.42 10.68 2.49
-4.64 10.59 2.49
-4.85 10.50 2.49
-5.06 10.41 2.49
-5.27 10.31 2.49
-5.48 10.21 2.49
-5.69 10.10 2.49
-5.90 9.99 2.49
-6.09 9.86 2.49
-6.08 9.42 2.41
-6.23 9.23 2.39
-6.42 9.11 2.39
-6.60 8.99 2.39
-6.79 8.86 2.39
-6.97 8.73 2.39
-7.15 8.59 2.39
-7.32 8.45 2.39
-7.49 8.31 2.39
-7.66 8.16 2.39
-7.83 8.01 2.39
-8.00 7.86 2.39
-8.16 7.70 2.39
-8.32 7.54 2.39
-8.47 7.37 2.39
-8.62 7.21 2.39
-8.77 7.04 2.39
-8.92 6.86 2.39
-9.06 6.69 2.39
-9.20 6.51 2.39
-9.33 6.33 2.39
-9.47 6.14 2.39
-9.59 5.96 2.39
-9.72 5.77 2.39
-9.84 5.57 2.39
-9.95 5.38 2.39
-10.52 5.41 2.50
-10.66 5.22 2.50
-10.80 5.02 2.51
-10.94 4.82 2.52
-11.02 4.60 2.52
-11.05 4.35 2.50
-11.07 4.10 2.48
-11.09 3.86 2.47
-11.11 3.62 2.46
-11.13 3.38 2.44
-11.15 3.14 2.43
-11.16 2.90 2.42
-11.19 2.67 2.41
-11.21 2.44 2.40
-11.21 2.21 2.39
-11.21 1.97 2.38
-11.21 1.74 2.37
-11.21 1.51 2.36
-11.21 1.28 2.35
-11.20 1.06 2.35
-11.20 0.83 2.34
-11.18 0.60 2.33
-11.17 0.38 2.33
-11.16 0.15 2.32
-11.15 -0.07 2.32
-11.14 -0.29 2.32
-11.13 -0.52 2.31
-11.11 -0.74 2.31
-11.10 -0.96 2.31
-11.08 -1.18 2.31
-11.07 -1.41 2.31
-11.06 -1.63 2.32
-11.03 -1.86 2.32
-11.00 -2.08 2.32
-10.97 -2.30 2.32
-10.94 -2.53 2.32
-10.91 -2.75 2.32
-10.87 -2.97 2.33
-10.83 -3.20 2.33
-10.79 -3.42 2.33
-10.76 -3.65 2.34
-10.71 -3.87 2.35
-10.64 -4.09 2.35
-10.58 -4.31 2.35
-10.51 -4.53 2.35
-10.43 -4.75 2.36
-10.36 -4.97 2.36
-10.28 -5.19 2.37
-10.19 -5.40 2.37
-10.11 -5.62 2.38
-10.04 -5.85 2.38
-9.96 -6.08 2.39
-9.88 -6.30 2.40
-9.80 -6.53 2.41
-9.58 -6.66 2.39
-9.45 -6.86 2.39
-9.31 -7.05 2.39
-9.17 -7.23 2.39
-9.02 -7.42 2.39
-8.88 -7.60 2.39
-8.72 -7.78 2.39
-8.57 -7.95 2.39
-8.41 -8.12 2.39
-8.25 -8.29 2.39
-8.08 -8.46 2.39
-7.91 -8.62 2.39
-7.74 -8.78 2.39
-7.56 -8.93 2.39
-7.38 -9.08 2.39
-7.20 -9.23 2.39
-7.01 -9.37 2.39
-6.82 -9.51 2.39
-6.63 -9.65 2.39
-6.44 -9.78 2.39
-6.24 -9.91 2.39
-6.04 -10.03 2.39
-5.84 -10.15 2.39
-5.63 -10.27 2.39
-5.49 -10.49 2.42
-5.44 -10.94 2.49
-5.22 -11.04 2.49
-5.00 -11.15 2.49
-4.77 -11.24 2.49
-4.55 -11.34 2.49
-4.32 -11.42 2.49
-4.09 -11.51 2.49
-3.86 -11.58 2.49
-3.62 -11.66 2.49
-3.39 -11.73 2.49
-3.15 -11.79 2.49
-2.92 -11.85 2.49
-2.68 -11.90 2.49
-2.44 -11.95 2.49
-2.20 -12.00 2.49
-1.96 -12.03 2.49
-1.71 -12.07 2.49
-1.47 -12.10 2.49
-1.23 -12.12 2.49
-0.98 -12.14 2.49
-0.74 -12.15 2.49
-0.50 -12.16 2.49
-0.25 -12.17 2.49
-0.01 -10.91 2.49
0.21 -10.90 2.49
0.43 -10.89 2.49
0.65 -10.88 2.49
0.86 -10.86 2.49
1.08 -10.84 2.49
1.30 -10.81 2.49
1.51 -10.78 2.49
1.73 -10.74 2.49
1.94 -10.70 2.49
2.16 -10.66 2.49
2.37 -10.61 2.49
2.57 -10.51 2.48
2.67 -10.06 2.39
2.87 -10.00 2.39
3.07 -9.94 2.39
3.27 -9.87 2.39
3.47 -9.80 2.39
3.66 -9.72 2.39
3.85 -9.64 2.39
4.04 -9.56 2.39
4.23 -9.47 2.39
4.42 -9.38 2.39
4.60 -9.28 2.39
4.79 -9.18 2.39
4.97 -9.08 2.39
5.14 -8.97 2.39
5.32 -8.86 2.39
5.49 -8.75 2.39
5.67 -8.63 2.39
5.83 -8.51 2.39
6.00 -8.39 2.39
6.16 -8.26 2.39
6.32 -8.13 2.39
6.48 -8.00 2.39
5.23 -6.20 1.89
5.35 -6.09 1.89
6.95 -7.59 2.39
7.09 -7.45 2.39
7.24 -7.30 2.39
7.38 -7.15 2.39
7.52 -6.99 2.39
7.65 -6.84 2.39
7.78 -6.68 2.39
7.91 -6.52 2.39
8.03 -6.35 2.39
8.15 -6.19 2.39
8.27 -6.02 2.39
8.39 -5.85 2.39
8.50 -5.67 2.39
8.60 -5.50 2.39
8.71 -5.32 2.39
8.81 -5.14 2.39
8.90 -4.96 2.39
8.99 -4.78 2.39
9.08 -4.59 2.39
9.17 -4.41 2.39
2.56 -1.17 0.66
2.59 -1.12 0.67
9.40 -3.84 2.39
9.47 -3.65 2.39
9.53 -3.46 2.39
9.59 -3.26 2.39
9.65 -3.07 2.39
9.71 -2.87 2.39
9.76 -2.67 2.39
9.80 -2.48 2.39
9.84 -2.28 2.39
9.88 -2.08 2.39
9.92 -1.88 2.39
9.95 -1.68 2.39
9.97 -1.48 2.39
9.99 -1.28 2.39
10.01 -1.07 2.39
10.03 -0.87 2.39
10.04 -0.67 2.39
10.04 -0.47 2.39
7.97 -0.21 1.90
7.91 -0.05 1.89
7.90 0.11 1.89
7.90 0.27 1.89
7.88 0.42 1.89
9.99 0.74 2.39
9.97 0.94 2.39
9.94 1.14 2.39
9.91 1.34 2.39
9.88 1.54 2.39
9.84 1.73 2.39
9.80 1.93 2.39
9.76 2.13 2.39
9.71 2.32 2.39
9.65 2.51 2.39
9.60 2.71 2.39
9.54 2.90 2.39
9.47 3.09 2.39
9.41 3.28 2.39
9.33 3.46 2.39
9.26 3.65 2.39
9.18 3.83 2.39
9.10 4.01 2.39
9.01 4.19 2.39
8.92 4.37 2.39
8.83 4.55 2.39
8.73 4.73 2.39
8.63 4.90 2.39
8.53 5.07 2.39
8.43 5.24 2.39
8.32 5.40 2.39
8.20 5.57 2.39
8.09 5.73 2.39
7.97 5.89 2.39
7.85 6.05 2.39
7.72 6.20 2.39
7.59 6.36 2.39
7.46 6.51 2.39
7.33 6.65 2.39
7.19 6.80 2.39
7.05 6.94 2.39
6.91 7.08 2.39
6.77 7.22 2.39
6.62 7.35 2.39
6.47 7.48 2.39
6.32 7.61 2.39
6.16 7.73 2.39
6.00 7.85 2.39
5.84 7.96 2.39
5.68 8.08 2.39
5.51 8.19 2.39
5.35 8.30 2.39
5.18 8.40 2.39
5.01 8.51 2.39
4.84 8.61 2.39
4.66 8.70 2.39
4.49 8.79 2.39
4.31 8.88 2.39
4.13 8.97 2.39
3.95 9.05 2.39
3.77 9.13 2.39
3.58 9.20 2.39
3.40 9.27 2.39
3.21 9.34 2.39
3.02 9.40 2.39
2.83 9.46 2.39
2.64 9.52 2.39
2.45 9.57 2.39
2.26 9.62 2.39
2.06 9.67 2.39
1.95 10.13 2.49
1.75 10.16 2.49
1.54 10.20 2.49
1.34 10.23 2.49
1.13 10.26 2.49
0.92 10.28 2.49
0.72 10.30 2.49
0.51 10.32 2.49
0.30 10.33 2.49
0.10 10.33 2.49
-0.11 10.34 2.49
-0.32 10.33 2.49
-0.53 10.33 2.49
-0.74 10.32 2.49
-0.94 10.31 2.49
-1.15 10.29 2.49
-1.36 10.27 2.49
-1.56 10.24 2.49
-1.77 10.21 2.49
-1.98 10.18 2.49
-2.18 10.14 2.49
-2.39 10.10 2.49
-2.59 10.05 2.49
-2.79 10.00 2.49
-2.99 9.95 2.49
-3.19 9.89 2.49
-3.39 9.83 2.49
-3.59 9.76 2.49
-3.79 9.69 2.49
-3.98 9.62 2.49
-4.18 9.54 2.49
-4.37 9.46 2.49
-4.56 9.38 2.49
-4.75 9.29 2.49
-4.94 9.19 2.49
-5.13 9.10 2.49
-5.31 9.00 2.49
-5.50 8.89 2.49
-5.68 8.79 2.49
-5.85 8.68 2.49
-6.03 8.56 2.49
-6.04 8.22 2.43
-6.11 7.98 2.39
-6.28 7.86 2.39
-6.44 7.73 2.39
-6.59 7.61 2.39
-6.75 7.48 2.39
-6.90 7.34 2.39
-7.05 7.21 2.39
-7.20 7.07 2.39
-7.34 6.93 2.39
-7.49 6.78 2.39
-7.63 6.64 2.39
-7.76 6.48 2.39
-7.90 6.33 2.39
-8.03 6.18 2.39
-8.15 6.02 2.39
-8.28 5.86 2.39
-8.40 5.69 2.39
-8.52 5.53 2.39
-8.63 5.36 2.39
-8.74 5.19 2.39
-8.85 5.01 2.39
-8.95 4.84 2.39
-9.05 4.66 2.39
-9.15 4.48 2.39
-9.25 4.30 2.39
-9.34 4.11 2.39
-9.42 3.93 2.39
-9.51 3.74 2.39
-9.58 3.55 2.39
-9.66 3.36 2.39
-9.73 3.17 2.39
-9.80 2.97 2.39
-9.86 2.78 2.39
-10.63 2.76 2.56
-10.68 2.55 2.56
-10.72 2.33 2.56
-10.74 2.11 2.55
-10.75 1.89 2.54
-10.76 1.67 2.53
-10.77 1.45 2.53
-10.77 1.23 2.52
-10.77 1.01 2.51
-10.77 0.80 2.51
-10.76 0.58 2.50
-10.74 0.36 2.49
-10.73 0.15 2.49
-10.71 -0.07 2.48
-10.69 -0.28 2.48
-10.67 -0.50 2.47
-10.65 -0.71 2.47
-10.62 -0.92 2.46
-10.59 -1.13 2.46
-10.55 -1.34 2.45
-10.52 -1.56 2.45
-10.49 -1.77 2.45
-10.45 -1.98 2.45
-10.40 -2.18 2.45
-10.35 -2.39 2.44
-10.29 -2.59 2.44
-10.23 -2.80 2.44
-10.17 -3.00 2.44
-10.10 -3.20 2.44
-10.03 -3.41 2.43
-9.96 -3.61 2.43
-9.89 -3.80 2.43
-9.65 -3.94 2.39
-9.57 -4.13 2.39
-9.49 -4.33 2.39
-9.41 -4.52 2.39
-9.32 -4.71 2.39
-9.23 -4.89 2.39
-9.13 -5.08 2.39
-9.03 -5.26 2.39
-8.92 -5.44 2.39
-8.82 -5.62 2.39
-8.70 -5.80 2.39
-8.59 -5.98 2.39
-8.47 -6.15 2.39
-8.35 -6.32 2.39
-8.22 -6.49 2.39
-8.09 -6.65 2.39
-7.96 -6.81 2.39
-7.82 -6.97 2.39
-7.68 -7.13 2.39
-7.54 -7.29 2.39
-7.39 -7.44 2.39
-7.24 -7.58 2.39
-7.09 -7.73 2.39
-6.94 -7.87 2.39
-6.78 -8.01 2.39
-6.62 -8.14 2.39
-6.45 -8.28 2.39
-6.29 -8.41 2.39
-6.12 -8.53 2.39
-5.95 -8.65 2.39
-5.77 -8.77 2.39
-5.59 -8.88 2.39
-5.52 -9.17 2.44
-5.46 -9.49 2.49
-5.27 -9.60 2.49
-5.08 -9.71 2.49
-4.88 -9.81 2.49
-4.68 -9.90 2.49
-4.48 -9.99 2.49
-4.28 -10.08 2.49
-4.08 -10.16 2.49
-3.87 -10.24 2.49
-3.67 -10.32 2.49
-3.46 -10.39 2.49
-3.25 -10.45 2.49
-3.04 -10.51 2.49
-2.83 -10.57 2.49
-2.61 -10.62 2.49
-2.40 -10.67 2.49
-2.19 -10.72 2.49
-1.97 -10.76 2.49
-1.75 -10.79 2.49
-1.54 -10.82 2.49
-1.32 -10.85 2.49
-1.10 -10.87 2.49
-0.88 -10.89 2.49
-0.66 -10.90 2.49
-0.45 -10.91 2.49
-0.23 -10.91 2.49
-0.01 -9.88 2.49
0.19 -9.88 2.49
0.39 -9.87 2.49
0.58 -9.85 2.49
0.78 -9.84 2.49
0.98 -9.82 2.49
1.17 -9.79 2.49
1.37 -9.76 2.49
1.57 -9.73 2.49
1.76 -9.69 2.49
1.95 -9.65 2.49
2.15 -9.61 2.49
2.34 -9.56 2.49
2.53 -9.51 2.49
2.60 -9.06 2.39
2.78 -9.00 2.39
2.96 -8.94 2.39
3.14 -8.88 2.39
3.32 -8.81 2.39
3.49 -8.74 2.39
3.66 -8.66 2.39
3.83 -8.58 2.39
4.00 -8.50 2.39
4.17 -8.41 2.39
4.34 -8.32 2.39
4.50 -8.23 2.39
4.66 -8.13 2.39
4.82 -8.04 2.39
4.98 -7.93 2.39
5.14 -7.83 2.39
5.29 -7.72 2.39
5.44 -7.61 2.39
5.59 -7.49 2.39
5.73 -7.38 2.39
5.88 -7.26 2.39
6.02 -7.13 2.39
6.16 -7.01 2.39
6.29 -6.88 2.39
6.43 -6.75 2.39
6.56 -6.62 2.39
6.69 -6.48 2.39
6.82 -6.34 2.39
6.94 -6.20 2.39
7.06 -6.06 2.39
7.17 -5.91 2.39
7.29 -5.76 2.39
7.40 -5.61 2.39
7.50 -5.46 2.39
7.61 -5.31 2.39
7.71 -5.15 2.39
7.81 -4.99 2.39
7.90 -4.83 2.39
7.94 -4.64 2.38
8.08 -4.50 2.39
8.16 -4.34 2.39
8.24 -4.17 2.39
8.32 -4.00 2.39
2.56 -1.17 0.73
2.59 -1.12 0.73
8.53 -3.49 2.39
8.60 -3.32 2.39
8.66 -3.14 2.39
8.71 -2.96 2.39
8.77 -2.79 2.39
8.81 -2.61 2.39
8.86 -2.43 2.39
8.90 -2.25 2.39
8.94 -2.07 2.39
8.98 -1.89 2.39
9.01 -1.71 2.39
9.03 -1.53 2.39
9.06 -1.34 2.39
9.08 -1.16 2.39
9.10 -0.98 2.39
9.11 -0.79 2.39
9.12 -0.61 2.39
9.12 -0.43 2.39
9.13 -0.24 2.39
9.12 -0.06 2.39
9.12 0.12 2.39
9.11 0.31 2.39
9.10 0.49 2.39
9.08 0.67 2.39
9.06 0.85 2.39
9.04 1.03 2.39
9.01 1.22 2.39
8.98 1.40 2.39
8.95 1.58 2.39
8.91 1.75 2.39
8.87 1.93 2.39
8.83 2.11 2.39
8.78 2.28 2.39
8.73 2.46 2.39
8.67 2.63 2.39
8.62 2.81 2.39
8.55 2.98 2.39
8.49 3.15 2.39
8.42 3.32 2.39
8.35 3.48 2.39
8.28 3.65 2.39
8.20 3.81 2.39
8.12 3.98 2.39
8.03 4.14 2.39
7.94 4.30 2.39
7.85 4.46 2.39
7.67 4.56 2.37
7.66 4.76 2.39
7.57 4.92 2.39
7.46 5.07 2.39
7.36 5.21 2.39
7.25 5.36 2.39
7.14 5.50 2.39
7.03 5.64 2.39
6.91 5.78 2.39
6.79 5.92 2.39
6.67 6.05 2.39
6.54 6.19 2.39
6.42 6.31 2.39
6.29 6.44 2.39
6.16 6.57 2.39
6.02 6.68 2.39
5.88 6.80 2.39
5.74 6.91 2.39
5.60 7.03 2.39
5.46 7.14 2.39
5.31 7.25 2.39
5.16 7.35 2.39
5.02 7.45 2.39
4.86 7.55 2.39
4.71 7.65 2.39
4.56 7.74 2.39
4.40 7.83 2.39
4.24 7.92 2.39
4.08 8.00 2.39
3.92 8.08 2.39
3.76 8.16 2.39
3.59 8.23 2.39
3.43 8.30 2.39
3.26 8.37 2.39
3.09 8.44 2.39
2.92 8.50 2.39
2.75 8.56 2.39
2.58 8.61 2.39
2.40 8.66 2.39
2.23 8.71 2.39
2.05 8.75 2.39
1.96 9.17 2.49
1.77 9.21 2.49
1.59 9.25 2.49
1.40 9.28 2.49
1.22 9.31 2.49
1.03 9.33 2.49
0.84 9.35 2.49
0.65 9.37 2.49
0.46 9.38 2.49
0.28 9.39 2.49
0.09 9.40 2.49
-0.10 9.40 2.49
-0.29 9.40 2.49
-0.48 9.40 2.49
-0.67 9.39 2.49
-0.86 9.37 2.49
-1.05 9.36 2.49
-1.24 9.34 2.49
-1.42 9.31 2.49
-1.61 9.29 2.49
-1.80 9.26 2.49
-1.98 9.22 2.49
-2.17 9.18 2.49
-2.36 9.14 2.49
-2.54 9.10 2.49
-2.72 9.05 2.49
-2.91 8.99 2.49
-3.09 8.94 2.49
-3.27 8.88 2.49
-3.45 8.81 2.49
-3.62 8.75 2.49
-3.80 8.67 2.49
-3.98 8.60 2.49
-4.15 8.52 2.49
-4.32 8.44 2.49
-4.49 8.36 2.49
-4.66 8.27 2.49
-4.83 8.18 2.49
-5.00 8.08 2.49
-5.16 7.98 2.49
-5.32 7.88 2.49
-5.48 7.78 2.49
-5.64 7.67 2.49
-5.80 7.56 2.49
-5.95 7.45 2.49
-6.01 7.22 2.46
-6.01 6.93 2.40
-6.13 6.79 2.39
-6.27 6.67 2.39
-6.41 6.55 2.39
-6.54 6.42 2.39
-6.67 6.29 2.39
-6.80 6.16 2.39
-6.93 6.03 2.39
-7.05 5.89 2.39
-7.17 5.75 2.39
-7.29 5.61 2.39
-7.40 5.46 2.39
-7.52 5.32 2.39
-7.63 5.17 2.39
-7.73 5.02 2.39
-7.84 4.86 2.39
-7.94 4.71 2.39
-8.03 4.55 2.39
-8.13 4.39 2.39
-8.22 4.23 2.39
-8.31 4.06 2.39
-8.39 3.90 2.39
-8.47 3.73 2.39
-8.55 3.56 2.39
-8.63 3.39 2.39
-8.70 3.22 2.39
-8.77 3.05 2.39
-8.83 2.87 2.39
-8.89 2.70 2.39
-8.95 2.52 2.39
-9.00 2.34 2.39
-9.05 2.16 2.39
-9.10 1.98 2.39
-9.14 1.80 2.39
-9.18 1.61 2.39
-9.22 1.43 2.39
-9.25 1.25 2.39
-9.28 1.06 2.39
-9.30 0.87 2.39
-9.32 0.69 2.39
-9.34 0.50 2.39
-9.35 0.31 2.39
-9.36 0.13 2.39
-9.36 -0.06 2.39
-9.37 -0.25 2.39
-9.36 -0.44 2.39
-9.36 -0.63 2.39
-9.35 -0.81 2.39
-9.33 -1.00 2.39
-9.32 -1.19 2.39
-9.30 -1.38 2.39
-9.27 -1.56 2.39
-9.24 -1.75 2.39
-9.21 -1.93 2.39
-9.17 -2.12 2.39
-9.13 -2.30 2.39
-9.09 -2.49 2.39
-9.04 -2.67 2.39
-8.99 -2.85 2.39
-8.93 -3.03 2.39
-8.87 -3.21 2.39
-8.81 -3.39 2.39
-8.74 -3.57 2.39
-8.67 -3.74 2.39
-8.60 -3.92 2.39
-8.52 -4.09 2.39
-8.44 -4.26 2.39
-8.36 -4.43 2.39
-8.27 -4.60 2.39
-8.18 -4.77 2.39
-8.08 -4.93 2.39
-7.98 -5.09 2.39
-7.88 -5.25 2.39
-7.78 -5.41 2.39
-7.67 -5.57 2.39
-7.56 -5.72 2.39
-7.44 -5.88 2.39
-7.33 -6.02 2.39
-7.21 -6.17 2.39
-7.08 -6.32 2.39
-6.96 -6.46 2.39
-6.83 -6.60 2.39
-6.69 -6.73 2.39
-6.56 -6.87 2.39
-6.42 -7.00 2.39
-6.28 -7.13 2.39
-6.14 -7.25 2.39
-5.99 -7.37 2.39
-5.84 -7.49 2.39
-5.69 -7.61 2.39
-5.57 -7.77 2.41
-5.55 -8.08 2.47
-5.45 -8.28 2.49
-5.28 -8.39 2.49
-5.11 -8.49 2.49
-4.94 -8.60 2.49
-4.77 -8.69 2.49
-4.59 -8.79 2.49
-4.42 -8.88 2.49
-4.24 -8.96 2.49
-4.06 -9.05 2.49
-3.88 -9.13 2.49
-3.69 -9.20 2.49
-3.51 -9.27 2.49
-3.32 -9.34 2.49
-3.13 -9.40 2.49
-2.94 -9.46 2.49
-2.75 -9.52 2.49
-2.56 -9.57 2.49
-2.37 -9.62 2.49
-2.17 -9.66 2.49
-1.98 -9.70 2.49
-1.78 -9.74 2.49
-1.59 -9.77 2.49
-1.39 -9.80 2.49
-1.20 -9.82 2.49
-1.00 -9.84 2.49
-0.80 -9.86 2.49
-0.60 -9.87 2.49
-0.40 -9.88 2.49
-0.21 -9.88 2.49
-0.01 -9.02 2.49
0.17 -9.02 2.49
0.35 -9.01 2.49
0.53 -9.00 2.49
0.71 -8.98 2.49
0.89 -8.96 2.49
1.07 -8.94 2.49
1.25 -8.91 2.49
1.43 -8.88 2.49
1.61 -8.85 2.49
1.78 -8.81 2.49
1.96 -8.77 2.49
2.13 -8.73 2.49
2.31 -8.68 2.49
2.48 -8.63 2.49
2.54 -8.22 2.39
2.70 -8.17 2.39
2.87 -8.11 2.39
3.03 -8.04 2.39
3.19 -7.98 2.39
3.34 -7.91 2.39
3.50 -7.84 2.39
3.66 -7.76 2.39
3.81 -7.69 2.39
3.96 -7.60 2.39
4.11 -7.52 2.39
4.26 -7.43 2.39
4.40 -7.34 2.39
4.55 -7.25 2.39
4.69 -7.15 2.39
4.83 -7.05 2.39
4.97 -6.95 2.39
5.11 -6.85 2.39
5.24 -6.74 2.39
5.37 -6.63 2.39
5.50 -6.52 2.39
5.63 -6.40 2.39
5.75 -6.29 2.39
5.87 -6.17 2.39
5.99 -6.05 2.39
6.11 -5.92 2.39
6.22 -5.79 2.39
6.34 -5.67 2.39
6.45 -5.54 2.39
6.56 -5.41 2.39
6.66 -5.27 2.39
6.76 -5.13 2.39
6.86 -4.99 2.39
6.96 -4.85 2.39
7.05 -4.71 2.39
7.14 -4.57 2.39
7.22 -4.42 2.39
7.31 -4.27 2.39
7.39 -4.12 2.39
7.47 -3.97 2.39
7.54 -3.82 2.39
7.61 -3.66 2.39
2.56 -1.17 0.80
2.59 -1.12 0.80
7.81 -3.19 2.39
7.86 -3.03 2.39
7.92 -2.87 2.39
7.97 -2.71 2.39
8.02 -2.55 2.39
8.07 -2.39 2.39
8.11 -2.23 2.39
8.15 -2.06 2.39
8.18 -1.90 2.39
8.21 -1.73 2.39
8.24 -1.56 2.39
8.27 -1.40 2.39
8.29 -1.23 2.39
8.31 -1.06 2.39
8.33 -0.90 2.39
8.34 -0.73 2.39
8.35 -0.56 2.39
8.35 -0.39 2.39
8.35 -0.22 2.39
8.35 -0.06 2.39
8.35 0.11 2.39
8.34 0.28 2.39
8.33 0.45 2.39
8.32 0.61 2.39
8.30 0.78 2.39
8.28 0.95 2.39
8.25 1.11 2.39
8.23 1.28 2.39
8.20 1.44 2.39
8.16 1.61 2.39
8.12 1.77 2.39
8.08 1.93 2.39
8.04 2.09 2.39
7.99 2.25 2.39
7.94 2.41 2.39
7.89 2.57 2.39
7.84 2.73 2.39
7.78 2.88 2.39
7.71 3.04 2.39
6.02 2.51 1.89
7.58 3.34 2.39
7.51 3.49 2.39
7.44 3.64 2.39
7.36 3.79 2.39
7.28 3.94 2.39
7.20 4.08 2.39
7.11 4.22 2.39
7.02 4.36 2.39
6.93 4.50 2.39
6.84 4.64 2.39
6.74 4.78 2.39
6.64 4.91 2.39
6.54 5.04 2.39
6.44 5.17 2.39
6.33 5.30 2.39
6.22 5.42 2.39
6.10 5.54 2.39
5.99 5.66 2.39
5.87 5.78 2.39
5.76 5.90 2.39
5.64 6.01 2.39
5.51 6.12 2.39
5.39 6.23 2.39
5.26 6.34 2.39
5.13 6.44 2.39
5.00 6.54 2.39
4.87 6.64 2.39
4.73 6.74 2.39
4.60 6.83 2.39
4.46 6.92 2.39
4.32 7.01 2.39
4.18 7.09 2.39
4.03 7.18 2.39
3.89 7.26 2.39
3.74 7.33 2.39
3.59 7.41 2.39
3.44 7.48 2.39
3.29 7.55 2.39
3.14 7.61 2.39
2.99 7.67 2.39
2.83 7.73 2.39
2.68 7.79 2.39
2.52 7.84 2.39
2.36 7.89 2.39
2.21 7.97 2.40
2.04 7.98 2.39
1.96 8.37 2.49
1.79 8.41 2.49
1.62 8.44 2.49
1.45 8.47 2.49
1.28 8.50 2.49
1.11 8.53 2.49
0.94 8.55 2.49
0.77 8.57 2.49
0.60 8.59 2.49
0.42 8.60 2.49
0.25 8.61 2.49
0.08 8.61 2.49
-0.09 8.61 2.49
-0.27 8.61 2.49
-0.44 8.61 2.49
-0.61 8.60 2.49
-0.79 8.59 2.49
-0.96 8.57 2.49
-1.13 8.55 2.49
-1.30 8.53 2.49
-1.48 8.51 2.49
-1.65 8.48 2.49
-1.82 8.45 2.49
-1.99 8.41 2.49
-2.16 8.37 2.49
-2.33 8.33 2.49
-2.49 8.29 2.49
-2.66 8.24 2.49
-2.83 8.18 2.49
-2.99 8.13 2.49
-3.16 8.07 2.49
-3.32 8.01 2.49
-3.48 7.94 2.49
-3.64 7.88 2.49
-3.80 7.80 2.49
-3.96 7.73 2.49
-4.12 7.65 2.49
-4.27 7.57 2.49
-4.42 7.49 2.49
-4.57 7.40 2.49
-4.72 7.31 2.49
-4.87 7.22 2.49
-5.02 7.12 2.49
-5.16 7.02 2.49
-5.31 6.92 2.49
-5.45 6.81 2.49
-5.59 6.71 2.49
-5.72 6.60 2.49
-5.86 6.48 2.49
-5.98 6.36 2.49
-5.98 6.11 2.44
-5.99 5.87 2.39
-6.11 5.76 2.39
-6.22 5.64 2.39
-6.34 5.51 2.39
-6.45 5.39 2.39
-6.56 5.26 2.39
-6.67 5.13 2.39
-6.77 5.00 2.39
-6.88 4.86 2.39
-6.98 4.73 2.39
-7.07 4.59 2.39
-7.17 4.45 2.39
-7.26 4.30 2.39
-7.35 4.16 2.39
-7.43 4.01 2.39
-7.52 3.86 2.39
-7.60 3.71 2.39
-7.68 3.56 2.39
-7.75 3.41 2.39
-7.82 3.26 2.39
-7.89 3.10 2.39
-7.95 2.94 2.39
-8.01 2.78 2.39
-8.07 2.62 2.39
-8.13 2.46 2.39
-8.18 2.30 2.39
-8.23 2.14 2.39
-8.27 1.97 2.39
-8.32 1.81 2.39
-8.36 1.64 2.39
-8.39 1.47 2.39
-8.42 1.31 2.39
-8.45 1.14 2.39
-8.48 0.97 2.39
-8.50 0.80 2.39
-8.52 0.63 2.39
-8.53 0.46 2.39
-8.54 0.29 2.39
-8.55 0.11 2.39
-8.56 -0.06 2.39
-8.56 -0.23 2.39
-8.55 -0.40 2.39
-8.55 -0.57 2.39
-8.54 -0.74 2.39
-8.53 -0.92 2.39
-8.51 -1.09 2.39
-8.49 -1.26 2.39
-8.47 -1.43 2.39
-8.44 -1.60 2.39
-8.41 -1.77 2.39
-8.38 -1.94 2.39
-8.34 -2.11 2.39
-8.30 -2.27 2.39
-8.25 -2.44 2.39
-8.21 -2.61 2.39
-8.16 -2.77 2.39
-8.10 -2.93 2.39
-8.04 -3.10 2.39
-7.98 -3.26 2.39
-7.92 -3.42 2.39
-7.85 -3.58 2.39
-7.78 -3.74 2.39
-7.71 -3.89 2.39
-7.63 -4.05 2.39
-7.55 -4.20 2.39
-7.46 -4.35 2.39
-7.38 -4.50 2.39
-7.29 -4.65 2.39
-7.20 -4.80 2.39
-7.10 -4.94 2.39
-7.00 -5.08 2.39
-6.90 -5.22 2.39
-6.79 -5.36 2.39
-6.69 -5.50 2.39
-6.58 -5.63 2.39
-6.46 -5.77 2.39
-6.35 -5.89 2.39
-6.23 -6.02 2.39
-6.11 -6.15 2.39
-5.99 -6.27 2.39
-5.86 -6.39 2.39
-5.73 -6.50 2.39
-5.61 -6.63 2.39
-5.59 -6.88 2.44
-5.56 -7.13 2.49
-5.42 -7.25 2.49
-5.27 -7.35 2.49
-5.12 -7.46 2.49
-4.97 -7.56 2.49
-4.82 -7.66 2.49
-4.67 -7.75 2.49
-4.51 -7.84 2.49
-4.35 -7.93 2.49
-4.19 -8.02 2.49
-4.03 -8.10 2.49
-3.87 -8.18 2.49
-3.70 -8.26 2.49
-3.54 -8.33 2.49
-3.37 -8.40 2.49
-3.20 -8.46 2.49
-3.03 -8.52 2.49
-2.86 -8.58 2.49
-2.69 -8.64 2.49
-2.51 -8.69 2.49
-2.34 -8.74 2.49
-2.16 -8.78 2.49
-1.98 -8.82 2.49
-1.81 -8.86 2.49
-1.63 -8.89 2.49
-1.45 -8.92 2.49
-1.27 -8.94 2.49
-1.09 -8.97 2.49
-0.91 -8.98 2.49
-0.73 -9.00 2.49
-0.55 -9.01 2.49
-0.37 -9.02 2.49
-0.19 -9.02 2.49
-0.01 -8.29 2.49
0.16 -8.29 2.49
0.32 -8.28 2.49
0.49 -8.27 2.49
0.65 -8.25 2.49
0.82 -8.24 2.49
0.98 -8.22 2.49
1.15 -8.19 2.49
1.31 -8.17 2.49
1.47 -8.14 2.49
1.64 -8.10 2.49
1.80 -8.06 2.49
1.96 -8.02 2.49
2.12 -7.98 2.49
2.28 -7.93 2.49
2.44 -7.88 2.49
2.49 -7.52 2.40
2.63 -7.45 2.39
2.78 -7.40 2.39
2.93 -7.34 2.39
3.07 -7.27 2.39
3.22 -7.21 2.39
3.36 -7.14 2.39
3.50 -7.07 2.39
3.64 -6.99 2.39
3.78 -6.91 2.39
3.91 -6.83 2.39
4.05 -6.75 2.39
4.18 -6.67 2.39
4.31 -6.58 2.39
4.44 -6.49 2.39
4.57 -6.39 2.39
4.69 -6.30 2.39
4.82 -6.20 2.39
4.94 -6.10 2.39
5.06 -6.00 2.39
5.17 -5.89 2.39
5.29 -5.78 2.39
5.40 -5.67 2.39
5.51 -5.56 2.39
5.62 -5.45 2.39
5.73 -5.33 2.39
5.83 -5.21 2.39
5.93 -5.09 2.39
6.03 -4.97 2.39
6.12 -4.85 2.39
6.22 -4.72 2.39
6.31 -4.59 2.39
6.39 -4.46 2.39
6.49 -4.34 2.39
6.57 -4.20 2.39
6.65 -4.07 2.39
6.72 -3.93 2.39
6.80 -3.79 2.39
6.87 -3.66 2.39
6.94 -3.51 2.39
7.00 -3.37 2.39
2.56 -1.17 0.87
2.59 -1.12 0.87
7.18 -2.94 2.39
5.75 -2.22 1.90
5.74 -2.09 1.89
5.78 -1.97 1.89
5.81 -1.85 1.89
5.85 -1.73 1.89
7.46 -2.05 2.39
7.50 -1.90 2.39
7.53 -1.75 2.39
7.56 -1.59 2.39
7.59 -1.44 2.39
7.61 -1.29 2.39
7.64 -1.13 2.39
7.65 -0.98 2.39
7.67 -0.83 2.39
7.68 -0.67 2.39
7.69 -0.52 2.39
7.69 -0.36 2.39
7.70 -0.21 2.39
7.70 -0.05 2.39
7.69 0.10 2.39
7.68 0.26 2.39
7.67 0.41 2.39
7.66 0.56 2.39
7.65 0.72 2.39
7.63 0.87 2.39
7.60 1.02 2.39
7.58 1.18 2.39
7.55 1.33 2.39
7.52 1.48 2.39
7.49 1.63 2.39
7.45 1.78 2.39
7.41 1.93 2.39
7.37 2.07 2.39
7.32 2.22 2.39
7.27 2.37 2.39
7.22 2.51 2.39
7.17 2.66 2.39
5.64 2.22 1.90
5.56 2.32 1.89
5.50 2.43 1.89
5.45 2.54 1.89
5.40 2.64 1.89
5.34 2.75 1.89
5.28 2.86 1.89
5.22 2.96 1.89
5.16 3.07 1.89
5.10 3.17 1.89
5.05 3.28 1.89
4.97 3.37 1.89
4.90 3.47 1.89
6.12 4.52 2.39
6.02 4.64 2.39
5.93 4.76 2.39
5.83 4.88 2.39
5.73 4.99 2.39
5.63 5.11 2.39
5.52 5.22 2.39
5.42 5.33 2.39
5.31 5.44 2.39
5.20 5.54 2.39
5.08 5.64 2.39
4.97 5.74 2.39
4.85 5.84 2.39
4.73 5.94 2.39
4.61 6.03 2.39
4.49 6.12 2.39
4.36 6.21 2.39
4.24 6.30 2.39
4.11 6.38 2.39
3.98 6.46 2.39
3.85 6.54 2.39
3.72 6.62 2.39
3.58 6.69 2.39
3.45 6.76 2.39
3.31 6.83 2.39
3.17 6.89 2.39
3.03 6.96 2.39
2.89 7.02 2.39
2.75 7.07 2.39
2.61 7.13 2.39
2.47 7.18 2.39
2.32 7.23 2.39
2.18 7.28 2.39
2.04 7.37 2.41
1.96 7.68 2.49
1.81 7.71 2.49
1.65 7.75 2.49
1.50 7.78 2.49
1.34 7.81 2.49
1.18 7.84 2.49
1.03 7.86 2.49
0.87 7.88 2.49
0.71 7.90 2.49
0.55 7.92 2.49
0.39 7.93 2.49
0.23 7.93 2.49
0.07 7.94 2.49
-0.09 7.94 2.49
-0.25 7.94 2.49
-0.41 7.93 2.49
-0.57 7.93 2.49
-0.73 7.92 2.49
-0.89 7.90 2.49
-1.04 7.88 2.49
-1.20 7.86 2.49
-1.36 7.84 2.49
-1.52 7.81 2.49
-1.68 7.78 2.49
-1.83 7.75 2.49
-1.99 7.72 2.49
-2.15 7.68 2.49
-2.30 7.63 2.49
-2.45 7.59 2.49
-2.61 7.54 2.49
-2.76 7.49 2.49
-2.91 7.44 2.49
-3.06 7.38 2.49
-3.21 7.32 2.49
-3.36 7.26 2.49
-3.50 7.19 2.49
-3.65 7.12 2.49
-3.79 7.05 2.49
-3.93 6.97 2.49
-4.08 6.90 2.49
-4.22 6.82 2.49
-4.35 6.73 2.49
-4.49 6.65 2.49
-4.62 6.56 2.49
-4.76 6.47 2.49
-4.89 6.37 2.49
-5.02 6.28 2.49
-5.14 6.18 2.49
-5.27 6.07 2.49
-5.39 5.97 2.49
-5.51 5.86 2.49
-5.63 5.75 2.49
-5.75 5.64 2.49
-5.87 5.53 2.49
-5.95 5.39 2.48
-5.95 5.17 2.44
-5.95 4.97 2.40
-6.04 4.84 2.39
-6.15 4.73 2.39
-6.24 4.60 2.39
-6.33 4.47 2.39
-6.42 4.35 2.39
-6.51 4.22 2.39
-6.60 4.09 2.39
-6.68 3.96 2.39
-6.76 3.83 2.39
-6.84 3.69 2.39
-6.92 3.56 2.39
-6.99 3.42 2.39
-7.06 3.28 2.39
-7.13 3.14 2.39
-7.20 3.00 2.39
-7.26 2.85 2.39
-7.32 2.71 2.39
-7.37 2.56 2.39
-7.43 2.41 2.39
-7.48 2.26 2.39
-7.53 2.12 2.39
-7.57 1.96 2.39
-7.61 1.81 2.39
-7.65 1.66 2.39
-7.69 1.51 2.39
-7.72 1.35 2.39
-7.75 1.20 2.39
-7.77 1.04 2.39
-7.80 0.89 2.39
-7.82 0.73 2.39
-7.83 0.58 2.39
-7.85 0.42 2.39
-7.86 0.26 2.39
-7.86 0.10 2.39
-7.87 -0.05 2.39
-7.87 -0.21 2.39
-7.87 -0.37 2.39
-7.86 -0.53 2.39
-7.85 -0.69 2.39
-7.84 -0.84 2.39
-7.82 -1.00 2.39
-7.81 -1.16 2.39
-7.78 -1.31 2.39
-7.76 -1.47 2.39
-7.73 -1.63 2.39
-7.70 -1.78 2.39
-7.67 -1.94 2.39
-7.63 -2.09 2.39
-7.59 -2.24 2.39
-7.54 -2.40 2.39
-7.50 -2.55 2.39
-7.45 -2.70 2.39
-7.39 -2.85 2.39
-7.34 -3.00 2.39
-7.28 -3.14 2.39
-7.22 -3.29 2.39
-7.15 -3.44 2.39
-7.08 -3.58 2.39
-7.01 -3.72 2.39
-6.94 -3.86 2.39
-6.86 -4.00 2.39
-6.78 -4.14 2.39
-6.70 -4.27 2.39
-6.61 -4.41 2.39
-6.52 -4.54 2.39
-6.43 -4.67 2.39
-6.34 -4.80 2.39
-6.24 -4.93 2.39
-6.14 -5.05 2.39
-6.04 -5.18 2.39
-5.94 -5.30 2.39
-5.84 -5.43 2.40
-5.72 -5.53 2.39
-5.63 -5.67 2.40
-5.62 -5.88 2.44
-5.61 -6.12 2.49
-5.49 -6.23 2.49
-5.37 -6.34 2.49
-5.24 -6.45 2.49
-5.11 -6.55 2.49
-4.98 -6.66 2.49
-4.84 -6.76 2.49
-4.71 -6.85 2.49
-4.57 -6.94 2.49
-4.43 -7.03 2.49
-4.29 -7.12 2.49
-4.14 -7.21 2.49
-4.00 -7.29 2.49
-3.85 -7.37 2.49
-3.70 -7.44 2.49
-3.55 -7.52 2.49
-3.40 -7.58 2.49
-3.25 -7.65 2.49
-3.10 -7.71 2.49
-2.94 -7.77 2.49
-2.78 -7.83 2.49
-2.63 -7.88 2.49
-2.47 -7.93 2.49
-2.31 -7.98 2.49
-2.15 -8.03 2.49
-1.99 -8.07 2.49
-1.82 -8.10 2.49
-1.66 -8.14 2.49
-1.50 -8.17 2.49
-1.33 -8.19 2.49
-1.17 -8.22 2.49
-1.00 -8.24 2.49
-0.84 -8.26 2.49
-0.67 -8.27 2.49
-0.51 -8.28 2.49
-0.34 -8.29 2.49
-0.17 -8.29 2.49
-0.01 -7.66 2.49
0.15 -7.66 2.49
0.30 -7.65 2.49
0.45 -7.64 2.49
0.60 -7.63 2.49
0.76 -7.61 2.49
0.91 -7.59 2.49
1.06 -7.57 2.49
1.21 -7.55 2.49
1.36 -7.52 2.49
1.51 -7.49 2.49
1.66 -7.45 2.49
1.81 -7.42 2.49
1.96 -7.38 2.49
2.10 -7.33 2.49
2.25 -7.29 2.49
2.39 -7.24 2.49
2.47 -6.99 2.43
2.57 -6.84 2.39
2.71 -6.78 2.39
2.84 -6.72 2.39
2.97 -6.66 2.39
3.11 -6.60 2.39
3.24 -6.53 2.39
3.36 -6.46 2.39
3.49 -6.39 2.39
3.62 -6.32 2.39
3.74 -6.24 2.39
3.87 -6.16 2.39
3.99 -6.08 2.39
4.11 -6.00 2.39
4.22 -5.91 2.39
4.34 -5.83 2.39
4.45 -5.73 2.39
4.57 -5.64 2.39
4.68 -5.55 2.39
4.78 -5.45 2.39
4.89 -5.35 2.39
5.00 -5.25 2.39
5.10 -5.15 2.39
5.20 -5.04 2.39
5.29 -4.93 2.39
5.39 -4.82 2.39
5.48 -4.71 2.39
5.57 -4.60 2.39
5.66 -4.48 2.39
5.75 -4.37 2.39
5.83 -4.25 2.39
5.91 -4.13 2.39
5.99 -4.01 2.39
6.07 -3.89 2.39
6.14 -3.76 2.39
6.21 -3.64 2.39
6.28 -3.51 2.39
6.35 -3.38 2.39
6.42 -3.25 2.39
6.48 -3.12 2.39
2.56 -1.17 0.94
2.59 -1.12 0.94
6.65 -2.72 2.39
6.70 -2.59 2.39
6.75 -2.45 2.39
5.41 -1.84 1.91
5.38 -1.71 1.89
5.41 -1.61 1.89
5.45 -1.50 1.89
5.47 -1.39 1.89
5.49 -1.27 1.89
7.00 -1.48 2.39
7.03 -1.34 2.39
7.05 -1.19 2.39
7.07 -1.05 2.39
7.09 -0.91 2.39
7.10 -0.77 2.39
7.11 -0.62 2.39
7.12 -0.48 2.39
7.12 -0.34 2.39
7.13 -0.19 2.39
7.13 -0.05 2.39
7.12 0.09 2.39
7.12 0.24 2.39
7.11 0.38 2.39
7.10 0.52 2.39
7.08 0.66 2.39
7.06 0.81 2.39
7.04 0.95 2.39
7.02 1.09 2.39
6.99 1.23 2.39
6.97 1.37 2.39
6.93 1.51 2.39
6.90 1.65 2.39
6.86 1.78 2.39
6.82 1.92 2.39
6.78 2.06 2.39
6.74 2.19 2.39
6.69 2.33 2.39
6.64 2.46 2.39
6.59 2.59 2.39
6.53 2.72 2.39
6.47 2.85 2.39
6.41 2.98 2.39
6.35 3.11 2.39
6.28 3.24 2.39
6.22 3.36 2.39
6.14 3.48 2.39
6.07 3.60 2.39
5.99 3.72 2.39
5.91 3.84 2.39
4.96 3.37 2.03
5.75 4.07 2.39
5.67 4.19 2.39
5.58 4.30 2.39
5.49 4.41 2.39
5.40 4.52 2.39
5.31 4.63 2.39
5.21 4.73 2.39
5.12 4.84 2.39
5.02 4.94 2.39
4.92 5.04 2.39
4.81 5.13 2.39
4.71 5.23 2.39
4.60 5.32 2.39
4.50 5.41 2.39
4.38 5.50 2.39
4.27 5.59 2.39
4.16 5.67 2.39
4.04 5.76 2.39
3.93 5.84 2.39
3.81 5.91 2.39
3.69 5.99 2.39
3.57 6.06 2.39
3.45 6.13 2.39
3.32 6.20 2.39
3.20 6.27 2.39
3.07 6.33 2.39
2.94 6.39 2.39
2.81 6.45 2.39
2.68 6.50 2.39
2.55 6.56 2.39
2.42 6.61 2.39
2.29 6.65 2.39
2.15 6.70 2.39
2.05 6.86 2.44
1.96 7.07 2.49
1.82 7.11 2.49
1.68 7.15 2.49
1.53 7.18 2.49
1.39 7.21 2.49
1.24 7.24 2.49
1.10 7.26 2.49
0.95 7.29 2.49
0.80 7.30 2.49
0.66 7.32 2.49
0.51 7.33 2.49
0.36 7.34 2.49
0.21 7.35 2.49
0.07 7.36 2.49
-0.08 7.36 2.49
-0.23 7.36 2.49
-0.38 7.35 2.49
-0.53 7.34 2.49
-0.67 7.33 2.49
-0.82 7.32 2.49
-0.97 7.30 2.49
-1.12 7.29 2.49
-1.26 7.26 2.49
-1.41 7.24 2.49
-1.55 7.21 2.49
-1.70 7.18 2.49
-1.84 7.15 2.49
-1.99 7.11 2.49
-2.13 7.07 2.49
-2.27 7.03 2.49
-2.42 6.98 2.49
-2.56 6.94 2.49
-2.70 6.89 2.49
-2.83 6.83 2.49
-2.97 6.78 2.49
-3.11 6.72 2.49
-3.25 6.66 2.49
-3.38 6.59 2.49
-3.51 6.53 2.49
-3.64 6.46 2.49
-3.78 6.39 2.49
-3.90 6.31 2.49
-4.03 6.23 2.49
-4.16 6.15 2.49
-4.28 6.07 2.49
-4.41 5.99 2.49
-4.53 5.90 2.49
-4.65 5.81 2.49
-4.76 5.72 2.49
-4.88 5.62 2.49
-4.99 5.53 2.49
-5.11 5.43 2.49
-5.22 5.33 2.49
-5.32 5.22 2.49
-5.43 5.12 2.49
-5.54 5.01 2.49
-5.64 4.90 2.49
-5.74 4.79 2.49
-5.83 4.67 2.49
-5.93 4.56 2.49
-5.92 4.37 2.45
-5.92 4.18 2.42
-5.95 4.02 2.39
-6.03 3.90 2.39
-6.12 3.79 2.40
-6.19 3.66 2.39
-6.26 3.54 2.39
-6.33 3.42 2.39
-6.40 3.29 2.39
-6.47 3.16 2.39
-6.54 3.03 2.39
-6.60 2.90 2.39
-6.66 2.77 2.39
-6.72 2.64 2.39
-6.77 2.50 2.39
-6.82 2.37 2.39
-6.87 2.23 2.39
-6.92 2.09 2.39
-6.96 1.96 2.39
-7.00 1.82 2.39
-7.04 1.68 2.39
-7.08 1.54 2.39
-7.11 1.39 2.39
-7.14 1.25 2.39
-7.17 1.11 2.39
-7.19 0.96 2.39
-7.21 0.82 2.39
-7.23 0.68 2.39
-7.24 0.53 2.39
-7.26 0.39 2.39
-7.27 0.24 2.39
-7.27 0.09 2.39
-7.28 -0.05 2.39
-7.28 -0.20 2.39
-7.27 -0.34 2.39
-7.27 -0.49 2.39
-7.26 -0.63 2.39
-7.25 -0.78 2.39
-7.23 -0.93 2.39
-7.22 -1.07 2.39
-7.20 -1.22 2.39
-7.17 -1.36 2.39
-7.15 -1.50 2.39
-7.12 -1.65 2.39
-7.09 -1.79 2.39
-7.05 -1.93 2.39
-7.01 -2.07 2.39
-6.97 -2.22 2.39
-6.93 -2.36 2.39
-6.88 -2.49 2.39
-6.83 -2.63 2.39
-6.78 -2.77 2.39
-6.73 -2.91 2.39
-6.67 -3.04 2.39
-6.61 -3.18 2.39
-6.54 -3.31 2.39
-6.48 -3.44 2.39
-6.41 -3.57 2.39
-6.34 -3.70 2.39
-6.26 -3.82 2.39
-6.19 -3.95 2.39
-6.11 -4.07 2.39
-6.03 -4.20 2.39
-5.94 -4.32 2.39
-5.87 -4.45 2.40
-5.77 -4.55 2.39
-5.68 -4.67 2.39
-5.65 -4.84 2.42
-5.64 -5.03 2.46
-5.62 -5.22 2.49
-5.52 -5.33 2.49
-5.41 -5.44 2.49
-5.30 -5.55 2.49
-5.19 -5.66 2.49
-5.07 -5.76 2.49
-4.96 -5.86 2.49
-4.84 -5.96 2.49
-4.72 -6.06 2.49
-4.60 -6.15 2.49
-4.47 -6.24 2.49
-4.35 -6.33 2.49
-4.22 -6.42 2.49
