ply
format ascii 1.0
element vertex 2903
property float32 x
property float32 y
property float32 z
end_header
-4.34 -35.89 2.49
-3.62 -35.97 2.49
-2.90 -36.03 2.49
-2.18 -36.08 2.49
-1.45 -36.11 2.49
-0.73 -36.12 2.49
-0.00 -27.20 2.49
0.54 -27.19 2.49
1.09 -27.16 2.49
1.57 -26.01 2.39
2.09 -25.97 2.39
2.61 -25.91 2.39
3.13 -25.85 2.39
1.94 -13.76 1.28
2.18 -13.47 1.25
2.46 -13.50 1.26
5.18 -25.48 2.39
5.70 -25.41 2.40
6.19 -25.21 2.39
6.63 -24.83 2.37
7.08 -24.55 2.35
7.53 -24.26 2.34
4.69 -14.11 1.37
4.97 -14.01 1.37
5.39 -14.28 1.41
5.42 -13.52 1.34
5.44 -12.83 1.29
5.46 -12.18 1.23
5.43 -11.50 1.18
5.44 -10.94 1.13
5.50 -10.53 1.10
5.61 -10.24 1.08
5.75 -10.01 1.07
5.91 -9.82 1.06
6.08 -9.65 1.06
6.27 -9.54 1.06
6.48 -9.44 1.06
6.71 -9.36 1.07
6.97 -9.32 1.08
7.26 -9.31 1.10
7.58 -9.34 1.12
7.93 -9.37 1.14
8.29 -9.41 1.17
8.66 -9.44 1.20
9.03 -9.45 1.22
9.41 -9.46 1.25
9.81 -9.48 1.28
10.23 -9.49 1.31
10.67 -9.51 1.34
11.13 -9.52 1.37
11.61 -9.54 1.41
12.12 -9.56 1.45
12.66 -9.58 1.49
13.23 -9.60 1.54
13.83 -9.62 1.59
14.48 -9.64 1.64
15.17 -9.67 1.70
15.90 -9.69 1.76
16.69 -9.72 1.83
17.54 -9.75 1.90
18.47 -9.78 1.98
19.47 -9.82 2.07
20.56 -9.86 2.16
13.70 -6.23 1.43
13.66 -5.89 1.41
13.62 -5.55 1.40
13.63 -5.24 1.39
13.64 -4.93 1.38
13.65 -4.62 1.37
13.70 -4.34 1.37
13.78 -4.06 1.37
14.16 -3.86 1.40
15.56 -3.91 1.54
16.01 -3.69 1.57
16.02 -3.35 1.57
16.04 -3.02 1.57
16.10 -2.70 1.57
16.11 -2.37 1.57
16.07 -2.03 1.56
16.08 -1.71 1.56
16.09 -1.38 1.56
16.10 -1.06 1.56
22.09 -1.01 2.14
11.57 -0.30 1.12
9.42 -0.05 0.91
12.17 0.18 1.18
12.31 0.43 1.19
12.46 0.68 1.21
12.61 0.95 1.23
12.60 1.20 1.23
12.57 1.45 1.23
12.55 1.71 1.23
12.51 1.96 1.23
12.38 2.19 1.23
8.82 1.75 0.88
12.12 2.65 1.21
11.91 2.86 1.20
11.55 3.02 1.17
11.20 3.17 1.14
10.52 3.21 1.08
12.06 3.94 1.24
11.36 3.97 1.18
10.73 3.99 1.12
10.15 4.01 1.07
9.64 4.03 1.03
9.55 4.22 1.03
16.47 7.68 1.79
16.45 8.07 1.81
16.46 8.50 1.83
16.48 8.93 1.85
16.53 9.39 1.88
16.61 9.88 1.91
16.63 10.35 1.94
16.65 10.83 1.97
16.67 11.33 2.00
16.68 11.83 2.03
16.70 12.36 2.06
16.72 12.90 2.10
17.32 13.92 2.21
16.61 13.92 2.15
16.01 13.97 2.11
15.37 13.96 2.06
14.82 14.01 2.03
14.25 14.03 1.99
13.68 14.02 1.95
13.19 14.07 1.92
12.68 14.09 1.89
12.19 14.10 1.86
11.72 14.12 1.83
11.26 14.14 1.80
10.82 14.15 1.78
10.36 14.14 1.75
9.96 14.18 1.73
9.53 14.16 1.71
9.15 14.21 1.69
8.76 14.23 1.67
8.36 14.21 1.65
8.01 14.25 1.64
7.63 14.23 1.62
7.29 14.28 1.61
6.92 14.26 1.59
6.59 14.30 1.58
6.06 13.88 1.52
8.29 20.08 2.18
7.83 20.09 2.16
7.36 20.07 2.14
6.92 20.12 2.13
7.35 22.84 2.41
6.84 22.83 2.39
6.38 22.96 2.39
5.92 23.08 2.39
5.45 23.20 2.39
4.99 23.30 2.39
4.52 23.40 2.39
4.05 23.48 2.39
3.57 23.56 2.39
3.11 23.69 2.40
2.74 24.71 2.49
2.24 24.76 2.49
1.74 24.80 2.49
1.25 24.83 2.49
0.75 24.86 2.49
0.25 24.87 2.49
-0.25 24.87 2.49
-0.75 24.87 2.49
-1.25 24.85 2.49
-1.75 24.83 2.49
-2.25 24.79 2.49
-2.75 24.75 2.49
-2.22 16.93 1.71
-2.28 15.00 1.52
-2.33 13.50 1.37
-2.59 13.38 1.36
-2.86 13.33 1.36
-3.12 13.28 1.36
-3.39 13.22 1.36
-3.66 13.15 1.36
-3.92 13.08 1.36
-4.19 13.01 1.36
-7.80 22.66 2.39
-8.25 22.51 2.39
-8.71 22.35 2.39
-9.16 22.18 2.39
-19.48 44.62 4.85
-9.32 20.22 2.22
-21.71 44.73 4.95
-9.38 18.38 2.05
-9.58 12.53 1.56
-6.24 0.85 0.60
-6.28 0.73 0.61
-10.49 -13.46 1.57
-22.03 -32.06 3.58
-22.06 -33.53 3.69
-20.78 -33.00 3.59
-19.71 -32.74 3.51
-18.78 -32.67 3.46
-17.86 -32.56 3.41
-10.76 -20.58 2.13
-15.66 -31.48 3.23
-14.75 -31.21 3.17
-10.66 -23.78 2.39
-10.18 -23.99 2.39
-9.70 -24.19 2.39
-9.22 -24.39 2.39
-8.73 -24.57 2.39
-8.23 -24.75 2.39
-7.73 -24.91 2.39
-7.23 -25.06 2.39
-6.90 -25.84 2.45
-6.49 -26.43 2.49
-5.96 -26.55 2.49
-5.43 -26.67 2.49
-4.89 -26.77 2.49
-4.35 -26.87 2.49
-3.81 -26.95 2.49
-3.27 -27.02 2.49
-2.73 -27.08 2.49
-2.18 -27.12 2.49
-1.64 -27.16 2.49
-1.09 -27.18 2.49
-0.55 -27.19 2.49
-0.00 -21.79 2.49
0.44 -21.78 2.49
0.87 -21.77 2.49
1.30 -21.62 2.48
1.67 -20.81 2.39
2.09 -20.76 2.39
1.66 -13.71 1.58
1.94 -13.76 1.59
2.18 -13.47 1.56
2.46 -13.50 1.57
4.15 -20.43 2.39
4.47 -19.93 2.34
4.90 -19.95 2.36
5.37 -20.12 2.39
5.85 -20.27 2.42
6.25 -20.14 2.42
4.69 -14.09 1.71
4.97 -14.02 1.71
5.39 -14.28 1.76
5.42 -13.52 1.68
5.44 -12.83 1.60
5.46 -12.18 1.54
5.43 -11.50 1.47
5.44 -10.94 1.41
5.50 -10.53 1.37
5.61 -10.24 1.35
5.75 -10.01 1.33
5.91 -9.82 1.32
6.08 -9.66 1.32
6.27 -9.54 1.32
6.48 -9.44 1.32
6.71 -9.36 1.33
6.97 -9.32 1.35
7.26 -9.31 1.37
7.58 -9.34 1.39
7.93 -9.37 1.42
8.29 -9.41 1.46
8.66 -9.44 1.49
9.03 -9.45 1.52
9.41 -9.46 1.55
9.81 -9.48 1.59
10.23 -9.49 1.62
10.66 -9.51 1.66
11.12 -9.52 1.71
11.61 -9.54 1.75
12.12 -9.56 1.80
12.66 -9.58 1.85
13.23 -9.60 1.91
13.83 -9.62 1.97
14.47 -9.64 2.04
15.16 -9.67 2.11
15.90 -9.69 2.18
16.53 -9.63 2.24
16.70 -9.29 2.24
16.42 -8.70 2.18
16.58 -8.37 2.18
16.74 -8.03 2.18
13.70 -6.23 1.77
13.66 -5.89 1.75
13.62 -5.55 1.73
13.63 -5.24 1.72
13.64 -4.93 1.71
13.65 -4.63 1.70
13.70 -4.34 1.70
13.78 -4.06 1.70
14.15 -3.86 1.74
15.54 -3.91 1.90
15.61 -3.60 1.90
15.70 -3.29 1.90
15.76 -2.97 1.90
15.81 -2.65 1.90
15.82 -2.33 1.90
15.83 -2.00 1.90
15.84 -1.68 1.90
15.85 -1.36 1.90
15.86 -1.04 1.90
11.15 -0.51 1.33
11.15 -0.29 1.33
9.42 -0.05 1.13
11.45 0.17 1.37
11.44 0.40 1.37
11.42 0.63 1.37
11.40 0.85 1.37
11.37 1.08 1.37
11.34 1.31 1.37
11.30 1.53 1.37
11.26 1.76 1.37
11.21 1.98 1.37
8.83 1.75 1.08
11.11 2.43 1.37
11.05 2.65 1.37
10.99 2.87 1.37
10.84 3.06 1.36
10.53 3.21 1.33
12.07 3.94 1.53
11.37 3.97 1.46
10.73 3.99 1.39
10.16 4.01 1.32
9.63 4.03 1.27
9.15 4.04 1.21
8.71 4.06 1.17
8.30 4.07 1.12
7.92 4.09 1.08
7.55 4.09 1.04
7.46 4.24 1.04
14.89 8.86 2.11
14.91 9.28 2.14
14.92 9.71 2.17
15.23 10.35 2.24
15.01 10.65 2.24
14.78 10.94 2.24
14.56 11.23 2.24
14.32 11.51 2.24
14.08 11.79 2.24
13.83 12.07 2.24
13.58 12.34 2.24
13.33 12.60 2.24
13.06 12.86 2.24
12.80 13.12 2.24
12.53 13.37 2.24
12.25 13.61 2.24
11.97 13.85 2.24
11.69 14.08 2.24
11.26 14.14 2.22
10.82 14.15 2.19
10.36 14.14 2.15
9.97 14.18 2.13
9.53 14.16 2.10
9.16 14.21 2.08
8.77 14.23 2.05
8.36 14.21 2.03
8.01 14.25 2.01
7.63 14.23 1.99
7.29 14.28 1.97
6.92 14.26 1.95
6.59 14.30 1.94
5.93 13.57 1.82
7.36 17.82 2.37
6.96 17.85 2.36
6.66 18.18 2.38
6.32 18.37 2.39
5.95 18.49 2.39
5.57 18.60 2.39
5.20 18.71 2.39
4.82 18.81 2.39
4.44 18.90 2.39
4.06 18.99 2.39
3.68 19.06 2.39
3.30 19.13 2.39
2.91 19.20 2.39
2.63 20.08 2.49
2.23 20.13 2.49
1.83 20.17 2.49
1.42 20.21 2.49
1.02 20.24 2.49
0.61 20.25 2.49
0.20 20.26 2.49
-0.21 20.27 2.49
-0.61 20.26 2.49
-1.02 20.25 2.49
-1.43 20.23 2.49
-1.83 20.20 2.49
-2.24 20.16 2.49
-2.22 16.93 2.10
-2.28 14.99 1.86
-2.33 13.50 1.68
-2.37 12.27 1.54
-2.61 12.18 1.53
-2.87 12.19 1.54
-3.13 12.20 1.55
-3.39 12.21 1.56
-3.66 12.22 1.56
-3.94 12.23 1.58
-4.21 12.24 1.59
-6.38 17.39 2.27
-7.09 18.19 2.39
-7.46 18.05 2.39
-7.82 17.90 2.39
-8.18 17.75 2.39
-8.54 17.59 2.39
-8.89 17.42 2.39
-9.25 17.25 2.39
-10.44 18.56 2.60
-9.46 16.06 2.28
-9.60 12.05 1.87
-9.65 11.16 1.79
-9.72 8.48 1.56
-9.75 8.17 1.54
-6.24 0.85 0.75
-6.28 0.73 0.75
-10.32 -8.48 1.54
-10.33 -8.84 1.57
-17.39 -15.50 2.69
-17.12 -15.89 2.69
-17.18 -16.60 2.75
-17.36 -17.46 2.84
-16.67 -17.45 2.78
-15.98 -17.42 2.72
-15.53 -17.63 2.70
-10.48 -12.38 1.87
-15.11 -18.60 2.75
-14.92 -19.14 2.79
-14.76 -19.74 2.83
-14.72 -20.52 2.90
-14.75 -21.47 2.99
-14.67 -22.30 3.06
-14.44 -22.94 3.11
-11.88 -19.74 2.64
-10.39 -18.08 2.39
-10.03 -18.29 2.39
-9.67 -18.49 2.39
-9.29 -18.69 2.39
-8.92 -18.87 2.39
-8.54 -19.05 2.39
-8.16 -19.22 2.39
-7.77 -19.39 2.39
-7.38 -19.54 2.39
-6.99 -19.69 2.39
-6.70 -20.15 2.43
-6.46 -20.82 2.49
-6.04 -20.94 2.49
-5.62 -21.06 2.49
-5.20 -21.17 2.49
-4.77 -21.27 2.49
-4.35 -21.36 2.49
-3.92 -21.45 2.49
-3.49 -21.52 2.49
-3.05 -21.59 2.49
-2.62 -21.64 2.49
-2.19 -21.69 2.49
-1.75 -21.73 2.49
-1.31 -21.76 2.49
-0.88 -21.78 2.49
-0.44 -21.79 2.49
-0.00 -18.16 2.49
0.36 -18.15 2.49
0.73 -18.14 2.49
1.09 -18.12 2.49
1.43 -17.85 2.46
1.74 -17.31 2.39
1.66 -13.70 1.90
1.94 -13.76 1.91
2.18 -13.47 1.88
2.46 -13.50 1.89
3.46 -17.03 2.39
3.80 -16.95 2.39
4.14 -16.87 2.39
4.48 -16.78 2.39
4.81 -16.68 2.39
5.14 -16.58 2.39
4.69 -14.12 2.05
4.98 -14.03 2.05
5.39 -14.28 2.11
5.42 -13.52 2.01
5.44 -12.83 1.92
5.46 -12.18 1.84
5.44 -11.51 1.76
5.44 -10.94 1.69
5.50 -10.54 1.64
5.61 -10.24 1.61
5.75 -10.01 1.60
5.91 -9.82 1.59
6.08 -9.66 1.58
6.27 -9.54 1.58
6.48 -9.44 1.59
6.71 -9.36 1.60
6.97 -9.32 1.61
7.26 -9.31 1.64
7.58 -9.34 1.67
7.93 -9.37 1.70
8.29 -9.41 1.74
8.66 -9.44 1.78
9.02 -9.45 1.82
9.41 -9.46 1.86
9.81 -9.48 1.90
10.22 -9.49 1.94
10.66 -9.51 1.99
11.12 -9.52 2.04
11.61 -9.54 2.10
12.12 -9.56 2.15
12.65 -9.58 2.22
12.99 -9.43 2.24
13.17 -9.16 2.24
12.73 -8.48 2.14
13.07 -8.33 2.17
13.22 -8.06 2.17
13.38 -7.79 2.17
13.52 -7.52 2.17
13.66 -7.24 2.17
13.80 -6.96 2.17
13.95 -6.69 2.17
13.70 -6.23 2.12
13.66 -5.89 2.09
13.62 -5.55 2.07
13.63 -5.24 2.06
13.64 -4.93 2.04
13.65 -4.63 2.03
13.70 -4.34 2.03
13.78 -4.06 2.03
14.13 -3.86 2.07
15.27 -3.84 2.23
14.87 -3.43 2.16
14.93 -3.12 2.16
14.98 -2.82 2.16
15.02 -2.52 2.16
15.06 -2.22 2.16
15.09 -1.91 2.16
15.11 -1.61 2.16
15.36 -1.32 2.19
15.37 -1.01 2.19
15.79 -0.72 2.25
9.53 -0.24 1.36
9.37 -0.05 1.34
9.35 0.14 1.33
9.34 0.32 1.33
9.59 0.52 1.37
9.57 0.72 1.37
9.55 0.91 1.37
9.52 1.10 1.37
9.49 1.29 1.37
9.46 1.48 1.37
9.42 1.67 1.37
8.83 1.74 1.29
9.08 1.99 1.33
9.03 2.17 1.33
8.98 2.35 1.33
9.12 2.58 1.36
12.86 3.91 1.93
12.07 3.94 1.83
11.37 3.97 1.73
10.73 3.99 1.65
10.16 4.01 1.57
9.63 4.03 1.50
9.15 4.04 1.44
8.71 4.06 1.39
8.30 4.07 1.33
7.92 4.09 1.29
7.57 4.10 1.24
7.24 4.11 1.20
6.93 4.12 1.17
6.64 4.13 1.13
6.37 4.14 1.10
6.17 4.19 1.08
6.18 4.38 1.10
12.00 8.87 2.16
11.82 9.12 2.16
11.65 9.36 2.17
11.47 9.60 2.17
11.65 10.16 2.24
11.47 10.42 2.25
11.32 10.70 2.26
11.16 10.99 2.28
11.00 11.28 2.29
10.84 11.56 2.30
10.67 11.85 2.32
10.49 12.13 2.33
10.31 12.42 2.35
10.12 12.71 2.36
9.93 12.99 2.38
9.73 13.28 2.40
9.50 13.52 2.41
9.22 13.71 2.41
8.95 13.88 2.41
8.66 14.06 2.41
8.36 14.21 2.40
8.01 14.25 2.38
7.63 14.23 2.36
7.29 14.28 2.34
6.92 14.26 2.31
6.59 14.30 2.30
5.93 13.59 2.16
6.25 15.14 2.39
5.95 15.26 2.39
5.64 15.38 2.39
5.33 15.48 2.39
5.01 15.59 2.39
4.70 15.68 2.39
4.38 15.77 2.39
4.07 15.86 2.39
3.75 15.93 2.39
3.43 16.01 2.39
3.10 16.07 2.39
2.78 16.13 2.39
2.56 16.88 2.49
2.22 16.93 2.49
1.88 16.97 2.49
1.54 17.01 2.49
1.20 17.04 2.49
0.86 17.06 2.49
0.51 17.07 2.49
0.17 17.08 2.49
-0.17 17.08 2.49
-0.52 17.08 2.49
-0.86 17.07 2.49
-1.20 17.05 2.49
-1.54 17.02 2.49
-1.89 16.99 2.49
-2.23 16.95 2.49
-2.28 14.99 2.21
-2.33 13.50 2.00
-2.37 12.27 1.82
-2.61 12.18 1.82
-2.87 12.19 1.82
-3.13 12.20 1.83
-3.40 12.21 1.85
-3.66 12.22 1.86
-3.94 12.23 1.87
-4.21 12.24 1.88
-5.66 15.43 2.39
-5.97 15.32 2.39
-6.28 15.20 2.39
-6.59 15.08 2.39
-6.89 14.95 2.39
-7.19 14.81 2.39
-7.49 14.67 2.39
-7.79 14.52 2.39
-8.08 14.37 2.39
-8.37 14.21 2.39
-8.66 14.04 2.39
-8.94 13.87 2.39
-9.22 13.70 2.39
-9.50 13.51 2.39
-10.82 14.76 2.65
-12.00 15.69 2.86
-12.85 16.12 2.98
-13.24 15.94 2.99
-9.65 11.16 2.13
-14.08 15.63 3.04
-14.50 15.46 3.06
-14.84 15.20 3.06
-15.10 14.86 3.05
-15.35 14.51 3.04
-9.73 8.84 1.89
-15.91 13.88 3.04
-9.73 8.15 1.83
-16.45 13.22 3.04
-16.71 12.89 3.03
-16.98 12.56 3.03
-17.26 12.24 3.04
-9.79 6.65 1.70
-9.80 6.37 1.68
-18.07 11.24 3.05
-18.33 10.90 3.05
-18.58 10.55 3.06
-18.81 10.18 3.06
-9.84 5.08 1.58
-9.85 4.83 1.57
-9.86 4.59 1.55
-9.87 4.36 1.54
-6.24 0.85 0.89
-6.29 0.72 0.89
-10.18 -4.39 1.54
-10.18 -4.63 1.56
-10.19 -4.89 1.57
-19.53 -11.37 3.14
-19.17 -11.69 3.12
-18.89 -12.04 3.11
-18.50 -12.32 3.08
-10.27 -7.14 1.73
-17.37 -12.60 2.97
-16.80 -12.71 2.92
-16.49 -13.01 2.91
-16.42 -13.50 2.94
-16.34 -13.98 2.97
-16.02 -14.28 2.97
-15.77 -14.64 2.97
-15.38 -14.86 2.95
-14.98 -15.07 2.93
-14.66 -15.35 2.93
-14.36 -15.65 2.93
-10.46 -11.87 2.18
-13.66 -16.14 2.92
-12.40 -15.26 2.71
-11.61 -14.89 2.60
-10.40 -13.90 2.39
-10.12 -14.11 2.39
-9.84 -14.32 2.39
-9.55 -14.51 2.39
-9.26 -14.71 2.39
-8.96 -14.89 2.39
-8.66 -15.07 2.39
-8.36 -15.25 2.39
-8.06 -15.41 2.39
-7.46 -15.00 2.30
-7.31 -15.47 2.35
-6.89 -15.36 2.31
-6.80 -16.02 2.39
-6.57 -16.39 2.43
-6.42 -16.99 2.49
-6.08 -17.12 2.49
-5.73 -17.24 2.49
-5.39 -17.35 2.49
-5.04 -17.45 2.49
-4.69 -17.55 2.49
-4.33 -17.64 2.49
-3.98 -17.73 2.49
-3.62 -17.80 2.49
-3.26 -17.87 2.49
-2.91 -17.94 2.49
-2.55 -17.99 2.49
-2.18 -18.04 2.49
-1.82 -18.08 2.49
-1.46 -18.11 2.49
-1.09 -18.13 2.49
-0.73 -18.15 2.49
-0.37 -18.16 2.49
-0.00 -15.55 2.49
0.31 -15.55 2.49
0.62 -15.54 2.49
0.93 -15.52 2.49
1.24 -15.50 2.49
1.53 -15.19 2.45
1.66 -13.70 2.22
2.08 -14.75 2.39
2.19 -13.51 2.20
2.48 -13.59 2.22
2.96 -14.59 2.39
3.26 -14.52 2.39
3.55 -14.45 2.39
3.83 -14.37 2.39
4.12 -14.29 2.39
4.41 -14.20 2.39
4.69 -14.11 2.39
4.97 -14.01 2.39
5.25 -13.90 2.39
5.42 -13.53 2.35
5.44 -12.83 2.25
5.46 -12.18 2.15
5.44 -11.51 2.05
5.44 -10.95 1.97
5.50 -10.54 1.92
5.61 -10.24 1.88
5.75 -10.01 1.86
5.91 -9.82 1.85
6.08 -9.66 1.84
6.27 -9.54 1.84
6.48 -9.44 1.85
6.71 -9.36 1.86
6.97 -9.32 1.88
7.26 -9.31 1.91
7.58 -9.34 1.95
7.92 -9.37 1.99
8.29 -9.41 2.03
8.65 -9.44 2.07
9.02 -9.45 2.12
9.41 -9.46 2.16
9.81 -9.48 2.21
10.15 -9.42 2.25
10.34 -9.22 2.25
10.52 -9.01 2.25
10.34 -8.50 2.18
10.49 -8.28 2.17
10.64 -8.06 2.17
10.79 -7.83 2.17
10.93 -7.60 2.17
11.06 -7.37 2.17
11.19 -7.14 2.16
11.32 -6.90 2.16
11.44 -6.67 2.16
11.90 -6.62 2.22
12.18 -6.46 2.25
12.31 -6.21 2.25
12.43 -5.96 2.25
12.54 -5.71 2.26
12.65 -5.46 2.26
12.76 -5.20 2.26
12.86 -4.94 2.26
12.95 -4.68 2.26
13.03 -4.42 2.26
13.10 -4.15 2.26
13.17 -3.88 2.26
12.61 -3.45 2.15
12.67 -3.19 2.15
12.71 -2.93 2.15
12.76 -2.67 2.15
12.80 -2.41 2.15
12.83 -2.15 2.14
12.86 -1.89 2.14
12.89 -1.64 2.14
13.11 -1.40 2.18
13.61 -1.17 2.26
13.63 -0.90 2.26
13.64 -0.63 2.26
13.64 -0.35 2.26
9.45 -0.05 1.56
13.62 0.20 2.26
13.60 0.47 2.25
13.57 0.74 2.25
13.54 1.01 2.25
13.50 1.28 2.25
13.46 1.55 2.25
13.42 1.82 2.25
13.36 2.09 2.25
13.31 2.35 2.25
8.86 1.75 1.50
13.18 2.88 2.25
13.11 3.14 2.24
13.03 3.40 2.24
12.95 3.66 2.24
12.78 3.89 2.23
12.07 3.94 2.12
11.37 3.97 2.01
10.74 3.99 1.91
10.16 4.01 1.83
9.64 4.03 1.75
9.16 4.04 1.67
8.71 4.06 1.61
8.30 4.07 1.55
7.93 4.09 1.49
7.57 4.10 1.44
7.24 4.11 1.40
6.93 4.12 1.35
6.64 4.13 1.31
6.37 4.14 1.27
6.17 4.19 1.25
6.18 4.38 1.27
10.28 7.60 2.15
10.15 7.83 2.15
10.02 8.06 2.16
9.89 8.28 2.17
9.75 8.51 2.18
9.61 8.73 2.18
9.46 8.95 2.19
9.31 9.17 2.20
9.16 9.38 2.21
9.00 9.60 2.22
9.55 10.61 2.40
9.34 10.80 2.41
9.12 10.99 2.41
8.90 11.16 2.41
8.67 11.34 2.41
8.44 11.51 2.41
8.20 11.67 2.41
7.96 11.83 2.41
7.72 11.99 2.41
7.48 12.14 2.41
7.23 12.28 2.41
6.98 12.42 2.41
6.73 12.56 2.41
6.43 12.60 2.39
6.18 12.73 2.39
5.92 12.85 2.39
5.66 12.96 2.39
5.40 13.07 2.39
5.13 13.18 2.39
4.87 13.28 2.39
4.60 13.37 2.39
4.33 13.46 2.39
4.06 13.54 2.39
3.79 13.62 2.39
3.51 13.69 2.39
3.23 13.76 2.39
2.96 13.82 2.39
2.68 13.88 2.39
2.50 14.53 2.49
2.21 14.58 2.49
1.92 14.62 2.49
1.62 14.66 2.49
1.33 14.69 2.49
1.03 14.71 2.49
0.74 14.73 2.49
0.44 14.74 2.49
0.15 14.75 2.49
-0.15 14.75 2.49
-0.45 14.75 2.49
-0.74 14.74 2.49
-1.04 14.72 2.49
-1.33 14.70 2.49
-1.63 14.67 2.49
-1.92 14.64 2.49
-2.22 14.60 2.49
-2.17 12.55 2.15
-2.37 12.26 2.11
-2.61 12.18 2.10
-2.87 12.19 2.11
-3.13 12.20 2.13
-3.40 12.21 2.14
-3.66 12.22 2.15
-3.94 12.23 2.17
-4.21 12.24 2.18
-5.10 13.89 2.49
-5.38 13.79 2.49
-5.52 13.36 2.44
-5.68 13.01 2.39
-5.95 12.90 2.39
-5.92 12.18 2.28
-6.23 12.20 2.30
-6.51 12.13 2.32
-6.62 11.77 2.27
-7.22 12.26 2.39
-7.47 12.11 2.39
-7.71 11.97 2.39
-7.96 11.81 2.39
-8.19 11.66 2.39
-8.43 11.49 2.39
-8.66 11.33 2.39
-8.89 11.15 2.39
-9.12 10.98 2.39
-9.34 10.80 2.39
-9.56 10.61 2.39
-10.78 11.49 2.64
-11.28 11.55 2.70
-9.69 9.54 2.27
-13.11 12.39 3.01
-13.36 12.13 3.02
-13.61 11.87 3.02
-9.73 8.15 2.12
-14.09 11.32 3.02
-14.32 11.04 3.02
-14.55 10.76 3.02
-14.77 10.47 3.02
-9.79 6.65 1.97
-15.22 9.89 3.02
-15.43 9.60 3.02
-15.64 9.30 3.03
-15.85 9.00 3.03
-16.05 8.69 3.03
-9.84 5.07 1.84
-16.42 8.06 3.04
-16.60 7.73 3.04
-16.76 7.40 3.04
-16.93 7.07 3.04
-17.08 6.74 3.04
-17.23 6.40 3.04
-17.38 6.06 3.04
-17.52 5.72 3.05
-17.65 5.37 3.05
-17.77 5.02 3.05
-17.89 4.67 3.05
-18.00 4.31 3.05
-18.13 3.96 3.06
-18.25 3.60 3.07
-9.97 1.76 1.67
-18.47 2.88 3.08
-6.24 0.85 1.04
-6.29 0.72 1.04
-18.71 1.78 3.09
-10.00 0.75 1.65
-10.00 0.55 1.64
-18.78 0.65 3.08
-18.77 0.27 3.08
-18.91 -0.11 3.10
-19.04 -0.49 3.12
-19.16 -0.88 3.14
-19.27 -1.27 3.16
-19.37 -1.67 3.18
-10.06 -1.07 1.65
-10.07 -1.28 1.66
-19.23 -2.83 3.17
-19.16 -3.22 3.17
-18.81 -3.55 3.12
-18.29 -3.83 3.05
-17.87 -4.12 2.99
-10.11 -2.54 1.70
-18.07 -4.93 3.05
-18.19 -5.36 3.09
-18.29 -5.79 3.12
-18.18 -6.16 3.12
-10.16 -3.67 1.76
-18.12 -6.96 3.15
-18.11 -7.38 3.18
-18.10 -7.80 3.20
-10.19 -4.64 1.82
-17.54 -8.41 3.15
-16.89 -8.52 3.07
-16.29 -8.63 2.99
-16.28 -9.05 3.02
-16.27 -9.48 3.05
-10.26 -6.26 1.94
-16.21 -10.33 3.11
-15.88 -10.58 3.08
-10.27 -7.15 2.02
-14.89 -10.80 2.97
-14.48 -10.96 2.93
-14.35 -11.32 2.95
-14.22 -11.69 2.97
-14.08 -12.06 2.99
-13.94 -12.43 3.01
-10.37 -9.62 2.28
-11.44 -11.05 2.56
-11.32 -11.39 2.59
-10.26 -10.74 2.39
-10.04 -10.95 2.39
-9.82 -11.15 2.39
-9.60 -11.35 2.39
-9.37 -11.54 2.39
-9.14 -11.73 2.39
-8.91 -11.91 2.39
-8.67 -12.09 2.39
-8.43 -12.27 2.39
-8.18 -12.44 2.39
-7.93 -12.60 2.39
-7.36 -12.24 2.29
-7.30 -12.70 2.35
-6.80 -12.40 2.27
-6.80 -13.02 2.36
-6.65 -13.37 2.40
-6.47 -13.70 2.43
-6.36 -14.19 2.49
-6.07 -14.31 2.49
-5.79 -14.44 2.49
-5.50 -14.55 2.49
-5.20 -14.66 2.49
-4.91 -14.76 2.49
-4.61 -14.86 2.49
-4.31 -14.95 2.49
-4.01 -15.03 2.49
-3.71 -15.11 2.49
-3.41 -15.18 2.49
-3.10 -15.25 2.49
-2.80 -15.31 2.49
-2.49 -15.36 2.49
-2.18 -15.41 2.49
-1.87 -15.45 2.49
-1.56 -15.48 2.49
-1.25 -15.51 2.49
-0.94 -15.53 2.49
-0.63 -15.54 2.49
-0.31 -15.55 2.49
-0.00 -13.59 2.49
0.27 -13.59 2.49
0.54 -13.58 2.49
0.82 -13.56 2.49
1.09 -13.54 2.49
1.36 -13.51 2.49
1.60 -13.22 2.45
1.82 -12.90 2.39
2.08 -12.85 2.39
2.33 -12.80 2.39
2.59 -12.75 2.39
2.84 -12.69 2.39
3.10 -12.63 2.39
3.35 -12.56 2.39
3.60 -12.49 2.39
3.85 -12.41 2.39
4.10 -12.33 2.39
4.34 -12.24 2.39
4.59 -12.15 2.39
4.83 -12.05 2.39
5.07 -11.95 2.39
5.30 -11.84 2.39
5.44 -11.51 2.35
5.44 -10.95 2.25
5.50 -10.54 2.19
5.61 -10.24 2.15
5.75 -10.01 2.13
5.91 -9.82 2.12
6.08 -9.66 2.11
6.27 -9.54 2.11
6.48 -9.44 2.12
6.71 -9.36 2.13
6.97 -9.32 2.15
7.26 -9.31 2.18
7.58 -9.34 2.23
7.92 -9.37 2.27
8.20 -9.31 2.30
8.35 -9.10 2.29
8.49 -8.89 2.28
8.46 -8.51 2.23
8.61 -8.32 2.22
8.75 -8.12 2.22
8.89 -7.93 2.21
9.02 -7.73 2.21
9.15 -7.53 2.20
9.28 -7.32 2.20
9.40 -7.12 2.19
9.52 -6.91 2.19
9.63 -6.70 2.18
9.81 -6.54 2.20
10.28 -6.56 2.27
10.42 -6.36 2.28
10.53 -6.13 2.27
10.62 -5.91 2.27
10.72 -5.68 2.26
10.80 -5.45 2.26
10.89 -5.23 2.26
10.97 -5.00 2.25
11.06 -4.77 2.25
11.14 -4.54 2.25
11.23 -4.32 2.25
11.31 -4.09 2.25
11.38 -3.86 2.25
11.45 -3.63 2.25
11.19 -3.30 2.19
11.24 -3.07 2.19
11.29 -2.84 2.18
11.33 -2.61 2.18
11.37 -2.38 2.18
11.41 -2.15 2.18
11.44 -1.92 2.18
11.47 -1.69 2.18
11.49 -1.46 2.18
11.90 -1.27 2.25
11.92 -1.03 2.25
11.93 -0.79 2.25
11.94 -0.55 2.25
11.55 -0.30 2.18
9.46 -0.06 1.78
11.92 0.17 2.25
11.92 0.41 2.25
11.91 0.65 2.25
11.89 0.89 2.25
11.87 1.13 2.26
11.84 1.36 2.26
11.80 1.60 2.26
11.76 1.84 2.25
11.71 2.07 2.25
8.86 1.75 1.71
11.59 2.53 2.25
11.52 2.76 2.25
11.45 2.99 2.25
11.37 3.21 2.24
11.30 3.44 2.24
11.25 3.67 2.25
11.19 3.90 2.25
10.74 3.99 2.18
10.16 4.01 2.08
9.64 4.03 1.99
9.16 4.04 1.91
8.72 4.06 1.83
8.31 4.07 1.76
7.93 4.09 1.70
7.57 4.10 1.64
7.24 4.11 1.59
6.93 4.12 1.54
6.64 4.13 1.49
6.37 4.14 1.45
6.17 4.19 1.43
6.18 4.38 1.45
8.98 6.64 2.14
8.86 6.83 2.14
8.73 7.02 2.14
9.11 7.62 2.27
8.77 7.65 2.23
8.63 7.83 2.23
8.49 8.03 2.24
8.36 8.23 2.25
8.23 8.43 2.26
8.09 8.63 2.27
7.95 8.83 2.28
7.81 9.03 2.29
7.66 9.23 2.30
7.51 9.43 2.31
7.36 9.62 2.33
7.42 10.11 2.41
7.21 10.26 2.41
7.00 10.40 2.41
6.79 10.53 2.41
6.57 10.67 2.41
6.32 10.72 2.39
6.10 10.85 2.39
5.88 10.96 2.39
5.66 11.08 2.39
5.43 11.19 2.39
5.20 11.29 2.39
4.98 11.40 2.39
4.75 11.49 2.39
4.51 11.58 2.39
4.28 11.67 2.39
4.04 11.75 2.39
3.81 11.83 2.39
3.57 11.91 2.39
3.33 11.97 2.39
3.09 12.04 2.39
2.84 12.10 2.39
2.60 12.15 2.39
2.46 12.73 2.49
2.20 12.78 2.49
1.94 12.82 2.49
1.69 12.85 2.49
1.43 12.89 2.49
1.17 12.91 2.49
0.91 12.93 2.49
0.65 12.95 2.49
0.39 12.96 2.49
0.13 12.97 2.49
-0.13 12.97 2.49
-0.39 12.96 2.49
-0.65 12.96 2.49
-0.91 12.94 2.49
-1.17 12.92 2.49
-1.43 12.90 2.49
-1.69 12.87 2.49
-1.95 12.83 2.49
-2.21 12.79 2.49
-2.40 12.43 2.43
-2.66 12.43 2.44
-2.98 12.64 2.49
-3.23 12.58 2.49
-3.48 12.52 2.49
-3.73 12.45 2.49
-3.98 12.37 2.49
-4.23 12.29 2.49
-4.48 12.21 2.49
-4.73 12.12 2.49
-4.97 12.03 2.49
-5.21 11.93 2.49
-5.45 11.82 2.49
-5.58 11.50 2.45
-5.68 11.12 2.39
-5.90 11.01 2.39
-5.97 10.62 2.33
-6.02 10.22 2.27
-6.45 10.47 2.35
-6.57 10.20 2.32
-6.63 9.85 2.27
-7.20 10.24 2.39
-7.40 10.09 2.39
-7.61 9.95 2.39
-7.81 9.79 2.39
-8.01 9.64 2.39
-8.20 9.48 2.39
-8.39 9.32 2.39
-8.58 9.15 2.39
-8.77 8.98 2.39
-8.95 8.80 2.39
-9.13 8.63 2.39
-9.30 8.44 2.39
-9.48 8.26 2.39
-9.64 8.07 2.39
-10.84 8.71 2.64
-11.04 8.51 2.65
-11.43 8.45 2.70
-9.78 6.93 2.28
-9.79 6.64 2.24
-12.64 8.22 2.86
-13.02 8.09 2.91
-13.25 7.87 2.92
-13.48 7.65 2.94
-13.70 7.41 2.95
-9.84 5.07 2.10
-14.13 6.93 2.98
-14.34 6.68 2.99
-14.54 6.42 3.00
-14.74 6.16 3.02
-14.92 5.88 3.03
-15.09 5.60 3.04
-15.21 5.30 3.04
-15.33 5.00 3.04
-15.45 4.70 3.04
-15.56 4.39 3.05
-15.67 4.09 3.05
-15.78 3.78 3.05
-15.88 3.47 3.06
-15.96 3.15 3.06
-16.04 2.83 3.06
-16.11 2.51 3.06
-6.24 0.85 1.18
-6.29 0.72 1.19
-16.16 1.53 3.05
-16.18 1.21 3.04
-10.00 0.54 1.88
-16.26 0.56 3.05
-16.30 0.23 3.05
-16.37 -0.10 3.06
-16.44 -0.43 3.08
-16.51 -0.76 3.09
-16.54 -1.09 3.10
-16.51 -1.43 3.10
-10.06 -1.07 1.89
-16.31 -2.07 3.07
-16.13 -2.38 3.04
-16.06 -2.70 3.04
-16.08 -3.03 3.05
-16.08 -3.37 3.06
-16.08 -3.71 3.07
-10.11 -2.55 1.94
-16.20 -4.42 3.12
-16.20 -4.78 3.14
-16.13 -5.11 3.15
-16.06 -5.45 3.15
-15.98 -5.78 3.16
-15.95 -6.13 3.17
-15.70 -6.40 3.15
-15.27 -6.59 3.08
-14.88 -6.78 3.03
-14.50 -6.96 2.98
-14.31 -7.22 2.97
-14.12 -7.48 2.96
-13.92 -7.74 2.95
-13.72 -8.00 2.94
-13.55 -8.26 2.94
-12.47 -7.95 2.73
-10.27 -6.84 2.28
-10.27 -7.15 2.31
-11.27 -8.18 2.57
-11.18 -8.46 2.59
-10.17 -8.02 2.39
-10.01 -8.23 2.39
-9.85 -8.43 2.39
-9.68 -8.63 2.39
-9.51 -8.82 2.39
-9.33 -9.02 2.39
-9.15 -9.20 2.39
-8.96 -9.39 2.39
-8.78 -9.57 2.39
-8.59 -9.74 2.39
-8.39 -9.92 2.39
-8.19 -10.09 2.39
-7.99 -10.25 2.39
-7.78 -10.41 2.39
-7.58 -10.57 2.39
-7.36 -10.72 2.39
-7.15 -10.87 2.39
-6.93 -11.01 2.39
-6.71 -11.15 2.39
-6.49 -11.28 2.39
-6.40 -11.67 2.45
-6.29 -12.04 2.49
-6.05 -12.16 2.49
-5.80 -12.28 2.49
-5.56 -12.40 2.49
-5.31 -12.51 2.49
-5.06 -12.61 2.49
-4.80 -12.71 2.49
-4.55 -12.81 2.49
-4.29 -12.90 2.49
-4.03 -12.98 2.49
-3.77 -13.06 2.49
-3.51 -13.13 2.49
-3.24 -13.20 2.49
-2.98 -13.26 2.49
-2.71 -13.32 2.49
-2.44 -13.37 2.49
-2.17 -13.42 2.49
-1.90 -13.46 2.49
-1.63 -13.50 2.49
-1.36 -13.52 2.49
-1.09 -13.55 2.49
-0.82 -13.57 2.49
-0.55 -13.58 2.49
-0.27 -13.59 2.49
-0.00 -12.05 2.49
0.24 -12.05 2.49
0.48 -12.04 2.49
0.72 -12.03 2.49
0.96 -12.01 2.49
1.20 -11.99 2.49
1.44 -11.96 2.49
1.65 -11.69 2.45
1.84 -11.40 2.39
2.07 -11.36 2.39
2.30 -11.31 2.39
2.52 -11.26 2.39
2.75 -11.21 2.39
2.97 -11.15 2.39
3.19 -11.08 2.39
3.42 -11.01 2.39
3.63 -10.94 2.39
3.85 -10.86 2.39
4.07 -10.78 2.39
4.28 -10.69 2.39
4.50 -10.60 2.39
4.71 -10.51 2.39
4.92 -10.41 2.39
5.12 -10.31 2.39
5.33 -10.20 2.39
5.53 -10.09 2.39
5.73 -9.97 2.39
5.91 -9.82 2.38
6.08 -9.67 2.38
6.27 -9.54 2.38
6.48 -9.44 2.38
6.71 -9.36 2.40
6.89 -9.23 2.40
7.04 -9.04 2.39
7.19 -8.86 2.38
7.07 -8.36 2.28
7.21 -8.19 2.28
7.34 -8.01 2.27
7.47 -7.83 2.26
7.60 -7.65 2.25
7.72 -7.47 2.24
7.84 -7.28 2.24
7.96 -7.10 2.23
8.07 -6.92 2.22
8.26 -6.79 2.24
8.37 -6.61 2.23
8.56 -6.48 2.25
9.04 -6.57 2.34
9.16 -6.38 2.34
9.27 -6.18 2.34
9.38 -5.99 2.33
9.49 -5.79 2.33
9.60 -5.59 2.33
9.70 -5.40 2.33
9.80 -5.20 2.33
9.89 -5.00 2.33
9.99 -4.79 2.33
10.06 -4.58 2.32
10.13 -4.37 2.32
10.19 -4.16 2.32
10.25 -3.94 2.31
10.31 -3.73 2.31
10.36 -3.51 2.30
10.05 -3.19 2.22
10.10 -2.98 2.22
10.15 -2.77 2.22
10.19 -2.57 2.22
10.23 -2.36 2.22
10.26 -2.15 2.22
10.30 -1.94 2.21
10.33 -1.74 2.21
10.35 -1.53 2.21
10.37 -1.32 2.21
10.72 -1.14 2.28
10.74 -0.93 2.28
10.75 -0.71 2.28
10.76 -0.50 2.28
10.77 -0.28 2.28
9.46 -0.06 2.01
10.78 0.15 2.29
10.77 0.37 2.29
10.77 0.59 2.29
10.76 0.80 2.29
10.75 1.02 2.30
10.73 1.24 2.30
10.71 1.45 2.30
10.68 1.67 2.30
10.65 1.88 2.30
8.86 1.75 1.92
10.58 2.31 2.31
10.53 2.52 2.31
10.49 2.74 2.31
10.45 2.95 2.32
9.79 2.98 2.18
10.35 3.38 2.32
10.30 3.59 2.33
10.24 3.80 2.33
10.17 4.01 2.34
9.64 4.03 2.23
9.16 4.04 2.14
8.72 4.06 2.06
8.31 4.07 1.98
6.62 3.41 1.59
6.41 3.47 1.56
6.34 3.60 1.56
6.39 3.80 1.59
6.65 4.13 1.68
6.37 4.14 1.63
6.17 4.19 1.60
6.18 4.38 1.62
8.18 6.05 2.18
8.08 6.23 2.19
7.98 6.41 2.20
7.87 6.59 2.21
7.76 6.77 2.21
7.65 6.95 2.22
8.14 7.69 2.41
7.81 7.68 2.36
7.52 7.70 2.32
7.37 7.86 2.32
7.24 8.04 2.33
7.11 8.22 2.34
6.97 8.39 2.35
6.83 8.57 2.36
6.68 8.74 2.37
6.54 8.91 2.38
6.38 9.08 2.39
6.20 9.20 2.39
6.01 9.33 2.39
5.82 9.44 2.39
5.63 9.56 2.39
5.43 9.67 2.39
5.24 9.77 2.39
5.04 9.87 2.39
4.84 9.97 2.39
4.64 10.07 2.39
4.44 10.16 2.39
4.23 10.24 2.39
4.02 10.32 2.39
3.81 10.40 2.39
3.60 10.48 2.39
3.39 10.55 2.39
3.18 10.61 2.39
2.97 10.67 2.39
2.75 10.73 2.39
2.54 10.78 2.39
2.42 11.30 2.49
2.19 11.35 2.49
1.96 11.39 2.49
1.73 11.42 2.49
1.50 11.46 2.49
1.27 11.49 2.49
1.04 11.51 2.49
0.81 11.53 2.49
0.58 11.54 2.49
0.35 11.55 2.49
0.11 11.56 2.49
-0.12 11.56 2.49
-0.35 11.55 2.49
-0.58 11.55 2.49
-0.81 11.53 2.49
-1.05 11.52 2.49
-1.28 11.49 2.49
-1.51 11.47 2.49
-1.74 11.44 2.49
-1.97 11.40 2.49
-2.20 11.36 2.49
-2.43 11.32 2.49
-2.65 11.27 2.49
-2.88 11.21 2.49
-3.10 11.16 2.49
-3.33 11.09 2.49
-3.55 11.03 2.49
-3.77 10.95 2.49
-3.99 10.88 2.49
-4.21 10.80 2.49
-4.43 10.71 2.49
-4.64 10.63 2.49
-4.86 10.53 2.49
-5.07 10.44 2.49
-5.28 10.33 2.49
-5.49 10.23 2.49
-5.64 10.02 2.47
-5.66 9.61 2.39
-5.85 9.48 2.39
-6.02 9.33 2.38
-6.03 8.95 2.32
-6.09 8.65 2.27
-6.49 8.84 2.35
-6.63 8.66 2.34
-6.64 8.33 2.28
-6.77 8.15 2.27
-7.31 8.44 2.39
-7.48 8.30 2.39
-7.64 8.15 2.39
-7.81 7.99 2.39
-7.97 7.84 2.39
-8.13 7.68 2.39
-8.28 7.52 2.39
-8.44 7.35 2.39
-8.59 7.18 2.39
-8.73 7.01 2.39
-8.87 6.84 2.39
-9.01 6.66 2.39
-9.15 6.48 2.39
-9.28 6.30 2.39
-9.41 6.11 2.39
-9.53 5.93 2.39
-9.65 5.74 2.39
-9.77 5.54 2.39
-10.43 5.64 2.52
-9.84 5.07 2.36
-10.74 5.27 2.54
-10.89 5.07 2.55
-11.12 4.91 2.58
-9.88 4.13 2.27
-9.89 3.90 2.26
-13.09 4.86 2.96
-13.24 4.61 2.97
-13.39 4.37 2.98
-13.51 4.11 2.99
-13.62 3.84 3.00
-13.72 3.58 3.00
-13.85 3.31 3.01
-13.96 3.05 3.02
-14.08 2.78 3.03
-9.97 1.76 2.14
-14.29 2.23 3.06
-6.23 0.84 1.33
-6.26 0.72 1.33
-14.46 1.37 3.07
-14.51 1.08 3.07
-10.00 0.54 2.11
-14.59 0.50 3.08
-14.63 0.21 3.08
-14.63 -0.09 3.08
-14.63 -0.38 3.08
-14.62 -0.67 3.08
-14.60 -0.97 3.08
-14.57 -1.26 3.07
-10.06 -1.07 2.13
-10.07 -1.28 2.13
-14.47 -2.13 3.07
-14.48 -2.43 3.08
-14.49 -2.73 3.09
-14.47 -3.03 3.10
-14.33 -3.31 3.08
-10.11 -2.55 2.18
-14.05 -3.84 3.05
-13.94 -4.11 3.04
-13.84 -4.39 3.04
-13.65 -4.63 3.02
-10.16 -3.67 2.26
-10.17 -3.91 2.28
-12.70 -5.18 2.87
-12.21 -5.27 2.78
-11.72 -5.34 2.69
-11.35 -5.45 2.63
-11.24 -5.68 2.63
-10.13 -5.37 2.39
-10.02 -5.57 2.39
-9.91 -5.78 2.39
-9.80 -5.98 2.39
-9.68 -6.17 2.39
-9.56 -6.37 2.39
-9.43 -6.56 2.39
-9.30 -6.75 2.39
-9.16 -6.94 2.39
-9.03 -7.12 2.39
-8.88 -7.30 2.39
-8.74 -7.48 2.39
-8.59 -7.66 2.39
-8.43 -7.83 2.39
-8.28 -8.00 2.39
-8.12 -8.17 2.39
-7.95 -8.33 2.39
-7.79 -8.49 2.39
-7.23 -8.21 2.27
-7.24 -8.55 2.32
-7.15 -8.80 2.35
-6.73 -8.63 2.27
-6.66 -8.91 2.31
-6.67 -9.31 2.37
-6.53 -9.51 2.39
-6.34 -9.64 2.39
-6.34 -10.08 2.47
-6.21 -10.32 2.49
-6.00 -10.44 2.49
-5.79 -10.56 2.49
-5.58 -10.68 2.49
-5.36 -10.79 2.49
-5.15 -10.89 2.49
-4.93 -11.00 2.49
-4.71 -11.09 2.49
-4.48 -11.19 2.49
-4.26 -11.28 2.49
-4.03 -11.36 2.49
-3.80 -11.44 2.49
-3.57 -11.51 2.49
-3.34 -11.58 2.49
-3.11 -11.65 2.49
-2.88 -11.71 2.49
-2.64 -11.77 2.49
-2.40 -11.82 2.49
-2.17 -11.86 2.49
-1.93 -11.90 2.49
-1.69 -11.94 2.49
-1.45 -11.97 2.49
-1.21 -12.00 2.49
-0.97 -12.02 2.49
-0.73 -12.03 2.49
-0.49 -12.05 2.49
-0.24 -12.05 2.49
-0.00 -10.82 2.49
0.22 -10.82 2.49
0.43 -10.81 2.49
0.65 -10.80 2.49
0.86 -10.78 2.49
1.08 -10.76 2.49
1.30 -10.74 2.49
1.51 -10.71 2.49
1.69 -10.47 2.45
1.86 -10.19 2.39
2.06 -10.15 2.39
2.26 -10.11 2.39
2.47 -10.06 2.39
2.67 -10.01 2.39
2.87 -9.95 2.39
3.07 -9.89 2.39
3.26 -9.82 2.39
3.46 -9.75 2.39
3.65 -9.68 2.39
3.85 -9.60 2.39
4.04 -9.52 2.39
4.23 -9.44 2.39
4.41 -9.35 2.39
4.60 -9.26 2.39
4.78 -9.16 2.39
4.96 -9.06 2.39
5.14 -8.96 2.39
5.32 -8.85 2.39
5.50 -8.74 2.39
5.67 -8.62 2.39
5.88 -8.56 2.41
5.96 -8.32 2.37
6.09 -8.16 2.36
6.23 -7.99 2.35
6.35 -7.83 2.34
6.48 -7.67 2.33
6.60 -7.50 2.32
6.72 -7.33 2.31
6.84 -7.17 2.30
6.96 -7.01 2.30
7.08 -6.84 2.29
7.19 -6.68 2.28
7.30 -6.51 2.28
7.51 -6.43 2.30
7.91 -6.51 2.39
8.04 -6.35 2.39
8.17 -6.19 2.39
8.29 -6.02 2.39
8.41 -5.86 2.39
8.53 -5.69 2.39
8.64 -5.52 2.39
8.76 -5.34 2.39
8.87 -5.17 2.40
8.97 -4.99 2.40
9.06 -4.81 2.40
9.15 -4.62 2.39
9.22 -4.42 2.39
9.28 -4.23 2.39
9.34 -4.03 2.38
9.40 -3.84 2.38
9.46 -3.64 2.37
9.07 -3.28 2.26
9.13 -3.10 2.26
9.18 -2.91 2.26
9.22 -2.72 2.26
9.27 -2.53 2.25
9.31 -2.35 2.25
9.34 -2.16 2.25
9.38 -1.97 2.25
9.41 -1.78 2.25
9.44 -1.59 2.25
9.46 -1.40 2.25
9.90 -1.26 2.35
9.92 -1.06 2.35
9.94 -0.86 2.35
9.95 -0.66 2.35
9.96 -0.46 2.35
9.97 -0.26 2.35
9.97 -0.06 2.35
9.97 0.14 2.35
9.97 0.34 2.35
9.96 0.54 2.36
9.96 0.74 2.36
9.94 0.94 2.36
9.93 1.14 2.36
9.91 1.34 2.36
9.89 1.54 2.37
9.86 1.74 2.37
8.87 1.75 2.14
9.79 2.14 2.37
9.75 2.33 2.38
9.71 2.53 2.38
9.67 2.73 2.38
9.63 2.93 2.39
9.58 3.12 2.39
9.53 3.32 2.39
9.47 3.52 2.40
9.42 3.71 2.40
9.35 3.91 2.41
9.16 4.04 2.38
8.72 4.06 2.29
8.25 4.04 2.18
6.45 3.32 1.72
6.30 3.41 1.70
6.23 3.54 1.70
6.24 3.71 1.73
6.65 4.13 1.86
6.37 4.14 1.81
6.17 4.19 1.78
6.18 4.38 1.80
7.53 5.56 2.23
7.43 5.73 2.24
7.34 5.89 2.24
7.24 6.06 2.25
7.14 6.22 2.26
7.03 6.38 2.27
6.92 6.54 2.27
6.81 6.70 2.28
6.70 6.86 2.29
6.58 7.02 2.30
6.74 7.49 2.41
6.59 7.62 2.41
6.44 7.75 2.41
6.24 7.82 2.39
6.08 7.95 2.39
5.91 8.06 2.39
5.75 8.18 2.39
5.58 8.29 2.39
5.42 8.40 2.39
5.24 8.51 2.39
5.07 8.61 2.39
4.90 8.71 2.39
4.72 8.80 2.39
4.54 8.90 2.39
4.36 8.99 2.39
4.18 9.07 2.39
4.00 9.15 2.39
3.81 9.23 2.39
3.63 9.30 2.39
3.44 9.37 2.39
3.25 9.44 2.39
3.06 9.50 2.39
2.87 9.56 2.39
2.67 9.62 2.39
2.48 9.67 2.39
2.38 10.14 2.49
2.18 10.18 2.49
1.97 10.22 2.49
1.77 10.26 2.49
1.56 10.29 2.49
1.35 10.32 2.49
1.15 10.35 2.49
0.94 10.37 2.49
0.73 10.39 2.49
0.52 10.40 2.49
0.31 10.41 2.49
0.10 10.41 2.49
-0.11 10.42 2.49
-0.32 10.41 2.49
-0.52 10.40 2.49
-0.73 10.39 2.49
-0.94 10.38 2.49
-1.15 10.36 2.49
-1.36 10.33 2.49
-1.57 10.30 2.49
-1.77 10.27 2.49
-1.98 10.24 2.49
-2.19 10.20 2.49
-2.39 10.15 2.49
-2.59 10.10 2.49
-2.80 10.05 2.49
-3.00 9.99 2.49
-3.20 9.93 2.49
-3.40 9.87 2.49
-3.60 9.80 2.49
-3.79 9.73 2.49
-3.99 9.65 2.49
-4.18 9.57 2.49
-4.38 9.49 2.49
-4.57 9.40 2.49
-4.76 9.31 2.49
-4.94 9.21 2.49
-5.13 9.11 2.49
-5.31 9.01 2.49
-5.49 8.91 2.49
-5.67 8.80 2.49
-5.69 8.45 2.43
-5.78 8.21 2.39
-5.94 8.10 2.39
-6.07 7.93 2.38
-6.08 7.62 2.32
-6.21 7.47 2.31
-6.48 7.48 2.35
-6.73 7.47 2.39
-6.88 7.34 2.39
-7.03 7.20 2.39
-7.18 7.06 2.39
-7.32 6.91 2.39
-7.46 6.77 2.39
-7.60 6.62 2.39
-7.73 6.47 2.39
-7.86 6.31 2.39
-7.99 6.16 2.39
-8.11 6.00 2.39
-8.24 5.83 2.39
-8.35 5.67 2.39
-8.47 5.50 2.39
-8.58 5.33 2.39
-8.69 5.16 2.39
-8.79 4.99 2.39
-8.90 4.81 2.39
-8.99 4.63 2.39
-9.09 4.45 2.39
-9.18 4.27 2.39
-9.27 4.09 2.39
-9.35 3.90 2.39
-9.43 3.72 2.39
-9.51 3.53 2.39
-9.58 3.34 2.39
-9.65 3.15 2.39
-9.71 2.95 2.39
-9.77 2.76 2.39
-9.83 2.56 2.39
-9.89 2.37 2.39
-10.85 2.37 2.61
-10.91 2.15 2.61
-10.98 1.94 2.62
-11.06 1.72 2.63
-6.20 0.84 1.47
-6.24 0.72 1.47
-11.84 1.12 2.79
-12.14 0.90 2.85
-10.00 0.54 2.35
-12.58 0.43 2.95
-12.72 0.18 2.98
-12.51 -0.08 2.93
-12.19 -0.32 2.85
-11.83 -0.55 2.77
-11.44 -0.76 2.68
-11.19 -0.97 2.63
-10.06 -1.07 2.36
-11.03 -1.40 2.60
-10.94 -1.61 2.58
-10.88 -1.83 2.58
-10.07 -1.90 2.39
-10.03 -2.10 2.39
-9.99 -2.31 2.39
-9.95 -2.51 2.39
-9.90 -2.71 2.39
-9.84 -2.91 2.39
-9.79 -3.10 2.39
-9.73 -3.30 2.39
-9.66 -3.50 2.39
-9.59 -3.69 2.39
-9.52 -3.88 2.39
-9.44 -4.07 2.39
-9.36 -4.26 2.39
-9.28 -4.45 2.39
-9.19 -4.64 2.39
-9.10 -4.82 2.39
-9.00 -5.01 2.39
-8.90 -5.19 2.39
-8.80 -5.37 2.39
-8.69 -5.55 2.39
-8.58 -5.72 2.39
-8.47 -5.89 2.39
-8.35 -6.06 2.39
-8.23 -6.23 2.39
-8.11 -6.40 2.39
-7.98 -6.56 2.39
-7.85 -6.72 2.39
-7.71 -6.88 2.39
-7.19 -6.67 2.27
-7.18 -6.94 2.31
-7.17 -7.21 2.35
-7.02 -7.36 2.35
-6.64 -7.24 2.27
-6.61 -7.50 2.31
-6.62 -7.83 2.37
-6.52 -8.04 2.39
-6.36 -8.17 2.39
-6.29 -8.41 2.43
-6.29 -8.78 2.49
-6.12 -8.91 2.49
-5.94 -9.03 2.49
-5.76 -9.15 2.49
-5.57 -9.26 2.49
-5.39 -9.37 2.49
-5.20 -9.48 2.49
-5.01 -9.58 2.49
-4.82 -9.68 2.49
-4.62 -9.78 2.49
-4.42 -9.87 2.49
-4.23 -9.96 2.49
-4.03 -10.04 2.49
-3.82 -10.12 2.49
-3.62 -10.20 2.49
-3.41 -10.27 2.49
-3.21 -10.34 2.49
-3.00 -10.40 2.49
-2.79 -10.46 2.49
-2.58 -10.51 2.49
-2.37 -10.56 2.49
-2.16 -10.61 2.49
-1.94 -10.65 2.49
-1.73 -10.68 2.49
-1.52 -10.72 2.49
-1.30 -10.74 2.49
-1.09 -10.77 2.49
-0.87 -10.79 2.49
-0.65 -10.80 2.49
-0.44 -10.81 2.49
-0.22 -10.82 2.49
-0.00 -9.81 2.49
0.19 -9.80 2.49
0.39 -9.80 2.49
0.59 -9.79 2.49
0.78 -9.77 2.49
0.98 -9.75 2.49
1.17 -9.73 2.49
1.37 -9.70 2.49
1.56 -9.67 2.49
1.73 -9.48 2.45
1.87 -9.20 2.39
2.05 -9.16 2.39
2.24 -9.12 2.39
2.42 -9.07 2.39
2.60 -9.02 2.39
2.78 -8.96 2.39
2.96 -8.90 2.39
3.13 -8.84 2.39
3.31 -8.77 2.39
3.49 -8.71 2.39
3.66 -8.63 2.39
3.83 -8.55 2.39
4.00 -8.47 2.39
4.17 -8.39 2.39
4.33 -8.30 2.39
4.50 -8.21 2.39
4.66 -8.12 2.39
4.82 -8.02 2.39
4.98 -7.92 2.39
5.14 -7.82 2.39
5.29 -7.71 2.39
5.44 -7.60 2.39
5.59 -7.49 2.39
5.74 -7.37 2.39
5.87 -7.23 2.38
5.99 -7.09 2.38
6.10 -6.94 2.37
6.22 -6.78 2.36
6.33 -6.63 2.35
6.43 -6.48 2.34
6.61 -6.39 2.36
6.90 -6.41 2.41
7.02 -6.27 2.41
7.14 -6.12 2.41
7.26 -5.97 2.41
7.37 -5.82 2.41
7.48 -5.67 2.41
7.59 -5.52 2.41
7.70 -5.36 2.41
7.80 -5.20 2.41
7.90 -5.04 2.41
7.99 -4.88 2.41
8.08 -4.71 2.41
8.17 -4.55 2.41
8.26 -4.38 2.41
8.34 -4.21 2.41
8.42 -4.04 2.41
8.50 -3.87 2.41
8.57 -3.70 2.41
8.64 -3.53 2.41
8.29 -3.19 2.29
8.34 -3.02 2.29
8.39 -2.85 2.29
8.44 -2.68 2.29
8.48 -2.50 2.29
8.52 -2.33 2.28
8.56 -2.16 2.28
8.59 -1.98 2.28
8.62 -1.81 2.28
8.65 -1.64 2.28
8.68 -1.46 2.28
8.70 -1.29 2.28
9.21 -1.17 2.41
9.22 -0.99 2.40
9.24 -0.80 2.40
9.25 -0.61 2.41
9.26 -0.43 2.41
9.27 -0.24 2.41
9.27 -0.06 2.41
9.27 0.13 2.41
9.27 0.32 2.41
9.26 0.50 2.41
9.25 0.69 2.41
9.24 0.87 2.42
9.23 1.06 2.42
9.21 1.25 2.42
9.19 1.43 2.42
9.16 1.61 2.42
9.11 1.80 2.42
9.07 1.98 2.42
9.02 2.16 2.42
8.97 2.34 2.42
8.92 2.52 2.42
8.86 2.69 2.42
8.80 2.87 2.42
8.73 3.04 2.42
8.67 3.22 2.42
8.60 3.39 2.42
8.52 3.56 2.41
8.45 3.73 2.41
8.36 3.89 2.41
8.28 4.06 2.41
6.46 3.33 1.90
6.31 3.42 1.88
6.24 3.54 1.88
6.25 3.71 1.90
6.65 4.13 2.05
6.37 4.14 1.99
6.17 4.19 1.96
6.18 4.38 1.99
6.96 5.15 2.27
6.88 5.30 2.28
6.79 5.45 2.28
6.69 5.60 2.29
6.60 5.75 2.30
6.50 5.90 2.30
6.43 6.08 2.32
6.43 6.33 2.37
6.40 6.56 2.41
6.23 6.64 2.39
6.09 6.76 2.39
5.95 6.88 2.39
5.81 7.00 2.39
5.67 7.11 2.39
5.52 7.22 2.39
5.38 7.33 2.39
5.23 7.44 2.39
5.08 7.54 2.39
4.92 7.64 2.39
4.77 7.73 2.39
4.61 7.83 2.39
4.45 7.92 2.39
4.29 8.00 2.39
4.13 8.09 2.39
3.97 8.17 2.39
3.80 8.25 2.39
3.63 8.32 2.39
3.47 8.39 2.39
3.30 8.46 2.39
3.13 8.52 2.39
2.95 8.58 2.39
2.78 8.64 2.39
2.61 8.69 2.39
2.43 8.74 2.39
2.35 9.17 2.49
2.17 9.22 2.49
1.98 9.26 2.49
1.79 9.29 2.49
1.61 9.33 2.49
1.42 9.36 2.49
1.23 9.39 2.49
1.04 9.41 2.49
0.85 9.43 2.49
0.66 9.44 2.49
0.47 9.46 2.49
0.28 9.46 2.49
0.09 9.47 2.49
-0.10 9.47 2.49
-0.29 9.47 2.49
-0.48 9.46 2.49
-0.67 9.45 2.49
-0.86 9.43 2.49
-1.05 9.42 2.49
-1.24 9.39 2.49
-1.42 9.37 2.49
-1.61 9.34 2.49
-1.80 9.30 2.49
-1.99 9.27 2.49
-2.17 9.23 2.49
-2.36 9.18 2.49
-2.54 9.14 2.49
-2.73 9.08 2.49
-2.91 9.03 2.49
-3.09 8.97 2.49
-3.27 8.91 2.49
-3.45 8.84 2.49
-3.63 8.77 2.49
-3.80 8.70 2.49
-3.98 8.62 2.49
-4.15 8.54 2.49
-4.32 8.46 2.49
-4.49 8.37 2.49
-4.66 8.28 2.49
-4.83 8.19 2.49
-4.99 8.09 2.49
-5.16 7.99 2.49
-5.32 7.89 2.49
-5.48 7.78 2.49
-5.63 7.67 2.49
-5.73 7.48 2.47
-5.74 7.20 2.41
-5.84 7.02 2.39
-5.98 6.91 2.39
-6.12 6.79 2.39
-6.25 6.66 2.39
-6.39 6.54 2.39
-6.52 6.41 2.39
-6.65 6.28 2.39
-6.78 6.15 2.39
-6.90 6.01 2.39
-7.02 5.87 2.39
-7.14 5.73 2.39
-7.26 5.59 2.39
-7.37 5.45 2.39
-7.48 5.30 2.39
-7.59 5.15 2.39
-7.69 5.00 2.39
-7.79 4.84 2.39
-7.89 4.69 2.39
-7.99 4.53 2.39
-8.08 4.37 2.39
-8.17 4.21 2.39
-8.25 4.04 2.39
-8.34 3.88 2.39
-8.42 3.71 2.39
-8.49 3.54 2.39
-8.56 3.37 2.39
-8.63 3.20 2.39
-8.70 3.03 2.39
-8.76 2.86 2.39
-8.82 2.68 2.39
-8.87 2.50 2.39
-8.93 2.33 2.39
-8.97 2.15 2.39
-9.02 1.97 2.39
-9.06 1.79 2.39
-9.10 1.60 2.39
-9.13 1.42 2.39
-6.20 0.84 1.62
-6.24 0.72 1.62
-9.21 0.87 2.39
-9.23 0.69 2.39
-9.24 0.50 2.39
-9.25 0.32 2.39
-9.26 0.13 2.39
-9.27 -0.06 2.39
-9.27 -0.24 2.39
-9.26 -0.43 2.39
-9.26 -0.61 2.39
-9.24 -0.80 2.39
-9.23 -0.99 2.39
-9.21 -1.17 2.39
-9.19 -1.36 2.39
-9.16 -1.54 2.39
-9.13 -1.73 2.39
-9.10 -1.91 2.39
-9.06 -2.09 2.39
-9.02 -2.27 2.39
-8.98 -2.46 2.39
-8.93 -2.64 2.39
-8.88 -2.82 2.39
-8.82 -2.99 2.39
-8.76 -3.17 2.39
-8.70 -3.35 2.39
-8.63 -3.52 2.39
-8.56 -3.70 2.39
-8.49 -3.87 2.39
-8.41 -4.04 2.39
-8.33 -4.21 2.39
-8.25 -4.38 2.39
-8.16 -4.54 2.39
-8.07 -4.71 2.39
-7.98 -4.87 2.39
-7.88 -5.03 2.39
-7.78 -5.19 2.39
-7.68 -5.34 2.39
-7.19 -5.22 2.27
-7.12 -5.39 2.28
-7.13 -5.63 2.32
-7.11 -5.85 2.35
-7.00 -5.99 2.35
-6.63 -5.92 2.27
-6.56 -6.09 2.29
-6.57 -6.35 2.33
-6.58 -6.62 2.38
-6.47 -6.78 2.39
-6.34 -6.91 2.39
-6.25 -7.09 2.41
-6.25 -7.39 2.47
-6.17 -7.60 2.49
-6.02 -7.72 2.49
-5.86 -7.84 2.49
-5.70 -7.96 2.49
-5.54 -8.07 2.49
-5.38 -8.18 2.49
-5.22 -8.29 2.49
-5.05 -8.39 2.49
-4.88 -8.50 2.49
-4.71 -8.59 2.49
-4.54 -8.69 2.49
-4.36 -8.78 2.49
-4.19 -8.86 2.49
-4.01 -8.95 2.49
-3.83 -9.03 2.49
-3.65 -9.10 2.49
-3.46 -9.17 2.49
-3.28 -9.24 2.49
-3.09 -9.31 2.49
-2.91 -9.37 2.49
-2.72 -9.42 2.49
-2.53 -9.48 2.49
-2.34 -9.53 2.49
-2.15 -9.57 2.49
-1.96 -9.61 2.49
-1.76 -9.65 2.49
-1.57 -9.68 2.49
-1.37 -9.71 2.49
-1.18 -9.74 2.49
-0.98 -9.76 2.49
-0.79 -9.78 2.49
-0.59 -9.79 2.49
-0.40 -9.80 2.49
-0.20 -9.80 2.49
-0.00 -8.96 2.49
0.18 -8.95 2.49
0.36 -8.95 2.49
0.54 -8.94 2.49
0.72 -8.93 2.49
0.89 -8.91 2.49
1.07 -8.89 2.49
1.25 -8.86 2.49
1.43 -8.84 2.49
1.60 -8.80 2.49
1.76 -8.66 2.46
1.87 -8.37 2.39
2.04 -8.33 2.39
2.21 -8.29 2.39
2.37 -8.24 2.39
2.54 -8.19 2.39
2.70 -8.13 2.39
2.86 -8.08 2.39
3.02 -8.02 2.39
3.18 -7.95 2.39
3.34 -7.89 2.39
3.50 -7.82 2.39
3.65 -7.74 2.39
3.81 -7.67 2.39
3.96 -7.59 2.39
4.11 -7.50 2.39
4.26 -7.42 2.39
4.41 -7.33 2.39
4.55 -7.24 2.39
4.69 -7.14 2.39
4.84 -7.05 2.39
4.97 -6.95 2.39
5.11 -6.84 2.39
5.25 -6.74 2.39
5.38 -6.63 2.39
5.51 -6.52 2.39
5.64 -6.41 2.39
5.76 -6.29 2.39
5.93 -6.22 2.41
6.06 -6.10 2.41
6.17 -5.97 2.41
6.29 -5.85 2.41
6.41 -5.72 2.41
6.52 -5.59 2.41
6.62 -5.45 2.41
6.73 -5.32 2.41
6.83 -5.18 2.41
6.93 -5.04 2.41
7.03 -4.90 2.41
7.12 -4.75 2.41
7.21 -4.60 2.41
7.30 -4.46 2.41
7.39 -4.31 2.41
7.47 -4.16 2.41
7.55 -4.01 2.41
7.63 -3.86 2.41
7.70 -3.70 2.41
7.78 -3.55 2.41
7.85 -3.39 2.41
7.61 -3.10 2.32
7.66 -2.95 2.32
7.71 -2.79 2.31
7.75 -2.63 2.31
7.80 -2.48 2.31
7.84 -2.32 2.31
7.88 -2.16 2.31
7.91 -2.00 2.31
7.95 -1.84 2.31
7.98 -1.67 2.31
8.00 -1.51 2.31
8.03 -1.35 2.30
8.14 -1.20 2.33
8.46 -1.08 2.42
8.47 -0.91 2.41
8.48 -0.74 2.41
8.49 -0.56 2.41
8.50 -0.39 2.41
8.50 -0.22 2.41
8.51 -0.05 2.41
8.50 0.12 2.42
8.50 0.29 2.42
8.49 0.46 2.42
8.48 0.63 2.42
8.47 0.80 2.42
8.45 0.97 2.42
8.43 1.14 2.42
8.40 1.31 2.42
8.37 1.48 2.42
8.33 1.64 2.42
8.29 1.81 2.42
8.25 1.97 2.42
8.20 2.14 2.42
8.15 2.30 2.42
8.10 2.46 2.42
8.05 2.62 2.42
7.99 2.78 2.42
7.93 2.94 2.42
7.87 3.10 2.42
7.80 3.26 2.42
7.73 3.41 2.42
7.66 3.57 2.41
7.58 3.72 2.41
6.47 3.33 2.08
6.32 3.42 2.06
6.25 3.54 2.06
6.26 3.72 2.08
6.65 4.13 2.24
6.37 4.14 2.18
6.17 4.19 2.14
6.18 4.38 2.17
6.47 4.79 2.31
6.43 4.96 2.33
6.44 5.17 2.37
6.44 5.39 2.41
6.33 5.52 2.41
6.17 5.60 2.39
6.06 5.73 2.39
5.94 5.84 2.39
5.82 5.96 2.39
5.70 6.08 2.39
5.58 6.19 2.39
5.45 6.30 2.39
5.32 6.41 2.39
5.19 6.51 2.39
5.06 6.61 2.39
4.92 6.71 2.39
4.79 6.81 2.39
4.65 6.90 2.39
4.51 6.99 2.39
4.37 7.08 2.39
4.22 7.17 2.39
4.08 7.25 2.39
3.93 7.33 2.39
3.78 7.41 2.39
3.63 7.48 2.39
3.48 7.55 2.39
3.33 7.62 2.39
3.17 7.68 2.39
3.02 7.75 2.39
2.86 7.80 2.39
2.70 7.86 2.39
2.55 7.94 2.40
2.39 7.96 2.39
2.32 8.35 2.49
2.15 8.40 2.49
1.98 8.44 2.49
1.81 8.48 2.49
1.64 8.51 2.49
1.47 8.54 2.49
1.30 8.57 2.49
1.13 8.60 2.49
0.95 8.62 2.49
0.78 8.63 2.49
0.61 8.65 2.49
0.43 8.66 2.49
0.26 8.67 2.49
0.09 8.67 2.49
-0.09 8.67 2.49
-0.26 8.67 2.49
-0.44 8.66 2.49
-0.61 8.65 2.49
-0.79 8.64 2.49
-0.96 8.62 2.49
-1.13 8.60 2.49
-1.30 8.58 2.49
-1.48 8.55 2.49
-1.65 8.52 2.49
-1.82 8.49 2.49
-1.99 8.45 2.49
-2.16 8.41 2.49
-2.33 8.36 2.49
-2.50 8.32 2.49
-2.66 8.27 2.49
-2.83 8.21 2.49
-2.99 8.16 2.49
-3.16 8.10 2.49
-3.32 8.03 2.49
-3.48 7.96 2.49
-3.64 7.89 2.49
-3.80 7.82 2.49
-3.96 7.74 2.49
-4.11 7.67 2.49
-4.27 7.58 2.49
-4.42 7.50 2.49
-4.57 7.41 2.49
-4.72 7.32 2.49
-4.87 7.22 2.49
-5.01 7.12 2.49
-5.16 7.02 2.49
-5.30 6.92 2.49
-5.44 6.81 2.49
-5.57 6.71 2.49
-5.71 6.59 2.49
-5.76 6.39 2.46
-5.78 6.16 2.41
-5.85 5.98 2.39
-5.97 5.87 2.39
-6.09 5.75 2.39
-6.20 5.63 2.39
-6.32 5.50 2.39
-6.43 5.38 2.39
-6.54 5.25 2.39
-6.64 5.12 2.39
-6.75 4.98 2.39
-6.85 4.85 2.39
-6.94 4.71 2.39
-7.04 4.57 2.39
-7.13 4.43 2.39
-7.22 4.29 2.39
-7.31 4.14 2.39
-7.39 4.00 2.39
-7.47 3.85 2.39
-7.55 3.70 2.39
-7.63 3.55 2.39
-7.70 3.39 2.39
-7.77 3.24 2.39
-7.83 3.08 2.39
-7.90 2.93 2.39
-7.96 2.77 2.39
-8.01 2.61 2.39
-8.07 2.45 2.39
-8.12 2.29 2.39
-8.16 2.13 2.39
-8.21 1.96 2.39
-8.25 1.80 2.39
-8.29 1.63 2.39
-8.32 1.47 2.39
-8.35 1.30 2.39
-6.20 0.84 1.77
-6.24 0.72 1.78
-8.42 0.80 2.39
-8.44 0.63 2.39
-8.45 0.46 2.39
-8.46 0.29 2.39
-8.47 0.12 2.39
-8.47 -0.05 2.39
-8.47 -0.22 2.39
-8.47 -0.39 2.39
-8.46 -0.56 2.39
-8.45 -0.73 2.39
-8.44 -0.90 2.39
-8.42 -1.07 2.39
-8.40 -1.24 2.39
-8.38 -1.41 2.39
-8.35 -1.58 2.39
-8.32 -1.75 2.39
-8.28 -1.91 2.39
-8.25 -2.08 2.39
-8.21 -2.25 2.39
-8.16 -2.41 2.39
-8.11 -2.57 2.39
-8.06 -2.74 2.39
-8.01 -2.90 2.39
-7.95 -3.06 2.39
-7.89 -3.22 2.39
-7.83 -3.38 2.39
-7.76 -3.54 2.39
-7.69 -3.69 2.39
-7.62 -3.85 2.39
-7.54 -4.00 2.39
-7.46 -4.15 2.39
-7.38 -4.30 2.39
-7.29 -4.45 2.39
-6.93 -4.42 2.30
-6.75 -4.50 2.27
-6.66 -4.63 2.27
-6.57 -4.77 2.27
-6.52 -4.94 2.29
-6.53 -5.15 2.33
-6.54 -5.38 2.37
-6.50 -5.57 2.39
-6.39 -5.70 2.39
-6.27 -5.83 2.39
-6.21 -6.00 2.41
-6.21 -6.25 2.46
-6.17 -6.46 2.49
-6.04 -6.59 2.49
-5.91 -6.71 2.49
-5.77 -6.83 2.49
-5.64 -6.94 2.49
-5.50 -7.05 2.49
-5.35 -7.16 2.49
-5.21 -7.27 2.49
-5.06 -7.37 2.49
-4.92 -7.48 2.49
-4.77 -7.57 2.49
-4.61 -7.67 2.49
-4.46 -7.76 2.49
-4.30 -7.85 2.49
-4.15 -7.93 2.49
-3.99 -8.02 2.49
-3.82 -8.10 2.49
-3.66 -8.17 2.49
-3.50 -8.24 2.49
-3.33 -8.31 2.49
-3.16 -8.38 2.49
-3.00 -8.44 2.49
-2.83 -8.50 2.49
-2.66 -8.56 2.49
-2.48 -8.61 2.49
-2.31 -8.66 2.49
-2.14 -8.70 2.49
-1.96 -8.74 2.49
-1.79 -8.78 2.49
-1.61 -8.81 2.49
-1.43 -8.84 2.49
-1.26 -8.87 2.49
-1.08 -8.89 2.49
-0.90 -8.91 2.49
-0.72 -8.93 2.49
-0.54 -8.94 2.49
-0.36 -8.95 2.49
-0.18 -8.96 2.49
-0.00 -8.23 2.49
0.16 -8.23 2.49
0.33 -8.23 2.49
0.49 -8.22 2.49
0.66 -8.21 2.49
0.82 -8.19 2.49
0.99 -8.17 2.49
1.15 -8.15 2.49
1.31 -8.12 2.49
1.47 -8.10 2.49
1.64 -8.06 2.49
1.78 -7.96 2.47
1.88 -7.66 2.39
2.03 -7.62 2.39
2.18 -7.57 2.39
2.33 -7.53 2.39
2.48 -7.48 2.39
2.63 -7.43 2.39
2.78 -7.37 2.39
2.93 -7.31 2.39
3.07 -7.25 2.39
3.22 -7.19 2.39
3.36 -7.12 2.39
3.50 -7.05 2.39
3.64 -6.98 2.39
3.78 -6.90 2.39
3.92 -6.82 2.39
4.05 -6.74 2.39
4.18 -6.66 2.39
4.32 -6.57 2.39
4.45 -6.48 2.39
4.57 -6.39 2.39
4.70 -6.30 2.39
4.83 -6.20 2.39
4.95 -6.10 2.39
5.07 -6.00 2.39
5.19 -5.89 2.39
5.30 -5.79 2.39
5.41 -5.68 2.39
5.53 -5.57 2.39
5.64 -5.45 2.39
5.74 -5.34 2.39
5.85 -5.22 2.39
5.99 -5.14 2.41
6.09 -5.02 2.41
6.19 -4.89 2.41
6.29 -4.76 2.41
6.38 -4.64 2.41
6.47 -4.51 2.41
6.56 -4.38 2.41
6.65 -4.24 2.41
6.73 -4.11 2.41
6.81 -3.97 2.41
6.89 -3.84 2.41
6.97 -3.70 2.41
7.04 -3.56 2.42
7.11 -3.42 2.42
6.95 -3.17 2.34
7.01 -3.03 2.34
7.06 -2.88 2.34
7.11 -2.74 2.34
7.16 -2.59 2.34
7.20 -2.45 2.33
7.24 -2.30 2.33
7.28 -2.15 2.33
7.32 -2.00 2.33
7.35 -1.86 2.33
7.38 -1.71 2.33
7.41 -1.56 2.33
7.44 -1.41 2.33
7.46 -1.26 2.33
7.76 -1.15 2.41
7.78 -0.99 2.41
7.79 -0.83 2.41
7.80 -0.68 2.41
7.81 -0.52 2.41
7.81 -0.36 2.41
7.82 -0.21 2.41
7.82 -0.05 2.41
7.82 0.11 2.41
7.82 0.26 2.41
7.81 0.42 2.41
7.80 0.58 2.41
7.78 0.73 2.41
7.77 0.89 2.42
7.75 1.05 2.42
7.72 1.20 2.42
7.70 1.36 2.42
7.67 1.51 2.42
7.63 1.66 2.42
7.59 1.81 2.42
7.55 1.97 2.42
7.51 2.12 2.42
7.46 2.27 2.42
7.41 2.42 2.42
7.36 2.56 2.42
7.30 2.71 2.42
7.25 2.85 2.42
7.19 3.00 2.42
7.12 3.14 2.41
7.05 3.28 2.41
6.98 3.42 2.41
6.91 3.56 2.41
6.33 3.43 2.24
6.26 3.55 2.23
6.26 3.72 2.26
6.48 4.03 2.37
6.38 4.14 2.36
6.17 4.19 2.32
6.18 4.38 2.35
6.18 4.57 2.39
6.09 4.69 2.39
5.99 4.81 2.39
5.89 4.93 2.39
5.79 5.05 2.39
5.69 5.16 2.39
5.58 5.27 2.39
5.47 5.38 2.39
5.36 5.49 2.39
5.25 5.60 2.39
5.14 5.70 2.39
5.02 5.80 2.39
4.90 5.90 2.39
4.78 6.00 2.39
4.66 6.09 2.39
4.54 6.18 2.39
4.41 6.27 2.39
4.28 6.36 2.39
4.15 6.44 2.39
4.02 6.52 2.39
3.89 6.60 2.39
3.76 6.68 2.39
3.62 6.75 2.39
3.48 6.82 2.39
3.35 6.89 2.39
3.21 6.96 2.39
3.07 7.02 2.39
2.92 7.08 2.39
2.78 7.14 2.39
2.64 7.19 2.39
2.49 7.24 2.39
2.35 7.29 2.39
2.29 7.65 2.49
2.14 7.70 2.49
1.98 7.74 2.49
1.83 7.78 2.49
1.67 7.81 2.49
1.51 7.84 2.49
1.36 7.87 2.49
1.20 7.90 2.49
1.04 7.92 2.49
0.88 7.94 2.49
0.72 7.96 2.49
0.56 7.97 2.49
0.40 7.98 2.49
0.24 7.99 2.49
0.08 7.99 2.49
-0.08 7.99 2.49
-0.24 7.99 2.49
-0.40 7.98 2.49
-0.56 7.97 2.49
-0.72 7.96 2.49
-0.88 7.94 2.49
-1.04 7.92 2.49
-1.20 7.90 2.49
-1.36 7.88 2.49
-1.52 7.85 2.49
-1.68 7.82 2.49
-1.83 7.78 2.49
-1.99 7.75 2.49
-2.15 7.71 2.49
-2.30 7.66 2.49
-2.45 7.62 2.49
-2.61 7.57 2.49
-2.76 7.51 2.49
-2.91 7.46 2.49
-3.06 7.40 2.49
-3.21 7.34 2.49
-3.36 7.27 2.49
-3.50 7.20 2.49
-3.65 7.13 2.49
-3.79 7.06 2.49
-3.93 6.98 2.49
-4.07 6.91 2.49
-4.21 6.82 2.49
-4.35 6.74 2.49
-4.48 6.65 2.49
-4.62 6.56 2.49
-4.75 6.47 2.49
-4.88 6.37 2.49
-5.01 6.28 2.49
-5.13 6.18 2.49
-5.26 6.07 2.49
-5.38 5.97 2.49
-5.50 5.86 2.49
-5.62 5.75 2.49
-5.73 5.64 2.49
-5.80 5.47 2.47
-5.81 5.27 2.43
-5.82 5.07 2.39
-5.92 4.95 2.39
-6.02 4.83 2.39
-6.12 4.71 2.39
-6.21 4.59 2.39
-6.30 4.46 2.39
-6.39 4.34 2.39
-6.48 4.21 2.39
-6.57 4.08 2.39
-6.65 3.95 2.39
-6.73 3.81 2.39
-6.81 3.68 2.39
-6.88 3.54 2.39
-6.95 3.41 2.39
-7.02 3.27 2.39
-7.09 3.13 2.39
-7.15 2.98 2.39
-7.21 2.84 2.39
-7.27 2.70 2.39
-7.33 2.55 2.39
-7.38 2.40 2.39
-7.43 2.25 2.39
-7.47 2.11 2.39
-7.52 1.96 2.39
-7.56 1.81 2.39
-7.59 1.65 2.39
-7.63 1.50 2.39
-7.66 1.35 2.39
-7.69 1.20 2.39
-6.20 0.84 1.92
-6.24 0.71 1.93
-7.75 0.73 2.39
-7.77 0.58 2.39
-7.78 0.42 2.39
-7.79 0.26 2.39
-7.79 0.11 2.39
-7.80 -0.05 2.39
-7.80 -0.21 2.39
-7.79 -0.36 2.39
-7.79 -0.52 2.39
-7.78 -0.68 2.39
-7.76 -0.83 2.39
-7.75 -0.99 2.39
-7.73 -1.14 2.39
-7.71 -1.30 2.39
-7.68 -1.45 2.39
-7.65 -1.61 2.39
-7.62 -1.76 2.39
-7.59 -1.91 2.39
-7.55 -2.07 2.39
-7.51 -2.22 2.39
-7.46 -2.37 2.39
-7.42 -2.52 2.39
-7.37 -2.67 2.39
-7.31 -2.82 2.39
-7.26 -2.96 2.39
-7.20 -3.11 2.39
-7.14 -3.25 2.39
-7.07 -3.40 2.39
-7.00 -3.54 2.39
-6.93 -3.68 2.39
-6.86 -3.82 2.39
-6.78 -3.96 2.39
-6.70 -4.09 2.39
-6.62 -4.23 2.39
-6.54 -4.36 2.39
-6.45 -4.49 2.39
-6.36 -4.62 2.39
-6.27 -4.75 2.39
-6.17 -4.87 2.39
-6.17 -5.08 2.43
-6.18 -5.29 2.47
-6.13 -5.47 2.49
-6.02 -5.59 2.49
-5.90 -5.71 2.49
-5.79 -5.83 2.49
-5.67 -5.94 2.49
-5.55 -6.06 2.49
-5.43 -6.17 2.49
-5.31 -6.28 2.49
-5.18 -6.38 2.49
-5.05 -6.49 2.49
-4.92 -6.59 2.49
-4.79 -6.69 2.49
-4.66 -6.78 2.49
-4.52 -6.87 2.49
-4.38 -6.96 2.49
-4.24 -7.05 2.49
-4.10 -7.14 2.49
-3.96 -7.22 2.49
-3.81 -7.30 2.49
-3.66 -7.37 2.49
-3.52 -7.44 2.49
-3.37 -7.51 2.49
-3.22 -7.58 2.49
-3.06 -7.64 2.49
-2.91 -7.70 2.49
-2.75 -7.76 2.49
-2.60 -7.81 2.49
