ply
format ascii 1.0
element vertex 2873
property float32 x
property float32 y
property float32 z
end_header
16.97 -44.91 0.56
10.64 -26.54 0.34
11.37 -26.79 0.35
12.00 -26.76 0.35
10.93 -23.11 0.31
13.02 -26.16 0.36
13.36 -25.56 0.36
12.84 -23.40 0.34
17.19 -29.90 0.44
17.22 -28.59 0.43
17.13 -27.19 0.41
17.75 -26.96 0.42
18.55 -26.99 0.43
19.31 -26.93 0.44
20.13 -26.90 0.45
17.12 -21.95 0.37
17.10 -21.03 0.37
15.64 -18.47 0.33
17.05 -19.34 0.35
17.03 -18.55 0.35
16.91 -17.69 0.34
16.89 -16.98 0.33
16.98 -16.39 0.33
16.96 -15.73 0.32
16.95 -15.10 0.32
16.93 -14.48 0.32
16.92 -13.89 0.31
16.90 -13.32 0.31
16.89 -12.77 0.30
17.48 -12.67 0.31
18.21 -12.65 0.32
18.98 -12.63 0.33
19.80 -12.61 0.34
20.67 -12.59 0.35
21.60 -12.57 0.36
22.59 -12.54 0.38
47.06 -15.92 0.73
18.07 -5.71 0.28
18.06 -5.31 0.27
18.04 -4.91 0.27
18.09 -4.54 0.27
18.08 -4.15 0.27
18.02 -3.76 0.27
17.96 -3.37 0.26
16.53 -2.76 0.24
18.00 -2.64 0.26
17.99 -2.27 0.26
17.98 -1.90 0.26
17.97 -1.54 0.26
17.96 -1.17 0.26
17.95 -0.81 0.25
17.94 -0.45 0.25
17.93 -0.09 0.25
18.96 0.29 0.26
46.84 1.65 0.65
13.03 0.72 0.18
10.65 0.80 0.15
10.70 1.02 0.15
10.80 1.25 0.15
10.85 1.48 0.15
10.59 1.66 0.14
10.81 1.92 0.15
8.47 1.68 0.11
8.33 1.83 0.11
8.18 1.97 0.11
8.08 2.11 0.11
8.13 2.30 0.11
8.19 2.50 0.11
8.21 2.69 0.11
31.71 11.09 0.42
31.67 11.79 0.42
31.58 12.48 0.41
31.73 13.29 0.42
31.48 13.93 0.41
30.83 14.39 0.40
30.62 15.04 0.40
31.65 16.35 0.41
31.42 17.04 0.41
31.60 18.82 0.41
27.00 17.58 0.35
26.46 17.99 0.34
23.19 16.46 0.30
25.43 18.84 0.33
8.76 6.77 0.11
8.44 6.79 0.11
8.30 6.96 0.11
7.83 6.83 0.10
7.98 7.25 0.10
7.64 7.23 0.10
7.79 7.68 0.10
7.85 8.05 0.10
7.64 8.15 0.10
22.51 25.02 0.30
21.59 24.99 0.28
20.68 24.93 0.27
19.83 24.91 0.26
19.01 24.89 0.25
18.22 24.87 0.24
17.78 25.32 0.24
8.47 12.60 0.11
8.19 12.71 0.11
7.94 12.89 0.11
7.59 12.89 0.11
7.75 13.80 0.11
17.57 32.80 0.25
15.57 30.53 0.22
8.42 17.37 0.12
8.01 17.40 0.12
7.71 17.66 0.11
7.40 17.94 0.11
8.46 23.08 0.13
7.86 22.86 0.13
7.46 23.21 0.12
8.04 26.85 0.14
7.45 26.82 0.13
7.48 29.18 0.14
7.07 30.10 0.13
7.12 33.28 0.14
7.49 38.80 0.16
6.81 39.53 0.15
6.81 44.93 0.16
2.10 23.17 0.07
-6.13 5.57 -0.02
-5.39 -26.48 0.19
1.40 -35.14 1.12
6.58 -40.66 1.35
7.19 -39.40 1.32
7.41 -36.47 1.23
8.06 -35.96 1.22
8.79 -35.81 1.23
9.56 -35.83 1.24
10.34 -35.84 1.26
2.77 -8.92 0.32
11.90 -35.80 1.28
12.70 -35.78 1.29
13.51 -35.76 1.31
10.64 -26.53 0.98
11.37 -26.79 1.00
11.99 -26.76 1.01
10.92 -23.11 0.89
13.01 -26.16 1.02
13.36 -25.56 1.01
12.83 -23.40 0.94
17.19 -29.91 1.21
17.23 -28.62 1.18
17.13 -27.20 1.14
17.74 -26.96 1.15
18.52 -26.95 1.16
19.31 -26.93 1.18
20.13 -26.90 1.20
17.12 -21.95 1.00
17.10 -21.04 0.98
15.63 -18.47 0.87
17.05 -19.35 0.93
17.03 -18.56 0.91
16.91 -17.69 0.89
16.89 -16.98 0.87
16.98 -16.40 0.86
16.96 -15.74 0.85
16.95 -15.10 0.83
16.93 -14.49 0.82
16.92 -13.90 0.80
16.90 -13.32 0.79
16.89 -12.77 0.78
17.47 -12.67 0.80
18.21 -12.65 0.82
18.98 -12.63 0.84
19.80 -12.61 0.87
20.67 -12.59 0.90
21.60 -12.57 0.93
22.59 -12.54 0.96
23.43 -11.80 0.97
24.06 -11.52 0.99
47.06 -15.92 1.85
18.07 -5.71 0.70
18.06 -5.31 0.70
18.04 -4.91 0.69
18.09 -4.54 0.69
18.08 -4.15 0.69
18.02 -3.76 0.68
17.96 -3.37 0.68
16.53 -2.76 0.62
18.00 -2.64 0.67
17.99 -2.27 0.67
17.98 -1.90 0.67
17.97 -1.53 0.66
17.97 -1.17 0.66
17.96 -0.81 0.66
17.94 -0.45 0.66
17.93 -0.09 0.66
18.96 0.29 0.69
33.17 1.17 1.21
18.34 1.02 0.67
12.74 0.96 0.46
10.53 1.01 0.38
10.68 1.24 0.39
10.30 1.41 0.37
10.74 1.69 0.39
10.73 1.91 0.39
8.51 1.69 0.31
8.10 1.78 0.30
8.13 1.96 0.30
8.10 2.12 0.30
8.11 2.30 0.30
7.94 2.42 0.29
8.12 2.66 0.30
8.08 2.82 0.30
32.93 12.26 1.22
32.91 13.02 1.23
32.89 13.78 1.23
32.87 14.55 1.24
31.05 14.50 1.18
30.70 15.09 1.17
32.81 16.96 1.26
32.81 17.80 1.27
32.77 18.64 1.27
31.60 18.82 1.24
32.73 20.40 1.29
32.71 21.30 1.30
31.08 21.14 1.25
23.19 16.47 0.94
25.18 18.65 1.03
8.82 6.82 0.37
8.64 6.96 0.36
8.15 6.83 0.34
7.92 6.91 0.34
7.96 7.24 0.35
7.71 7.30 0.34
7.56 7.45 0.34
7.82 8.02 0.35
23.41 25.01 1.08
22.50 25.02 1.05
21.58 24.99 1.03
20.67 24.93 1.00
19.82 24.91 0.98
19.00 24.89 0.96
18.21 24.87 0.94
17.78 25.33 0.94
8.51 12.65 0.46
8.23 12.79 0.45
7.79 12.66 0.44
7.56 12.86 0.44
7.66 13.65 0.46
17.57 32.81 1.09
15.57 30.53 0.99
8.38 17.29 0.55
8.00 17.38 0.55
7.71 17.68 0.55
7.43 18.01 0.55
8.39 22.90 0.68
7.93 23.08 0.68
7.46 23.23 0.67
8.01 26.77 0.77
7.50 27.02 0.76
7.56 29.53 0.82
5.62 23.94 0.66
5.60 26.20 0.71
5.64 29.27 0.79
5.54 32.18 0.86
6.86 45.29 1.20
5.23 39.94 1.05
5.08 45.93 1.19
2.09 23.17 0.60
-2.40 47.66 1.17
-6.13 5.57 0.16
-5.40 -26.50 0.80
-3.10 -38.47 1.19
-2.33 -38.45 1.19
-1.55 -38.43 1.20
-0.02 -46.15 2.49
0.90 -46.00 2.49
1.40 -35.14 1.91
2.73 -45.64 2.49
3.49 -43.56 2.39
4.35 -43.36 2.39
5.20 -43.13 2.39
6.05 -42.90 2.39
6.57 -40.67 2.28
7.19 -39.44 2.22
7.41 -36.47 2.07
8.06 -35.96 2.06
8.78 -35.81 2.06
9.55 -35.83 2.08
10.33 -35.84 2.10
2.77 -8.92 0.53
7.37 -22.16 1.32
7.86 -22.15 1.33
8.36 -22.14 1.34
8.86 -22.13 1.36
9.38 -22.11 1.37
9.90 -22.10 1.38
10.43 -22.09 1.40
10.97 -22.07 1.42
11.53 -22.06 1.43
12.09 -22.05 1.45
12.66 -22.03 1.47
13.25 -22.02 1.49
13.85 -22.00 1.51
14.46 -21.99 1.53
15.09 -21.97 1.55
15.74 -21.95 1.57
16.41 -21.94 1.60
17.09 -21.92 1.63
17.19 -21.16 1.60
15.63 -18.47 1.42
17.05 -19.35 1.52
11.19 -12.20 0.97
11.42 -11.95 0.97
11.77 -11.83 0.98
12.24 -11.82 1.00
12.73 -11.81 1.03
13.23 -11.79 1.05
13.83 -11.84 1.08
14.39 -11.82 1.10
14.98 -11.81 1.13
15.55 -11.76 1.16
16.24 -11.78 1.19
16.92 -11.76 1.23
17.59 -11.71 1.26
18.39 -11.71 1.30
19.21 -11.70 1.34
20.07 -11.68 1.39
20.99 -11.66 1.43
21.98 -11.63 1.48
23.04 -11.61 1.54
33.86 -16.22 2.24
34.17 -15.53 2.24
34.48 -14.84 2.24
15.10 -6.14 0.97
15.40 -5.91 0.99
16.31 -5.88 1.04
17.39 -5.88 1.10
18.07 -5.71 1.13
18.06 -5.31 1.12
16.59 -4.52 1.03
18.04 -4.53 1.11
18.03 -4.14 1.10
16.57 -3.46 1.01
18.01 -3.38 1.09
16.40 -2.74 0.99
18.00 -2.64 1.08
17.99 -2.27 1.08
17.98 -1.90 1.07
17.97 -1.53 1.07
17.98 -1.17 1.07
17.96 -0.81 1.07
17.94 -0.45 1.06
17.93 -0.09 1.06
12.34 0.19 0.73
33.17 1.17 1.96
26.91 1.49 1.59
12.91 0.98 0.76
10.35 0.99 0.61
10.55 1.23 0.62
10.91 1.49 0.64
10.68 1.68 0.63
10.59 1.88 0.63
8.01 1.59 0.48
8.07 1.77 0.48
8.14 1.96 0.49
7.93 2.08 0.48
8.01 2.27 0.48
7.88 2.41 0.48
8.17 2.68 0.50
32.95 11.53 2.01
32.93 12.27 2.02
32.91 13.02 2.03
32.93 13.80 2.04
32.87 14.56 2.05
31.14 14.54 1.96
32.83 16.15 2.08
32.81 16.96 2.09
32.79 17.80 2.11
15.81 9.00 1.03
31.50 18.77 2.06
32.73 20.40 2.16
21.32 13.90 1.42
20.77 14.13 1.40
20.53 14.59 1.40
20.29 15.04 1.40
32.07 24.78 2.24
8.57 6.90 0.61
8.19 6.87 0.59
8.01 6.99 0.58
7.90 7.19 0.58
7.77 7.36 0.58
7.61 7.50 0.58
7.61 7.81 0.59
23.40 25.00 1.85
22.45 24.97 1.81
21.54 24.95 1.77
20.66 24.93 1.73
19.82 24.91 1.70
19.00 24.89 1.66
18.20 24.87 1.63
17.65 25.15 1.62
8.50 12.65 0.80
8.06 12.53 0.78
7.93 12.88 0.79
7.68 13.06 0.79
16.77 29.87 1.78
16.14 30.16 1.77
6.03 11.83 0.68
8.44 17.42 0.99
8.07 17.55 0.99
6.00 13.76 0.77
7.55 18.31 1.01
16.04 41.24 2.24
5.83 15.93 0.86
5.91 17.20 0.92
5.78 18.00 0.95
5.93 19.83 1.03
5.81 20.96 1.08
5.76 22.52 1.15
5.63 24.00 1.22
5.61 26.26 1.32
5.54 28.79 1.44
5.47 31.82 1.58
4.97 32.88 1.62
5.23 39.99 1.96
5.08 46.00 2.24
2.09 23.18 1.12
3.47 49.68 2.39
-2.41 47.68 2.24
-7.44 48.94 2.29
-7.12 41.20 1.92
-10.71 41.72 1.96
-10.47 32.53 1.54
-14.64 24.85 1.26
-17.31 24.64 1.30
-20.38 24.56 1.37
-22.97 24.51 1.43
-25.82 24.42 1.50
-6.13 5.57 0.35
-30.27 24.35 1.64
-31.43 24.26 1.67
-32.73 24.23 1.71
-34.09 24.19 1.75
-29.35 19.95 1.49
-37.05 24.12 1.85
-38.66 24.08 1.91
-26.70 15.89 1.30
-42.20 23.99 2.03
-31.93 15.68 1.48
-42.66 19.91 1.96
-35.10 15.53 1.60
-36.96 15.47 1.67
-39.02 15.42 1.75
-41.28 15.36 1.84
-43.78 15.30 1.93
-46.56 15.23 2.04
-8.99 -28.89 1.55
-8.88 -33.19 1.78
-8.74 -38.87 2.08
-5.40 -26.46 1.41
-8.21 -44.81 2.39
-7.28 -44.82 2.39
-6.36 -44.80 2.39
-5.31 -43.71 2.33
-4.56 -45.06 2.41
-2.96 -36.64 1.96
-2.22 -36.62 1.96
-1.52 -37.48 2.01
-0.95 -46.28 2.49
-0.02 -32.53 2.49
0.63 -32.45 2.49
1.28 -32.36 2.49
1.93 -32.26 2.49
2.57 -32.15 2.49
3.16 -31.56 2.46
3.68 -30.57 2.39
4.29 -30.42 2.39
4.89 -30.27 2.39
5.48 -30.11 2.39
6.07 -29.93 2.39
6.66 -29.75 2.39
7.20 -29.37 2.38
7.71 -28.93 2.36
8.21 -28.48 2.34
2.77 -8.93 0.74
7.36 -22.16 1.85
7.85 -22.15 1.86
8.35 -22.14 1.88
8.86 -22.13 1.90
9.38 -22.11 1.91
9.90 -22.10 1.93
10.43 -22.09 1.95
10.97 -22.07 1.97
11.52 -22.06 2.00
6.59 -12.02 1.10
6.88 -11.98 1.11
7.22 -12.00 1.13
7.55 -12.00 1.14
7.88 -11.99 1.16
8.23 -11.98 1.17
8.56 -11.94 1.19
8.94 -11.96 1.21
9.32 -11.95 1.23
9.67 -11.91 1.25
10.10 -11.93 1.27
10.48 -11.89 1.29
10.93 -11.91 1.32
11.37 -11.90 1.34
11.82 -11.89 1.37
12.29 -11.88 1.40
12.79 -11.86 1.43
13.30 -11.85 1.46
13.83 -11.84 1.49
14.39 -11.82 1.53
14.98 -11.81 1.56
15.55 -11.76 1.60
16.24 -11.78 1.65
16.92 -11.76 1.69
17.59 -11.71 1.74
9.99 -6.37 0.97
10.11 -6.16 0.97
10.37 -6.03 0.99
10.84 -6.02 1.02
11.35 -6.01 1.06
12.01 -6.05 1.11
12.54 -6.00 1.14
13.25 -6.02 1.20
13.94 -6.00 1.25
14.63 -5.95 1.30
15.46 -5.93 1.36
16.38 -5.91 1.43
16.62 -5.62 1.45
16.20 -5.12 1.40
16.23 -4.77 1.39
16.23 -4.42 1.38
18.04 -4.53 1.53
18.03 -4.14 1.52
16.57 -3.46 1.39
18.01 -3.38 1.51
16.39 -2.74 1.37
18.00 -2.63 1.49
17.99 -2.27 1.49
17.98 -1.90 1.48
17.97 -1.53 1.48
17.96 -1.17 1.47
17.95 -0.81 1.47
17.94 -0.45 1.47
17.93 -0.09 1.47
8.34 0.13 0.68
8.34 0.30 0.68
27.45 1.53 2.24
13.04 0.99 1.07
12.57 1.21 1.03
10.44 1.21 0.85
10.71 1.46 0.88
10.68 1.68 0.88
10.47 1.86 0.86
8.58 1.70 0.71
8.13 1.78 0.67
8.20 1.97 0.68
8.04 2.11 0.67
8.09 2.29 0.68
7.96 2.43 0.67
8.05 2.64 0.68
8.13 2.85 0.69
26.25 9.78 2.24
26.08 10.32 2.24
25.91 10.86 2.24
25.73 11.40 2.24
25.54 11.93 2.24
25.34 12.46 2.24
25.12 12.99 2.24
24.90 13.52 2.24
15.76 8.97 1.43
24.43 14.56 2.24
24.17 15.07 2.24
23.91 15.59 2.24
23.64 16.09 2.24
23.18 16.47 2.23
23.06 17.10 2.24
22.76 17.59 2.24
8.60 6.93 0.86
8.24 6.91 0.84
8.10 7.08 0.83
8.03 7.31 0.84
6.17 5.84 0.66
6.07 5.99 0.66
7.65 7.85 0.84
19.99 21.36 2.24
19.60 21.81 2.24
19.20 22.25 2.24
18.79 22.68 2.24
6.23 7.83 0.76
6.03 7.91 0.75
17.51 23.93 2.24
17.07 24.34 2.24
8.56 12.74 1.16
8.12 12.63 1.13
6.04 9.83 0.86
6.08 10.35 0.90
14.72 26.23 2.24
14.22 26.59 2.24
6.02 11.83 0.98
6.03 12.44 1.02
8.11 17.63 1.43
6.02 13.83 1.11
5.98 14.52 1.15
5.86 15.09 1.19
5.83 15.94 1.24
5.81 16.92 1.30
5.78 18.01 1.38
5.75 19.24 1.46
5.71 20.62 1.55
5.66 22.14 1.65
5.63 24.02 1.78
5.61 26.28 1.93
5.54 28.82 2.10
5.47 31.86 2.31
4.97 32.91 2.37
4.35 33.33 2.39
3.69 33.49 2.39
2.08 23.15 1.64
2.36 33.78 2.39
1.68 33.90 2.39
1.05 35.48 2.49
0.34 35.58 2.49
-0.38 35.66 2.49
-1.10 35.73 2.49
-1.82 35.79 2.49
-2.54 35.83 2.49
-3.27 35.86 2.49
-4.00 35.87 2.49
-4.73 35.86 2.49
-5.46 35.84 2.49
-6.19 35.81 2.49
-6.64 34.28 2.39
-7.30 34.03 2.38
-8.04 34.14 2.39
-8.74 34.03 2.39
-9.45 33.93 2.39
-10.15 33.81 2.39
-10.27 24.85 1.80
-10.83 24.77 1.81
-11.42 24.76 1.82
-12.02 24.74 1.83
-12.63 24.73 1.85
-13.25 24.71 1.86
-13.89 24.70 1.88
-14.54 24.68 1.90
-15.20 24.66 1.91
-10.42 16.16 1.27
-10.87 16.15 1.28
-17.30 24.61 1.98
-18.03 24.59 2.00
-18.79 24.57 2.03
-19.57 24.55 2.06
-13.36 16.09 1.37
-21.20 24.51 2.12
-22.05 24.49 2.15
-22.94 24.47 2.18
-15.64 16.03 1.46
-24.70 24.32 2.25
-25.21 23.85 2.25
-6.13 5.57 0.54
-18.41 16.06 1.58
-19.01 15.93 1.61
-19.77 15.90 1.64
-20.58 15.88 1.68
-21.43 15.86 1.72
-22.32 15.84 1.77
-23.26 15.81 1.81
-24.26 15.79 1.87
-25.31 15.76 1.92
-26.44 15.74 1.98
-27.63 15.71 2.05
-28.91 15.67 2.12
-30.28 15.64 2.19
-31.76 15.60 2.28
-33.35 15.56 2.37
-35.08 15.52 2.47
-36.96 15.47 2.58
-39.02 15.42 2.70
-41.28 15.36 2.83
-43.78 15.30 2.98
-46.56 15.23 3.15
-9.22 -19.47 1.57
-17.51 -38.99 3.12
-16.02 -37.67 2.99
-15.52 -38.63 3.05
-14.79 -39.05 3.07
-9.07 -25.49 1.99
-9.03 -27.09 2.11
-11.04 -35.47 2.75
-9.83 -33.97 2.62
-8.31 -31.05 2.39
-7.67 -31.14 2.39
-7.03 -31.21 2.39
-5.40 -26.46 2.02
-5.74 -31.32 2.39
-5.10 -31.35 2.39
-4.65 -32.72 2.49
-3.98 -32.74 2.49
-3.32 -32.73 2.49
-2.65 -32.72 2.49
-1.99 -32.69 2.49
-1.33 -32.65 2.49
-0.67 -32.60 2.49
-0.02 -25.10 2.49
0.48 -25.05 2.49
0.98 -25.00 2.49
1.48 -24.93 2.49
1.98 -24.85 2.49
2.48 -24.77 2.49
2.97 -24.67 2.49
3.31 -23.55 2.39
3.78 -23.44 2.39
4.24 -23.33 2.39
4.70 -23.20 2.39
5.16 -23.07 2.39
5.61 -22.93 2.39
6.07 -22.78 2.39
6.51 -22.62 2.39
2.77 -8.93 0.95
7.13 -21.49 2.31
7.47 -21.07 2.28
7.79 -20.66 2.25
8.11 -20.25 2.23
8.41 -19.84 2.21
8.70 -19.44 2.18
9.13 -19.35 2.20
9.59 -19.30 2.21
10.60 -20.29 2.36
6.59 -12.02 1.41
6.88 -11.98 1.42
7.22 -12.00 1.45
7.55 -12.00 1.46
7.88 -11.99 1.48
8.23 -11.98 1.50
8.55 -11.94 1.52
8.94 -11.96 1.55
9.31 -11.95 1.57
9.67 -11.91 1.59
10.09 -11.93 1.63
10.47 -11.89 1.65
10.93 -11.91 1.68
11.37 -11.90 1.72
11.79 -11.86 1.74
6.71 -6.48 0.97
6.83 -6.34 0.97
6.96 -6.20 0.97
7.14 -6.11 0.98
7.43 -6.11 1.01
7.73 -6.10 1.03
8.05 -6.09 1.06
8.42 -6.11 1.09
8.82 -6.13 1.13
9.20 -6.12 1.16
9.54 -6.08 1.19
10.02 -6.10 1.23
10.41 -6.06 1.26
10.94 -6.08 1.31
11.40 -6.03 1.35
12.01 -6.05 1.41
12.54 -6.00 1.46
13.25 -6.02 1.53
13.94 -6.00 1.60
14.63 -5.95 1.66
15.46 -5.93 1.74
16.38 -5.91 1.83
15.76 -5.33 1.75
16.15 -5.10 1.78
16.18 -4.76 1.77
16.17 -4.40 1.76
16.14 -4.05 1.75
16.54 -3.80 1.78
16.53 -3.45 1.77
16.52 -3.10 1.76
16.34 -2.73 1.74
16.34 -2.39 1.73
16.33 -2.06 1.72
16.32 -1.72 1.72
16.31 -1.39 1.71
16.30 -1.06 1.71
16.30 -0.73 1.71
16.29 -0.40 1.70
16.28 -0.08 1.70
6.40 0.10 0.67
6.40 0.23 0.67
21.47 1.20 2.24
18.18 1.38 1.90
12.65 1.22 1.32
12.52 1.46 1.31
10.53 1.44 1.10
10.56 1.66 1.11
21.28 3.79 2.24
8.34 1.66 0.88
8.15 1.79 0.86
8.08 1.95 0.86
8.06 2.11 0.86
8.04 2.28 0.86
6.18 1.89 0.67
6.17 2.02 0.67
8.19 2.87 0.89
20.44 7.62 2.24
20.31 8.04 2.24
20.17 8.46 2.24
20.02 8.87 2.24
19.87 9.29 2.24
16.60 8.17 1.89
17.08 8.83 1.96
17.09 9.28 1.98
15.63 8.90 1.83
16.57 9.88 1.96
6.14 3.83 0.73
6.13 4.00 0.74
18.33 12.48 2.24
6.22 4.42 0.77
6.22 4.62 0.78
17.62 13.63 2.24
8.73 7.04 1.13
6.21 5.21 0.81
8.19 7.16 1.09
8.15 7.42 1.10
6.15 5.83 0.85
6.08 6.00 0.85
6.18 6.35 0.88
6.18 6.61 0.90
6.17 6.87 0.92
14.93 17.30 2.26
14.72 17.77 2.28
6.23 7.83 0.99
6.03 7.91 0.98
14.02 19.17 2.33
13.71 19.56 2.34
8.75 13.04 1.54
8.31 12.93 1.50
6.04 9.83 1.13
6.08 10.35 1.17
5.97 10.64 1.19
5.95 11.13 1.23
5.94 11.67 1.27
5.92 12.24 1.31
5.91 12.86 1.37
5.89 13.53 1.42
5.87 14.27 1.48
5.85 15.07 1.55
5.83 15.95 1.63
5.81 16.93 1.71
5.78 18.02 1.81
5.75 19.25 1.91
5.71 20.63 2.04
5.66 22.15 2.17
5.63 24.04 2.34
5.27 24.74 2.39
4.78 24.88 2.39
4.29 25.02 2.39
3.79 25.15 2.39
3.29 25.27 2.39
2.79 25.38 2.39
2.08 23.15 2.17
1.78 25.57 2.39
1.32 26.75 2.49
0.79 26.82 2.49
0.25 26.88 2.49
-0.29 26.93 2.49
-0.83 26.97 2.49
-1.38 27.00 2.49
-1.92 27.01 2.49
-2.47 27.01 2.49
-3.01 27.01 2.49
-3.56 26.99 2.49
-4.11 26.96 2.49
-4.66 26.92 2.49
-5.21 26.86 2.49
-5.75 26.80 2.49
-6.30 26.72 2.49
-6.56 25.53 2.39
-7.09 25.44 2.39
-7.61 25.33 2.39
-8.13 25.21 2.39
-8.64 25.08 2.39
-9.16 24.94 2.39
-9.67 24.79 2.39
-10.18 24.63 2.39
-10.30 23.57 2.30
-10.55 22.88 2.25
-11.02 22.69 2.25
-11.49 22.50 2.25
-11.96 22.29 2.25
-12.42 22.08 2.25
-12.88 21.85 2.25
-10.06 16.31 1.70
-10.10 15.67 1.65
-10.86 16.13 1.72
-10.07 14.32 1.55
-11.81 16.10 1.76
-12.30 16.09 1.79
-12.81 16.08 1.81
-13.34 16.06 1.84
-13.88 16.05 1.87
-14.44 16.04 1.90
-15.02 16.02 1.93
-15.62 16.01 1.96
-16.24 15.99 2.00
-16.89 15.97 2.04
-6.13 5.57 0.73
-18.27 15.94 2.12
-19.01 15.92 2.17
-19.78 15.90 2.22
-20.58 15.88 2.27
-21.43 15.86 2.33
-22.32 15.84 2.39
-23.26 15.81 2.45
-24.26 15.79 2.52
-25.32 15.76 2.60
-26.44 15.74 2.68
-27.64 15.71 2.77
-28.91 15.67 2.86
-30.29 15.64 2.96
-31.76 15.60 3.08
-33.35 15.56 3.20
-35.08 15.52 3.33
-36.96 15.47 3.48
-39.02 15.42 3.65
-41.28 15.36 3.83
-44.42 15.53 4.09
-9.37 -13.61 1.55
-18.07 -27.41 3.09
-9.34 -14.80 1.65
-16.61 -27.53 3.04
-16.00 -27.76 3.03
-9.30 -16.91 1.83
-15.09 -28.80 3.09
-14.42 -28.92 3.08
-13.80 -29.12 3.07
-13.15 -29.25 3.07
-12.49 -29.36 3.06
-10.22 -25.41 2.63
-8.81 -23.25 2.39
-8.33 -23.38 2.39
-7.84 -23.50 2.39
-7.35 -23.60 2.39
-6.86 -23.70 2.39
-6.38 -23.79 2.39
-5.89 -23.87 2.39
-5.39 -23.94 2.39
-5.06 -24.75 2.47
-4.60 -25.08 2.49
-4.09 -25.13 2.49
-3.58 -25.16 2.49
-3.07 -25.18 2.49
-2.56 -25.19 2.49
-2.05 -25.19 2.49
-1.54 -25.18 2.49
-1.03 -25.16 2.49
-0.53 -25.14 2.49
-0.02 -20.41 2.49
0.39 -20.38 2.49
0.80 -20.34 2.49
1.20 -20.29 2.49
1.61 -20.24 2.49
2.01 -20.18 2.49
2.41 -20.10 2.49
2.81 -20.03 2.49
3.08 -19.11 2.39
3.46 -19.02 2.39
3.83 -18.93 2.39
4.21 -18.82 2.39
4.58 -18.71 2.39
4.95 -18.59 2.39
5.31 -18.47 2.39
2.77 -8.93 1.16
6.04 -18.20 2.39
6.40 -18.05 2.39
6.75 -17.90 2.39
7.05 -17.63 2.37
7.33 -17.31 2.35
7.61 -17.00 2.33
5.96 -12.63 1.75
6.24 -12.57 1.76
8.86 -16.97 2.41
6.58 -12.02 1.72
6.88 -11.98 1.74
7.22 -12.00 1.77
7.54 -12.00 1.79
7.88 -11.99 1.81
8.22 -11.98 1.84
8.55 -11.94 1.86
8.94 -11.96 1.89
9.31 -11.95 1.92
9.67 -11.91 1.94
10.09 -11.93 1.98
10.47 -11.89 2.01
10.93 -11.91 2.05
11.36 -11.90 2.09
11.79 -11.86 2.13
6.65 -6.43 1.18
6.66 -6.19 1.16
6.93 -6.18 1.18
7.17 -6.14 1.20
7.50 -6.16 1.24
7.81 -6.16 1.27
8.13 -6.15 1.30
8.42 -6.11 1.33
8.82 -6.13 1.37
9.20 -6.12 1.41
9.54 -6.08 1.45
10.01 -6.10 1.50
10.41 -6.06 1.54
10.94 -6.08 1.60
11.40 -6.03 1.65
12.01 -6.05 1.72
12.54 -6.00 1.78
13.25 -6.02 1.86
13.94 -6.00 1.94
14.63 -5.95 2.02
15.46 -5.93 2.12
16.38 -5.91 2.23
15.67 -5.30 2.12
16.57 -5.24 2.22
16.56 -4.87 2.21
16.55 -4.51 2.19
15.68 -3.93 2.07
16.54 -3.80 2.17
15.65 -3.26 2.04
16.52 -3.10 2.15
15.88 -2.65 2.06
15.87 -2.32 2.05
15.87 -2.00 2.04
15.86 -1.67 2.03
15.85 -1.35 2.03
15.84 -1.03 2.02
15.83 -0.71 2.02
13.80 -0.34 1.76
13.80 -0.06 1.76
6.40 0.10 0.81
6.40 0.23 0.81
17.62 0.98 2.24
17.60 1.34 2.24
12.71 1.22 1.62
6.37 0.74 0.81
12.46 1.71 1.59
6.35 1.00 0.81
17.44 3.11 2.24
8.42 1.67 1.09
6.33 1.39 0.82
8.16 1.97 1.06
6.32 1.66 0.82
8.09 2.30 1.06
6.19 1.89 0.82
6.18 2.03 0.82
16.83 5.90 2.24
6.28 2.34 0.84
16.62 6.58 2.24
6.28 2.63 0.85
6.27 2.78 0.86
16.24 7.59 2.24
15.69 7.73 2.19
15.34 7.94 2.16
14.98 8.14 2.13
14.70 8.37 2.11
14.60 8.71 2.11
6.13 3.83 0.90
6.13 4.00 0.91
14.95 10.19 2.24
14.76 10.50 2.24
6.22 4.62 0.96
14.37 11.11 2.24
14.16 11.41 2.24
6.21 5.21 1.00
8.29 7.25 1.35
8.11 7.39 1.35
6.15 5.83 1.04
6.08 6.00 1.05
6.18 6.35 1.08
6.18 6.61 1.10
6.17 6.87 1.13
12.92 14.99 2.41
6.22 7.51 1.19
6.07 7.65 1.19
6.03 7.91 1.21
6.02 8.24 1.24
6.02 8.58 1.27
6.01 8.95 1.30
6.00 9.33 1.34
5.99 9.74 1.38
5.98 10.18 1.42
5.96 10.64 1.46
5.95 11.14 1.51
5.94 11.67 1.57
5.92 12.24 1.63
5.91 12.87 1.69
5.89 13.54 1.76
5.87 14.27 1.84
5.85 15.08 1.92
5.83 15.96 2.01
5.81 16.94 2.12
5.78 18.04 2.24
5.75 19.26 2.37
5.41 19.55 2.39
5.02 19.69 2.39
4.63 19.81 2.39
4.24 19.93 2.39
3.85 20.05 2.39
3.45 20.15 2.39
3.05 20.25 2.39
2.65 20.33 2.39
2.24 20.41 2.39
1.86 20.73 2.42
1.49 21.44 2.49
1.06 21.50 2.49
0.63 21.54 2.49
0.20 21.58 2.49
-0.24 21.62 2.49
-0.67 21.64 2.49
-1.11 21.65 2.49
-1.55 21.66 2.49
-1.98 21.65 2.49
-2.42 21.64 2.49
-2.86 21.62 2.49
-3.29 21.58 2.49
-3.73 21.54 2.49
-4.17 21.49 2.49
-4.61 21.43 2.49
-5.04 21.37 2.49
-5.48 21.29 2.49
-5.91 21.20 2.49
-6.20 20.62 2.44
-6.49 20.13 2.39
-6.90 20.02 2.39
-7.31 19.91 2.39
-7.72 19.78 2.39
-8.12 19.64 2.39
-8.53 19.50 2.39
-8.93 19.35 2.39
-9.32 19.18 2.39
-9.72 19.01 2.39
-10.11 18.84 2.39
-10.17 18.07 2.32
-10.25 17.40 2.25
-10.06 16.30 2.14
-10.10 15.67 2.08
-10.86 16.12 2.16
-11.33 16.11 2.19
-11.81 16.10 2.22
-12.31 16.09 2.25
-10.06 12.62 1.79
-13.34 16.06 2.31
-13.88 16.05 2.35
-9.99 11.09 1.65
-15.02 16.02 2.43
-9.96 10.21 1.58
-9.95 9.80 1.54
-16.89 15.97 2.57
-6.13 5.57 0.91
-18.27 15.94 2.67
-19.01 15.92 2.73
-19.78 15.90 2.79
-20.58 15.88 2.86
-21.43 15.86 2.93
-22.33 15.84 3.01
-23.27 15.81 3.09
-24.26 15.79 3.18
-25.32 15.76 3.28
-26.44 15.73 3.38
-27.64 15.71 3.49
-28.92 15.67 3.61
-30.29 15.64 3.74
-31.80 15.62 3.89
-33.85 15.79 4.10
-35.77 15.82 4.29
-37.88 15.86 4.50
-40.22 15.89 4.74
-42.81 15.94 5.01
-46.08 16.11 5.35
-9.47 -9.50 1.55
-9.46 -9.88 1.58
-9.45 -10.28 1.61
-17.44 -19.74 3.05
-17.00 -20.04 3.04
-16.55 -20.31 3.04
-16.09 -20.58 3.04
-15.63 -20.85 3.03
-15.19 -21.12 3.03
-14.73 -21.39 3.03
-9.36 -14.19 1.99
-9.34 -14.79 2.05
-13.03 -21.60 2.96
-9.31 -16.15 2.19
-9.29 -16.89 2.27
-10.31 -19.67 2.62
-9.04 -18.13 2.39
-8.66 -18.28 2.39
-8.28 -18.42 2.39
-7.90 -18.55 2.39
-7.51 -18.68 2.39
-7.13 -18.79 2.39
-6.74 -18.90 2.39
-6.16 -18.45 2.32
-5.65 -18.13 2.27
-5.56 -19.19 2.39
-5.20 -19.39 2.41
-4.98 -20.17 2.49
-4.56 -20.24 2.49
-4.15 -20.29 2.49
-3.74 -20.34 2.49
-3.32 -20.38 2.49
-2.91 -20.41 2.49
-2.50 -20.44 2.49
-2.08 -20.46 2.49
-1.67 -20.46 2.49
-1.25 -20.46 2.49
-0.84 -20.45 2.49
-0.43 -20.44 2.49
-0.02 -17.19 2.49
0.32 -17.17 2.49
0.67 -17.14 2.49
1.01 -17.10 2.49
1.35 -17.06 2.49
1.69 -17.01 2.49
2.03 -16.95 2.49
2.37 -16.89 2.49
2.71 -16.82 2.49
2.91 -16.05 2.39
3.23 -15.97 2.39
3.55 -15.88 2.39
3.86 -15.79 2.39
4.17 -15.70 2.39
4.48 -15.59 2.39
2.75 -8.89 1.37
5.10 -15.37 2.39
5.40 -15.25 2.39
5.70 -15.13 2.39
6.00 -14.99 2.39
6.29 -14.86 2.39
6.58 -14.72 2.39
5.96 -12.64 2.07
6.25 -12.59 2.09
7.49 -14.35 2.41
6.58 -12.02 2.04
6.88 -11.98 2.06
7.22 -12.00 2.09
7.54 -12.00 2.11
7.88 -11.99 2.14
8.22 -11.98 2.17
8.55 -11.94 2.19
8.94 -11.96 2.23
9.31 -11.95 2.27
9.67 -11.91 2.30
10.09 -11.93 2.34
10.38 -11.79 2.35
10.55 -11.50 2.34
10.71 -11.22 2.33
10.87 -10.93 2.31
6.65 -6.43 1.39
6.66 -6.19 1.37
6.93 -6.18 1.40
7.17 -6.14 1.42
7.50 -6.16 1.46
7.81 -6.16 1.50
8.13 -6.15 1.53
8.42 -6.11 1.57
8.82 -6.13 1.62
9.19 -6.12 1.66
9.54 -6.08 1.71
10.01 -6.10 1.77
10.41 -6.06 1.82
10.94 -6.08 1.89
11.40 -6.03 1.94
12.01 -6.05 2.03
12.54 -6.00 2.10
13.25 -6.02 2.20
13.65 -5.88 2.24
13.76 -5.60 2.24
13.87 -5.32 2.24
13.98 -5.04 2.24
14.08 -4.76 2.24
14.17 -4.48 2.24
14.26 -4.19 2.24
14.34 -3.91 2.24
14.42 -3.62 2.24
14.49 -3.33 2.24
14.56 -3.04 2.24
14.14 -2.65 2.17
14.20 -2.37 2.17
14.25 -2.08 2.17
14.29 -1.80 2.17
14.33 -1.51 2.17
14.36 -1.22 2.17
14.39 -0.93 2.17
14.89 -0.67 2.24
12.80 -0.32 1.92
12.66 -0.06 1.90
6.40 0.10 0.96
6.40 0.23 0.96
14.92 0.83 2.24
14.91 1.13 2.24
12.78 1.23 1.92
6.37 0.74 0.96
12.74 1.75 1.93
6.35 1.00 0.96
14.76 2.63 2.24
14.72 2.93 2.24
6.33 1.39 0.97
8.24 1.99 1.27
6.32 1.66 0.97
8.15 2.31 1.26
6.19 1.89 0.96
6.18 2.03 0.97
14.24 4.99 2.24
6.28 2.35 1.00
14.05 5.57 2.24
13.94 5.85 2.24
6.27 2.78 1.02
13.72 6.42 2.24
13.60 6.70 2.24
13.48 6.98 2.24
13.35 7.25 2.24
13.21 7.53 2.24
13.08 7.81 2.24
6.13 3.83 1.06
6.13 4.00 1.08
12.64 8.62 2.25
12.51 8.90 2.25
6.22 4.62 1.14
12.38 9.58 2.29
6.31 5.09 1.19
6.21 5.21 1.18
6.12 5.35 1.19
6.09 5.55 1.20
6.09 5.77 1.22
6.08 6.00 1.24
6.07 6.24 1.27
6.07 6.49 1.29
6.06 6.75 1.31
6.05 7.02 1.34
6.05 7.31 1.37
6.04 7.60 1.40
6.03 7.92 1.43
6.02 8.24 1.47
6.02 8.59 1.51
6.01 8.95 1.55
6.00 9.34 1.59
5.99 9.75 1.64
5.98 10.18 1.69
5.96 10.65 1.74
5.95 11.14 1.80
5.94 11.68 1.87
5.92 12.25 1.94
5.91 12.87 2.01
5.89 13.55 2.10
5.87 14.28 2.19
5.85 15.09 2.29
5.79 15.87 2.39
5.48 16.01 2.39
5.17 16.13 2.39
4.85 16.26 2.39
4.53 16.37 2.39
4.20 16.48 2.39
3.88 16.58 2.39
3.55 16.68 2.39
3.22 16.77 2.39
2.88 16.85 2.39
2.55 16.93 2.39
2.21 17.00 2.39
1.93 17.60 2.47
1.60 17.86 2.49
1.24 17.91 2.49
0.88 17.95 2.49
0.52 17.99 2.49
0.16 18.02 2.49
-0.20 18.04 2.49
-0.56 18.05 2.49
-0.93 18.06 2.49
-1.29 18.06 2.49
-1.66 18.05 2.49
-2.02 18.04 2.49
-2.38 18.01 2.49
-2.75 17.98 2.49
-3.11 17.94 2.49
-3.48 17.90 2.49
-3.84 17.85 2.49
-4.20 17.78 2.49
-4.56 17.72 2.49
-4.92 17.64 2.49
-5.28 17.56 2.49
-5.64 17.47 2.49
-5.99 17.37 2.49
-6.10 16.61 2.40
-6.42 16.44 2.39
-6.43 15.53 2.27
-6.97 15.93 2.35
-7.04 15.25 2.27
-7.75 15.93 2.39
-8.07 15.79 2.39
-8.39 15.64 2.39
-8.71 15.48 2.39
-9.03 15.31 2.39
-9.34 15.14 2.39
-9.65 14.96 2.39
-9.96 14.78 2.39
-11.33 16.11 2.64
-10.06 13.71 2.28
-12.31 16.09 2.71
-12.82 16.08 2.75
-13.34 16.06 2.79
-10.01 11.58 2.04
-9.99 11.09 1.99
-15.02 16.02 2.93
-15.63 16.01 2.98
-16.25 15.99 3.04
-16.90 15.97 3.10
-6.13 5.57 1.10
-18.28 15.94 3.23
-19.01 15.92 3.30
-19.78 15.90 3.37
-20.59 15.88 3.46
-21.44 15.86 3.54
-22.33 15.84 3.63
-23.27 15.81 3.73
-9.87 6.42 1.56
-9.86 6.14 1.54
-26.87 15.99 4.15
-28.19 16.02 4.30
-29.61 16.05 4.47
-31.15 16.08 4.65
-32.82 16.12 4.85
-34.64 16.16 5.07
-36.92 16.33 5.35
-20.46 -11.88 3.22
-20.12 -12.23 3.21
-9.56 -6.07 1.54
-9.55 -6.34 1.56
-18.41 -12.76 3.06
-18.09 -13.08 3.05
-9.53 -7.19 1.63
-17.44 -13.71 3.04
-17.12 -14.03 3.04
-16.79 -14.33 3.03
-16.48 -14.64 3.03
-16.17 -14.96 3.03
-15.85 -15.27 3.03
-9.48 -9.50 1.85
-15.20 -15.86 3.04
-9.45 -10.27 1.93
-14.47 -16.37 3.03
-14.08 -16.59 3.02
-13.67 -16.78 3.01
-9.42 -12.04 2.13
-12.79 -17.05 2.97
-12.07 -16.79 2.88
-10.86 -15.76 2.67
-10.36 -15.69 2.63
-9.12 -14.44 2.39
-8.81 -14.60 2.39
-8.51 -14.75 2.39
-8.20 -14.90 2.39
-7.89 -15.04 2.39
-7.58 -15.18 2.39
-7.26 -15.31 2.39
-6.94 -15.43 2.39
-6.35 -14.91 2.29
-6.00 -14.90 2.28
-5.67 -14.96 2.27
-5.64 -15.82 2.38
-5.33 -15.94 2.39
-5.22 -16.72 2.49
-4.87 -16.80 2.49
-4.53 -16.87 2.49
-4.18 -16.94 2.49
-3.84 -17.00 2.49
-3.49 -17.05 2.49
-3.14 -17.09 2.49
-2.80 -17.13 2.49
-2.45 -17.16 2.49
-2.10 -17.19 2.49
-1.75 -17.20 2.49
-1.41 -17.21 2.49
-1.06 -17.22 2.49
-0.71 -17.22 2.49
-0.37 -17.21 2.49
-0.02 -14.83 2.49
0.28 -14.81 2.49
0.57 -14.79 2.49
0.87 -14.76 2.49
1.17 -14.72 2.49
1.46 -14.68 2.49
1.75 -14.64 2.49
2.04 -14.58 2.49
2.33 -14.53 2.49
2.62 -14.46 2.49
2.79 -13.80 2.39
3.06 -13.73 2.39
3.34 -13.65 2.39
3.61 -13.57 2.39
3.87 -13.48 2.39
2.75 -8.89 1.59
4.41 -13.29 2.39
4.67 -13.19 2.39
4.93 -13.08 2.39
5.19 -12.97 2.39
5.44 -12.85 2.39
5.69 -12.73 2.39
5.94 -12.61 2.39
6.19 -12.48 2.39
6.44 -12.34 2.39
6.58 -12.02 2.35
6.87 -11.98 2.38
7.20 -11.98 2.41
7.44 -11.83 2.41
7.67 -11.67 2.41
7.90 -11.51 2.41
8.12 -11.34 2.41
8.34 -11.17 2.41
8.56 -10.99 2.41
8.77 -10.81 2.41
8.99 -10.63 2.41
9.19 -10.44 2.41
9.40 -10.25 2.41
9.60 -10.05 2.41
9.77 -9.83 2.40
6.65 -6.43 1.60
6.66 -6.19 1.58
6.93 -6.18 1.61
7.17 -6.14 1.64
7.50 -6.16 1.68
7.81 -6.16 1.73
8.13 -6.15 1.77
8.42 -6.11 1.81
8.82 -6.13 1.87
9.19 -6.12 1.92
9.54 -6.08 1.97
10.01 -6.10 2.04
10.41 -6.06 2.09
10.94 -6.08 2.18
11.39 -6.03 2.24
11.55 -5.82 2.25
11.62 -5.57 2.24
11.73 -5.33 2.24
11.84 -5.10 2.24
11.94 -4.86 2.24
12.03 -4.62 2.24
12.12 -4.37 2.24
12.21 -4.13 2.24
12.29 -3.88 2.24
12.37 -3.63 2.24
12.44 -3.39 2.24
12.50 -3.14 2.24
12.04 -2.76 2.15
12.09 -2.52 2.15
12.13 -2.28 2.15
12.17 -2.03 2.14
12.21 -1.78 2.14
12.24 -1.54 2.14
12.27 -1.29 2.14
12.29 -1.05 2.14
12.82 -0.83 2.23
10.72 -0.48 1.86
10.71 -0.26 1.86
12.93 -0.06 2.24
6.40 0.10 1.11
6.40 0.23 1.11
12.93 0.72 2.24
12.92 0.98 2.24
12.90 1.24 2.24
6.37 0.74 1.11
12.85 1.76 2.24
6.35 1.00 1.11
12.79 2.28 2.24
12.75 2.54 2.24
6.33 1.39 1.12
8.33 2.01 1.48
6.32 1.66 1.12
8.20 2.33 1.47
6.19 1.90 1.11
6.18 2.03 1.12
12.32 4.32 2.24
6.28 2.35 1.15
12.15 4.82 2.24
6.38 2.68 1.19
6.27 2.78 1.17
6.28 2.94 1.19
6.22 3.07 1.19
6.16 3.19 1.19
6.15 3.34 1.19
6.14 3.50 1.21
6.14 3.66 1.22
6.13 3.83 1.23
6.13 4.00 1.25
6.13 4.18 1.26
6.12 4.36 1.28
6.12 4.54 1.29
6.11 4.73 1.31
6.11 4.93 1.33
6.10 5.13 1.35
6.10 5.34 1.37
6.09 5.55 1.39
6.09 5.77 1.41
6.08 6.01 1.44
6.07 6.25 1.47
6.07 6.50 1.49
6.06 6.76 1.52
6.05 7.03 1.56
6.05 7.31 1.59
6.04 7.61 1.63
6.03 7.92 1.66
6.02 8.25 1.71
6.02 8.59 1.75
6.01 8.96 1.80
6.00 9.34 1.85
5.99 9.75 1.90
5.98 10.19 1.96
5.96 10.65 2.03
5.95 11.15 2.10
5.94 11.68 2.17
5.92 12.26 2.25
5.91 12.88 2.34
5.77 13.28 2.39
5.51 13.41 2.39
5.25 13.53 2.39
4.98 13.65 2.39
4.71 13.76 2.39
4.44 13.87 2.39
4.16 13.97 2.39
3.89 14.07 2.39
3.61 14.16 2.39
3.33 14.25 2.39
3.04 14.33 2.39
2.76 14.40 2.39
2.47 14.47 2.39
2.18 14.53 2.39
1.97 15.22 2.49
1.67 15.27 2.49
1.37 15.32 2.49
1.06 15.36 2.49
0.75 15.39 2.49
0.44 15.42 2.49
0.13 15.45 2.49
-0.18 15.46 2.49
-0.49 15.47 2.49
-0.80 15.48 2.49
-1.11 15.47 2.49
-1.42 15.46 2.49
-1.73 15.45 2.49
-2.04 15.42 2.49
-2.36 15.40 2.49
-2.67 15.36 2.49
-2.98 15.32 2.49
-3.29 15.27 2.49
-3.60 15.22 2.49
-3.90 15.16 2.49
-4.21 15.09 2.49
-4.52 15.02 2.49
-4.82 14.94 2.49
-5.12 14.85 2.49
-5.43 14.76 2.49
-5.73 14.66 2.49
-6.02 14.55 2.49
-6.06 13.84 2.39
-6.34 13.73 2.39
-6.36 13.08 2.30
-6.78 13.26 2.35
-6.95 12.94 2.32
-7.06 12.55 2.27
-7.71 13.08 2.39
-7.98 12.93 2.39
-8.24 12.77 2.39
-8.50 12.62 2.39
-8.76 12.45 2.39
-9.01 12.28 2.39
-9.26 12.10 2.39
-9.51 11.92 2.39
-9.75 11.74 2.39
-13.89 16.05 3.32
-9.99 11.09 2.34
-15.03 16.02 3.44
-15.63 16.01 3.50
-9.96 9.80 2.18
-16.90 15.97 3.63
-6.13 5.57 1.29
-18.28 15.94 3.78
-19.03 15.93 3.87
-19.86 15.96 3.97
-20.91 16.13 4.12
-21.83 16.15 4.23
-22.80 16.17 4.36
-23.84 16.20 4.49
-24.95 16.23 4.63
-26.13 16.27 4.79
-27.40 16.30 4.96
-28.76 16.34 5.15
-30.53 16.55 5.40
-9.84 5.08 1.72
-38.87 19.09 6.74
-43.50 20.30 7.47
-43.48 19.23 7.39
-9.81 3.65 1.63
-9.77 2.56 1.57
-9.77 2.35 1.56
-9.76 2.14 1.56
-9.76 1.94 1.55
-9.75 1.73 1.54
-9.75 1.53 1.54
-9.71 -1.42 1.54
-9.67 -1.61 1.54
-9.66 -1.81 1.54
-9.66 -2.01 1.55
-9.65 -2.21 1.56
-9.65 -2.41 1.56
-9.64 -2.62 1.57
-9.63 -3.91 1.64
-9.61 -4.12 1.65
-20.48 -9.28 3.56
-19.74 -9.43 3.47
-19.12 -9.61 3.39
-18.54 -9.79 3.33
-18.00 -9.97 3.27
-17.47 -10.14 3.21
-17.07 -10.37 3.18
-16.68 -10.60 3.15
-16.30 -10.82 3.12
-15.96 -11.06 3.10
-15.64 -11.31 3.08
-9.53 -7.19 1.91
-15.12 -11.89 3.08
-9.52 -7.80 1.97
-14.53 -12.40 3.06
-14.14 -12.56 3.04
-13.79 -12.76 3.02
-13.56 -13.05 3.03
-13.31 -13.34 3.04
-13.02 -13.58 3.03
-9.45 -10.27 2.25
-11.82 -13.36 2.88
-10.32 -12.16 2.58
-9.33 -11.44 2.39
-9.08 -11.61 2.39
-8.84 -11.78 2.39
-8.59 -11.94 2.39
-8.34 -12.10 2.39
-8.09 -12.25 2.39
-7.83 -12.40 2.39
-7.57 -12.54 2.39
-7.31 -12.67 2.39
-7.05 -12.80 2.39
-6.78 -12.92 2.39
-6.51 -13.04 2.39
-6.24 -13.16 2.39
-5.97 -13.26 2.39
-5.70 -13.37 2.39
-5.42 -13.46 2.39
-5.33 -14.03 2.47
-5.08 -14.23 2.49
-4.78 -14.31 2.49
-4.49 -14.39 2.49
-4.20 -14.46 2.49
-3.90 -14.52 2.49
-3.61 -14.58 2.49
-3.31 -14.64 2.49
-3.01 -14.68 2.49
-2.71 -14.72 2.49
-2.41 -14.76 2.49
-2.11 -14.79 2.49
-1.81 -14.81 2.49
-1.51 -14.83 2.49
-1.22 -14.84 2.49
-0.92 -14.85 2.49
-0.62 -14.85 2.49
-0.32 -14.84 2.49
-0.02 -13.03 2.49
0.24 -13.01 2.49
0.50 -13.00 2.49
0.76 -12.97 2.49
1.02 -12.94 2.49
1.28 -12.91 2.49
1.54 -12.87 2.49
1.79 -12.82 2.49
2.05 -12.77 2.49
2.30 -12.72 2.49
2.56 -12.66 2.49
2.69 -12.07 2.39
2.93 -12.01 2.39
3.17 -11.94 2.39
3.41 -11.86 2.39
2.75 -8.90 1.80
3.88 -11.70 2.39
4.11 -11.61 2.39
4.34 -11.52 2.39
4.56 -11.42 2.39
4.79 -11.32 2.39
5.01 -11.21 2.39
5.23 -11.10 2.39
5.45 -10.99 2.39
5.67 -10.87 2.39
5.88 -10.74 2.39
6.09 -10.62 2.39
6.30 -10.49 2.39
6.51 -10.35 2.39
6.75 -10.28 2.41
6.96 -10.14 2.41
7.15 -9.99 2.41
7.35 -9.84 2.41
7.54 -9.69 2.41
7.73 -9.53 2.41
7.92 -9.37 2.41
8.10 -9.20 2.41
7.82 -8.53 2.27
7.95 -8.33 2.26
8.08 -8.13 2.25
6.65 -6.43 1.82
6.66 -6.19 1.79
6.93 -6.18 1.83
7.17 -6.14 1.86
7.50 -6.16 1.91
7.80 -6.16 1.96
8.12 -6.15 2.01
8.42 -6.11 2.05
8.82 -6.13 2.12
9.19 -6.12 2.18
9.54 -6.08 2.23
10.01 -6.10 2.31
10.30 -6.00 2.35
10.38 -5.77 2.34
10.47 -5.54 2.34
10.54 -5.31 2.33
10.62 -5.09 2.32
10.69 -4.86 2.32
10.76 -4.63 2.31
10.82 -4.40 2.30
10.88 -4.17 2.30
10.94 -3.95 2.29
10.99 -3.72 2.29
11.04 -3.49 2.28
11.09 -3.26 2.28
10.68 -2.91 2.18
10.72 -2.69 2.18
10.76 -2.47 2.18
10.81 -2.25 2.18
10.85 -2.04 2.18
10.89 -1.82 2.18
10.92 -1.60 2.17
10.95 -1.38 2.17
10.97 -1.16 2.17
11.00 -0.93 2.17
11.41 -0.74 2.25
9.71 -0.43 1.91
9.70 -0.24 1.91
11.43 -0.05 2.25
6.40 0.10 1.26
6.30 0.23 1.24
6.29 0.35 1.24
6.28 0.48 1.24
6.27 0.60 1.24
6.26 0.73 1.24
6.26 0.86 1.24
6.25 0.99 1.24
6.24 1.11 1.24
6.23 1.24 1.24
6.22 1.37 1.25
6.22 1.50 1.25
6.21 1.63 1.25
6.20 1.76 1.26
6.19 1.90 1.26
6.18 2.03 1.27
6.18 2.17 1.28
6.17 2.31 1.28
6.17 2.45 1.29
6.17 2.59 1.30
6.16 2.74 1.31
6.16 2.88 1.32
6.15 3.03 1.33
6.15 3.19 1.34
6.15 3.34 1.36
6.14 3.50 1.37
6.14 3.67 1.38
6.13 3.83 1.40
6.13 4.00 1.42
6.13 4.18 1.43
6.12 4.36 1.45
6.12 4.54 1.47
6.11 4.73 1.49
6.11 4.93 1.51
6.10 5.13 1.53
6.10 5.34 1.56
6.09 5.55 1.58
6.09 5.78 1.61
6.08 6.01 1.64
6.07 6.25 1.67
6.07 6.50 1.70
6.06 6.76 1.74
6.05 7.03 1.77
6.05 7.31 1.81
6.04 7.61 1.85
6.03 7.92 1.90
6.02 8.25 1.94
6.02 8.60 1.99
6.01 8.96 2.05
6.00 9.35 2.11
5.99 9.76 2.17
5.98 10.19 2.24
5.96 10.66 2.31
5.95 11.16 2.39
5.73 11.28 2.39
5.51 11.41 2.39
5.29 11.53 2.39
5.06 11.64 2.39
4.83 11.75 2.39
4.60 11.86 2.39
4.36 11.96 2.39
4.12 12.06 2.39
3.89 12.15 2.39
3.64 12.24 2.39
3.40 12.32 2.39
3.16 12.40 2.39
2.91 12.47 2.39
2.66 12.54 2.39
2.41 12.61 2.39
2.16 12.66 2.39
1.99 13.27 2.49
1.73 13.32 2.49
1.46 13.36 2.49
1.19 13.40 2.49
0.92 13.44 2.49
0.65 13.46 2.49
0.38 13.49 2.49
0.11 13.51 2.49
-0.16 13.52 2.49
-0.43 13.52 2.49
-0.70 13.53 2.49
-0.97 13.52 2.49
-1.24 13.51 2.49
-1.52 13.50 2.49
-1.79 13.47 2.49
-2.06 13.45 2.49
-2.33 13.42 2.49
-2.60 13.38 2.49
-2.87 13.33 2.49
-3.14 13.29 2.49
-3.41 13.23 2.49
-3.68 13.17 2.49
-3.94 13.10 2.49
-4.21 13.03 2.49
-4.47 12.96 2.49
-4.74 12.87 2.49
-5.00 12.79 2.49
-5.26 12.69 2.49
-5.51 12.59 2.49
-5.77 12.49 2.49
-5.99 12.31 2.48
-6.02 11.76 2.39
-6.25 11.64 2.39
-6.36 11.29 2.34
-6.66 11.28 2.37
-6.60 10.69 2.27
-6.82 10.57 2.27
-7.41 10.99 2.39
-7.63 10.85 2.39
-7.85 10.70 2.39
-8.07 10.55 2.39
-8.29 10.39 2.39
-8.50 10.22 2.39
-8.70 10.06 2.39
-8.91 9.89 2.39
-9.11 9.71 2.39
-9.31 9.53 2.39
-9.50 9.34 2.39
-9.69 9.16 2.39
-6.11 5.55 1.48
-18.71 16.31 4.45
-19.51 16.34 4.56
-9.92 7.97 2.28
-21.26 16.39 4.81
-22.20 16.42 4.94
-23.21 16.46 5.09
-24.38 16.56 5.27
-29.70 19.32 6.34
-9.87 6.14 2.08
-33.43 19.89 6.95
-33.82 19.22 6.95
-9.84 5.08 1.98
-38.87 19.09 7.74
-43.50 20.29 8.58
-43.47 19.23 8.49
-9.80 2.57 1.81
-9.76 1.94 1.78
-9.75 1.53 1.77
-9.70 -0.63 1.75
-9.69 -1.02 1.75
-9.64 -2.62 1.80
-9.64 -3.25 1.84
-9.63 -3.46 1.85
-20.47 -7.83 3.97
-19.78 -8.02 3.87
-9.61 -4.12 1.90
-18.44 -8.35 3.67
-17.77 -8.49 3.58
-9.60 -4.82 1.95
-9.59 -5.06 1.97
-16.13 -8.93 3.36
-15.75 -9.13 3.32
-15.37 -9.33 3.28
-9.56 -6.07 2.07
-14.74 -9.78 3.23
-14.28 -9.89 3.18
-13.80 -9.98 3.12
-9.53 -7.18 2.19
-13.02 -10.23 3.03
-9.52 -7.80 2.26
-10.88 -9.28 2.62
-10.55 -9.37 2.59
-10.45 -9.66 2.62
-9.35 -9.00 2.39
-9.16 -9.18 2.39
-8.97 -9.35 2.39
-8.77 -9.52 2.39
-8.57 -9.69 2.39
-8.37 -9.85 2.39
-8.16 -10.01 2.39
-7.95 -10.16 2.39
-7.74 -10.30 2.39
-7.52 -10.45 2.39
-7.30 -10.59 2.39
-7.08 -10.72 2.39
-6.86 -10.85 2.39
-6.36 -10.52 2.29
-6.30 -10.91 2.35
-5.86 -10.64 2.27
-5.76 -10.97 2.32
-5.71 -11.42 2.39
-5.47 -11.53 2.39
-5.38 -11.94 2.46
-5.21 -12.22 2.49
-4.96 -12.31 2.49
-4.71 -12.39 2.49
-4.45 -12.47 2.49
-4.20 -12.55 2.49
-3.94 -12.62 2.49
-3.68 -12.68 2.49
-3.42 -12.74 2.49
-3.17 -12.79 2.49
-2.90 -12.84 2.49
-2.64 -12.88 2.49
-2.38 -12.92 2.49
-2.12 -12.95 2.49
-1.86 -12.98 2.49
-1.60 -13.00 2.49
-1.33 -13.02 2.49
-1.07 -13.03 2.49
-0.81 -13.04 2.49
-0.54 -13.04 2.49
-0.28 -13.04 2.49
-0.02 -11.61 2.49
0.21 -11.59 2.49
0.44 -11.58 2.49
0.68 -11.56 2.49
0.91 -11.53 2.49
1.14 -11.50 2.49
1.37 -11.47 2.49
1.60 -11.43 2.49
1.83 -11.39 2.49
2.05 -11.34 2.49
2.28 -11.29 2.49
2.50 -11.23 2.49
2.65 -10.85 2.42
2.85 -10.73 2.41
3.04 -10.58 2.39
2.75 -8.90 2.02
3.46 -10.44 2.39
3.66 -10.36 2.39
3.87 -10.28 2.39
4.07 -10.19 2.39
4.27 -10.10 2.39
4.47 -10.00 2.39
4.67 -9.91 2.39
4.86 -9.81 2.39
5.06 -9.70 2.39
5.25 -9.59 2.39
5.44 -9.48 2.39
5.62 -9.36 2.39
5.81 -9.24 2.39
5.99 -9.12 2.39
6.17 -8.99 2.39
6.34 -8.86 2.39
6.50 -8.71 2.39
6.64 -8.53 2.37
6.78 -8.35 2.36
6.91 -8.18 2.35
7.04 -8.00 2.34
7.16 -7.81 2.33
7.28 -7.63 2.32
7.40 -7.44 2.31
6.65 -6.43 2.04
6.66 -6.19 2.00
6.93 -6.18 2.04
7.17 -6.14 2.08
7.50 -6.16 2.14
7.80 -6.16 2.19
8.12 -6.15 2.25
8.42 -6.11 2.29
8.82 -6.13 2.37
9.08 -6.05 2.41
9.20 -5.86 2.41
9.31 -5.67 2.41
9.42 -5.49 2.41
9.53 -5.29 2.41
9.62 -5.09 2.40
9.69 -4.89 2.40
9.76 -4.68 2.39
9.83 -4.47 2.38
9.90 -4.26 2.38
9.96 -4.05 2.37
10.02 -3.84 2.37
10.07 -3.63 2.36
10.12 -3.42 2.36
10.17 -3.21 2.35
9.70 -2.85 2.23
9.74 -2.65 2.23
9.79 -2.45 2.23
9.83 -2.25 2.22
9.86 -2.05 2.22
9.89 -1.85 2.22
9.92 -1.65 2.22
9.95 -1.45 2.22
9.97 -1.25 2.22
9.99 -1.05 2.22
10.50 -0.89 2.32
10.52 -0.68 2.32
9.71 -0.43 2.14
9.70 -0.24 2.14
10.53 -0.05 2.32
6.40 0.10 1.41
6.30 0.23 1.39
6.29 0.35 1.38
6.28 0.48 1.38
6.27 0.61 1.38
6.26 0.73 1.39
6.26 0.86 1.39
6.25 0.99 1.39
6.24 1.11 1.39
6.23 1.24 1.39
6.22 1.37 1.40
6.22 1.50 1.40
6.21 1.63 1.41
6.20 1.76 1.41
6.19 1.90 1.42
6.18 2.03 1.42
6.18 2.17 1.43
6.17 2.31 1.44
6.17 2.45 1.45
6.17 2.59 1.46
6.16 2.74 1.47
6.16 2.88 1.48
6.15 3.03 1.49
6.15 3.19 1.51
6.15 3.34 1.52
6.14 3.50 1.54
6.14 3.67 1.55
6.13 3.83 1.57
6.13 4.01 1.59
6.13 4.18 1.61
6.12 4.36 1.63
6.12 4.54 1.65
6.11 4.73 1.67
6.11 4.93 1.70
6.10 5.13 1.72
6.10 5.34 1.75
6.09 5.56 1.78
6.09 5.78 1.81
6.08 6.01 1.84
6.07 6.25 1.87
6.07 6.50 1.91
6.06 6.76 1.95
6.05 7.03 1.99
6.05 7.32 2.03
6.04 7.61 2.08
6.03 7.93 2.13
6.02 8.25 2.18
6.02 8.60 2.24
6.01 8.96 2.30
6.00 9.35 2.37
5.87 9.57 2.39
5.68 9.69 2.39
5.49 9.81 2.39
5.29 9.93 2.39
5.10 10.04 2.39
4.90 10.15 2.39
4.70 10.25 2.39
4.50 10.36 2.39
4.29 10.45 2.39
4.08 10.55 2.39
3.88 10.64 2.39
3.66 10.72 2.39
3.45 10.80 2.39
3.24 10.88 2.39
3.02 10.95 2.39
2.80 11.02 2.39
2.58 11.08 2.39
2.36 11.14 2.39
2.14 11.20 2.39
2.00 11.74 2.49
1.77 11.78 2.49
1.53 11.83 2.49
1.29 11.87 2.49
1.06 11.90 2.49
0.82 11.93 2.49
0.58 11.95 2.49
0.34 11.97 2.49
0.10 11.99 2.49
-0.14 12.00 2.49
-0.38 12.00 2.49
-0.62 12.00 2.49
-0.86 12.00 2.49
-1.11 11.99 2.49
-1.35 11.97 2.49
-1.59 11.95 2.49
-1.83 11.93 2.49
-2.07 11.90 2.49
-2.31 11.86 2.49
-2.55 11.82 2.49
-2.79 11.78 2.49
-3.03 11.73 2.49
-3.26 11.67 2.49
-3.50 11.61 2.49
-3.73 11.55 2.49
-3.97 11.48 2.49
-4.20 11.41 2.49
-4.43 11.33 2.49
-4.66 11.24 2.49
-4.89 11.16 2.49
-5.11 11.06 2.49
-5.34 10.97 2.49
-5.56 10.86 2.49
-5.78 10.76 2.49
-5.94 10.55 2.47
-5.96 10.09 2.39
-6.16 9.98 2.39
-6.28 9.73 2.36
-6.27 9.30 2.28
-6.65 9.45 2.35
-6.84 9.32 2.35
-6.85 8.94 2.29
-6.96 8.73 2.27
-7.52 9.05 2.39
-7.70 8.90 2.39
-7.88 8.75 2.39
-8.06 8.59 2.39
-8.24 8.43 2.39
-8.41 8.27 2.39
-8.57 8.10 2.39
-6.11 5.55 1.67
-8.90 7.76 2.39
-9.05 7.58 2.39
-9.20 7.40 2.39
-9.35 7.21 2.39
-9.50 7.03 2.39
-9.64 6.84 2.39
-9.78 6.64 2.39
-29.70 19.32 7.16
-33.43 19.89 7.86
-33.82 19.22 7.86
-9.85 5.34 2.26
-9.84 5.08 2.24
-38.87 19.09 8.75
-43.50 20.29 9.70
-43.47 19.23 9.60
-9.76 1.94 2.01
-46.91 3.56 9.52
-47.10 2.63 9.55
-48.57 1.74 9.84
-48.36 0.76 9.80
-48.14 -0.21 9.76
-48.15 -1.17 9.76
-9.71 -0.43 1.97
-9.70 -1.02 1.98
-9.69 -1.61 2.00
-9.64 -2.62 2.04
-22.50 -6.59 4.78
-9.64 -3.03 2.06
-19.98 -6.73 4.31
-19.27 -6.93 4.18
-18.54 -7.09 4.06
-17.86 -7.24 3.94
-9.61 -4.12 2.14
-9.61 -4.35 2.16
-16.08 -7.68 3.65
-15.54 -7.80 3.57
-15.11 -7.97 3.51
-9.60 -5.31 2.25
-9.58 -5.55 2.28
-13.53 -8.21 3.26
-13.12 -8.33 3.20
-10.62 -7.05 2.63
-9.53 -6.60 2.39
-9.39 -6.79 2.39
-9.24 -6.97 2.39
-9.10 -7.15 2.39
-8.94 -7.32 2.39
-8.79 -7.49 2.39
-8.63 -7.66 2.39
-8.47 -7.83 2.39
-8.30 -7.99 2.39
-8.13 -8.15 2.39
-7.96 -8.30 2.39
-7.79 -8.45 2.39
-7.61 -8.60 2.39
-7.43 -8.74 2.39
-7.25 -8.88 2.39
-7.06 -9.02 2.39
-6.52 -8.68 2.27
-6.40 -8.89 2.29
-6.38 -9.24 2.35
-6.19 -9.36 2.35
-5.81 -9.18 2.28
-5.80 -9.58 2.35
-5.69 -9.86 2.39
-5.49 -9.96 2.39
-5.42 -10.32 2.45
-5.29 -10.59 2.49
-5.08 -10.69 2.49
-4.86 -10.78 2.49
-4.64 -10.86 2.49
-4.41 -10.94 2.49
-4.19 -11.02 2.49
-3.96 -11.09 2.49
-3.74 -11.16 2.49
-3.51 -11.22 2.49
-3.28 -11.28 2.49
-3.05 -11.33 2.49
-2.82 -11.38 2.49
-2.59 -11.43 2.49
-2.36 -11.47 2.49
-2.12 -11.50 2.49
-1.89 -11.53 2.49
-1.66 -11.56 2.49
-1.42 -11.58 2.49
-1.19 -11.59 2.49
-0.96 -11.61 2.49
-0.72 -11.61 2.49
-0.49 -11.62 2.49
-0.25 -11.61 2.49
-0.02 -10.45 2.49
0.19 -10.44 2.49
0.40 -10.43 2.49
0.61 -10.41 2.49
0.82 -10.39 2.49
1.02 -10.37 2.49
1.23 -10.34 2.49
1.44 -10.30 2.49
1.64 -10.26 2.49
1.85 -10.22 2.49
2.05 -10.18 2.49
2.25 -10.13 2.49
2.46 -10.07 2.49
2.62 -9.87 2.46
2.74 -9.54 2.39
2.75 -8.90 2.24
3.11 -9.41 2.39
3.30 -9.34 2.39
3.49 -9.27 2.39
3.67 -9.19 2.39
3.85 -9.11 2.39
4.03 -9.02 2.39
4.21 -8.94 2.39
4.39 -8.85 2.39
4.56 -8.75 2.39
4.73 -8.65 2.39
4.90 -8.55 2.39
5.07 -8.45 2.39
5.24 -8.34 2.39
5.40 -8.23 2.39
5.56 -8.12 2.39
5.72 -8.00 2.39
5.88 -7.88 2.39
6.04 -7.76 2.39
6.19 -7.63 2.39
6.34 -7.50 2.39
6.47 -7.35 2.39
6.59 -7.19 2.38
6.70 -7.03 2.37
6.81 -6.86 2.36
6.65 -6.43 2.26
6.66 -6.19 2.22
6.93 -6.18 2.26
7.17 -6.14 2.30
7.50 -6.16 2.37
7.74 -6.11 2.41
7.86 -5.95 2.41
7.97 -5.79 2.41
8.09 -5.62 2.41
8.20 -5.46 2.41
8.30 -5.29 2.41
8.41 -5.12 2.41
8.51 -4.95 2.41
8.60 -4.78 2.41
8.70 -4.61 2.41
8.79 -4.43 2.41
8.87 -4.25 2.41
8.96 -4.07 2.41
9.04 -3.89 2.41
9.11 -3.71 2.41
9.19 -3.52 2.41
9.26 -3.34 2.41
8.82 -2.98 2.28
8.87 -2.80 2.27
8.91 -2.62 2.27
8.95 -2.44 2.27
8.99 -2.25 2.27
9.03 -2.07 2.26
9.06 -1.89 2.26
9.09 -1.70 2.26
9.12 -1.52 2.26
9.15 -1.34 2.26
9.17 -1.15 2.26
9.19 -0.97 2.26
9.73 -0.83 2.39
9.75 -0.63 2.38
9.75 -0.43 2.38
9.76 -0.24 2.38
9.76 -0.04 2.38
6.40 0.10 1.56
6.29 0.23 1.54
6.29 0.35 1.53
6.28 0.48 1.53
6.27 0.61 1.53
6.26 0.73 1.53
6.26 0.86 1.54
6.25 0.99 1.54
6.24 1.11 1.54
6.23 1.24 1.54
6.22 1.37 1.55
6.22 1.50 1.55
6.21 1.63 1.56
6.20 1.76 1.56
6.19 1.90 1.57
6.18 2.03 1.58
6.18 2.17 1.59
6.17 2.31 1.60
6.17 2.45 1.61
6.17 2.59 1.62
6.16 2.74 1.63
6.16 2.89 1.64
6.15 3.04 1.66
6.15 3.19 1.67
6.15 3.35 1.69
6.14 3.51 1.70
6.14 3.67 1.72
6.13 3.84 1.74
6.13 4.01 1.76
6.13 4.18 1.78
6.12 4.36 1.81
6.12 4.55 1.83
6.11 4.74 1.85
6.11 4.93 1.88
6.10 5.13 1.91
6.10 5.34 1.94
6.09 5.56 1.97
6.09 5.78 2.01
6.08 6.01 2.04
6.07 6.25 2.08
6.07 6.50 2.12
6.06 6.76 2.16
6.05 7.04 2.21
6.05 7.32 2.26
6.04 7.62 2.31
6.03 7.93 2.37
5.93 8.13 2.39
5.77 8.26 2.39
5.61 8.38 2.39
5.45 8.50 2.39
5.28 8.61 2.39
5.11 8.72 2.39
4.94 8.83 2.39
4.76 8.93 2.39
4.58 9.03 2.39
4.41 9.13 2.39
4.23 9.23 2.39
4.04 9.32 2.39
3.86 9.40 2.39
3.67 9.49 2.39
3.48 9.57 2.39
3.29 9.64 2.39
3.10 9.71 2.39
2.91 9.78 2.39
2.71 9.85 2.39
2.52 9.91 2.39
2.33 10.01 2.40
2.13 10.05 2.40
2.00 10.50 2.49
1.79 10.55 2.49
1.58 10.59 2.49
1.37 10.63 2.49
1.16 10.66 2.49
0.95 10.69 2.49
0.73 10.72 2.49
0.52 10.74 2.49
0.30 10.75 2.49
0.09 10.77 2.49
-0.13 10.77 2.49
-0.35 10.78 2.49
-0.56 10.78 2.49
-0.78 10.77 2.49
-1.00 10.76 2.49
-1.21 10.75 2.49
-1.43 10.73 2.49
-1.64 10.70 2.49
-1.86 10.68 2.49
-2.07 10.64 2.49
-2.29 10.61 2.49
-2.50 10.57 2.49
-2.72 10.52 2.49
-2.93 10.47 2.49
-3.14 10.42 2.49
-3.35 10.36 2.49
-3.56 10.30 2.49
-3.77 10.23 2.49
-3.97 10.16 2.49
-4.18 10.08 2.49
-4.38 10.00 2.49
-4.59 9.92 2.49
-4.79 9.83 2.49
-4.99 9.74 2.49
-5.18 9.64 2.49
-5.38 9.54 2.49
-5.57 9.44 2.49
-5.76 9.33 2.49
-5.91 9.15 2.48
-5.91 8.76 2.40
-6.06 8.61 2.39
-6.23 8.49 2.39
-6.24 8.15 2.33
-6.24 7.82 2.27
-6.63 7.97 2.35
-6.79 7.84 2.35
-6.81 7.56 2.30
-6.86 7.30 2.27
-7.38 7.55 2.39
-7.53 7.41 2.39
-7.68 7.26 2.39
-6.11 5.55 1.87
-7.97 6.95 2.39
-8.11 6.79 2.39
-8.25 6.63 2.39
-8.38 6.46 2.39
-8.51 6.29 2.39
-8.63 6.12 2.39
-8.76 5.95 2.39
-8.88 5.77 2.39
-8.99 5.60 2.39
-9.10 5.42 2.39
-9.21 5.23 2.39
-9.32 5.05 2.39
-9.42 4.86 2.39
-9.51 4.67 2.39
-9.60 4.48 2.39
-9.69 4.29 2.39
-9.78 4.09 2.39
-9.78 2.35 2.27
-9.77 2.14 2.26
-9.76 1.94 2.25
-48.12 6.58 10.97
-47.82 5.57 10.87
-46.33 4.46 10.52
-45.55 3.46 10.32
-9.73 0.54 2.20
-46.88 1.68 10.61
-46.74 0.74 10.57
-46.77 -0.20 10.58
-46.77 -1.14 10.59
-46.90 -2.08 10.63
-47.17 -3.04 10.70
-47.56 -4.02 10.81
-48.21 -5.05 10.99
-9.67 -2.21 2.25
-9.66 -2.41 2.26
-9.64 -2.61 2.27
-19.59 -5.73 4.64
-18.91 -5.95 4.51
-18.15 -6.11 4.36
-17.46 -6.27 4.23
-16.86 -6.44 4.12
-16.12 -6.53 3.97
-9.61 -4.12 2.39
-9.53 -4.32 2.39
-9.44 -4.50 2.39
-9.34 -4.69 2.39
-9.24 -4.87 2.39
-9.13 -5.05 2.39
-9.02 -5.23 2.39
-8.91 -5.41 2.39
-8.80 -5.58 2.39
-8.68 -5.75 2.39
-8.55 -5.92 2.39
-8.43 -6.09 2.39
-8.30 -6.25 2.39
-8.17 -6.41 2.39
-8.03 -6.57 2.39
-7.89 -6.72 2.39
-7.75 -6.88 2.39
-7.60 -7.02 2.39
-7.45 -7.17 2.39
-7.30 -7.31 2.39
-7.15 -7.45 2.39
-6.99 -7.59 2.39
-6.49 -7.33 2.27
-6.43 -7.57 2.30
-6.40 -7.85 2.35
-6.24 -7.97 2.35
-5.86 -7.80 2.27
-5.83 -8.10 2.32
-5.83 -8.45 2.39
-5.66 -8.56 2.39
-5.48 -8.66 2.39
-5.45 -9.01 2.46
-5.34 -9.24 2.49
-5.15 -9.34 2.49
-4.96 -9.43 2.49
-4.76 -9.52 2.49
-4.57 -9.61 2.49
-4.37 -9.69 2.49
-4.17 -9.77 2.49
-3.97 -9.84 2.49
-3.77 -9.91 2.49
-3.57 -9.98 2.49
-3.36 -10.04 2.49
-3.16 -10.09 2.49
-2.95 -10.15 2.49
-2.75 -10.20 2.49
-2.54 -10.24 2.49
-2.33 -10.28 2.49
-2.12 -10.32 2.49
-1.91 -10.35 2.49
-1.70 -10.38 2.49
-1.49 -10.40 2.49
-1.28 -10.42 2.49
-1.07 -10.44 2.49
-0.86 -10.45 2.49
-0.65 -10.46 2.49
-0.44 -10.46 2.49
-0.23 -10.46 2.49
-0.02 -9.50 2.49
0.17 -9.49 2.49
0.36 -9.48 2.49
0.55 -9.47 2.49
0.74 -9.45 2.49
0.93 -9.42 2.49
1.12 -9.40 2.49
1.31 -9.37 2.49
1.49 -9.33 2.49
1.68 -9.29 2.49
1.86 -9.25 2.49
2.05 -9.21 2.49
2.23 -9.16 2.49
2.41 -9.11 2.49
2.59 -9.05 2.49
2.66 -8.62 2.39
2.83 -8.56 2.39
3.00 -8.50 2.39
3.17 -8.43 2.39
3.34 -8.36 2.39
3.50 -8.29 2.39
3.67 -8.21 2.39
3.83 -8.13 2.39
3.99 -8.05 2.39
4.15 -7.96 2.39
4.31 -7.87 2.39
4.46 -7.78 2.39
4.61 -7.69 2.39
4.77 -7.59 2.39
4.92 -7.49 2.39
5.06 -7.39 2.39
5.21 -7.28 2.39
5.35 -7.17 2.39
5.49 -7.06 2.39
5.63 -6.95 2.39
5.77 -6.83 2.39
5.90 -6.71 2.39
6.03 -6.59 2.39
6.16 -6.46 2.39
6.29 -6.33 2.39
6.42 -6.20 2.39
6.54 -6.07 2.39
6.70 -5.98 2.41
6.82 -5.84 2.41
6.93 -5.70 2.41
7.04 -5.56 2.41
7.15 -5.42 2.41
7.26 -5.27 2.41
7.36 -5.12 2.41
7.46 -4.97 2.41
7.56 -4.82 2.41
7.65 -4.67 2.41
7.75 -4.51 2.41
7.83 -4.35 2.41
7.92 -4.19 2.41
8.00 -4.03 2.41
8.08 -3.87 2.41
8.16 -3.71 2.41
8.23 -3.54 2.41
8.30 -3.38 2.41
8.37 -3.21 2.41
8.10 -2.92 2.31
8.15 -2.75 2.31
8.19 -2.59 2.31
8.24 -2.42 2.30
8.28 -2.25 2.30
8.31 -2.08 2.30
8.35 -1.91 2.30
8.38 -1.75 2.30
8.41 -1.58 2.30
8.43 -1.41 2.29
8.46 -1.23 2.29
8.48 -1.06 2.29
8.67 -0.91 2.34
8.94 -0.76 2.41
8.96 -0.58 2.41
8.97 -0.40 2.41
8.98 -0.22 2.41
8.98 -0.04 2.41
6.40 0.10 1.71
6.29 0.23 1.69
6.29 0.35 1.69
6.28 0.48 1.69
6.27 0.61 1.69
6.26 0.73 1.69
6.26 0.86 1.69
6.25 0.99 1.69
6.24 1.12 1.69
6.23 1.24 1.70
6.22 1.37 1.70
6.22 1.50 1.71
6.21 1.63 1.71
6.20 1.77 1.72
6.19 1.90 1.73
6.18 2.03 1.73
6.18 2.17 1.74
6.17 2.31 1.75
6.17 2.45 1.77
6.17 2.59 1.78
6.16 2.74 1.79
6.16 2.89 1.81
6.15 3.04 1.82
6.15 3.19 1.84
6.15 3.35 1.86
6.14 3.51 1.87
6.14 3.67 1.89
6.13 3.84 1.91
6.13 4.01 1.94
6.13 4.18 1.96
6.12 4.36 1.99
6.12 4.55 2.01
6.11 4.74 2.04
6.11 4.93 2.07
6.10 5.14 2.10
6.10 5.34 2.13
6.09 5.56 2.17
6.09 5.78 2.21
6.08 6.01 2.25
6.07 6.26 2.29
6.07 6.51 2.33
6.08 6.79 2.39
5.95 6.91 2.39
5.81 7.04 2.39
5.67 7.16 2.39
5.53 7.27 2.39
5.39 7.39 2.39
5.24 7.50 2.39
5.09 7.61 2.39
4.94 7.72 2.39
4.79 7.82 2.39
4.64 7.92 2.39
4.48 8.02 2.39
4.32 8.11 2.39
4.16 8.20 2.39
4.00 8.29 2.39
3.83 8.38 2.39
3.67 8.46 2.39
3.50 8.54 2.39
3.33 8.61 2.39
3.16 8.68 2.39
2.99 8.75 2.39
2.81 8.82 2.39
2.64 8.88 2.39
2.46 8.94 2.39
2.28 8.99 2.39
2.14 9.20 2.43
2.01 9.48 2.49
1.82 9.53 2.49
1.63 9.57 2.49
1.43 9.60 2.49
1.24 9.64 2.49
1.05 9.67 2.49
0.86 9.69 2.49
0.66 9.72 2.49
0.47 9.74 2.49
0.27 9.75 2.49
0.08 9.76 2.49
-0.12 9.77 2.49
-0.32 9.77 2.49
-0.51 9.77 2.49
-0.71 9.76 2.49
-0.90 9.75 2.49
-1.10 9.74 2.49
-1.30 9.72 2.49
-1.49 9.70 2.49
-1.69 9.67 2.49
-1.88 9.64 2.49
-2.08 9.61 2.49
-2.27 9.57 2.49
-2.46 9.53 2.49
-2.65 9.49 2.49
-2.85 9.44 2.49
-3.04 9.38 2.49
-3.23 9.33 2.49
-3.41 9.26 2.49
-3.60 9.20 2.49
-3.79 9.13 2.49
-3.97 9.06 2.49
-4.15 8.98 2.49
-4.34 8.90 2.49
-4.51 8.82 2.49
-4.69 8.73 2.49
-4.87 8.64 2.49
-5.04 8.54 2.49
-5.22 8.44 2.49
-5.39 8.34 2.49
-5.56 8.23 2.49
-5.72 8.13 2.49
-5.88 8.00 2.49
-5.87 7.67 2.42
-5.95 7.45 2.39
-6.10 7.34 2.39
-6.22 7.18 2.38
-6.21 6.89 2.32
-6.21 6.62 2.27
-6.57 6.72 2.35
-6.70 6.59 2.35
-6.78 6.41 2.33
-6.11 5.55 2.06
-6.84 5.96 2.27
-7.34 6.14 2.39
-7.46 5.99 2.39
-7.58 5.84 2.39
-7.70 5.69 2.39
-7.81 5.54 2.39
-7.92 5.38 2.39
-8.03 5.22 2.39
-8.13 5.06 2.39
-8.24 4.90 2.39
-8.33 4.73 2.39
-8.43 4.57 2.39
-8.52 4.40 2.39
-8.60 4.23 2.39
-8.69 4.05 2.39
-8.77 3.88 2.39
-8.84 3.70 2.39
-8.92 3.52 2.39
-8.98 3.34 2.39
-9.05 3.16 2.39
-9.11 2.98 2.39
-9.17 2.80 2.39
-9.22 2.61 2.39
-9.27 2.43 2.39
-9.32 2.24 2.39
-9.36 2.06 2.39
-9.40 1.87 2.39
-9.43 1.68 2.39
-9.46 1.49 2.39
-9.49 1.30 2.39
-9.51 1.11 2.39
-9.53 0.92 2.39
-9.54 0.73 2.39
-9.55 0.53 2.39
-9.56 0.34 2.39
-9.56 0.15 2.39
-9.56 -0.04 2.39
-9.55 -0.23 2.39
-9.55 -0.42 2.39
-9.53 -0.61 2.39
