ply
format ascii 1.0
element vertex 2837
property float32 x
property float32 y
property float32 z
end_header
13.41 -4.83 0.48
13.47 -4.55 0.47
13.53 -4.27 0.47
13.59 -4.00 0.47
6.61 -1.80 0.23
6.49 -1.63 0.22
6.36 -1.46 0.22
6.25 -1.30 0.21
6.35 -1.19 0.21
6.81 -1.14 0.23
14.23 -2.09 0.47
14.26 -1.80 0.47
14.26 -1.51 0.47
14.26 -1.22 0.47
14.26 -0.93 0.47
14.26 -0.64 0.47
14.25 -0.36 0.47
14.23 -0.07 0.47
14.19 0.21 0.46
14.14 0.50 0.46
14.08 0.78 0.46
14.02 1.06 0.46
13.97 1.33 0.46
13.91 1.61 0.46
13.86 1.89 0.46
13.80 2.16 0.46
13.80 2.45 0.46
13.79 2.73 0.47
13.83 3.03 0.47
13.88 3.33 0.48
13.93 3.64 0.48
13.98 3.96 0.49
14.03 4.28 0.50
14.06 4.60 0.50
14.13 4.93 0.51
14.19 5.28 0.52
14.25 5.63 0.53
14.32 5.99 0.53
14.41 6.37 0.55
14.34 6.69 0.55
14.27 7.00 0.56
14.20 7.33 0.56
14.12 7.65 0.57
14.05 7.98 0.57
13.98 8.31 0.58
13.92 8.66 0.59
13.86 9.02 0.60
14.12 9.59 0.62
14.44 10.24 0.65
14.37 10.63 0.66
14.24 10.98 0.67
14.10 11.33 0.67
13.96 11.69 0.68
13.82 12.05 0.69
13.67 12.42 0.70
13.52 12.78 0.71
13.36 13.15 0.72
13.20 13.52 0.73
13.04 13.90 0.74
12.87 14.28 0.76
12.75 14.73 0.77
12.65 15.23 0.79
12.55 15.74 0.81
12.44 16.26 0.83
12.35 16.83 0.85
12.28 17.46 0.88
12.21 18.13 0.90
12.38 19.19 0.95
12.33 19.99 0.99
12.31 20.87 1.03
14.74 26.19 1.28
14.30 26.65 1.30
13.93 27.26 1.33
13.55 27.88 1.35
13.20 28.60 1.39
15.56 35.57 1.72
15.15 36.63 1.77
14.82 37.97 1.83
14.39 39.16 1.89
14.02 40.66 1.97
13.47 41.77 2.02
12.88 42.85 2.08
12.54 45.00 2.18
7.57 29.42 1.43
2.95 12.49 0.61
2.66 12.40 0.61
2.43 12.51 0.61
7.38 48.33 2.39
3.22 24.37 1.21
5.35 47.88 2.39
4.36 47.63 2.39
3.52 49.41 2.49
2.51 49.12 2.49
1.51 48.81 2.49
0.53 48.49 2.49
-0.44 48.15 2.49
-1.40 47.80 2.49
-2.34 47.43 2.49
-3.27 47.05 2.49
-4.18 46.66 2.49
-4.87 44.34 2.39
-5.73 43.95 2.39
-6.56 43.53 2.39
-7.39 43.11 2.39
-8.20 42.68 2.39
-8.86 41.59 2.35
-9.17 39.19 2.24
-9.67 37.87 2.19
-10.15 36.65 2.14
-10.74 35.98 2.13
-10.93 34.10 2.04
-11.10 32.38 1.97
-11.33 31.01 1.91
-11.43 29.43 1.83
-11.53 28.01 1.77
-11.44 26.27 1.68
-11.44 24.90 1.62
-11.42 23.59 1.56
-11.51 22.60 1.51
-10.73 20.07 1.37
-11.52 20.54 1.42
-11.42 19.45 1.37
-11.10 18.06 1.29
-10.97 17.06 1.24
-10.95 16.31 1.21
-10.91 15.56 1.17
-10.95 14.97 1.15
-11.01 14.44 1.13
-11.07 13.92 1.11
-11.12 13.42 1.10
-11.14 12.92 1.08
-11.13 12.39 1.06
-11.10 11.87 1.04
-11.08 11.38 1.02
-11.10 10.95 1.00
-11.12 10.53 0.99
-11.13 10.13 0.97
-11.14 9.74 0.96
-11.16 9.36 0.95
-11.18 9.01 0.94
-11.21 8.67 0.93
-11.33 8.40 0.93
-11.45 8.14 0.93
-11.57 7.88 0.93
-11.68 7.62 0.93
-6.28 3.91 0.49
-6.59 3.93 0.51
-11.74 6.68 0.90
-11.68 6.34 0.89
-11.61 6.00 0.88
-11.55 5.68 0.87
-11.48 5.36 0.85
-11.46 5.07 0.85
-11.47 4.81 0.84
-11.46 4.53 0.84
-11.44 4.26 0.83
-11.42 3.99 0.82
-11.39 3.73 0.82
-11.37 3.47 0.81
-11.35 3.22 0.81
-11.35 2.97 0.80
-11.36 2.73 0.80
-11.37 2.50 0.80
-11.42 2.27 0.80
-11.46 2.04 0.80
-11.51 1.81 0.80
-11.55 1.58 0.80
-11.60 1.35 0.80
-11.64 1.11 0.80
-11.65 0.88 0.80
-11.66 0.64 0.80
-11.73 0.41 0.81
-11.80 0.18 0.81
-11.88 -0.06 0.82
-11.95 -0.30 0.82
-12.03 -0.54 0.83
-12.10 -0.79 0.83
-12.20 -1.05 0.84
-12.28 -1.30 0.85
-12.36 -1.56 0.85
-12.44 -1.83 0.86
-12.53 -2.10 0.87
-12.61 -2.37 0.88
-12.64 -2.64 0.88
-12.62 -2.90 0.88
-12.59 -3.16 0.88
-12.55 -3.42 0.88
-12.52 -3.69 0.88
-12.48 -3.95 0.89
-12.44 -4.22 0.89
-12.41 -4.48 0.89
-12.37 -4.75 0.89
-12.32 -5.02 0.89
-12.28 -5.29 0.89
-12.23 -5.57 0.90
-12.18 -5.84 0.90
-12.14 -6.12 0.90
-12.09 -6.41 0.91
-12.04 -6.69 0.91
-11.99 -6.98 0.91
-12.00 -7.32 0.92
-12.11 -7.73 0.94
-12.30 -8.20 0.96
-12.50 -8.70 0.99
-12.58 -9.13 1.01
-12.62 -9.56 1.02
-12.66 -9.99 1.04
-12.71 -10.45 1.05
-12.74 -10.92 1.07
-12.64 -11.27 1.08
-12.49 -11.60 1.08
-12.33 -11.92 1.08
-12.17 -12.25 1.08
-12.01 -12.58 1.09
-11.84 -12.92 1.09
-11.76 -13.36 1.10
-11.77 -13.92 1.12
-11.93 -14.70 1.16
-12.03 -15.45 1.20
-12.07 -16.16 1.23
-12.16 -16.98 1.26
-12.18 -17.75 1.30
-11.29 -17.18 1.23
-11.15 -17.73 1.25
-12.81 -21.32 1.47
-13.65 -23.79 1.62
-20.44 -37.33 2.49
-19.59 -37.55 2.47
-18.67 -37.60 2.43
-11.51 -24.40 1.55
-17.05 -38.11 2.39
-16.26 -38.39 2.37
-15.69 -39.23 2.39
-14.99 -39.78 2.39
-14.28 -40.32 2.39
-13.55 -40.86 2.39
-12.81 -41.38 2.39
-10.22 -38.43 2.17
-7.65 -37.76 2.06
-6.79 -37.39 2.02
-5.96 -37.04 1.98
-5.15 -36.63 1.94
-3.43 -28.57 1.50
-2.84 -28.50 1.48
-2.28 -28.67 1.47
-2.31 -38.83 1.98
-1.50 -38.22 1.93
-0.72 -37.62 1.89
0.04 -33.02 2.39
0.61 -28.34 2.04
1.06 -25.47 1.83
2.06 -33.46 2.39
1.57 -15.40 1.09
3.78 -30.91 2.19
4.24 -29.70 2.10
4.50 -27.54 1.94
6.49 -31.67 2.22
6.78 -30.02 2.11
6.37 -25.79 1.81
6.40 -23.84 1.67
6.60 -22.75 1.60
6.67 -21.38 1.50
6.80 -20.37 1.43
6.92 -19.42 1.37
6.99 -18.44 1.30
7.07 -17.57 1.24
7.19 -16.89 1.20
7.31 -16.26 1.16
7.43 -15.67 1.12
7.56 -15.14 1.09
7.77 -14.83 1.07
8.02 -14.57 1.06
8.22 -14.25 1.04
8.36 -13.85 1.02
8.57 -13.58 1.01
8.78 -13.31 1.00
8.86 -12.86 0.97
8.69 -12.09 0.92
8.77 -11.69 0.90
8.94 -11.44 0.89
9.10 -11.18 0.88
9.13 -10.77 0.86
9.16 -10.37 0.84
9.18 -9.99 0.82
9.26 -9.67 0.81
9.36 -9.39 0.79
9.48 -9.14 0.79
9.60 -8.89 0.78
9.72 -8.65 0.77
9.84 -8.41 0.76
10.05 -8.24 0.76
10.23 -8.05 0.76
10.35 -7.82 0.76
10.55 -7.64 0.76
10.75 -7.46 0.76
10.96 -7.28 0.76
11.16 -7.10 0.76
11.30 -6.88 0.76
11.44 -6.65 0.76
11.58 -6.42 0.76
11.72 -6.20 0.75
11.86 -5.97 0.75
12.04 -5.76 0.76
12.24 -5.55 0.76
12.44 -5.35 0.76
12.64 -5.14 0.77
12.85 -4.92 0.77
12.99 -4.68 0.77
13.05 -4.41 0.77
13.11 -4.14 0.77
13.18 -3.87 0.77
6.60 -1.80 0.38
6.47 -1.62 0.37
6.35 -1.46 0.36
6.24 -1.30 0.35
6.35 -1.19 0.36
6.82 -1.14 0.38
13.86 -2.03 0.77
13.87 -1.75 0.77
13.82 -1.46 0.77
13.81 -1.18 0.77
13.79 -0.90 0.76
13.77 -0.62 0.76
13.76 -0.35 0.76
13.74 -0.07 0.76
13.71 0.21 0.76
13.64 0.48 0.76
13.58 0.75 0.75
13.52 1.02 0.75
13.46 1.29 0.75
13.41 1.55 0.75
13.36 1.82 0.75
13.30 2.08 0.75
13.28 2.35 0.75
13.27 2.63 0.75
13.27 2.90 0.76
13.26 3.18 0.76
13.27 3.47 0.77
13.31 3.77 0.78
13.36 4.07 0.79
13.39 4.37 0.80
13.42 4.68 0.80
13.44 5.00 0.81
13.47 5.32 0.82
13.52 5.65 0.84
13.58 6.00 0.85
13.68 6.38 0.87
13.93 6.83 0.89
13.87 7.15 0.90
13.79 7.47 0.91
13.72 7.79 0.92
13.64 8.11 0.92
13.57 8.44 0.93
13.51 8.79 0.95
13.45 9.13 0.96
13.39 9.49 0.97
13.59 10.05 1.00
13.65 10.52 1.03
13.55 10.88 1.04
13.45 11.25 1.05
13.34 11.63 1.07
13.21 11.99 1.08
13.07 12.34 1.09
12.91 12.70 1.11
12.75 13.05 1.12
12.55 13.37 1.13
12.35 13.70 1.14
12.15 14.03 1.15
11.94 14.36 1.17
11.77 14.74 1.18
11.60 15.15 1.20
11.43 15.57 1.22
11.26 16.00 1.25
11.11 16.47 1.27
10.99 17.03 1.30
10.89 17.64 1.34
10.84 18.37 1.38
10.92 19.38 1.45
11.14 20.73 1.54
11.10 21.70 1.61
11.07 22.76 1.68
11.12 24.07 1.77
11.69 26.69 1.95
11.56 27.92 2.03
11.43 29.24 2.12
11.40 31.00 2.24
11.25 32.59 2.35
11.48 35.54 2.56
11.16 37.10 2.67
10.74 38.45 2.77
7.57 29.38 2.11
7.02 29.70 2.14
2.67 12.40 0.89
6.44 33.16 2.39
5.75 33.11 2.39
5.06 33.05 2.39
3.23 24.34 1.76
3.69 32.89 2.39
3.01 32.80 2.39
2.44 34.10 2.49
1.75 33.97 2.49
1.06 33.83 2.49
0.38 33.68 2.49
-0.29 33.52 2.49
-0.96 33.34 2.49
-1.62 33.16 2.49
-2.28 32.96 2.49
-2.92 32.75 2.49
-3.56 32.53 2.49
-4.20 32.30 2.49
-4.82 32.06 2.49
-5.21 30.50 2.39
-5.80 30.25 2.39
-6.38 29.99 2.39
-6.94 29.72 2.39
-7.51 29.44 2.39
-8.06 29.16 2.39
-8.61 28.87 2.39
-9.15 28.56 2.39
-10.35 30.23 2.56
-10.74 29.41 2.52
-11.03 28.43 2.46
-11.10 26.99 2.37
-10.76 24.74 2.20
-10.70 23.30 2.09
-10.94 22.63 2.06
-11.14 21.91 2.02
-10.72 20.07 1.88
-10.82 19.32 1.84
-10.69 18.21 1.76
-10.53 17.13 1.68
-10.61 16.51 1.65
-10.58 15.76 1.60
-10.59 15.12 1.56
-10.67 14.60 1.53
-10.74 14.09 1.51
-10.80 13.59 1.48
-10.84 13.10 1.45
-10.87 12.60 1.43
-10.86 12.09 1.40
-10.84 11.59 1.37
-10.84 11.14 1.35
-10.87 10.73 1.33
-10.89 10.33 1.31
-10.91 9.93 1.29
-10.93 9.55 1.27
-10.95 9.19 1.25
-10.98 8.85 1.24
-11.01 8.52 1.23
-11.11 8.24 1.22
-11.23 7.99 1.22
-11.35 7.73 1.22
-11.46 7.48 1.22
-6.27 3.91 0.66
-6.59 3.93 0.68
-11.52 6.56 1.19
-11.46 6.22 1.17
-11.39 5.89 1.15
-11.33 5.58 1.14
-11.28 5.27 1.12
-11.27 4.99 1.11
-11.29 4.73 1.11
-11.30 4.47 1.10
-11.28 4.20 1.09
-11.26 3.94 1.08
-11.23 3.68 1.07
-11.21 3.43 1.07
-11.19 3.17 1.06
-11.20 2.93 1.05
-11.21 2.70 1.05
-11.22 2.46 1.05
-11.25 2.23 1.05
-11.29 2.01 1.05
-11.34 1.78 1.05
-11.38 1.55 1.05
-11.42 1.33 1.05
-11.46 1.10 1.05
-11.47 0.87 1.05
-11.48 0.63 1.05
-11.51 0.40 1.05
-11.58 0.17 1.06
-11.65 -0.06 1.07
-11.72 -0.30 1.07
-11.79 -0.53 1.08
-11.87 -0.78 1.09
-11.90 -1.02 1.09
-11.97 -1.27 1.10
-12.18 -1.54 1.12
-12.29 -1.80 1.13
-12.37 -2.07 1.14
-12.45 -2.34 1.15
-12.53 -2.62 1.16
-12.51 -2.88 1.17
-12.48 -3.14 1.17
-12.44 -3.40 1.17
-12.41 -3.66 1.17
-12.37 -3.92 1.17
-12.34 -4.18 1.17
-12.26 -4.43 1.17
-12.17 -4.68 1.17
-12.08 -4.92 1.17
-12.07 -5.21 1.18
-12.03 -5.48 1.18
-11.98 -5.75 1.19
-11.94 -6.03 1.19
-11.89 -6.30 1.20
-11.84 -6.59 1.20
-11.79 -6.87 1.21
-11.77 -7.18 1.22
-11.77 -7.51 1.23
-11.86 -7.91 1.25
-12.04 -8.38 1.29
-12.23 -8.88 1.32
-12.28 -9.30 1.34
-12.34 -9.75 1.37
-12.41 -10.21 1.39
-12.48 -10.69 1.42
-12.50 -11.15 1.44
-12.34 -11.47 1.45
-12.18 -11.79 1.45
-12.02 -12.11 1.46
-11.86 -12.44 1.46
-11.70 -12.77 1.47
-11.53 -13.11 1.48
-11.54 -13.66 1.51
-11.54 -14.23 1.54
-11.71 -15.05 1.60
-11.73 -15.72 1.64
-11.75 -16.42 1.68
-11.82 -17.24 1.73
-11.27 -17.17 1.69
-11.14 -17.73 1.72
-12.18 -20.29 1.94
-12.18 -21.25 2.00
-13.45 -24.58 2.28
-13.66 -26.21 2.39
-13.19 -26.59 2.39
-11.52 -24.44 2.17
-12.21 -27.32 2.39
-11.71 -27.68 2.39
-11.20 -28.03 2.39
-10.68 -28.37 2.39
-10.59 -29.95 2.49
-10.04 -30.30 2.49
-9.47 -30.64 2.50
-8.89 -30.97 2.50
-8.31 -31.29 2.50
-7.72 -31.60 2.50
-7.12 -31.90 2.50
-6.51 -32.19 2.50
-5.88 -32.46 2.50
-5.26 -32.72 2.50
-4.62 -32.97 2.50
-3.33 -27.82 2.09
-2.83 -28.50 2.13
-2.25 -28.45 2.11
-1.67 -28.30 2.08
-1.27 -32.71 2.39
-0.62 -32.85 2.39
0.05 -26.23 2.49
0.57 -26.32 2.49
1.06 -25.32 2.39
1.29 -20.78 1.96
1.59 -19.39 1.82
1.57 -15.37 1.44
3.13 -25.54 2.39
3.66 -25.57 2.39
4.19 -25.59 2.39
4.70 -25.48 2.38
4.93 -24.05 2.25
5.27 -23.31 2.18
5.60 -22.63 2.12
5.80 -21.57 2.02
5.98 -20.60 1.93
6.14 -19.65 1.85
6.28 -18.77 1.77
6.38 -17.86 1.69
6.48 -17.08 1.62
6.62 -16.42 1.57
6.75 -15.83 1.52
6.87 -15.27 1.47
7.01 -14.76 1.43
7.13 -14.28 1.39
7.25 -13.83 1.36
7.37 -13.39 1.32
7.50 -12.99 1.29
7.62 -12.61 1.27
7.76 -12.29 1.24
7.93 -12.01 1.23
8.03 -11.65 1.20
8.21 -11.41 1.19
8.38 -11.18 1.18
8.56 -10.94 1.17
8.69 -10.67 1.15
8.73 -10.28 1.13
8.76 -9.91 1.10
8.85 -9.62 1.09
1.97 -2.06 0.24
2.03 -2.04 0.24
2.12 -2.04 0.24
2.21 -2.05 0.25
2.30 -2.05 0.25
9.53 -8.13 1.02
9.64 -7.90 1.02
9.75 -7.67 1.01
9.90 -7.47 1.00
10.08 -7.29 1.01
10.27 -7.12 1.01
10.46 -6.95 1.01
10.65 -6.77 1.01
10.82 -6.58 1.01
10.96 -6.36 1.01
11.09 -6.15 1.01
11.22 -5.93 1.01
11.38 -5.72 1.01
11.55 -5.52 1.01
11.74 -5.33 1.02
11.95 -5.14 1.03
12.16 -4.94 1.03
12.35 -4.73 1.04
12.55 -4.52 1.05
12.66 -4.28 1.05
12.72 -4.02 1.05
12.81 -3.76 1.05
6.59 -1.79 0.53
6.46 -1.62 0.52
6.34 -1.45 0.51
6.22 -1.30 0.50
6.36 -1.19 0.51
6.83 -1.14 0.54
13.47 -1.97 1.06
13.47 -1.70 1.06
13.42 -1.42 1.05
13.37 -1.14 1.04
13.33 -0.87 1.04
13.32 -0.60 1.04
13.30 -0.33 1.04
13.29 -0.07 1.03
13.26 0.20 1.03
13.20 0.46 1.03
13.14 0.72 1.03
13.07 0.98 1.02
13.01 1.24 1.02
12.95 1.50 1.02
12.89 1.75 1.02
12.84 2.01 1.02
12.80 2.27 1.02
12.79 2.53 1.02
12.78 2.80 1.03
12.77 3.06 1.03
12.76 3.33 1.04
12.75 3.61 1.04
12.74 3.88 1.05
12.77 4.17 1.06
12.80 4.46 1.07
12.82 4.76 1.08
12.83 5.06 1.10
12.85 5.37 1.11
12.87 5.68 1.12
12.90 6.01 1.14
12.97 6.36 1.16
13.19 6.80 1.19
13.41 7.26 1.23
13.40 7.60 1.24
13.33 7.92 1.25
13.25 8.24 1.27
13.19 8.57 1.28
13.12 8.91 1.29
13.06 9.25 1.31
12.99 9.60 1.32
12.92 9.96 1.34
12.98 10.42 1.37
12.87 10.77 1.39
12.77 11.12 1.40
12.64 11.47 1.42
12.49 11.79 1.43
12.33 12.12 1.45
12.17 12.45 1.46
12.00 12.78 1.48
11.82 13.11 1.49
11.65 13.44 1.51
11.46 13.78 1.53
11.25 14.10 1.54
11.05 14.42 1.56
10.87 14.79 1.58
10.73 15.24 1.61
10.62 15.73 1.64
10.49 16.24 1.68
10.38 16.80 1.72
10.31 17.45 1.77
10.23 18.15 1.83
10.15 18.87 1.89
10.07 19.66 1.96
10.17 20.88 2.06
10.10 21.84 2.15
10.03 22.89 2.24
9.97 24.06 2.34
9.89 25.27 2.45
9.83 26.68 2.58
9.66 27.93 2.69
9.50 29.37 2.82
8.70 28.87 2.76
7.70 27.53 2.63
6.47 25.06 2.39
5.94 25.09 2.39
2.67 12.40 1.18
4.89 25.11 2.39
4.37 25.11 2.39
3.85 25.09 2.39
3.24 24.34 2.32
2.82 25.03 2.39
2.41 26.07 2.49
1.88 26.01 2.49
1.35 25.95 2.49
0.82 25.87 2.49
0.30 25.78 2.49
-0.21 25.69 2.49
-0.73 25.58 2.49
-1.24 25.47 2.49
-1.74 25.34 2.49
-2.24 25.21 2.49
-2.74 25.07 2.49
-3.23 24.92 2.49
-3.71 24.76 2.49
-4.19 24.59 2.49
-4.67 24.42 2.49
-5.14 24.23 2.49
-5.45 23.38 2.42
-5.82 22.85 2.39
-6.25 22.65 2.39
-6.68 22.45 2.39
-7.11 22.23 2.39
-7.53 22.01 2.39
-7.94 21.79 2.39
-8.35 21.55 2.39
-8.76 21.31 2.39
-9.15 21.07 2.39
-9.54 20.81 2.39
-10.28 21.28 2.48
-10.40 20.47 2.41
-10.20 19.12 2.28
-10.24 18.29 2.21
-10.09 17.20 2.11
-10.18 16.58 2.07
-10.25 15.97 2.02
-10.24 15.27 1.96
-10.33 14.75 1.93
-10.41 14.25 1.90
-10.48 13.75 1.86
-10.54 13.27 1.83
-10.57 12.78 1.80
-10.60 12.30 1.76
-10.60 11.81 1.73
-10.59 11.33 1.69
-10.61 10.91 1.66
-10.65 10.51 1.64
-10.68 10.13 1.62
-10.70 9.75 1.59
-10.72 9.38 1.57
-10.75 9.03 1.55
-10.78 8.70 1.53
-10.82 8.37 1.52
-10.90 8.09 1.51
-11.02 7.84 1.51
-11.14 7.59 1.50
-11.25 7.34 1.50
-6.39 3.99 0.84
-11.34 6.76 1.48
-11.30 6.44 1.46
-11.24 6.11 1.44
-11.19 5.79 1.42
-11.13 5.48 1.40
-11.08 5.18 1.38
-11.09 4.92 1.37
-11.11 4.66 1.36
-11.13 4.41 1.36
-11.12 4.14 1.34
-11.10 3.89 1.33
-11.08 3.63 1.32
-11.06 3.38 1.31
-11.04 3.13 1.31
-11.05 2.90 1.30
-11.07 2.66 1.30
-11.08 2.43 1.29
-11.09 2.20 1.29
-11.13 1.98 1.29
-11.17 1.75 1.29
-11.21 1.53 1.29
-11.26 1.31 1.29
-11.29 1.08 1.30
-11.30 0.85 1.29
-11.31 0.63 1.29
-11.32 0.40 1.29
-11.36 0.17 1.30
-11.43 -0.06 1.31
-11.50 -0.29 1.31
-11.57 -0.53 1.32
-11.64 -0.76 1.33
-11.68 -1.00 1.34
-11.69 -1.24 1.34
-11.74 -1.49 1.35
-11.94 -1.75 1.37
-12.14 -2.04 1.40
-12.29 -2.31 1.42
-12.37 -2.59 1.44
-12.41 -2.86 1.45
-12.38 -3.11 1.45
-12.34 -3.37 1.45
-12.30 -3.63 1.45
-12.22 -3.87 1.45
-12.13 -4.11 1.45
-12.04 -4.35 1.44
-11.95 -4.59 1.44
-11.86 -4.84 1.44
-11.82 -5.10 1.45
-11.82 -5.38 1.46
-11.79 -5.66 1.46
-11.74 -5.93 1.47
-11.69 -6.20 1.48
-11.64 -6.48 1.48
-11.59 -6.76 1.49
-11.55 -7.05 1.50
-11.55 -7.37 1.52
-11.55 -7.70 1.54
-11.61 -8.09 1.56
-11.78 -8.56 1.60
-11.94 -9.05 1.65
-11.93 -9.43 1.67
-11.95 -9.84 1.69
-12.01 -10.30 1.73
-12.07 -10.78 1.76
-12.09 -11.24 1.79
-12.04 -11.66 1.82
-11.88 -11.98 1.82
-11.72 -12.30 1.83
-11.56 -12.62 1.84
-11.39 -12.96 1.85
-11.31 -13.40 1.88
-11.31 -13.96 1.92
-11.32 -14.55 1.96
-11.44 -15.33 2.03
-11.43 -15.98 2.08
-11.43 -16.68 2.13
-11.26 -17.17 2.16
-11.13 -17.73 2.20
-11.64 -19.41 2.37
-11.60 -20.25 2.43
-11.03 -20.18 2.39
-10.66 -20.47 2.39
-10.28 -20.74 2.39
-9.89 -21.01 2.39
-9.50 -21.28 2.39
-9.10 -21.54 2.39
-8.70 -21.79 2.39
-8.28 -22.03 2.39
-7.87 -22.27 2.39
-7.46 -22.56 2.40
-7.32 -23.71 2.49
-6.86 -23.94 2.49
-6.41 -24.16 2.49
-5.94 -24.37 2.49
-5.47 -24.57 2.49
-5.00 -24.77 2.49
-4.51 -24.96 2.49
-4.03 -25.14 2.49
-3.54 -25.31 2.50
-3.04 -25.47 2.50
-2.54 -25.62 2.50
-2.03 -25.76 2.49
-1.52 -25.90 2.49
-1.00 -26.02 2.49
-0.48 -26.13 2.49
0.05 -21.16 2.49
0.47 -21.22 2.49
0.87 -20.67 2.42
1.28 -20.44 2.39
1.40 -16.95 1.98
1.58 -15.36 1.79
2.53 -20.51 2.39
2.95 -20.52 2.39
3.37 -20.52 2.39
3.79 -20.51 2.39
4.21 -20.50 2.39
4.62 -20.37 2.38
4.98 -20.10 2.35
5.33 -19.82 2.32
5.52 -18.98 2.23
5.68 -18.16 2.14
5.81 -17.35 2.05
5.94 -16.62 1.97
6.08 -15.98 1.91
6.22 -15.42 1.85
6.35 -14.89 1.79
6.49 -14.40 1.75
6.63 -13.95 1.70
6.75 -13.51 1.66
6.87 -13.08 1.62
7.00 -12.70 1.58
7.12 -12.34 1.55
7.24 -11.99 1.52
7.36 -11.64 1.49
7.51 -11.36 1.47
7.69 -11.15 1.46
7.87 -10.93 1.45
8.03 -10.70 1.43
8.20 -10.48 1.42
8.32 -10.20 1.40
8.36 -9.84 1.37
8.46 -9.57 1.35
1.90 -2.07 0.30
1.95 -2.03 0.30
2.03 -2.04 0.30
2.12 -2.04 0.31
2.21 -2.05 0.32
2.31 -2.05 0.32
2.40 -2.05 0.33
9.34 -7.65 1.26
9.45 -7.43 1.25
9.58 -7.22 1.24
9.72 -7.03 1.24
9.85 -6.83 1.24
10.01 -6.64 1.24
10.19 -6.47 1.24
10.37 -6.30 1.25
10.51 -6.10 1.25
10.63 -5.89 1.25
10.79 -5.70 1.25
10.95 -5.50 1.25
11.11 -5.31 1.26
11.27 -5.11 1.26
11.47 -4.93 1.27
11.67 -4.74 1.28
11.87 -4.54 1.29
12.07 -4.35 1.30
12.26 -4.14 1.31
12.35 -3.90 1.31
12.45 -3.65 1.31
6.57 -1.79 0.69
6.45 -1.62 0.67
6.33 -1.45 0.65
6.21 -1.29 0.64
6.37 -1.19 0.65
6.84 -1.14 0.70
13.11 -1.92 1.33
13.09 -1.65 1.33
13.04 -1.38 1.32
12.99 -1.11 1.31
12.95 -0.85 1.30
12.90 -0.58 1.30
12.87 -0.32 1.30
12.86 -0.07 1.29
12.84 0.19 1.29
12.78 0.45 1.29
12.72 0.70 1.28
12.66 0.95 1.28
12.60 1.20 1.28
12.54 1.45 1.27
12.48 1.70 1.27
12.42 1.94 1.27
12.36 2.19 1.27
12.34 2.44 1.27
12.32 2.69 1.28
12.30 2.95 1.28
12.28 3.21 1.29
12.26 3.47 1.29
12.24 3.73 1.30
12.22 3.99 1.31
12.19 4.25 1.32
12.21 4.53 1.33
12.22 4.82 1.34
12.23 5.11 1.36
12.24 5.40 1.37
12.25 5.70 1.39
12.26 6.01 1.40
12.27 6.32 1.42
12.45 6.73 1.46
12.69 7.20 1.51
12.90 7.66 1.55
12.95 8.04 1.58
12.87 8.36 1.60
12.81 8.69 1.61
12.74 9.02 1.63
12.67 9.36 1.65
12.58 9.68 1.67
12.41 9.95 1.67
12.23 10.23 1.68
12.08 10.51 1.69
11.94 10.82 1.71
11.80 11.13 1.72
11.65 11.45 1.74
11.50 11.75 1.75
11.34 12.06 1.77
11.17 12.38 1.79
11.00 12.69 1.81
10.83 13.01 1.82
10.67 13.35 1.85
10.54 13.74 1.88
10.40 14.14 1.91
10.27 14.57 1.94
10.25 15.18 2.00
10.12 15.66 2.05
9.99 16.16 2.09
9.86 16.69 2.14
9.76 17.30 2.20
9.66 17.95 2.26
9.56 18.66 2.33
9.44 19.36 2.40
9.31 20.10 2.48
9.23 21.05 2.58
9.13 21.99 2.68
8.75 22.34 2.71
8.11 21.99 2.66
7.54 21.78 2.62
6.46 19.94 2.39
6.04 20.00 2.39
5.62 20.06 2.39
5.20 20.10 2.39
4.78 20.14 2.39
2.68 12.40 1.47
3.94 20.19 2.39
3.52 20.20 2.39
3.11 20.21 2.39
2.69 20.20 2.39
2.38 21.06 2.49
1.95 21.04 2.49
1.52 21.01 2.49
1.10 20.97 2.49
0.67 20.92 2.49
0.25 20.87 2.49
-0.16 20.80 2.49
-0.58 20.73 2.49
-0.99 20.66 2.49
-1.40 20.57 2.49
-1.81 20.48 2.49
-2.21 20.37 2.49
-2.62 20.27 2.49
-3.01 20.15 2.49
-3.41 20.03 2.49
-3.80 19.90 2.49
-4.18 19.76 2.49
-4.57 19.61 2.49
-4.95 19.46 2.49
-5.32 19.31 2.49
-5.62 18.92 2.46
-5.81 18.19 2.39
-6.15 18.02 2.39
-6.50 17.84 2.39
-6.84 17.66 2.39
-7.17 17.47 2.39
-7.50 17.28 2.39
-7.83 17.08 2.39
-8.15 16.88 2.39
-8.46 16.67 2.39
-8.78 16.46 2.39
-9.08 16.24 2.39
-9.38 16.01 2.39
-9.68 15.78 2.39
-9.91 15.44 2.37
-9.98 14.89 2.33
-10.07 14.39 2.28
-10.16 13.91 2.24
-10.23 13.43 2.20
-10.28 12.95 2.16
-10.31 12.47 2.12
-10.35 12.02 2.08
-10.35 11.54 2.04
-10.36 11.10 2.00
-10.40 10.70 1.97
-10.43 10.31 1.94
-10.47 9.93 1.91
-10.49 9.56 1.89
-10.51 9.20 1.86
-10.56 8.87 1.84
-10.59 8.55 1.82
-10.63 8.23 1.80
-10.70 7.94 1.79
-10.82 7.70 1.78
-10.93 7.45 1.78
-11.04 7.20 1.77
-11.06 6.91 1.76
-11.09 6.62 1.74
-11.09 6.32 1.72
-11.04 6.00 1.70
-10.98 5.69 1.68
-10.93 5.38 1.65
-10.90 5.10 1.63
-10.92 4.84 1.62
-10.94 4.59 1.61
-10.95 4.34 1.60
-10.96 4.09 1.59
-10.94 3.83 1.58
-10.93 3.58 1.57
-10.91 3.33 1.56
-10.90 3.09 1.55
-10.91 2.86 1.54
-10.92 2.63 1.54
-10.93 2.40 1.53
-10.95 2.17 1.53
-10.97 1.95 1.53
-11.01 1.73 1.53
-11.05 1.51 1.53
-11.09 1.29 1.53
-11.13 1.07 1.53
-11.14 0.84 1.53
-11.15 0.62 1.53
-11.16 0.39 1.53
-11.16 0.17 1.53
-11.22 -0.06 1.54
-11.29 -0.29 1.55
-11.35 -0.52 1.56
-11.42 -0.75 1.57
-11.46 -0.98 1.58
-11.47 -1.22 1.58
-11.48 -1.45 1.58
-11.52 -1.69 1.59
-11.71 -1.96 1.62
-11.90 -2.24 1.65
-12.10 -2.53 1.69
-12.29 -2.83 1.72
-12.26 -3.09 1.72
-12.17 -3.33 1.72
-12.09 -3.56 1.71
-12.00 -3.80 1.71
-11.91 -4.04 1.71
-11.82 -4.28 1.71
-11.74 -4.52 1.70
-11.65 -4.75 1.70
-11.57 -4.99 1.70
-11.57 -5.27 1.72
-11.57 -5.55 1.73
-11.55 -5.84 1.74
-11.50 -6.11 1.75
-11.45 -6.38 1.76
-11.40 -6.65 1.77
-11.35 -6.93 1.78
-11.33 -7.24 1.80
-11.33 -7.56 1.82
-11.33 -7.89 1.84
-11.36 -8.26 1.87
-11.52 -8.73 1.92
-11.61 -9.18 1.96
-11.60 -9.55 1.99
-11.58 -9.94 2.02
-11.62 -10.38 2.05
-11.67 -10.86 2.10
-11.68 -11.31 2.13
-11.65 -11.75 2.17
-11.58 -12.16 2.20
-11.42 -12.48 2.21
-11.26 -12.81 2.22
-11.10 -13.16 2.24
-11.09 -13.70 2.28
-11.08 -14.26 2.34
-11.10 -14.89 2.40
-10.80 -15.12 2.39
-10.52 -15.37 2.39
-10.24 -15.62 2.39
-9.94 -15.86 2.39
-9.65 -16.09 2.39
-9.35 -16.33 2.39
-9.04 -16.55 2.39
-8.73 -16.78 2.39
-8.41 -16.99 2.39
-8.09 -17.21 2.39
-7.77 -17.41 2.39
-7.43 -17.61 2.39
-7.10 -17.81 2.39
-7.05 -18.77 2.49
-6.69 -18.96 2.49
-6.33 -19.15 2.49
-5.96 -19.33 2.49
-5.58 -19.50 2.49
-5.21 -19.66 2.49
-4.82 -19.82 2.49
-4.44 -19.98 2.49
-4.05 -20.12 2.49
-3.66 -20.26 2.49
-3.26 -20.39 2.49
-2.86 -20.51 2.49
-2.45 -20.63 2.49
-2.04 -20.74 2.49
-1.63 -20.84 2.49
-1.22 -20.93 2.49
-0.80 -21.01 2.49
-0.38 -21.09 2.49
0.05 -17.72 2.49
0.40 -17.76 2.49
0.76 -17.79 2.49
1.07 -17.09 2.39
1.42 -17.11 2.39
1.46 -14.12 1.97
2.12 -17.12 2.39
2.47 -17.12 2.39
2.82 -17.11 2.39
3.17 -17.10 2.39
3.52 -17.08 2.39
3.87 -17.05 2.39
4.22 -17.01 2.39
4.52 -16.76 2.36
4.80 -16.47 2.33
5.07 -16.18 2.30
5.33 -15.90 2.26
5.57 -15.56 2.23
5.72 -15.03 2.16
5.86 -14.53 2.10
6.00 -14.05 2.04
6.14 -13.62 1.99
6.28 -13.20 1.94
6.40 -12.80 1.90
6.53 -12.42 1.86
6.66 -12.08 1.82
6.78 -11.74 1.79
6.90 -11.40 1.75
7.00 -11.07 1.72
7.18 -10.86 1.70
7.36 -10.66 1.69
7.53 -10.46 1.68
7.71 -10.26 1.67
7.87 -10.05 1.66
7.98 -9.78 1.63
8.09 -9.52 1.61
1.86 -2.10 0.36
1.87 -2.03 0.35
1.95 -2.04 0.36
2.04 -2.04 0.37
2.12 -2.04 0.38
2.21 -2.05 0.38
2.31 -2.05 0.39
2.41 -2.05 0.40
9.05 -7.41 1.49
9.16 -7.20 1.48
9.28 -6.99 1.47
9.41 -6.80 1.47
9.54 -6.61 1.46
9.68 -6.42 1.46
9.81 -6.23 1.46
9.94 -6.04 1.46
10.09 -5.86 1.46
10.24 -5.67 1.47
10.39 -5.49 1.47
10.55 -5.30 1.47
10.70 -5.11 1.48
10.85 -4.92 1.49
11.01 -4.73 1.49
11.20 -4.55 1.50
11.39 -4.36 1.52
11.58 -4.17 1.53
11.78 -3.98 1.54
11.94 -3.76 1.55
12.11 -3.55 1.56
6.56 -1.78 0.84
6.43 -1.61 0.82
6.31 -1.45 0.80
6.20 -1.29 0.78
6.38 -1.20 0.80
6.85 -1.14 0.86
12.76 -1.87 1.59
12.72 -1.60 1.58
12.68 -1.34 1.57
12.64 -1.08 1.57
12.59 -0.82 1.56
12.55 -0.57 1.55
12.51 -0.31 1.54
12.46 -0.06 1.54
12.44 0.19 1.54
12.39 0.43 1.53
12.33 0.68 1.52
12.27 0.92 1.52
12.19 1.16 1.51
12.11 1.40 1.51
12.03 1.63 1.50
11.94 1.87 1.50
11.86 2.10 1.49
11.80 2.33 1.49
11.76 2.57 1.49
11.73 2.81 1.50
11.70 3.05 1.50
11.68 3.30 1.51
11.66 3.55 1.52
11.64 3.80 1.52
11.61 4.05 1.53
11.58 4.30 1.54
11.59 4.57 1.56
11.60 4.84 1.57
11.60 5.12 1.59
11.60 5.40 1.61
11.60 5.68 1.62
11.60 5.98 1.64
11.60 6.27 1.66
11.59 6.57 1.68
11.56 6.86 1.70
11.54 7.17 1.72
11.82 7.67 1.79
12.38 8.39 1.90
12.26 8.68 1.91
12.10 8.93 1.92
11.94 9.19 1.93
11.78 9.45 1.93
11.62 9.70 1.94
11.45 9.96 1.95
11.28 10.22 1.96
11.12 10.48 1.97
10.98 10.77 1.99
10.83 11.07 2.01
10.68 11.36 2.02
10.55 11.68 2.05
10.42 12.01 2.07
10.28 12.35 2.10
10.19 12.75 2.14
10.11 13.17 2.18
9.97 13.55 2.21
9.83 13.93 2.25
9.68 14.32 2.29
9.59 14.83 2.34
9.59 15.50 2.42
9.51 16.07 2.49
9.36 16.58 2.54
9.25 17.17 2.61
9.13 17.79 2.68
9.00 18.44 2.76
7.09 15.30 2.27
8.16 18.58 2.74
7.64 18.40 2.70
7.08 18.05 2.63
6.08 16.46 2.39
5.73 16.54 2.39
5.38 16.61 2.39
5.04 16.67 2.39
4.69 16.72 2.39
4.34 16.77 2.39
3.99 16.81 2.39
2.68 12.40 1.76
3.30 16.87 2.39
2.95 16.89 2.39
2.61 16.90 2.39
2.36 17.63 2.49
2.00 17.63 2.49
1.64 17.62 2.49
1.28 17.60 2.49
0.93 17.58 2.49
0.57 17.55 2.49
0.22 17.51 2.49
-0.13 17.47 2.49
-0.48 17.42 2.49
-0.83 17.36 2.49
-1.17 17.29 2.49
-1.52 17.22 2.49
-1.86 17.15 2.49
-2.20 17.06 2.49
-2.53 16.97 2.49
-2.86 16.88 2.49
-3.19 16.77 2.49
-3.52 16.67 2.49
-3.85 16.55 2.49
-4.17 16.43 2.49
-4.49 16.30 2.49
-4.80 16.17 2.49
-5.11 16.04 2.49
-5.42 15.89 2.49
-5.73 15.74 2.49
-5.79 14.97 2.40
-6.07 14.79 2.39
-6.35 14.64 2.39
-6.63 14.47 2.39
-6.90 14.31 2.39
-7.17 14.14 2.39
-7.44 13.96 2.39
-7.70 13.78 2.39
-7.96 13.59 2.39
-8.21 13.40 2.39
-8.47 13.21 2.39
-8.71 13.01 2.39
-8.95 12.81 2.39
-9.19 12.60 2.39
-9.43 12.39 2.39
-9.66 12.18 2.39
-9.88 11.96 2.39
-10.11 11.74 2.39
-10.11 11.28 2.34
-10.15 10.88 2.30
-10.19 10.49 2.27
-10.23 10.11 2.24
-6.37 6.05 1.37
-6.52 5.95 1.38
-10.33 9.04 2.14
-10.37 8.72 2.12
-10.41 8.40 2.09
-10.45 8.09 2.07
-10.50 7.80 2.05
-10.62 7.56 2.05
-10.73 7.32 2.04
-10.80 7.05 2.03
-10.83 6.76 2.01
-10.85 6.48 2.00
-10.88 6.20 1.98
-10.84 5.89 1.95
-10.79 5.59 1.92
-10.74 5.29 1.90
-10.73 5.02 1.88
-10.75 4.77 1.87
-10.77 4.52 1.86
-10.79 4.27 1.85
-10.80 4.03 1.84
-10.79 3.78 1.82
-10.78 3.53 1.81
-10.76 3.29 1.80
-10.76 3.05 1.78
-10.77 2.82 1.78
-10.78 2.60 1.77
-10.79 2.37 1.77
-10.81 2.15 1.76
-10.82 1.92 1.76
-10.85 1.71 1.76
-10.89 1.49 1.76
-10.93 1.27 1.76
-10.97 1.05 1.76
-10.98 0.83 1.76
-10.99 0.61 1.76
-10.99 0.39 1.76
-11.00 0.16 1.76
-11.02 -0.06 1.76
-11.08 -0.28 1.77
-11.14 -0.51 1.78
-11.21 -0.74 1.80
-11.26 -0.97 1.81
-11.26 -1.20 1.81
-11.27 -1.43 1.82
-11.27 -1.66 1.82
-11.30 -1.89 1.83
-11.48 -2.16 1.86
-11.66 -2.44 1.90
-11.86 -2.73 1.94
-11.97 -3.02 1.97
-11.96 -3.27 1.97
-11.87 -3.50 1.97
-11.79 -3.74 1.97
-11.70 -3.97 1.96
-11.62 -4.20 1.96
-11.53 -4.44 1.96
-11.44 -4.67 1.96
-11.35 -4.90 1.96
-11.33 -5.16 1.97
-11.32 -5.44 1.98
-11.32 -5.72 2.00
-11.31 -6.01 2.02
-11.27 -6.28 2.03
-11.22 -6.55 2.04
-11.16 -6.82 2.05
-11.12 -7.11 2.07
-11.12 -7.43 2.09
-11.11 -7.75 2.12
-11.11 -8.08 2.14
-11.11 -8.43 2.17
-11.26 -8.91 2.23
-11.29 -9.30 2.27
-11.27 -9.68 2.30
-11.25 -10.06 2.34
-11.24 -10.46 2.37
-11.28 -10.93 2.42
-11.27 -11.37 2.46
-10.72 -11.27 2.39
-10.52 -11.50 2.39
-10.30 -11.73 2.39
-10.08 -11.96 2.39
-9.86 -12.18 2.39
-9.63 -12.40 2.39
-9.40 -12.62 2.39
-9.16 -12.83 2.39
-8.92 -13.04 2.39
-8.67 -13.24 2.39
-8.42 -13.44 2.39
-8.17 -13.64 2.39
-7.91 -13.83 2.39
-7.65 -14.02 2.39
-7.38 -14.20 2.39
-7.13 -14.41 2.40
-6.95 -14.80 2.43
-6.84 -15.36 2.49
-6.55 -15.53 2.49
-6.25 -15.69 2.49
-5.95 -15.85 2.49
-5.64 -16.01 2.49
-5.33 -16.16 2.49
-5.02 -16.30 2.49
-4.70 -16.44 2.49
-4.38 -16.57 2.49
-4.06 -16.69 2.49
-3.73 -16.81 2.49
-3.40 -16.93 2.49
-3.07 -17.04 2.49
-2.73 -17.14 2.49
-2.39 -17.23 2.49
-2.05 -17.32 2.49
-1.71 -17.41 2.49
-1.36 -17.48 2.49
-1.01 -17.55 2.49
-0.66 -17.61 2.49
-0.31 -17.67 2.49
0.05 -15.23 2.49
0.35 -15.26 2.49
0.66 -15.28 2.49
0.97 -15.30 2.49
1.22 -14.68 2.39
1.52 -14.68 2.39
1.82 -14.68 2.39
2.12 -14.68 2.39
2.42 -14.66 2.39
2.72 -14.65 2.39
3.02 -14.62 2.39
3.32 -14.59 2.39
3.62 -14.55 2.39
3.92 -14.51 2.39
4.20 -14.40 2.38
4.47 -14.24 2.36
4.73 -14.08 2.35
4.99 -13.92 2.33
5.24 -13.76 2.32
5.49 -13.59 2.30
5.69 -13.31 2.27
5.83 -12.91 2.21
5.96 -12.52 2.16
6.09 -12.15 2.12
6.22 -11.83 2.08
6.34 -11.49 2.04
6.46 -11.17 2.00
6.57 -10.86 1.96
6.71 -10.59 1.93
6.88 -10.40 1.92
7.05 -10.21 1.91
7.22 -10.02 1.89
7.39 -9.83 1.88
7.51 -9.59 1.86
7.67 -9.40 1.85
7.84 -9.21 1.84
1.83 -2.06 0.42
1.87 -2.03 0.42
1.95 -2.04 0.43
2.04 -2.04 0.44
2.12 -2.04 0.44
2.21 -2.05 0.45
2.31 -2.05 0.46
2.41 -2.05 0.48
8.78 -7.19 1.70
8.89 -6.98 1.69
8.99 -6.78 1.68
9.12 -6.59 1.68
9.25 -6.41 1.68
9.38 -6.22 1.68
9.51 -6.04 1.68
9.64 -5.85 1.67
9.72 -5.64 1.67
9.86 -5.46 1.67
10.02 -5.29 1.68
10.17 -5.11 1.68
10.32 -4.93 1.69
10.46 -4.74 1.70
10.61 -4.55 1.70
10.77 -4.37 1.71
10.95 -4.19 1.73
11.13 -4.01 1.74
11.31 -3.81 1.75
11.40 -3.59 1.76
11.49 -3.37 1.76
6.54 -1.78 0.99
6.42 -1.61 0.97
6.30 -1.44 0.95
6.19 -1.29 0.93
6.39 -1.20 0.95
6.86 -1.14 1.02
12.42 -1.82 1.84
12.38 -1.56 1.83
12.34 -1.30 1.82
12.30 -1.05 1.81
12.26 -0.80 1.80
12.21 -0.55 1.79
12.13 -0.31 1.78
12.05 -0.06 1.76
11.97 0.18 1.75
11.91 0.42 1.74
11.85 0.65 1.74
11.78 0.88 1.73
11.70 1.11 1.72
11.63 1.34 1.72
11.55 1.57 1.71
11.47 1.79 1.70
11.40 2.02 1.70
11.32 2.24 1.69
11.28 2.46 1.70
11.25 2.69 1.70
11.21 2.92 1.70
11.17 3.15 1.71
11.14 3.39 1.72
11.10 3.62 1.72
11.07 3.86 1.73
11.05 4.10 1.74
11.02 4.34 1.75
11.02 4.60 1.77
11.02 4.86 1.79
11.02 5.12 1.80
11.01 5.39 1.82
11.01 5.67 1.84
11.00 5.94 1.86
10.99 6.23 1.88
10.97 6.51 1.91
10.94 6.79 1.93
10.91 7.08 1.95
10.88 7.37 1.97
10.84 7.67 2.00
10.81 7.97 2.02
10.95 8.42 2.08
10.83 8.68 2.10
10.71 8.94 2.11
10.59 9.21 2.13
10.50 9.51 2.15
10.42 9.82 2.18
10.33 10.14 2.20
10.24 10.46 2.23
10.14 10.78 2.26
10.04 11.10 2.29
9.91 11.41 2.32
9.77 11.72 2.35
9.63 12.04 2.37
9.49 12.36 2.40
9.38 12.74 2.44
9.30 13.17 2.50
9.21 13.61 2.55
9.11 14.07 2.61
8.97 14.49 2.66
8.92 15.07 2.73
8.89 15.73 2.83
8.86 16.43 2.93
7.80 15.19 2.68
7.38 15.11 2.65
6.97 15.02 2.61
6.08 13.83 2.39
5.79 13.92 2.39
5.50 14.01 2.39
5.21 14.08 2.39
4.91 14.15 2.39
4.62 14.22 2.39
4.32 14.27 2.39
4.02 14.32 2.39
3.73 14.37 2.39
3.43 14.41 2.39
2.69 12.40 2.05
2.84 14.47 2.39
2.54 14.49 2.39
2.27 14.65 2.41
2.03 15.14 2.49
1.72 15.15 2.49
1.42 15.14 2.49
1.11 15.13 2.49
0.80 15.12 2.49
0.50 15.10 2.49
0.20 15.07 2.49
-0.11 15.04 2.49
-0.41 15.00 2.49
-0.71 14.96 2.49
-1.00 14.91 2.49
-1.30 14.85 2.49
-1.60 14.79 2.49
-1.89 14.72 2.49
-2.18 14.65 2.49
-2.47 14.57 2.49
-2.75 14.49 2.49
-3.04 14.40 2.49
-3.32 14.30 2.49
-3.60 14.20 2.49
-3.87 14.10 2.49
-4.15 13.99 2.49
-4.42 13.88 2.49
-4.69 13.76 2.49
-4.95 13.63 2.49
-5.22 13.50 2.49
-5.47 13.37 2.49
-5.73 13.23 2.49
-5.86 12.82 2.44
-5.98 12.40 2.39
-6.21 12.26 2.39
-6.45 12.11 2.39
-6.68 11.96 2.39
-6.90 11.80 2.39
-7.13 11.64 2.39
-7.35 11.47 2.39
-7.56 11.30 2.39
-7.77 11.13 2.39
-7.98 10.95 2.39
-8.19 10.77 2.39
-8.39 10.59 2.39
-8.59 10.40 2.39
-8.78 10.21 2.39
-8.97 10.02 2.39
-9.16 9.82 2.39
-9.34 9.62 2.39
-9.52 9.42 2.39
-6.37 6.05 1.57
-6.51 5.94 1.58
-10.03 8.79 2.39
-10.19 8.57 2.39
-10.23 8.26 2.36
-10.27 7.96 2.34
-10.31 7.66 2.31
-10.42 7.43 2.31
-10.53 7.19 2.30
-10.56 6.90 2.28
-10.60 6.62 2.26
-10.62 6.35 2.24
-10.65 6.08 2.22
-10.64 5.79 2.20
-10.60 5.49 2.17
-10.55 5.20 2.14
-10.57 4.95 2.12
-10.58 4.70 2.11
-10.60 4.45 2.10
-10.62 4.21 2.08
-10.64 3.97 2.07
-10.65 3.73 2.06
-10.63 3.49 2.04
-10.62 3.25 2.03
-10.62 3.01 2.02
-10.63 2.79 2.01
-10.64 2.56 2.00
-10.66 2.34 2.00
-10.67 2.12 1.99
-10.68 1.90 1.99
-10.70 1.68 1.98
-10.74 1.47 1.99
-10.78 1.25 1.99
-10.81 1.04 1.99
-10.82 0.82 1.99
-10.83 0.60 1.99
-10.84 0.38 1.99
-10.84 0.16 1.99
-10.85 -0.06 1.99
-10.88 -0.28 1.99
-10.94 -0.50 2.01
-11.00 -0.72 2.02
-11.05 -0.95 2.03
-11.06 -1.18 2.04
-11.06 -1.40 2.04
-11.07 -1.63 2.05
-11.07 -1.86 2.05
-11.08 -2.09 2.06
-11.25 -2.36 2.10
-11.43 -2.64 2.14
-11.61 -2.93 2.19
-11.61 -3.17 2.19
-11.60 -3.43 2.20
-11.58 -3.67 2.21
-11.50 -3.90 2.21
-11.41 -4.13 2.21
-11.33 -4.36 2.21
-11.24 -4.59 2.20
-11.16 -4.82 2.20
-11.09 -5.06 2.21
-11.09 -5.33 2.23
-11.08 -5.60 2.25
-11.07 -5.88 2.27
-11.06 -6.17 2.29
-11.04 -6.45 2.30
-10.98 -6.72 2.32
-10.93 -6.99 2.33
-10.91 -7.29 2.36
-10.91 -7.61 2.39
-10.90 -7.93 2.41
-10.64 -8.08 2.39
-10.49 -8.30 2.39
-10.34 -8.52 2.39
-10.18 -8.74 2.39
-10.01 -8.96 2.39
-9.85 -9.17 2.39
-9.67 -9.38 2.39
-9.50 -9.59 2.39
-9.32 -9.79 2.39
-9.13 -10.00 2.39
-8.95 -10.19 2.39
-8.75 -10.39 2.39
-8.56 -10.58 2.39
-8.36 -10.77 2.39
-8.15 -10.96 2.39
-7.95 -11.14 2.39
-7.73 -11.31 2.39
-7.52 -11.49 2.39
-7.30 -11.66 2.39
-7.08 -11.83 2.39
-6.85 -11.99 2.39
-6.87 -12.60 2.48
-6.66 -12.83 2.49
-6.42 -12.99 2.49
-6.17 -13.14 2.49
-5.91 -13.29 2.49
-5.66 -13.43 2.49
-5.40 -13.57 2.49
-5.13 -13.71 2.49
-4.87 -13.84 2.49
-4.60 -13.96 2.49
-4.33 -14.08 2.49
-4.05 -14.19 2.49
-3.77 -14.30 2.49
-3.49 -14.41 2.49
-3.21 -14.51 2.49
-2.93 -14.60 2.49
-2.64 -14.69 2.49
-2.35 -14.77 2.49
-2.06 -14.85 2.49
-1.76 -14.92 2.49
-1.46 -14.98 2.49
-1.17 -15.04 2.49
-0.87 -15.10 2.49
-0.56 -15.15 2.49
-0.26 -15.19 2.49
0.05 -13.34 2.49
0.31 -13.36 2.49
0.58 -13.38 2.49
0.85 -13.39 2.49
1.12 -13.40 2.49
1.34 -12.84 2.39
1.60 -12.84 2.39
1.86 -12.83 2.39
2.12 -12.82 2.39
2.38 -12.80 2.39
2.64 -12.77 2.39
2.90 -12.74 2.39
3.16 -12.70 2.39
3.42 -12.66 2.39
3.69 -12.62 2.39
3.94 -12.56 2.39
4.20 -12.51 2.39
4.45 -12.42 2.39
4.70 -12.32 2.38
4.95 -12.22 2.38
5.19 -12.12 2.37
5.43 -12.01 2.37
5.67 -11.90 2.36
5.80 -11.58 2.32
5.93 -11.26 2.27
6.05 -10.95 2.23
6.17 -10.65 2.19
6.28 -10.36 2.15
6.43 -10.16 2.13
6.60 -9.97 2.12
6.77 -9.79 2.10
6.89 -9.56 2.08
7.00 -9.31 2.05
7.11 -9.06 2.02
7.28 -8.91 2.02
7.44 -8.75 2.01
1.82 -2.05 0.48
1.87 -2.03 0.48
1.95 -2.04 0.49
2.04 -2.04 0.50
2.12 -2.04 0.51
2.22 -2.05 0.52
2.31 -2.05 0.54
2.41 -2.05 0.55
8.53 -6.98 1.91
8.63 -6.77 1.90
8.72 -6.57 1.89
8.85 -6.39 1.88
8.98 -6.21 1.88
9.10 -6.03 1.88
9.23 -5.85 1.88
9.32 -5.66 1.87
9.39 -5.44 1.86
9.47 -5.24 1.85
9.62 -5.08 1.86
9.78 -4.91 1.87
9.95 -4.75 1.88
10.10 -4.57 1.89
10.24 -4.39 1.90
10.38 -4.21 1.91
10.54 -4.03 1.92
10.71 -3.85 1.94
10.82 -3.65 1.94
10.91 -3.44 1.94
11.00 -3.22 1.95
6.53 -1.77 1.15
6.41 -1.60 1.12
6.29 -1.44 1.09
6.18 -1.29 1.07
6.40 -1.20 1.10
6.87 -1.15 1.18
11.99 -1.75 2.05
11.95 -1.50 2.04
11.88 -1.25 2.02
11.81 -1.01 2.01
11.74 -0.77 1.99
11.66 -0.53 1.98
11.59 -0.29 1.96
11.52 -0.06 1.95
11.44 0.17 1.94
11.39 0.40 1.93
11.34 0.62 1.92
11.28 0.85 1.92
11.23 1.07 1.91
11.17 1.29 1.91
11.11 1.51 1.90
11.04 1.72 1.90
10.96 1.94 1.89
10.89 2.15 1.89
10.83 2.36 1.88
10.80 2.58 1.89
10.76 2.81 1.89
10.73 3.03 1.90
10.69 3.25 1.90
10.65 3.47 1.91
10.61 3.69 1.92
10.57 3.92 1.93
10.53 4.14 1.93
10.49 4.38 1.95
10.49 4.62 1.96
10.48 4.87 1.98
10.47 5.13 2.00
10.46 5.38 2.02
10.45 5.64 2.04
10.44 5.91 2.07
10.42 6.18 2.09
10.39 6.45 2.11
10.35 6.71 2.13
10.31 6.98 2.16
10.26 7.25 2.18
10.22 7.53 2.20
10.17 7.81 2.23
10.11 8.10 2.26
10.05 8.39 2.28
9.98 8.67 2.31
9.89 8.95 2.33
9.80 9.23 2.36
9.72 9.52 2.39
9.62 9.82 2.42
9.53 10.12 2.45
9.43 10.42 2.48
9.32 10.73 2.51
9.21 11.04 2.54
9.09 11.36 2.58
8.97 11.68 2.61
8.85 12.01 2.65
8.72 12.34 2.69
8.46 12.50 2.69
8.14 12.56 2.67
7.82 12.62 2.66
7.51 12.67 2.64
7.19 12.71 2.62
6.88 12.74 2.61
6.06 11.79 2.39
5.81 11.89 2.39
5.56 11.98 2.39
5.31 12.06 2.39
5.06 12.15 2.39
4.80 12.22 2.39
4.55 12.29 2.39
4.29 12.36 2.39
4.04 12.41 2.39
3.78 12.47 2.39
3.52 12.52 2.39
3.26 12.56 2.39
3.00 12.60 2.39
2.69 12.40 2.35
2.49 12.66 2.39
2.23 12.68 2.39
2.05 13.24 2.49
1.78 13.26 2.49
1.52 13.26 2.49
1.25 13.26 2.49
0.98 13.26 2.49
0.71 13.25 2.49
0.44 13.24 2.49
0.18 13.22 2.49
-0.09 13.19 2.49
-0.35 13.16 2.49
-0.61 13.12 2.49
-0.88 13.08 2.49
-1.14 13.04 2.49
-1.40 12.99 2.49
-1.65 12.93 2.49
-1.91 12.87 2.49
-2.16 12.81 2.49
-2.41 12.74 2.49
-2.67 12.66 2.49
-2.91 12.58 2.49
-3.16 12.50 2.49
-3.40 12.41 2.49
-3.65 12.31 2.49
-3.89 12.22 2.49
-4.12 12.11 2.49
-4.36 12.01 2.49
-4.59 11.90 2.49
-4.82 11.78 2.49
-5.05 11.66 2.49
-5.27 11.54 2.49
-5.49 11.41 2.49
-5.71 11.28 2.49
-5.93 11.14 2.49
-5.95 10.67 2.42
-6.09 10.41 2.39
-6.29 10.27 2.39
-6.48 10.13 2.39
-6.67 9.98 2.39
-6.86 9.83 2.39
-7.05 9.67 2.39
-7.23 9.52 2.39
-7.41 9.36 2.39
-7.59 9.19 2.39
-7.76 9.03 2.39
-7.93 8.86 2.39
-8.10 8.68 2.39
-8.26 8.51 2.39
-8.42 8.33 2.39
-6.37 6.05 1.78
-6.50 5.93 1.78
-8.87 7.78 2.39
-9.02 7.59 2.39
-9.16 7.40 2.39
-9.29 7.20 2.39
-9.43 7.01 2.39
-9.56 6.81 2.39
-9.68 6.61 2.39
-9.80 6.41 2.39
-9.92 6.20 2.39
-10.04 6.00 2.39
-10.15 5.79 2.39
-10.45 5.69 2.44
-10.41 5.40 2.40
-10.38 5.12 2.37
-10.40 4.87 2.36
-10.42 4.63 2.34
-10.44 4.39 2.33
-10.46 4.15 2.31
-10.48 3.91 2.30
-10.50 3.68 2.29
-10.49 3.44 2.27
-10.47 3.21 2.26
-10.48 2.98 2.25
-10.49 2.75 2.24
-10.51 2.53 2.23
-10.52 2.31 2.22
-10.53 2.09 2.22
-10.54 1.88 2.21
-10.55 1.66 2.21
-10.59 1.45 2.21
-10.63 1.23 2.21
-10.65 1.02 2.21
-10.66 0.81 2.21
-10.67 0.59 2.21
-10.68 0.37 2.21
-10.69 0.16 2.21
-10.70 -0.06 2.21
-10.70 -0.27 2.21
-10.74 -0.49 2.22
-10.80 -0.71 2.24
-10.86 -0.93 2.25
-10.86 -1.16 2.25
-10.87 -1.38 2.26
-10.87 -1.60 2.27
-10.87 -1.83 2.27
-10.87 -2.05 2.28
-10.87 -2.28 2.29
-11.03 -2.54 2.33
-11.20 -2.82 2.38
-11.26 -3.08 2.40
-11.26 -3.33 2.41
-11.25 -3.57 2.42
-11.24 -3.82 2.44
-11.22 -4.06 2.45
-11.13 -4.29 2.45
-11.05 -4.51 2.45
-10.96 -4.74 2.45
-10.88 -4.97 2.45
-10.54 -5.07 2.39
-10.45 -5.29 2.39
-10.35 -5.50 2.39
-10.24 -5.71 2.39
-10.14 -5.92 2.39
-10.03 -6.13 2.39
-9.91 -6.34 2.39
-9.79 -6.55 2.39
-9.67 -6.75 2.39
-9.54 -6.95 2.39
-9.41 -7.15 2.39
-9.28 -7.35 2.39
-9.14 -7.54 2.39
-9.00 -7.73 2.39
-8.85 -7.92 2.39
-8.70 -8.11 2.39
-8.55 -8.29 2.39
-8.39 -8.48 2.39
-8.23 -8.66 2.39
-8.07 -8.83 2.39
-7.90 -9.01 2.39
-7.73 -9.18 2.39
-7.55 -9.34 2.39
-7.37 -9.51 2.39
-7.19 -9.67 2.39
-7.01 -9.83 2.39
-6.82 -9.98 2.39
-6.78 -10.37 2.45
-6.71 -10.73 2.49
-6.50 -10.88 2.49
-6.30 -11.03 2.49
-6.08 -11.17 2.49
-5.87 -11.31 2.49
-5.65 -11.44 2.49
-5.43 -11.58 2.49
-5.20 -11.70 2.49
-4.98 -11.83 2.49
-4.75 -11.95 2.49
-4.51 -12.06 2.49
-4.28 -12.17 2.49
-4.04 -12.28 2.49
-3.80 -12.38 2.49
-3.56 -12.48 2.49
-3.31 -12.57 2.49
-3.06 -12.66 2.49
-2.82 -12.74 2.49
-2.56 -12.82 2.49
-2.31 -12.90 2.49
-2.05 -12.96 2.49
-1.80 -13.03 2.49
-1.54 -13.09 2.49
-1.28 -13.14 2.49
-1.02 -13.19 2.49
-0.75 -13.23 2.49
-0.49 -13.27 2.49
-0.22 -13.31 2.49
0.05 -11.85 2.49
0.28 -11.87 2.49
0.52 -11.88 2.49
0.76 -11.89 2.49
1.00 -11.90 2.49
1.22 -11.68 2.45
1.44 -11.50 2.41
1.65 -11.39 2.39
1.88 -11.37 2.39
2.12 -11.35 2.39
2.35 -11.33 2.39
2.58 -11.30 2.39
2.81 -11.26 2.39
3.04 -11.22 2.39
3.27 -11.18 2.39
3.50 -11.13 2.39
3.73 -11.08 2.39
3.96 -11.02 2.39
4.18 -10.96 2.39
4.41 -10.89 2.39
4.63 -10.82 2.39
4.86 -10.74 2.39
5.08 -10.66 2.39
5.41 -10.78 2.44
5.61 -10.65 2.43
5.78 -10.45 2.41
5.89 -10.18 2.37
6.02 -9.92 2.33
6.18 -9.75 2.32
6.31 -9.52 2.29
6.42 -9.28 2.26
6.53 -9.05 2.23
6.64 -8.82 2.20
6.75 -8.61 2.18
6.92 -8.46 2.17
7.08 -8.31 2.17
1.81 -2.05 0.54
1.88 -2.03 0.55
1.96 -2.04 0.56
2.04 -2.04 0.57
2.13 -2.04 0.58
2.22 -2.05 0.59
2.31 -2.05 0.61
2.41 -2.05 0.62
8.28 -6.77 2.10
8.38 -6.58 2.09
8.48 -6.38 2.08
8.59 -6.20 2.07
8.71 -6.03 2.07
8.84 -5.86 2.07
8.93 -5.67 2.06
9.00 -5.46 2.05
9.08 -5.26 2.04
9.15 -5.06 2.03
9.25 -4.88 2.03
9.40 -4.72 2.04
9.55 -4.56 2.05
9.71 -4.40 2.07
9.86 -4.23 2.08
10.01 -4.06 2.09
10.15 -3.88 2.10
10.28 -3.70 2.11
10.37 -3.50 2.12
10.45 -3.29 2.12
10.53 -3.09 2.12
6.52 -1.77 1.30
6.39 -1.60 1.27
6.28 -1.44 1.24
6.16 -1.28 1.21
6.40 -1.20 1.26
6.88 -1.15 1.34
11.29 -1.65 2.20
11.29 -1.42 2.19
11.28 -1.19 2.18
11.26 -0.96 2.18
11.23 -0.73 2.17
11.16 -0.50 2.15
11.09 -0.28 2.14
11.03 -0.06 2.12
10.96 0.16 2.11
10.90 0.38 2.10
10.86 0.60 2.10
10.81 0.81 2.09
10.76 1.02 2.08
10.70 1.23 2.08
10.65 1.45 2.07
10.60 1.65 2.07
10.54 1.86 2.07
10.48 2.07 2.06
10.42 2.27 2.06
10.38 2.48 2.06
10.35 2.70 2.07
10.31 2.91 2.07
10.28 3.12 2.08
10.25 3.34 2.09
10.21 3.55 2.10
10.17 3.77 2.11
10.14 3.99 2.12
10.10 4.21 2.13
10.05 4.43 2.14
10.01 4.65 2.15
9.98 4.88 2.17
9.96 5.12 2.19
9.95 5.37 2.21
9.93 5.62 2.23
9.91 5.87 2.25
9.88 6.13 2.28
9.86 6.39 2.30
9.80 6.63 2.32
9.73 6.87 2.34
9.66 7.12 2.36
9.60 7.37 2.39
9.54 7.64 2.41
9.48 7.91 2.44
9.42 8.18 2.47
9.36 8.46 2.50
9.27 8.72 2.53
9.18 8.99 2.55
9.08 9.26 2.58
8.98 9.54 2.61
8.88 9.81 2.64
8.77 10.09 2.67
8.66 10.38 2.71
8.48 10.59 2.72
8.20 10.67 2.70
7.92 10.74 2.68
7.64 10.80 2.66
7.36 10.86 2.65
7.08 10.91 2.63
6.80 10.96 2.61
6.02 10.15 2.39
5.80 10.25 2.39
5.59 10.34 2.39
5.37 10.44 2.39
5.15 10.52 2.39
4.93 10.61 2.39
4.71 10.69 2.39
4.49 10.76 2.39
4.26 10.83 2.39
4.04 10.89 2.39
3.81 10.95 2.39
3.58 11.01 2.39
3.36 11.06 2.39
3.13 11.10 2.39
2.90 11.14 2.39
2.67 11.18 2.39
2.44 11.21 2.39
2.21 11.24 2.39
2.07 11.75 2.49
1.83 11.76 2.49
1.59 11.78 2.49
1.35 11.79 2.49
1.11 11.79 2.49
0.87 11.79 2.49
0.64 11.78 2.49
0.40 11.77 2.49
0.16 11.76 2.49
-0.07 11.74 2.49
-0.31 11.71 2.49
-0.54 11.68 2.49
-0.78 11.65 2.49
-1.01 11.61 2.49
-1.24 11.57 2.49
-1.47 11.52 2.49
-1.70 11.47 2.49
-1.92 11.41 2.49
-2.15 11.35 2.49
-2.37 11.29 2.49
-2.59 11.22 2.49
-2.81 11.15 2.49
-3.03 11.07 2.49
-3.25 10.99 2.49
-3.46 10.90 2.49
-3.68 10.81 2.49
-3.89 10.72 2.49
-4.09 10.62 2.49
-4.30 10.52 2.49
-4.50 10.42 2.49
-4.70 10.31 2.49
-4.90 10.20 2.49
-5.10 10.08 2.49
-5.29 9.96 2.49
-5.49 9.84 2.49
-5.67 9.71 2.49
-5.86 9.58 2.49
-6.00 9.38 2.48
-6.02 9.01 2.41
-6.14 8.79 2.39
-6.30 8.66 2.39
-6.47 8.52 2.39
-6.63 8.38 2.39
-6.79 8.23 2.39
-6.94 8.08 2.39
-7.10 7.93 2.39
-7.25 7.78 2.39
-7.39 7.62 2.39
-7.54 7.46 2.39
-6.37 6.06 1.98
-6.49 5.93 1.99
-7.95 6.97 2.39
-8.08 6.80 2.39
-8.20 6.63 2.39
-8.33 6.46 2.39
-8.45 6.28 2.39
-8.56 6.11 2.39
-8.68 5.93 2.39
-8.79 5.75 2.39
-8.89 5.56 2.39
-9.00 5.38 2.39
-9.10 5.19 2.39
-9.19 5.01 2.39
-9.29 4.82 2.39
-9.37 4.62 2.39
-9.46 4.43 2.39
-9.54 4.24 2.39
-9.62 4.04 2.39
-9.69 3.85 2.39
-9.76 3.65 2.39
-9.83 3.45 2.39
-9.89 3.25 2.39
-9.95 3.05 2.39
-10.01 2.84 2.39
-10.06 2.64 2.39
-10.11 2.44 2.39
-10.15 2.23 2.39
-10.19 2.03 2.39
-10.23 1.82 2.39
-10.26 1.61 2.39
-10.29 1.41 2.39
-10.32 1.20 2.39
-10.34 0.99 2.39
-10.35 0.78 2.39
-10.37 0.57 2.39
-10.38 0.36 2.39
-10.38 0.15 2.39
-10.38 -0.05 2.39
-10.38 -0.26 2.39
-10.38 -0.47 2.39
-10.37 -0.68 2.39
-10.35 -0.89 2.39
-10.33 -1.10 2.39
-10.31 -1.31 2.39
-10.29 -1.52 2.39
-10.26 -1.72 2.39
-10.23 -1.93 2.39
-10.19 -2.14 2.39
-10.15 -2.34 2.39
-10.10 -2.55 2.39
-10.06 -2.75 2.39
-10.00 -2.96 2.39
-9.95 -3.16 2.39
-9.89 -3.36 2.39
-9.82 -3.56 2.39
-9.76 -3.76 2.39
-9.69 -3.96 2.39
-9.61 -4.16 2.39
-9.53 -4.35 2.39
-9.45 -4.55 2.39
-9.36 -4.74 2.39
-9.27 -4.93 2.39
-9.18 -5.12 2.39
-9.08 -5.31 2.39
-8.98 -5.50 2.39
-8.88 -5.68 2.39
-8.77 -5.87 2.39
-8.66 -6.05 2.39
-8.55 -6.23 2.39
-8.43 -6.41 2.39
-8.31 -6.58 2.39
-8.18 -6.76 2.39
-8.05 -6.93 2.39
-7.92 -7.10 2.39
-7.79 -7.26 2.39
-7.65 -7.43 2.39
-7.51 -7.59 2.39
-7.36 -7.75 2.39
-7.21 -7.90 2.39
-7.06 -8.06 2.39
-6.91 -8.21 2.39
-6.75 -8.36 2.39
-6.71 -8.66 2.44
-6.70 -9.02 2.49
-6.53 -9.17 2.49
-6.35 -9.31 2.49
-6.17 -9.45 2.49
-5.99 -9.59 2.49
-5.81 -9.72 2.49
-5.62 -9.85 2.49
-5.43 -9.98 2.49
-5.24 -10.10 2.49
-5.04 -10.22 2.49
-4.84 -10.33 2.49
-4.64 -10.45 2.49
-4.44 -10.55 2.49
-4.23 -10.66 2.49
-4.02 -10.76 2.49
-3.81 -10.86 2.49
-3.60 -10.95 2.49
-3.38 -11.04 2.49
-3.17 -11.12 2.49
-2.95 -11.20 2.49
-2.73 -11.28 2.49
-2.50 -11.35 2.49
-2.28 -11.42 2.49
-2.05 -11.48 2.49
-1.82 -11.54 2.49
-1.60 -11.60 2.49
-1.36 -11.65 2.49
-1.13 -11.69 2.49
-0.90 -11.73 2.49
-0.66 -11.77 2.49
-0.43 -11.80 2.49
-0.19 -11.83 2.49
0.05 -10.66 2.49
0.26 -10.67 2.49
0.47 -10.68 2.49
0.69 -10.69 2.49
0.90 -10.69 2.49
1.12 -10.68 2.49
1.29 -10.27 2.40
1.49 -10.24 2.39
1.70 -10.21 2.39
1.90 -10.19 2.39
2.11 -10.16 2.39
2.32 -10.14 2.39
2.52 -10.10 2.39
2.73 -10.07 2.39
2.94 -10.03 2.39
3.14 -9.98 2.39
3.35 -9.93 2.39
3.55 -9.88 2.39
3.75 -9.82 2.39
3.96 -9.76 2.39
4.16 -9.69 2.39
4.36 -9.62 2.39
4.56 -9.54 2.39
4.75 -9.46 2.39
4.95 -9.38 2.39
5.14 -9.29 2.39
5.34 -9.20 2.39
5.73 -9.45 2.48
5.87 -9.24 2.45
5.98 -9.02 2.42
6.09 -8.80 2.39
6.20 -8.59 2.36
6.31 -8.37 2.34
6.43 -8.19 2.32
6.59 -8.05 2.31
6.74 -7.91 2.31
1.82 -2.06 0.61
1.88 -2.03 0.61
1.96 -2.04 0.62
2.04 -2.04 0.64
2.13 -2.04 0.65
2.22 -2.05 0.67
2.31 -2.05 0.68
2.41 -2.05 0.70
8.05 -6.58 2.29
8.15 -6.39 2.27
8.24 -6.20 2.26
8.35 -6.02 2.26
8.46 -5.85 2.25
8.56 -5.67 2.25
8.64 -5.48 2.24
8.71 -5.28 2.22
8.78 -5.09 2.21
8.85 -4.89 2.20
8.91 -4.70 2.20
9.05 -4.54 2.20
9.19 -4.38 2.22
9.33 -4.23 2.23
9.48 -4.06 2.24
9.62 -3.90 2.26
9.75 -3.73 2.27
9.80 -3.52 2.26
9.91 -3.34 2.27
10.01 -3.15 2.27
10.11 -2.96 2.28
6.50 -1.77 1.46
6.38 -1.60 1.42
6.26 -1.43 1.39
6.15 -1.28 1.36
6.41 -1.20 1.41
6.89 -1.15 1.51
10.67 -1.56 2.33
10.66 -1.34 2.32
10.66 -1.12 2.32
10.65 -0.91 2.31
10.63 -0.69 2.30
10.62 -0.48 2.30
10.60 -0.27 2.29
10.57 -0.05 2.28
10.51 0.16 2.27
10.45 0.36 2.26
10.41 0.57 2.25
10.37 0.78 2.25
10.32 0.98 2.24
10.27 1.18 2.24
10.22 1.39 2.23
10.18 1.59 2.23
10.13 1.79 2.23
10.08 1.99 2.23
10.04 2.19 2.23
10.00 2.39 2.23
9.98 2.60 2.24
9.96 2.81 2.25
9.93 3.01 2.25
9.89 3.22 2.26
9.86 3.43 2.27
9.82 3.64 2.28
9.78 3.85 2.29
9.74 4.06 2.30
9.70 4.27 2.31
9.66 4.48 2.32
9.61 4.70 2.34
9.56 4.91 2.35
9.51 5.13 2.37
9.46 5.35 2.38
9.44 5.59 2.40
9.41 5.83 2.43
9.38 6.08 2.46
9.35 6.33 2.48
9.30 6.56 2.51
9.23 6.80 2.53
9.16 7.03 2.55
9.09 7.27 2.57
9.01 7.51 2.59
8.93 7.75 2.62
8.85 8.00 2.64
8.77 8.25 2.67
8.69 8.51 2.70
8.60 8.76 2.73
8.45 8.97 2.75
8.21 9.07 2.73
7.96 9.16 2.71
7.71 9.24 2.69
7.46 9.30 2.67
7.21 9.36 2.65
6.95 9.42 2.63
6.70 9.47 2.61
5.96 8.79 2.39
5.77 8.89 2.39
5.58 8.99 2.39
5.39 9.09 2.39
5.20 9.18 2.39
5.01 9.27 2.39
4.82 9.35 2.39
4.62 9.43 2.39
4.42 9.51 2.39
4.23 9.58 2.39
4.03 9.65 2.39
3.83 9.71 2.39
3.63 9.77 2.39
3.42 9.83 2.39
3.22 9.88 2.39
3.02 9.92 2.39
2.81 9.97 2.39
2.61 10.01 2.39
2.40 10.04 2.39
2.20 10.07 2.39
2.08 10.53 2.49
1.86 10.55 2.49
1.65 10.57 2.49
1.43 10.59 2.49
1.22 10.59 2.49
1.01 10.60 2.49
0.79 10.60 2.49
0.58 10.60 2.49
0.36 10.59 2.49
0.15 10.58 2.49
-0.06 10.56 2.49
-0.27 10.54 2.49
-0.48 10.52 2.49
-0.69 10.49 2.49
-0.90 10.45 2.49
-1.11 10.42 2.49
-1.32 10.38 2.49
-1.52 10.33 2.49
-1.73 10.28 2.49
-1.93 10.23 2.49
-2.13 10.17 2.49
-2.33 10.11 2.49
-2.53 10.05 2.49
-2.73 9.98 2.49
-2.93 9.91 2.49
-3.12 9.83 2.49
-3.31 9.76 2.49
-3.50 9.67 2.49
-3.69 9.59 2.49
-3.88 9.50 2.49
-4.06 9.40 2.49
-4.24 9.31 2.49
-4.42 9.21 2.49
-4.60 9.10 2.49
-4.78 9.00 2.49
-4.95 8.89 2.49
-5.12 8.77 2.49
-5.29 8.66 2.49
-5.46 8.54 2.49
-5.62 8.42 2.49
-5.78 8.29 2.49
-5.94 8.16 2.49
-6.06 7.98 2.48
-6.07 7.68 2.42
-6.13 7.44 2.39
-6.28 7.31 2.39
-6.41 7.17 2.39
-6.55 7.03 2.39
-6.68 6.89 2.39
-6.81 6.75 2.39
-6.37 6.06 2.19
-6.48 5.92 2.19
-7.19 6.31 2.39
-7.31 6.16 2.39
-7.42 6.00 2.39
-7.54 5.85 2.39
-7.64 5.69 2.39
-7.75 5.53 2.39
-7.85 5.37 2.39
-7.96 5.20 2.39
-8.05 5.04 2.39
-8.15 4.87 2.39
-8.24 4.70 2.39
-8.32 4.53 2.39
-8.41 4.36 2.39
-8.49 4.19 2.39
-8.57 4.02 2.39
-8.64 3.84 2.39
-8.71 3.66 2.39
-8.78 3.48 2.39
-8.84 3.31 2.39
-8.91 3.12 2.39
-8.96 2.94 2.39
-9.02 2.76 2.39
-9.07 2.58 2.39
-9.11 2.39 2.39
-9.16 2.21 2.39
-9.20 2.02 2.39
-9.24 1.84 2.39
-9.27 1.65 2.39
-9.30 1.46 2.39
-9.32 1.27 2.39
-9.35 1.09 2.39
-9.37 0.90 2.39
-9.38 0.71 2.39
-9.39 0.52 2.39
-9.40 0.33 2.39
-9.41 0.14 2.39
-9.41 -0.05 2.39
-9.41 -0.24 2.39
-9.40 -0.43 2.39
-9.39 -0.62 2.39
-9.38 -0.81 2.39
-9.36 -1.00 2.39
-9.34 -1.19 2.39
-9.32 -1.37 2.39
-9.29 -1.56 2.39
-9.26 -1.75 2.39
-9.23 -1.94 2.39
-9.19 -2.12 2.39
-9.15 -2.31 2.39
-9.11 -2.49 2.39
-9.06 -2.68 2.39
-9.01 -2.86 2.39
-8.95 -3.05 2.39
-8.90 -3.23 2.39
-8.84 -3.41 2.39
-8.77 -3.59 2.39
-8.70 -3.77 2.39
-8.63 -3.94 2.39
-8.56 -4.12 2.39
-8.48 -4.29 2.39
-8.40 -4.47 2.39
-8.31 -4.64 2.39
-8.22 -4.81 2.39
-8.13 -4.98 2.39
-8.04 -5.15 2.39
-7.94 -5.31 2.39
-7.84 -5.48 2.39
-7.73 -5.64 2.39
-7.62 -5.80 2.39
-7.51 -5.96 2.39
-7.40 -6.11 2.39
-7.28 -6.27 2.39
-7.16 -6.42 2.39
-7.04 -6.57 2.39
-6.91 -6.72 2.39
-6.78 -6.86 2.39
-6.66 -7.01 2.39
-6.66 -7.30 2.44
-6.66 -7.60 2.49
-6.51 -7.74 2.49
-6.36 -7.88 2.49
-6.21 -8.02 2.49
-6.05 -8.15 2.49
-5.90 -8.28 2.49
-5.74 -8.41 2.49
-5.57 -8.54 2.49
-5.41 -8.66 2.49
-5.24 -8.78 2.49
-5.07 -8.89 2.49
-4.90 -9.01 2.49
-4.72 -9.11 2.49
-4.54 -9.22 2.49
-4.36 -9.32 2.49
-4.18 -9.42 2.49
-4.00 -9.52 2.49
-3.81 -9.61 2.49
-3.62 -9.70 2.49
-3.43 -9.79 2.49
-3.24 -9.87 2.49
-3.04 -9.95 2.49
-2.85 -10.02 2.49
-2.65 -10.09 2.49
-2.45 -10.16 2.49
-2.25 -10.22 2.49
-2.05 -10.28 2.49
-1.84 -10.34 2.49
-1.64 -10.39 2.49
-1.43 -10.44 2.49
-1.22 -10.48 2.49
-1.01 -10.52 2.49
-0.80 -10.56 2.49
-0.59 -10.59 2.49
-0.38 -10.61 2.49
-0.17 -10.64 2.49
0.04 -9.67 2.49
0.24 -9.68 2.49
0.43 -9.69 2.49
0.63 -9.69 2.49
0.82 -9.69 2.49
1.02 -9.69 2.49
1.22 -9.68 2.49
1.35 -9.27 2.39
1.54 -9.25 2.39
1.73 -9.23 2.39
1.92 -9.21 2.39
2.10 -9.18 2.39
2.29 -9.15 2.39
2.48 -9.12 2.39
2.66 -9.08 2.39
2.85 -9.04 2.39
3.03 -8.99 2.39
3.22 -8.94 2.39
3.40 -8.89 2.39
3.58 -8.83 2.39
3.77 -8.77 2.39
3.95 -8.70 2.39
4.12 -8.63 2.39
4.30 -8.56 2.39
4.48 -8.48 2.39
4.65 -8.40 2.39
4.83 -8.32 2.39
5.00 -8.23 2.39
5.17 -8.14 2.39
5.34 -8.05 2.39
5.79 -8.35 2.51
5.90 -8.17 2.49
6.01 -7.97 2.46
6.14 -7.81 2.45
6.28 -7.68 2.44
6.39 -7.50 2.42
1.86 -2.09 0.69
1.88 -2.03 0.68
1.96 -2.04 0.69
2.04 -2.04 0.71
2.13 -2.04 0.72
2.22 -2.05 0.74
2.31 -2.05 0.75
7.52 -6.40 2.41
7.72 -6.30 2.43
7.91 -6.20 2.45
8.02 -6.03 2.44
8.11 -5.85 2.43
8.21 -5.68 2.42
8.29 -5.49 2.41
8.36 -5.30 2.40
8.43 -5.11 2.39
8.50 -4.92 2.38
8.57 -4.73 2.37
8.63 -4.55 2.36
8.71 -4.37 2.35
8.85 -4.22 2.37
8.99 -4.07 2.38
9.12 -3.91 2.39
9.26 -3.75 2.41
9.32 -3.56 2.40
9.37 -3.37 2.40
9.42 -3.17 2.39
9.50 -2.99 2.39
6.61 -1.94 1.66
6.49 -1.76 1.61
6.37 -1.59 1.58
6.25 -1.43 1.54
6.14 -1.28 1.51
6.42 -1.20 1.57
6.90 -1.15 1.68
10.11 -1.48 2.45
10.11 -1.27 2.44
10.10 -1.07 2.44
10.10 -0.86 2.43
10.09 -0.66 2.42
10.08 -0.46 2.42
10.06 -0.25 2.41
10.05 -0.05 2.41
10.03 0.15 2.41
10.02 0.35 2.41
10.02 0.55 2.41
9.98 0.75 2.40
9.94 0.94 2.40
9.90 1.14 2.39
9.86 1.34 2.39
9.82 1.53 2.39
