ply
format ascii 1.0
element vertex 2833
property float32 x
property float32 y
property float32 z
end_header
-12.16 5.67 0.62
-12.20 5.40 0.61
-12.24 5.12 0.61
-12.28 4.85 0.60
-12.31 4.58 0.60
-12.33 4.31 0.60
-12.35 4.04 0.59
-12.37 3.77 0.59
-12.38 3.50 0.58
-12.38 3.24 0.58
-12.39 2.98 0.58
-12.40 2.72 0.57
-12.41 2.46 0.57
-12.47 2.21 0.57
-12.53 1.96 0.57
-12.59 1.71 0.57
-12.63 1.46 0.57
-12.68 1.21 0.57
-12.73 0.96 0.57
-12.78 0.71 0.57
-12.83 0.45 0.57
-12.86 0.19 0.58
-12.89 -0.07 0.58
-12.92 -0.33 0.58
-12.95 -0.59 0.58
-12.98 -0.85 0.58
-13.01 -1.11 0.58
-13.04 -1.38 0.58
-13.06 -1.65 0.59
-13.07 -1.92 0.59
-13.08 -2.19 0.59
-13.10 -2.46 0.59
-13.11 -2.74 0.60
-13.12 -3.01 0.60
-13.13 -3.30 0.60
-13.14 -3.58 0.61
-13.14 -3.87 0.61
-13.15 -4.16 0.61
-13.16 -4.45 0.62
-13.16 -4.75 0.62
-13.17 -5.05 0.63
-13.18 -5.36 0.63
-13.19 -5.68 0.64
-13.21 -6.00 0.65
-13.23 -6.34 0.65
-13.26 -6.68 0.66
-13.28 -7.03 0.67
-13.30 -7.39 0.68
-13.34 -7.76 0.69
-13.50 -8.22 0.71
-13.72 -8.74 0.73
-13.92 -9.26 0.75
-13.92 -9.67 0.76
-14.02 -10.17 0.78
-14.13 -10.68 0.79
-14.20 -11.19 0.81
-14.20 -11.66 0.83
-14.22 -12.16 0.84
-14.24 -12.68 0.86
-14.25 -13.21 0.88
-14.24 -13.74 0.89
-14.20 -14.27 0.91
-14.16 -14.81 0.93
-14.13 -15.38 0.95
-14.12 -16.00 0.97
-14.06 -16.60 0.99
-13.99 -17.21 1.01
-13.92 -17.84 1.03
-13.75 -18.37 1.05
-13.58 -18.93 1.07
-13.40 -19.49 1.08
-13.31 -20.21 1.11
-13.30 -21.11 1.15
-13.30 -22.08 1.19
-21.34 -42.87 2.22
-20.28 -42.87 2.21
-19.24 -42.89 2.19
-18.23 -42.91 2.18
-17.23 -42.94 2.17
-16.25 -42.97 2.16
-15.28 -43.00 2.15
-14.33 -43.04 2.14
-13.39 -43.08 2.13
-12.46 -43.12 2.12
-10.47 -39.15 1.92
-9.64 -39.18 1.92
-8.81 -39.20 1.91
-7.99 -39.23 1.91
-7.18 -39.25 1.91
-6.37 -39.27 1.91
-5.57 -39.30 1.91
-4.77 -39.32 1.91
-3.97 -39.34 1.91
-3.18 -39.37 1.91
-2.39 -39.39 1.92
-1.59 -39.41 1.92
-0.80 -39.43 1.93
-0.02 -34.87 2.49
0.68 -34.80 2.49
1.38 -34.72 2.49
1.55 -25.98 1.87
1.85 -23.18 1.67
3.45 -34.40 2.49
4.13 -34.26 2.49
4.81 -34.12 2.49
5.48 -33.95 2.49
6.15 -33.78 2.49
5.42 -26.69 1.98
5.95 -26.58 1.99
8.13 -33.17 2.49
8.42 -31.58 2.39
9.04 -31.35 2.39
9.65 -31.11 2.39
8.08 -24.33 1.89
8.77 -24.72 1.93
11.44 -30.32 2.39
12.03 -30.03 2.39
12.61 -29.73 2.39
13.18 -29.43 2.39
13.74 -29.11 2.39
14.30 -28.78 2.39
14.85 -28.44 2.39
15.39 -28.09 2.39
15.95 -27.76 2.39
16.48 -27.39 2.39
17.00 -27.01 2.39
2.16 -3.28 0.30
2.26 -3.28 0.30
18.50 -25.82 2.39
18.65 -24.95 2.35
19.46 -24.97 2.39
14.93 -18.38 1.79
14.65 -17.32 1.72
14.42 -16.37 1.66
14.46 -15.76 1.63
14.50 -15.18 1.60
14.54 -14.62 1.57
14.49 -14.00 1.54
14.51 -13.47 1.52
14.53 -12.95 1.49
14.49 -12.40 1.46
14.51 -11.92 1.44
14.53 -11.46 1.42
14.55 -11.01 1.41
14.56 -10.57 1.39
14.52 -10.10 1.37
14.55 -9.69 1.35
14.58 -9.29 1.34
14.60 -8.90 1.33
14.57 -8.49 1.31
14.60 -8.11 1.30
14.63 -7.75 1.29
14.65 -7.39 1.28
14.61 -7.00 1.26
14.62 -6.65 1.25
14.64 -6.31 1.25
14.65 -5.96 1.24
14.60 -5.61 1.22
14.61 -5.28 1.22
14.62 -4.95 1.21
14.63 -4.63 1.20
14.64 -4.31 1.20
14.59 -3.98 1.19
14.60 -3.67 1.19
14.61 -3.36 1.18
14.62 -3.06 1.18
14.57 -2.74 1.17
14.58 -2.44 1.17
14.58 -2.14 1.16
14.58 -1.84 1.16
14.59 -1.55 1.16
14.59 -1.25 1.16
14.54 -0.95 1.15
14.59 -0.66 1.16
14.64 -0.37 1.16
14.69 -0.08 1.17
14.75 0.22 1.17
14.99 0.52 1.19
15.18 0.84 1.21
15.38 1.16 1.23
15.58 1.49 1.24
15.79 1.83 1.26
16.01 2.18 1.28
16.23 2.54 1.31
16.46 2.92 1.33
16.10 3.19 1.31
15.69 3.44 1.28
15.31 3.68 1.25
15.37 4.02 1.26
15.62 4.42 1.29
15.88 4.84 1.32
16.15 5.28 1.35
16.43 5.74 1.39
16.73 6.23 1.42
17.05 6.74 1.46
17.38 7.28 1.50
17.73 7.85 1.54
18.10 8.45 1.59
18.50 9.09 1.64
18.92 9.77 1.69
19.37 10.50 1.75
19.85 11.29 1.81
25.90 15.42 2.39
25.59 15.95 2.39
25.28 16.46 2.39
24.96 16.98 2.39
24.62 17.48 2.39
24.28 17.98 2.39
23.93 18.48 2.39
23.56 18.96 2.39
23.19 19.45 2.39
22.81 19.92 2.39
22.42 20.39 2.39
22.02 20.85 2.39
21.62 21.30 2.39
21.20 21.75 2.39
20.78 22.19 2.39
20.34 22.62 2.39
19.90 23.04 2.39
19.45 23.46 2.39
19.00 23.87 2.39
18.53 24.27 2.39
18.06 24.66 2.39
17.57 25.04 2.39
17.09 25.41 2.39
16.59 25.78 2.39
16.09 26.13 2.39
15.57 26.48 2.39
15.06 26.82 2.39
14.52 27.13 2.39
13.83 27.14 2.37
13.46 27.77 2.39
12.92 28.07 2.39
12.37 28.36 2.39
11.81 28.64 2.39
11.25 28.91 2.39
10.68 29.17 2.39
10.10 29.41 2.39
9.52 29.65 2.39
8.94 29.88 2.39
8.35 30.09 2.39
7.75 30.29 2.39
7.15 30.49 2.39
6.54 30.64 2.39
5.61 29.15 2.26
5.32 30.96 2.39
4.71 31.11 2.39
4.09 31.25 2.39
3.46 31.37 2.39
2.89 32.05 2.43
2.30 32.94 2.49
1.64 33.03 2.49
0.98 33.11 2.49
0.32 33.18 2.49
-0.35 33.23 2.49
-1.02 33.27 2.49
-1.69 33.30 2.49
-2.36 33.31 2.49
-3.03 33.32 2.49
-3.71 33.30 2.49
-4.38 33.28 2.49
-5.06 33.24 2.49
-5.50 31.81 2.39
-6.14 31.75 2.39
-6.79 31.67 2.39
-7.44 31.58 2.39
-8.09 31.48 2.39
-8.73 31.37 2.39
-9.58 31.93 2.44
-10.00 31.05 2.39
-10.51 30.51 2.36
-11.01 30.00 2.33
-11.43 29.32 2.29
-11.80 28.54 2.24
-12.21 27.95 2.21
-12.52 27.14 2.16
-12.62 25.99 2.09
-12.72 24.91 2.02
-12.77 23.82 1.95
-12.81 22.79 1.88
-12.78 21.69 1.81
-12.66 20.54 1.73
-11.95 18.54 1.58
-11.85 17.60 1.52
-11.66 16.60 1.45
-11.64 15.87 1.40
-11.56 15.12 1.35
-11.50 14.43 1.31
-11.51 13.86 1.28
-11.52 13.32 1.25
-11.56 12.84 1.22
-11.56 12.33 1.19
-11.54 11.82 1.16
-11.51 11.33 1.14
-11.50 10.88 1.11
-11.51 10.45 1.09
-11.53 10.06 1.07
-11.55 9.67 1.05
-11.57 9.30 1.04
-11.57 8.92 1.02
-11.56 8.56 1.00
-11.59 8.22 0.99
-11.62 7.90 0.97
-11.65 7.58 0.96
-11.67 7.26 0.95
-11.71 6.96 0.94
-11.74 6.67 0.93
-11.77 6.38 0.92
-11.79 6.09 0.91
-11.81 5.80 0.90
-11.83 5.52 0.90
-11.86 5.24 0.89
-11.90 4.98 0.88
-11.94 4.72 0.88
-11.97 4.45 0.87
-11.99 4.19 0.87
-12.01 3.93 0.86
-12.03 3.67 0.86
-12.04 3.41 0.85
-12.05 3.15 0.85
-12.06 2.90 0.84
-12.07 2.64 0.84
-12.10 2.40 0.84
-12.16 2.16 0.84
-12.21 1.91 0.84
-12.27 1.67 0.84
-12.32 1.43 0.84
-12.37 1.18 0.84
-12.41 0.93 0.84
-12.46 0.69 0.84
-12.51 0.44 0.84
-12.54 0.19 0.84
-12.57 -0.06 0.85
-12.60 -0.32 0.85
-12.62 -0.57 0.85
-12.65 -0.83 0.85
-12.68 -1.09 0.85
-12.71 -1.35 0.86
-12.73 -1.61 0.86
-12.74 -1.87 0.86
-12.75 -2.13 0.87
-12.76 -2.40 0.87
-12.77 -2.67 0.87
-12.78 -2.94 0.88
-12.79 -3.21 0.88
-12.79 -3.49 0.89
-12.80 -3.76 0.89
-12.79 -4.04 0.90
-12.79 -4.33 0.91
-12.80 -4.62 0.91
-12.80 -4.91 0.92
-12.81 -5.21 0.93
-12.81 -5.51 0.94
-12.82 -5.83 0.95
-12.84 -6.15 0.96
-12.86 -6.48 0.97
-12.88 -6.82 0.98
-12.90 -7.16 0.99
-12.91 -7.51 1.00
-12.95 -7.89 1.02
-13.04 -8.30 1.04
-13.16 -8.75 1.06
-13.28 -9.23 1.09
-13.40 -9.71 1.12
-13.49 -10.20 1.14
-13.58 -10.70 1.17
-13.67 -11.23 1.19
-13.72 -11.73 1.22
-13.73 -12.23 1.24
-13.74 -12.74 1.27
-13.75 -13.27 1.29
-13.74 -13.80 1.32
-13.69 -14.32 1.34
-13.64 -14.85 1.37
-13.56 -15.37 1.39
-13.48 -15.92 1.42
-13.39 -16.47 1.45
-13.30 -17.04 1.47
-13.20 -17.63 1.50
-13.10 -18.25 1.54
-12.95 -18.83 1.56
-12.77 -19.38 1.59
-12.61 -20.00 1.62
-12.62 -20.94 1.68
-12.59 -21.87 1.74
-12.66 -23.05 1.81
-16.08 -30.73 2.39
-16.10 -32.34 2.49
-15.43 -32.61 2.49
-14.75 -32.87 2.49
-14.07 -33.11 2.49
-13.39 -33.34 2.49
-12.70 -33.56 2.49
-12.00 -33.75 2.49
-11.31 -33.94 2.49
-10.61 -34.11 2.49
-9.90 -34.26 2.49
-9.20 -34.40 2.49
-8.50 -34.53 2.49
-7.79 -34.64 2.49
-7.08 -34.73 2.49
-6.37 -34.81 2.49
-5.66 -34.87 2.49
-4.95 -34.92 2.49
-4.25 -34.96 2.49
-3.54 -34.98 2.49
-2.83 -34.99 2.49
-2.12 -34.98 2.49
-1.42 -34.96 2.49
-0.72 -34.92 2.49
-0.02 -26.47 2.49
0.52 -26.44 2.49
1.04 -26.39 2.49
1.51 -25.24 2.39
1.85 -23.18 2.20
2.51 -25.09 2.39
3.01 -25.00 2.39
3.51 -24.90 2.39
4.00 -24.79 2.39
4.44 -24.41 2.37
4.98 -24.55 2.39
5.47 -24.45 2.39
5.95 -24.30 2.39
6.43 -24.14 2.39
6.91 -23.98 2.39
7.38 -23.80 2.39
7.84 -23.62 2.39
8.30 -23.43 2.39
8.76 -23.22 2.39
9.21 -23.01 2.39
9.66 -22.79 2.39
10.10 -22.57 2.39
10.54 -22.33 2.39
10.97 -22.08 2.39
11.40 -21.83 2.39
11.82 -21.57 2.39
12.23 -21.30 2.39
12.64 -21.03 2.39
13.05 -20.74 2.39
2.16 -3.28 0.38
2.25 -3.28 0.39
14.22 -19.85 2.39
14.60 -19.53 2.39
14.97 -19.21 2.39
14.93 -18.39 2.33
14.65 -17.33 2.24
14.42 -16.37 2.15
14.46 -15.77 2.11
14.50 -15.19 2.08
14.54 -14.63 2.04
14.49 -14.01 2.00
14.51 -13.47 1.96
14.53 -12.96 1.93
14.49 -12.41 1.90
14.51 -11.93 1.87
14.53 -11.46 1.84
14.55 -11.01 1.82
14.56 -10.57 1.80
14.52 -10.10 1.77
14.55 -9.69 1.75
14.58 -9.29 1.73
14.60 -8.90 1.71
14.57 -8.49 1.69
14.60 -8.12 1.68
14.63 -7.75 1.66
14.65 -7.39 1.65
14.61 -7.01 1.63
14.62 -6.65 1.62
14.64 -6.31 1.61
14.65 -5.97 1.60
14.60 -5.61 1.58
14.61 -5.28 1.57
14.62 -4.95 1.56
14.63 -4.63 1.55
14.64 -4.31 1.55
14.59 -3.98 1.53
14.60 -3.67 1.53
14.61 -3.36 1.52
14.62 -3.06 1.52
14.57 -2.74 1.51
14.58 -2.44 1.50
14.58 -2.14 1.50
14.58 -1.84 1.50
14.59 -1.55 1.49
14.59 -1.25 1.49
14.54 -0.95 1.49
14.59 -0.66 1.49
14.64 -0.37 1.49
14.69 -0.08 1.50
14.74 0.22 1.51
14.99 0.52 1.53
15.18 0.84 1.55
15.38 1.16 1.58
15.58 1.49 1.60
15.79 1.83 1.62
16.01 2.18 1.65
16.23 2.54 1.68
16.46 2.92 1.71
16.10 3.19 1.68
15.69 3.44 1.64
15.31 3.68 1.61
15.37 4.02 1.63
15.62 4.42 1.66
15.88 4.84 1.70
16.15 5.28 1.74
16.43 5.74 1.78
16.73 6.23 1.83
17.05 6.74 1.88
17.38 7.28 1.93
17.73 7.85 1.98
18.10 8.45 2.04
18.50 9.09 2.11
18.92 9.77 2.18
19.37 10.51 2.25
19.85 11.29 2.33
20.14 11.99 2.39
19.90 12.40 2.39
19.65 12.80 2.39
19.40 13.20 2.39
19.14 13.59 2.39
18.87 13.98 2.39
18.59 14.36 2.39
18.31 14.74 2.39
18.02 15.11 2.39
17.72 15.48 2.39
17.42 15.84 2.39
17.10 16.19 2.39
16.78 16.54 2.39
16.46 16.89 2.39
16.13 17.22 2.39
15.79 17.56 2.39
15.44 17.88 2.39
15.09 18.20 2.39
14.73 18.51 2.39
14.37 18.82 2.39
14.00 19.12 2.39
13.62 19.41 2.39
13.24 19.70 2.39
12.85 19.97 2.39
12.46 20.24 2.39
12.06 20.51 2.39
11.65 20.76 2.39
11.25 21.01 2.39
10.83 21.25 2.39
10.41 21.49 2.39
9.99 21.71 2.39
9.56 21.93 2.39
9.13 22.14 2.39
8.69 22.34 2.39
8.25 22.53 2.39
7.80 22.72 2.39
7.35 22.89 2.39
6.90 23.06 2.39
6.43 23.19 2.39
5.97 23.34 2.39
5.51 23.48 2.39
5.04 23.61 2.39
4.57 23.74 2.39
4.10 23.85 2.39
3.62 23.96 2.39
3.14 24.05 2.39
2.67 24.21 2.40
2.27 25.26 2.49
1.77 25.33 2.49
1.26 25.39 2.49
0.75 25.45 2.49
0.24 25.49 2.49
-0.27 25.52 2.49
-0.78 25.54 2.49
-1.30 25.55 2.49
-1.81 25.55 2.49
-2.33 25.54 2.49
-2.84 25.52 2.49
-3.36 25.49 2.49
-3.88 25.45 2.49
-4.39 25.40 2.49
-4.91 25.34 2.49
-5.37 25.01 2.47
-5.69 24.15 2.39
-6.18 24.06 2.39
-6.67 23.96 2.39
-7.16 23.86 2.39
-7.65 23.74 2.39
-8.14 23.61 2.39
-8.62 23.48 2.39
-9.10 23.33 2.39
-10.66 25.77 2.66
-10.96 25.07 2.61
-11.22 24.32 2.55
-11.45 23.58 2.49
-11.56 22.63 2.41
-11.63 21.68 2.33
-11.60 20.62 2.24
-11.59 19.66 2.16
-11.24 18.23 2.02
-11.24 17.43 1.95
-11.13 16.53 1.88
-11.12 15.82 1.82
-11.12 15.15 1.76
-11.07 14.48 1.71
-11.09 13.91 1.67
-11.10 13.37 1.63
-11.12 12.86 1.59
-11.14 12.37 1.55
-11.13 11.87 1.52
-11.11 11.38 1.48
-11.10 10.92 1.45
-11.10 10.50 1.42
-11.13 10.11 1.39
-11.16 9.73 1.37
-11.18 9.36 1.35
-11.21 9.01 1.33
-11.22 8.65 1.31
-11.24 8.32 1.29
-11.27 7.99 1.27
-11.30 7.68 1.26
-11.33 7.37 1.24
-11.36 7.07 1.23
-11.39 6.77 1.22
-11.43 6.49 1.20
-11.45 6.20 1.19
-11.48 5.92 1.18
-11.50 5.65 1.17
-11.52 5.37 1.16
-11.55 5.10 1.15
-11.58 4.84 1.14
-11.62 4.59 1.14
-11.65 4.33 1.13
-11.67 4.07 1.12
-11.69 3.82 1.12
-11.71 3.57 1.11
-11.73 3.32 1.10
-11.74 3.07 1.10
-11.75 2.82 1.09
-11.76 2.57 1.09
-11.80 2.34 1.09
-11.85 2.10 1.09
-11.91 1.86 1.09
-11.97 1.63 1.09
-12.02 1.39 1.09
-12.07 1.15 1.09
-12.11 0.91 1.09
-12.16 0.67 1.10
-12.20 0.43 1.10
-12.23 0.18 1.10
-12.26 -0.06 1.10
-12.29 -0.31 1.11
-12.31 -0.56 1.11
-12.34 -0.81 1.11
-12.37 -1.06 1.11
-12.39 -1.31 1.12
-12.42 -1.57 1.12
-12.42 -1.82 1.13
-12.43 -2.08 1.13
-12.44 -2.34 1.14
-12.45 -2.60 1.14
-12.45 -2.86 1.15
-12.46 -3.13 1.15
-12.47 -3.40 1.16
-12.47 -3.67 1.17
-12.46 -3.94 1.17
-12.46 -4.21 1.18
-12.45 -4.49 1.19
-12.45 -4.78 1.20
-12.45 -5.07 1.21
-12.45 -5.36 1.22
-12.45 -5.66 1.23
-12.47 -5.97 1.24
-12.49 -6.29 1.26
-12.50 -6.61 1.27
-12.51 -6.95 1.29
-12.53 -7.29 1.30
-12.54 -7.63 1.32
-12.58 -8.01 1.34
-12.63 -8.40 1.36
-12.73 -8.84 1.39
-12.84 -9.30 1.43
-12.93 -9.77 1.46
-12.90 -10.17 1.48
-12.96 -10.64 1.51
-13.05 -11.16 1.55
-13.15 -11.71 1.59
-13.10 -12.14 1.61
-13.09 -12.63 1.64
-13.08 -13.14 1.68
-13.06 -13.66 1.71
-12.97 -14.12 1.74
-12.87 -14.58 1.76
-12.77 -15.07 1.79
-12.66 -15.56 1.82
-12.59 -16.12 1.86
-12.54 -16.75 1.90
-12.45 -17.34 1.94
-12.33 -17.93 1.98
-12.22 -18.56 2.03
-12.11 -19.21 2.07
-11.95 -19.83 2.11
-11.92 -20.71 2.18
-11.91 -21.68 2.26
-11.93 -22.80 2.36
-12.06 -24.20 2.48
-11.94 -25.23 2.56
-10.66 -23.74 2.39
-10.17 -23.92 2.39
-9.68 -24.09 2.39
-9.18 -24.26 2.39
-8.68 -24.41 2.39
-8.18 -24.55 2.39
-7.68 -24.68 2.39
-7.17 -24.80 2.39
-6.94 -25.92 2.49
-6.42 -26.09 2.49
-5.89 -26.18 2.49
-5.36 -26.27 2.49
-4.83 -26.34 2.49
-4.29 -26.40 2.49
-3.76 -26.44 2.49
-3.22 -26.48 2.49
-2.68 -26.51 2.49
-2.15 -26.52 2.49
-1.61 -26.53 2.49
-1.08 -26.52 2.49
-0.55 -26.50 2.49
-0.02 -21.32 2.49
0.41 -21.29 2.49
0.84 -21.26 2.49
1.26 -21.22 2.49
1.62 -20.29 2.39
2.02 -20.23 2.39
2.43 -20.16 2.39
2.83 -20.09 2.39
3.23 -20.01 2.39
3.62 -19.92 2.39
4.02 -19.82 2.39
4.41 -19.71 2.39
4.80 -19.60 2.39
5.19 -19.48 2.39
5.58 -19.38 2.39
5.96 -19.24 2.39
6.34 -19.10 2.39
6.71 -18.95 2.39
7.08 -18.79 2.39
7.45 -18.62 2.39
7.82 -18.45 2.39
8.18 -18.27 2.39
8.53 -18.08 2.39
8.88 -17.89 2.39
9.23 -17.69 2.39
9.58 -17.48 2.39
9.91 -17.27 2.39
10.25 -17.05 2.39
10.58 -16.82 2.39
2.16 -3.28 0.47
2.25 -3.28 0.48
11.54 -16.10 2.39
11.85 -15.85 2.39
12.15 -15.60 2.39
12.45 -15.34 2.39
12.74 -15.07 2.39
13.03 -14.80 2.39
13.31 -14.52 2.39
13.59 -14.23 2.39
13.86 -13.94 2.39
14.12 -13.65 2.39
14.38 -13.35 2.39
14.53 -12.96 2.38
14.49 -12.41 2.33
14.51 -11.93 2.30
14.53 -11.46 2.27
14.55 -11.01 2.24
14.56 -10.57 2.21
14.52 -10.10 2.17
14.55 -9.69 2.15
14.58 -9.29 2.13
14.60 -8.90 2.10
14.57 -8.49 2.08
14.60 -8.12 2.06
14.63 -7.75 2.04
14.65 -7.39 2.03
14.61 -7.01 2.00
14.62 -6.66 1.99
14.64 -6.31 1.97
14.65 -5.97 1.96
14.60 -5.61 1.94
14.61 -5.28 1.92
14.62 -4.95 1.91
14.63 -4.63 1.90
14.64 -4.31 1.89
14.59 -3.98 1.88
14.60 -3.67 1.87
14.61 -3.36 1.86
14.62 -3.06 1.86
14.57 -2.74 1.85
14.58 -2.44 1.84
14.58 -2.14 1.84
14.58 -1.84 1.83
14.59 -1.55 1.83
14.59 -1.25 1.83
14.54 -0.95 1.82
14.59 -0.66 1.82
14.64 -0.37 1.83
14.69 -0.08 1.83
14.74 0.22 1.84
14.99 0.52 1.87
15.18 0.84 1.90
15.38 1.16 1.93
15.58 1.49 1.96
15.79 1.83 1.99
16.01 2.18 2.02
16.23 2.54 2.05
16.46 2.92 2.09
16.10 3.19 2.05
15.69 3.44 2.01
15.31 3.68 1.97
15.37 4.02 1.99
15.62 4.42 2.03
15.88 4.84 2.08
16.15 5.28 2.13
16.43 5.74 2.18
16.73 6.23 2.23
17.05 6.74 2.29
17.38 7.28 2.36
17.51 7.75 2.39
17.34 8.10 2.39
17.18 8.44 2.39
17.01 8.79 2.39
16.83 9.13 2.39
16.65 9.47 2.39
16.46 9.80 2.39
16.27 10.14 2.39
16.06 10.46 2.39
15.85 10.79 2.39
15.64 11.11 2.39
15.42 11.42 2.39
15.19 11.73 2.39
14.96 12.04 2.39
14.72 12.34 2.39
14.47 12.64 2.39
14.22 12.94 2.39
13.97 13.23 2.39
13.71 13.51 2.39
13.44 13.79 2.39
13.17 14.06 2.39
12.89 14.33 2.39
12.60 14.60 2.39
12.31 14.86 2.39
12.02 15.11 2.39
11.72 15.36 2.39
11.42 15.60 2.39
11.11 15.83 2.39
10.80 16.06 2.39
10.48 16.29 2.39
10.16 16.51 2.39
9.83 16.72 2.39
9.50 16.93 2.39
9.16 17.13 2.39
8.82 17.32 2.39
8.48 17.51 2.39
8.13 17.69 2.39
7.78 17.86 2.39
7.43 18.03 2.39
7.07 18.19 2.39
6.71 18.34 2.39
6.34 18.47 2.39
5.97 18.61 2.39
5.60 18.74 2.39
5.23 18.86 2.39
4.85 18.98 2.39
4.47 19.09 2.39
4.09 19.20 2.39
3.71 19.29 2.39
3.33 19.38 2.39
2.94 19.46 2.39
2.55 19.54 2.39
2.25 20.45 2.49
1.84 20.51 2.49
1.43 20.56 2.49
1.02 20.61 2.49
0.61 20.64 2.49
0.19 20.67 2.49
-0.22 20.69 2.49
-0.64 20.71 2.49
-1.06 20.71 2.49
-1.47 20.71 2.49
-1.89 20.69 2.49
-2.31 20.67 2.49
-2.72 20.64 2.49
-3.14 20.61 2.49
-3.56 20.56 2.49
-3.97 20.51 2.49
-4.39 20.45 2.49
-4.80 20.37 2.49
-5.22 20.30 2.49
-5.52 19.80 2.44
-5.79 19.28 2.39
-6.18 19.18 2.39
-6.57 19.07 2.39
-6.96 18.96 2.39
-7.35 18.83 2.39
-7.74 18.70 2.39
-8.12 18.56 2.39
-8.50 18.42 2.39
-8.88 18.26 2.39
-9.25 18.10 2.39
-10.34 19.26 2.57
-10.46 18.59 2.50
-10.50 17.81 2.42
-10.52 17.05 2.35
-10.55 16.36 2.28
-10.55 15.66 2.21
-10.54 14.99 2.14
-10.58 14.42 2.09
-10.61 13.87 2.04
-10.64 13.35 1.99
-10.67 12.85 1.94
-10.70 12.37 1.90
-10.69 11.86 1.85
-10.67 11.38 1.81
-10.66 10.92 1.77
-10.66 10.49 1.73
-10.71 10.12 1.70
-10.75 9.76 1.68
-10.79 9.40 1.65
-10.82 9.06 1.63
-10.85 8.72 1.60
-10.89 8.40 1.58
-10.93 8.09 1.56
-10.97 7.78 1.54
-11.00 7.47 1.53
-11.03 7.17 1.51
-11.06 6.88 1.49
-11.09 6.60 1.48
-11.12 6.32 1.46
-11.15 6.04 1.45
-11.18 5.77 1.44
-11.20 5.50 1.42
-11.23 5.23 1.41
-11.25 4.97 1.40
-11.28 4.72 1.39
-11.32 4.47 1.38
-11.34 4.21 1.38
-11.36 3.97 1.37
-11.38 3.72 1.36
-11.40 3.47 1.35
-11.42 3.23 1.35
-11.44 2.99 1.34
-11.45 2.75 1.33
-11.46 2.51 1.33
-11.51 2.28 1.33
-11.57 2.05 1.33
-11.62 1.82 1.33
-11.67 1.59 1.33
-11.73 1.36 1.33
-11.78 1.12 1.34
-11.82 0.89 1.34
-11.87 0.65 1.34
-11.91 0.42 1.34
-11.93 0.18 1.35
-11.96 -0.06 1.35
-11.99 -0.30 1.35
-12.01 -0.55 1.35
-12.04 -0.79 1.36
-12.06 -1.03 1.36
-12.09 -1.28 1.37
-12.11 -1.53 1.37
-12.12 -1.78 1.38
-12.13 -2.03 1.38
-12.13 -2.28 1.39
-12.14 -2.53 1.39
-12.14 -2.79 1.40
-12.15 -3.05 1.41
-12.15 -3.31 1.42
-12.16 -3.58 1.42
-12.15 -3.84 1.43
-12.14 -4.11 1.44
-12.13 -4.38 1.45
-12.13 -4.65 1.46
-12.12 -4.93 1.47
-12.12 -5.21 1.48
-12.11 -5.50 1.50
-12.12 -5.80 1.51
-12.13 -6.11 1.53
-12.14 -6.42 1.55
-12.15 -6.74 1.56
-12.16 -7.07 1.58
-12.17 -7.41 1.60
-12.18 -7.75 1.63
-12.22 -8.13 1.65
-12.26 -8.51 1.68
-12.31 -8.92 1.71
-12.41 -9.38 1.76
-12.47 -9.82 1.79
-12.44 -10.21 1.82
-12.41 -10.61 1.85
-12.43 -11.07 1.88
-12.51 -11.59 1.93
-12.48 -12.04 1.96
-12.42 -12.48 1.99
-12.36 -12.92 2.03
-12.33 -13.42 2.07
-12.27 -13.91 2.10
-12.16 -14.35 2.13
-12.04 -14.80 2.17
-11.91 -15.26 2.20
-11.78 -15.74 2.24
-11.71 -16.31 2.28
-11.64 -16.92 2.34
-11.45 -17.37 2.37
-11.24 -17.82 2.40
-10.98 -18.22 2.43
-10.45 -18.14 2.39
-10.07 -18.34 2.39
-9.70 -18.52 2.39
-9.32 -18.70 2.39
-8.93 -18.86 2.39
-8.54 -19.02 2.39
-8.15 -19.17 2.39
-7.76 -19.32 2.39
-7.36 -19.45 2.39
-6.97 -19.58 2.39
-6.67 -20.00 2.43
-6.43 -20.66 2.49
-6.01 -20.77 2.49
-5.59 -20.86 2.49
-5.16 -20.95 2.49
-4.74 -21.03 2.49
-4.31 -21.10 2.49
-3.88 -21.16 2.49
-3.45 -21.22 2.49
-3.02 -21.26 2.49
-2.59 -21.30 2.49
-2.16 -21.32 2.49
-1.73 -21.34 2.49
-1.30 -21.35 2.49
-0.87 -21.35 2.49
-0.44 -21.34 2.49
-0.02 -17.83 2.49
0.34 -17.81 2.49
0.70 -17.79 2.49
1.06 -17.75 2.49
1.41 -17.71 2.49
1.69 -16.93 2.39
2.03 -16.88 2.39
2.36 -16.82 2.39
2.70 -16.76 2.39
3.03 -16.68 2.39
3.36 -16.60 2.39
3.69 -16.52 2.39
4.02 -16.43 2.39
4.34 -16.33 2.39
4.67 -16.22 2.39
4.99 -16.11 2.39
5.31 -15.99 2.39
5.63 -15.89 2.39
5.94 -15.76 2.39
6.25 -15.62 2.39
6.56 -15.48 2.39
6.86 -15.33 2.39
7.16 -15.18 2.39
7.46 -15.02 2.39
7.75 -14.85 2.39
8.04 -14.68 2.39
8.33 -14.50 2.39
8.61 -14.32 2.39
8.89 -14.13 2.39
2.16 -3.29 0.56
2.25 -3.28 0.57
9.70 -13.54 2.39
9.96 -13.33 2.39
10.21 -13.12 2.39
10.47 -12.90 2.39
10.72 -12.68 2.39
10.96 -12.45 2.39
11.20 -12.22 2.39
11.43 -11.98 2.39
11.66 -11.74 2.39
11.88 -11.49 2.39
12.10 -11.24 2.39
12.32 -10.99 2.39
12.53 -10.73 2.39
12.73 -10.47 2.39
12.93 -10.20 2.39
13.12 -9.94 2.39
13.31 -9.66 2.39
13.49 -9.39 2.39
13.67 -9.11 2.39
13.84 -8.83 2.39
14.00 -8.54 2.39
14.16 -8.25 2.39
14.32 -7.96 2.39
14.47 -7.67 2.39
14.61 -7.37 2.39
14.61 -7.01 2.37
14.62 -6.66 2.35
14.64 -6.31 2.34
14.65 -5.97 2.32
14.60 -5.61 2.29
14.61 -5.28 2.28
14.62 -4.95 2.27
14.63 -4.63 2.25
14.64 -4.31 2.24
14.59 -3.98 2.23
14.60 -3.67 2.22
14.61 -3.36 2.21
14.62 -3.06 2.20
14.57 -2.74 2.19
14.58 -2.44 2.18
14.58 -2.14 2.17
14.58 -1.84 2.17
14.59 -1.55 2.16
14.59 -1.25 2.16
14.54 -0.95 2.15
14.59 -0.66 2.16
14.64 -0.37 2.16
14.69 -0.08 2.17
14.74 0.22 2.18
14.99 0.52 2.22
15.18 0.84 2.25
15.38 1.16 2.28
15.58 1.49 2.32
15.79 1.83 2.35
16.01 2.18 2.39
15.98 2.50 2.39
15.93 2.82 2.39
15.86 3.14 2.39
15.69 3.44 2.38
15.31 3.68 2.33
15.37 4.02 2.35
15.56 4.41 2.39
15.47 4.72 2.39
15.37 5.03 2.39
15.27 5.34 2.39
15.16 5.64 2.39
15.04 5.95 2.39
14.92 6.25 2.39
14.79 6.55 2.39
14.66 6.84 2.39
14.52 7.14 2.39
14.38 7.43 2.39
14.23 7.72 2.39
14.07 8.00 2.39
13.91 8.28 2.39
13.74 8.56 2.39
13.57 8.84 2.39
13.39 9.11 2.39
13.21 9.38 2.39
13.02 9.65 2.39
12.83 9.91 2.39
12.63 10.17 2.39
12.43 10.43 2.39
12.22 10.68 2.39
12.01 10.93 2.39
11.79 11.17 2.39
11.57 11.41 2.39
11.34 11.64 2.39
11.11 11.87 2.39
10.88 12.10 2.39
10.64 12.32 2.39
10.39 12.54 2.39
10.14 12.75 2.39
9.89 12.96 2.39
9.63 13.16 2.39
9.37 13.36 2.39
9.11 13.55 2.39
8.84 13.74 2.39
8.56 13.92 2.39
8.29 14.10 2.39
8.01 14.27 2.39
7.72 14.44 2.39
7.44 14.60 2.39
7.15 14.76 2.39
6.85 14.91 2.39
6.56 15.05 2.39
6.25 15.17 2.39
5.95 15.31 2.39
5.64 15.43 2.39
5.34 15.56 2.39
5.03 15.67 2.39
4.71 15.78 2.39
4.40 15.88 2.39
4.08 15.98 2.39
3.76 16.07 2.39
3.44 16.16 2.39
3.12 16.24 2.39
2.80 16.31 2.39
2.47 16.37 2.39
2.24 17.14 2.49
1.89 17.20 2.49
1.55 17.25 2.49
1.20 17.29 2.49
0.86 17.32 2.49
0.51 17.35 2.49
0.16 17.37 2.49
-0.19 17.39 2.49
-0.54 17.40 2.49
-0.89 17.40 2.49
-1.24 17.39 2.49
-1.59 17.38 2.49
-1.94 17.36 2.49
-2.29 17.33 2.49
-2.64 17.30 2.49
-2.99 17.25 2.49
-3.34 17.21 2.49
-3.69 17.15 2.49
-4.03 17.09 2.49
-4.38 17.02 2.49
-4.72 16.94 2.49
-5.07 16.86 2.49
-5.41 16.77 2.49
-5.62 16.29 2.44
-5.84 15.90 2.39
-6.16 15.78 2.39
-6.48 15.67 2.39
-6.80 15.55 2.39
-7.12 15.42 2.39
-7.43 15.29 2.39
-7.75 15.15 2.39
-8.05 15.00 2.39
-8.36 14.85 2.39
-8.67 14.70 2.39
-8.97 14.53 2.39
-9.26 14.36 2.39
-9.56 14.18 2.39
-9.80 13.94 2.38
-9.89 13.47 2.33
-9.93 12.98 2.28
-9.99 12.52 2.23
-10.08 12.12 2.19
-10.12 11.70 2.15
-10.12 11.23 2.10
-10.12 10.79 2.05
-10.15 10.40 2.02
-10.22 10.05 1.99
-10.27 9.70 1.96
-10.31 9.36 1.93
-10.35 9.03 1.90
-10.39 8.70 1.87
-10.43 8.38 1.85
-10.45 8.06 1.82
-10.51 7.77 1.80
-10.55 7.48 1.78
-10.60 7.20 1.76
-10.65 6.92 1.75
-10.69 6.65 1.73
-10.72 6.37 1.71
-10.76 6.11 1.70
-10.80 5.85 1.69
-10.84 5.59 1.67
-10.88 5.34 1.66
-10.92 5.09 1.65
-10.95 4.84 1.64
-10.98 4.59 1.63
-11.02 4.35 1.62
-11.04 4.10 1.61
-11.07 3.86 1.60
-11.09 3.62 1.59
-11.11 3.38 1.58
-11.13 3.15 1.58
-11.15 2.91 1.57
-11.16 2.68 1.56
-11.18 2.45 1.56
-11.24 2.22 1.56
-11.29 2.00 1.56
-11.34 1.77 1.56
-11.39 1.55 1.56
-11.44 1.32 1.56
-11.50 1.10 1.57
-11.55 0.87 1.57
-11.59 0.64 1.57
-11.63 0.41 1.58
-11.65 0.17 1.58
-11.68 -0.06 1.58
-11.70 -0.30 1.59
-11.73 -0.53 1.59
-11.75 -0.77 1.60
-11.78 -1.01 1.60
-11.80 -1.25 1.61
-11.82 -1.49 1.61
-11.83 -1.74 1.62
-11.84 -1.98 1.62
-11.84 -2.23 1.63
-11.85 -2.47 1.64
-11.85 -2.72 1.65
-11.85 -2.97 1.65
-11.85 -3.23 1.66
-11.85 -3.49 1.67
-11.85 -3.75 1.68
-11.84 -4.01 1.69
-11.83 -4.27 1.70
-11.82 -4.53 1.71
-11.81 -4.80 1.73
-11.80 -5.08 1.74
-11.79 -5.36 1.75
-11.78 -5.64 1.77
-11.79 -5.94 1.79
-11.80 -6.24 1.81
-11.80 -6.55 1.83
-11.81 -6.87 1.85
-11.81 -7.19 1.87
-11.81 -7.52 1.90
-11.83 -7.87 1.93
-11.86 -8.24 1.96
-11.90 -8.62 1.99
-11.93 -9.01 2.03
-11.99 -9.44 2.07
-12.03 -9.87 2.11
-11.99 -10.25 2.14
-11.96 -10.64 2.18
-11.92 -11.04 2.21
-11.90 -11.48 2.25
-11.90 -11.95 2.30
-11.83 -12.37 2.33
-11.76 -12.79 2.37
-11.68 -13.23 2.41
-11.60 -13.69 2.45
-11.42 -14.04 2.47
-11.18 -14.32 2.48
-10.50 -14.01 2.39
-10.21 -14.21 2.39
-9.91 -14.40 2.39
-9.62 -14.59 2.39
-9.32 -14.77 2.39
-9.01 -14.95 2.39
-8.71 -15.12 2.39
-8.40 -15.28 2.39
-8.08 -15.43 2.39
-7.77 -15.58 2.39
-7.45 -15.72 2.39
-7.12 -15.86 2.39
-6.80 -15.99 2.39
-6.56 -16.33 2.42
-6.41 -16.92 2.49
-6.06 -17.04 2.49
-5.72 -17.14 2.49
-5.37 -17.24 2.49
-5.02 -17.33 2.49
-4.66 -17.41 2.49
-4.31 -17.49 2.49
-3.96 -17.56 2.49
-3.60 -17.62 2.49
-3.24 -17.67 2.49
-2.89 -17.72 2.49
-2.53 -17.76 2.49
-2.17 -17.79 2.49
-1.81 -17.82 2.49
-1.45 -17.83 2.49
-1.09 -17.84 2.49
-0.73 -17.85 2.49
-0.37 -17.84 2.49
-0.02 -15.31 2.49
0.29 -15.30 2.49
0.60 -15.28 2.49
0.90 -15.25 2.49
1.21 -15.22 2.49
1.51 -15.18 2.49
1.74 -14.51 2.39
2.03 -14.46 2.39
2.32 -14.40 2.39
2.60 -14.34 2.39
2.89 -14.27 2.39
3.17 -14.20 2.39
3.45 -14.13 2.39
3.73 -14.04 2.39
4.01 -13.95 2.39
4.29 -13.86 2.39
4.56 -13.76 2.39
4.83 -13.65 2.39
5.10 -13.54 2.39
5.37 -13.43 2.39
5.64 -13.33 2.39
5.90 -13.20 2.39
6.16 -13.07 2.39
6.42 -12.93 2.39
6.67 -12.79 2.39
6.92 -12.64 2.39
7.17 -12.49 2.39
7.41 -12.34 2.39
7.65 -12.18 2.39
2.16 -3.29 0.65
2.25 -3.28 0.66
8.35 -11.67 2.39
8.58 -11.49 2.39
8.80 -11.31 2.39
9.02 -11.12 2.39
9.24 -10.93 2.39
9.45 -10.73 2.39
9.65 -10.54 2.39
9.86 -10.33 2.39
10.06 -10.13 2.39
10.25 -9.91 2.39
10.44 -9.70 2.39
10.63 -9.48 2.39
10.81 -9.26 2.39
10.98 -9.04 2.39
11.16 -8.81 2.39
11.32 -8.58 2.39
11.49 -8.34 2.39
11.65 -8.11 2.39
11.80 -7.87 2.39
11.95 -7.62 2.39
12.09 -7.38 2.39
12.23 -7.13 2.39
12.36 -6.88 2.39
12.49 -6.62 2.39
12.62 -6.37 2.39
12.74 -6.11 2.39
12.85 -5.85 2.39
12.96 -5.59 2.39
13.06 -5.32 2.39
13.16 -5.06 2.39
13.25 -4.79 2.39
13.34 -4.52 2.39
13.42 -4.25 2.39
13.50 -3.98 2.39
13.57 -3.71 2.39
13.64 -3.43 2.39
13.70 -3.15 2.39
13.75 -2.88 2.39
13.80 -2.60 2.39
13.85 -2.32 2.39
13.89 -2.04 2.39
13.92 -1.76 2.39
13.95 -1.48 2.39
13.97 -1.20 2.39
13.99 -0.92 2.39
14.00 -0.64 2.39
14.01 -0.36 2.39
14.01 -0.07 2.39
14.01 0.21 2.39
14.00 0.49 2.39
13.98 0.77 2.39
13.96 1.05 2.39
13.93 1.33 2.39
13.90 1.61 2.39
13.87 1.89 2.39
13.82 2.17 2.39
13.78 2.44 2.39
13.72 2.72 2.39
13.67 2.99 2.39
13.60 3.27 2.39
13.53 3.54 2.39
13.46 3.81 2.39
13.38 4.08 2.39
13.29 4.35 2.39
13.21 4.62 2.39
13.11 4.88 2.39
13.01 5.14 2.39
12.91 5.40 2.39
12.80 5.66 2.39
12.68 5.92 2.39
12.56 6.17 2.39
12.44 6.43 2.39
12.31 6.68 2.39
12.17 6.92 2.39
12.03 7.17 2.39
11.89 7.41 2.39
11.74 7.65 2.39
11.59 7.88 2.39
11.43 8.12 2.39
11.26 8.34 2.39
11.10 8.57 2.39
10.92 8.80 2.39
10.75 9.02 2.39
10.57 9.23 2.39
10.38 9.45 2.39
10.20 9.66 2.39
10.00 9.86 2.39
9.81 10.07 2.39
9.61 10.26 2.39
9.40 10.46 2.39
9.19 10.65 2.39
8.98 10.84 2.39
8.76 11.02 2.39
8.55 11.20 2.39
8.32 11.37 2.39
8.10 11.54 2.39
7.87 11.71 2.39
7.63 11.87 2.39
7.40 12.03 2.39
7.16 12.18 2.39
6.91 12.33 2.39
6.67 12.47 2.39
6.42 12.61 2.39
6.16 12.73 2.39
5.91 12.86 2.39
5.65 12.98 2.39
5.39 13.10 2.39
5.13 13.21 2.39
4.87 13.32 2.39
4.60 13.43 2.39
4.34 13.52 2.39
4.07 13.62 2.39
3.79 13.70 2.39
3.52 13.79 2.39
3.25 13.86 2.39
2.97 13.94 2.39
2.69 14.00 2.39
2.41 14.06 2.39
2.22 14.73 2.49
1.93 14.78 2.49
1.63 14.83 2.49
1.33 14.87 2.49
1.03 14.90 2.49
0.74 14.93 2.49
0.44 14.95 2.49
0.14 14.97 2.49
-0.17 14.98 2.49
-0.47 14.98 2.49
-0.77 14.98 2.49
-1.07 14.98 2.49
-1.37 14.96 2.49
-1.67 14.94 2.49
-1.97 14.92 2.49
-2.27 14.89 2.49
-2.57 14.85 2.49
-2.87 14.81 2.49
-3.17 14.76 2.49
-3.47 14.70 2.49
-3.77 14.64 2.49
-4.07 14.57 2.49
-4.36 14.50 2.49
-4.65 14.42 2.49
-4.95 14.34 2.49
-5.24 14.25 2.49
-5.53 14.15 2.49
-5.69 13.75 2.44
-5.85 13.36 2.39
-6.12 13.25 2.39
-6.39 13.14 2.39
-6.66 13.01 2.39
-6.92 12.89 2.39
-7.18 12.76 2.39
-7.44 12.62 2.39
-7.70 12.48 2.39
-7.96 12.33 2.39
-8.21 12.18 2.39
-8.46 12.02 2.39
-8.70 11.85 2.39
-8.95 11.69 2.39
-9.19 11.51 2.39
-9.42 11.33 2.39
-9.60 11.09 2.38
-9.62 10.67 2.33
-9.67 10.30 2.29
-9.74 9.97 2.25
-9.80 9.64 2.22
-9.86 9.31 2.19
-9.91 8.99 2.16
-9.95 8.67 2.13
-9.99 8.36 2.10
-10.03 8.05 2.07
-10.06 7.75 2.04
-10.10 7.47 2.02
-10.15 7.19 2.00
-10.20 6.92 1.98
-10.25 6.66 1.96
-10.29 6.40 1.94
-10.32 6.13 1.93
-10.35 5.87 1.91
-10.39 5.62 1.89
-10.43 5.38 1.88
-10.47 5.14 1.87
-10.51 4.90 1.85
-10.54 4.66 1.84
-10.58 4.42 1.83
-10.61 4.19 1.82
-10.64 3.95 1.81
-10.67 3.72 1.80
-10.70 3.49 1.79
-10.73 3.27 1.79
-10.75 3.04 1.78
-10.78 2.81 1.77
-10.80 2.59 1.77
-10.82 2.37 1.76
-10.84 2.14 1.76
-10.94 1.94 1.77
-11.04 1.73 1.78
-11.12 1.51 1.78
-11.17 1.29 1.79
-11.22 1.07 1.79
-11.27 0.85 1.79
-11.32 0.62 1.80
-11.36 0.40 1.80
-11.38 0.17 1.81
-11.41 -0.06 1.81
-11.43 -0.29 1.81
-11.46 -0.52 1.82
-11.48 -0.75 1.82
-11.50 -0.99 1.83
-11.52 -1.22 1.84
-11.54 -1.46 1.84
-11.56 -1.70 1.85
-11.56 -1.93 1.86
-11.56 -2.17 1.86
-11.56 -2.41 1.87
-11.57 -2.66 1.88
-11.57 -2.90 1.89
-11.57 -3.15 1.90
-11.57 -3.40 1.91
-11.56 -3.65 1.92
-11.55 -3.91 1.93
-11.54 -4.16 1.94
-11.53 -4.42 1.96
-11.52 -4.68 1.97
-11.50 -4.95 1.98
-11.49 -5.22 2.00
-11.47 -5.49 2.01
-11.47 -5.77 2.03
-11.47 -6.07 2.06
-11.47 -6.37 2.08
-11.47 -6.67 2.10
-11.47 -6.98 2.13
-11.47 -7.30 2.16
-11.47 -7.63 2.19
-11.49 -7.98 2.22
-11.52 -8.34 2.26
-11.54 -8.72 2.30
-11.57 -9.11 2.34
-11.59 -9.51 2.38
-11.60 -9.91 2.42
-11.56 -10.29 2.46
-11.52 -10.67 2.50
-11.46 -11.05 2.53
-11.32 -11.36 2.55
-10.38 -10.85 2.39
-10.16 -11.05 2.39
-9.93 -11.25 2.39
-9.70 -11.44 2.39
-9.47 -11.63 2.39
-9.23 -11.81 2.39
-8.98 -11.99 2.39
-8.74 -12.16 2.39
-8.49 -12.33 2.39
-8.23 -12.49 2.39
-7.98 -12.65 2.39
-7.72 -12.80 2.39
-7.45 -12.94 2.39
-7.19 -13.08 2.39
-6.92 -13.21 2.39
-6.65 -13.34 2.39
-6.49 -13.70 2.43
-6.37 -14.17 2.49
-6.08 -14.29 2.49
-5.79 -14.40 2.49
-5.49 -14.50 2.49
-5.20 -14.60 2.49
-4.90 -14.69 2.49
-4.60 -14.78 2.49
-4.30 -14.85 2.49
-4.00 -14.93 2.49
-3.70 -14.99 2.49
-3.39 -15.06 2.49
-3.09 -15.11 2.49
-2.78 -15.16 2.49
-2.48 -15.20 2.49
-2.17 -15.24 2.49
-1.86 -15.27 2.49
-1.55 -15.29 2.49
-1.25 -15.31 2.49
-0.94 -15.32 2.49
-0.63 -15.32 2.49
-0.32 -15.32 2.49
-0.02 -13.40 2.49
0.25 -13.39 2.49
0.52 -13.37 2.49
0.79 -13.35 2.49
1.06 -13.32 2.49
1.32 -13.29 2.49
1.58 -13.15 2.47
1.78 -12.70 2.40
2.03 -12.62 2.39
2.28 -12.56 2.39
2.53 -12.51 2.39
2.78 -12.44 2.39
3.03 -12.38 2.39
3.27 -12.31 2.39
3.51 -12.23 2.39
3.76 -12.15 2.39
4.00 -12.06 2.39
4.24 -11.97 2.39
4.47 -11.88 2.39
4.71 -11.78 2.39
4.94 -11.67 2.39
5.17 -11.56 2.39
5.40 -11.45 2.39
5.62 -11.33 2.39
5.85 -11.22 2.39
6.07 -11.09 2.39
6.29 -10.96 2.39
6.50 -10.83 2.39
6.71 -10.69 2.39
2.16 -3.29 0.75
2.25 -3.28 0.76
7.33 -10.24 2.39
7.53 -10.09 2.39
7.73 -9.93 2.39
7.92 -9.76 2.39
8.11 -9.60 2.39
8.29 -9.43 2.39
8.48 -9.25 2.39
8.66 -9.08 2.39
8.83 -8.89 2.39
9.00 -8.71 2.39
9.17 -8.52 2.39
9.33 -8.33 2.39
9.49 -8.14 2.39
9.65 -7.94 2.39
9.80 -7.74 2.39
9.95 -7.54 2.39
10.09 -7.33 2.39
10.23 -7.12 2.39
10.37 -6.91 2.39
10.50 -6.70 2.39
10.63 -6.49 2.39
10.75 -6.27 2.39
10.87 -6.05 2.39
10.98 -5.83 2.39
11.09 -5.60 2.39
11.20 -5.37 2.39
11.30 -5.15 2.39
11.39 -4.92 2.39
11.49 -4.68 2.39
11.57 -4.45 2.39
11.66 -4.21 2.39
11.73 -3.98 2.39
11.81 -3.74 2.39
11.87 -3.50 2.39
11.94 -3.26 2.39
12.00 -3.02 2.39
12.05 -2.78 2.39
12.10 -2.53 2.39
12.15 -2.29 2.39
12.19 -2.04 2.39
12.22 -1.80 2.39
12.25 -1.55 2.39
12.28 -1.30 2.39
12.30 -1.06 2.39
12.31 -0.81 2.39
12.32 -0.56 2.39
12.33 -0.31 2.39
12.33 -0.07 2.39
12.33 0.18 2.39
12.32 0.43 2.39
12.31 0.68 2.39
12.29 0.92 2.39
12.27 1.17 2.39
12.24 1.42 2.39
12.21 1.66 2.39
12.17 1.91 2.39
12.13 2.15 2.39
12.08 2.39 2.39
12.03 2.64 2.39
11.97 2.88 2.39
11.91 3.12 2.39
11.85 3.36 2.39
11.78 3.59 2.39
11.70 3.83 2.39
11.62 4.06 2.39
11.54 4.30 2.39
11.45 4.53 2.39
11.36 4.76 2.39
11.26 4.99 2.39
11.16 5.21 2.39
11.06 5.43 2.39
10.95 5.66 2.39
10.83 5.88 2.39
10.71 6.09 2.39
10.59 6.31 2.39
10.46 6.52 2.39
10.33 6.73 2.39
10.20 6.94 2.39
10.06 7.14 2.39
9.91 7.35 2.39
9.77 7.55 2.39
9.61 7.74 2.39
9.46 7.94 2.39
9.30 8.13 2.39
9.14 8.31 2.39
8.97 8.50 2.39
8.80 8.68 2.39
8.63 8.86 2.39
8.45 9.03 2.39
8.27 9.20 2.39
8.09 9.37 2.39
7.90 9.53 2.39
7.71 9.69 2.39
7.52 9.85 2.39
7.32 10.00 2.39
7.12 10.15 2.39
6.92 10.30 2.39
6.71 10.44 2.39
6.50 10.58 2.39
6.29 10.70 2.39
6.07 10.83 2.39
5.86 10.95 2.39
5.64 11.07 2.39
5.42 11.19 2.39
5.19 11.30 2.39
4.97 11.41 2.39
4.74 11.51 2.39
4.51 11.61 2.39
4.28 11.71 2.39
4.04 11.80 2.39
3.81 11.88 2.39
3.57 11.96 2.39
3.33 12.04 2.39
3.09 12.11 2.39
2.85 12.18 2.39
2.61 12.24 2.39
2.36 12.30 2.39
2.21 12.88 2.49
1.95 12.93 2.49
1.69 12.98 2.49
1.43 13.02 2.49
1.17 13.05 2.49
0.91 13.08 2.49
0.64 13.10 2.49
0.38 13.12 2.49
0.12 13.14 2.49
-0.15 13.14 2.49
-0.41 13.15 2.49
-0.68 13.15 2.49
-0.94 13.14 2.49
-1.20 13.13 2.49
-1.47 13.11 2.49
-1.73 13.08 2.49
-2.00 13.06 2.49
-2.26 13.02 2.49
-2.52 12.98 2.49
-2.78 12.94 2.49
-3.05 12.89 2.49
-3.31 12.83 2.49
-3.57 12.77 2.49
-3.82 12.71 2.49
-4.08 12.64 2.49
-4.34 12.56 2.49
-4.59 12.48 2.49
-4.84 12.40 2.49
-5.10 12.30 2.49
-5.34 12.21 2.49
-5.59 12.11 2.49
-5.75 11.82 2.46
-5.83 11.40 2.39
-6.06 11.28 2.39
-6.29 11.17 2.39
-6.52 11.05 2.39
-6.74 10.92 2.39
-6.97 10.79 2.39
-7.19 10.66 2.39
-7.40 10.52 2.39
-7.62 10.37 2.39
-7.83 10.22 2.39
-8.04 10.07 2.39
-8.24 9.92 2.39
-8.45 9.75 2.39
-8.65 9.59 2.39
-8.84 9.42 2.39
-9.04 9.25 2.39
-9.22 9.07 2.39
-9.41 8.89 2.39
-9.53 8.65 2.38
-9.58 8.34 2.34
-9.61 8.04 2.31
-9.65 7.75 2.28
-9.68 7.46 2.25
-9.72 7.19 2.23
-9.78 6.93 2.20
-9.83 6.67 2.18
-9.87 6.41 2.16
-9.91 6.16 2.14
-9.94 5.91 2.12
-9.97 5.66 2.10
-10.01 5.42 2.09
-10.05 5.18 2.07
-10.09 4.95 2.06
-10.13 4.72 2.05
-10.16 4.49 2.03
-10.20 4.26 2.02
-10.23 4.03 2.01
-10.26 3.81 2.00
-10.29 3.59 1.99
-10.32 3.37 1.98
-10.34 3.15 1.97
-10.37 2.93 1.97
-10.40 2.71 1.96
-10.42 2.50 1.95
-10.43 2.28 1.95
-10.44 2.07 1.94
-10.45 1.85 1.93
-10.52 1.64 1.94
-10.61 1.44 1.95
-10.70 1.24 1.96
-10.79 1.03 1.97
-10.88 0.82 1.98
-10.97 0.60 2.00
-11.04 0.38 2.01
-11.07 0.16 2.01
-11.13 -0.06 2.02
-11.17 -0.28 2.03
-11.19 -0.51 2.04
-11.21 -0.74 2.04
-11.23 -0.96 2.05
-11.25 -1.19 2.06
-11.27 -1.42 2.06
-11.29 -1.66 2.07
-11.29 -1.89 2.08
-11.29 -2.12 2.09
-11.29 -2.36 2.09
-11.29 -2.60 2.10
-11.29 -2.84 2.11
-11.29 -3.08 2.12
-11.29 -3.32 2.14
-11.29 -3.57 2.15
-11.28 -3.81 2.16
-11.25 -4.06 2.17
-11.21 -4.30 2.18
-11.16 -4.54 2.19
-11.11 -4.78 2.19
-11.05 -5.02 2.20
-11.00 -5.26 2.21
-10.94 -5.51 2.22
-10.89 -5.76 2.24
-10.86 -6.03 2.26
-10.84 -6.30 2.28
-10.82 -6.58 2.30
-10.79 -6.87 2.32
-10.76 -7.16 2.35
-10.73 -7.45 2.38
-10.70 -7.75 2.40
-10.66 -8.05 2.43
-10.32 -8.13 2.39
-10.16 -8.33 2.39
-9.98 -8.53 2.39
-9.81 -8.73 2.39
-9.63 -8.92 2.39
-9.44 -9.11 2.39
-9.26 -9.29 2.39
-9.07 -9.47 2.39
-8.87 -9.65 2.39
-8.67 -9.82 2.39
-8.47 -9.99 2.39
-8.26 -10.15 2.39
-8.06 -10.31 2.39
-7.84 -10.47 2.39
-7.63 -10.62 2.39
-7.41 -10.77 2.39
-7.19 -10.91 2.39
-6.97 -11.04 2.39
-6.74 -11.18 2.39
-6.51 -11.30 2.39
-6.43 -11.70 2.45
-6.31 -12.04 2.49
-6.06 -12.16 2.49
-5.82 -12.27 2.49
-5.57 -12.38 2.49
-5.31 -12.48 2.49
-5.06 -12.58 2.49
-4.80 -12.67 2.49
-4.54 -12.76 2.49
-4.29 -12.84 2.49
-4.02 -12.92 2.49
-3.76 -12.99 2.49
-3.50 -13.05 2.49
-3.23 -13.11 2.49
-2.97 -13.17 2.49
-2.70 -13.21 2.49
-2.44 -13.26 2.49
-2.17 -13.30 2.49
-1.90 -13.33 2.49
-1.63 -13.35 2.49
-1.36 -13.38 2.49
-1.09 -13.39 2.49
-0.82 -13.40 2.49
-0.55 -13.41 2.49
-0.28 -13.41 2.49
-0.02 -11.90 2.49
0.22 -11.90 2.49
0.46 -11.88 2.49
0.70 -11.86 2.49
0.94 -11.84 2.49
1.17 -11.81 2.49
1.41 -11.78 2.49
1.62 -11.57 2.46
1.80 -11.21 2.39
2.02 -11.17 2.39
2.25 -11.12 2.39
2.47 -11.06 2.39
2.69 -11.01 2.39
2.91 -10.94 2.39
3.12 -10.87 2.39
3.34 -10.80 2.39
3.55 -10.73 2.39
3.77 -10.65 2.39
3.98 -10.56 2.39
4.18 -10.47 2.39
4.39 -10.38 2.39
4.60 -10.29 2.39
4.80 -10.19 2.39
5.00 -10.08 2.39
5.20 -9.97 2.39
5.39 -9.86 2.39
5.59 -9.74 2.39
5.79 -9.64 2.39
5.97 -9.51 2.39
2.16 -3.29 0.84
2.25 -3.28 0.85
6.52 -9.12 2.39
6.70 -8.98 2.39
6.88 -8.84 2.39
7.05 -8.70 2.39
7.22 -8.55 2.39
7.39 -8.40 2.39
7.55 -8.24 2.39
7.71 -8.08 2.39
7.86 -7.92 2.39
8.02 -7.76 2.39
8.17 -7.59 2.39
8.31 -7.42 2.39
8.46 -7.25 2.39
8.60 -7.08 2.39
8.73 -6.90 2.39
8.87 -6.72 2.39
8.99 -6.54 2.39
9.12 -6.35 2.39
9.24 -6.16 2.39
9.36 -5.97 2.39
9.47 -5.78 2.39
9.58 -5.59 2.39
9.69 -5.39 2.39
9.79 -5.19 2.39
9.89 -4.99 2.39
9.98 -4.79 2.39
10.07 -4.59 2.39
10.16 -4.38 2.39
10.24 -4.18 2.39
10.32 -3.97 2.39
10.39 -3.76 2.39
10.46 -3.55 2.39
10.53 -3.34 2.39
10.59 -3.12 2.39
10.65 -2.91 2.39
10.70 -2.69 2.39
10.75 -2.48 2.39
10.79 -2.26 2.39
10.83 -2.04 2.39
10.87 -1.82 2.39
10.90 -1.60 2.39
10.93 -1.38 2.39
10.95 -1.16 2.39
10.97 -0.94 2.39
10.98 -0.72 2.39
10.99 -0.50 2.39
11.00 -0.28 2.39
11.00 -0.06 2.39
11.00 0.16 2.39
10.99 0.38 2.39
10.98 0.60 2.39
10.96 0.82 2.39
10.94 1.04 2.39
10.92 1.26 2.39
10.89 1.48 2.39
10.86 1.70 2.39
10.82 1.92 2.39
10.78 2.14 2.39
10.73 2.35 2.39
10.68 2.57 2.39
10.63 2.78 2.39
10.57 2.99 2.39
10.51 3.21 2.39
10.44 3.42 2.39
10.37 3.63 2.39
10.30 3.83 2.39
10.22 4.04 2.39
10.14 4.24 2.39
10.05 4.45 2.39
9.96 4.65 2.39
9.86 4.85 2.39
9.77 5.05 2.39
9.66 5.24 2.39
9.56 5.44 2.39
9.45 5.63 2.39
9.33 5.82 2.39
9.22 6.01 2.39
9.10 6.19 2.39
8.97 6.37 2.39
8.84 6.55 2.39
8.71 6.73 2.39
8.58 6.91 2.39
8.44 7.08 2.39
8.30 7.25 2.39
8.15 7.42 2.39
8.00 7.58 2.39
7.85 7.74 2.39
7.70 7.90 2.39
7.54 8.06 2.39
7.38 8.21 2.39
7.21 8.36 2.39
7.04 8.50 2.39
6.87 8.65 2.39
6.70 8.78 2.39
6.53 8.92 2.39
6.35 9.05 2.39
6.16 9.17 2.39
5.98 9.30 2.39
5.79 9.42 2.39
5.60 9.54 2.39
5.41 9.65 2.39
5.22 9.76 2.39
5.02 9.87 2.39
4.83 9.97 2.39
4.63 10.07 2.39
4.43 10.17 2.39
4.22 10.26 2.39
4.02 10.35 2.39
3.81 10.43 2.39
3.60 10.51 2.39
3.39 10.59 2.39
3.18 10.66 2.39
2.97 10.73 2.39
2.75 10.79 2.39
2.54 10.85 2.39
2.32 10.90 2.39
2.19 11.43 2.49
1.96 11.47 2.49
1.73 11.52 2.49
1.50 11.56 2.49
1.27 11.59 2.49
1.04 11.62 2.49
0.81 11.65 2.49
0.57 11.67 2.49
0.34 11.68 2.49
0.10 11.69 2.49
-0.13 11.70 2.49
-0.37 11.70 2.49
-0.60 11.70 2.49
-0.84 11.69 2.49
-1.07 11.68 2.49
-1.31 11.66 2.49
-1.54 11.64 2.49
-1.78 11.61 2.49
-2.01 11.58 2.49
-2.25 11.55 2.49
-2.48 11.51 2.49
-2.71 11.46 2.49
-2.94 11.41 2.49
-3.17 11.36 2.49
-3.40 11.30 2.49
-3.63 11.24 2.49
-3.86 11.17 2.49
-4.08 11.10 2.49
-4.31 11.02 2.49
-4.53 10.94 2.49
-4.75 10.85 2.49
-4.97 10.76 2.49
-5.19 10.66 2.49
-5.41 10.56 2.49
-5.62 10.46 2.49
-5.79 10.28 2.48
-5.82 9.85 2.40
-5.99 9.70 2.39
-6.19 9.59 2.39
-6.38 9.46 2.39
-6.58 9.34 2.39
-6.77 9.21 2.39
-6.95 9.08 2.39
-7.14 8.94 2.39
-7.32 8.80 2.39
-7.50 8.66 2.39
-7.68 8.51 2.39
-7.85 8.36 2.39
-8.02 8.21 2.39
-8.19 8.05 2.39
-8.35 7.89 2.39
-8.51 7.72 2.39
-8.67 7.55 2.39
-8.83 7.38 2.39
-8.98 7.21 2.39
-9.13 7.03 2.39
-9.27 6.85 2.39
-9.41 6.66 2.39
-9.47 6.43 2.37
-9.51 6.18 2.35
-9.55 5.94 2.33
-9.59 5.69 2.31
-9.62 5.46 2.29
-9.65 5.22 2.27
-9.69 4.99 2.25
-9.73 4.77 2.24
-9.77 4.55 2.23
-9.81 4.33 2.21
-9.84 4.11 2.20
-9.87 3.89 2.19
-9.90 3.68 2.18
-9.93 3.46 2.17
-9.96 3.25 2.16
-9.99 3.04 2.15
-10.01 2.83 2.14
-10.04 2.62 2.14
-10.06 2.41 2.13
-10.07 2.20 2.12
-10.09 1.99 2.11
-10.10 1.79 2.11
-10.10 1.58 2.10
-10.13 1.38 2.10
-10.21 1.18 2.11
-10.29 0.98 2.12
-10.37 0.78 2.14
-10.45 0.57 2.15
-10.52 0.37 2.16
-10.51 0.15 2.16
-10.50 -0.06 2.15
-10.49 -0.27 2.15
-10.54 -0.48 2.16
-10.58 -0.69 2.17
-10.62 -0.91 2.19
-10.66 -1.13 2.20
-10.70 -1.35 2.21
-10.73 -1.57 2.22
-10.72 -1.79 2.23
-10.70 -2.01 2.23
-10.68 -2.23 2.24
-10.67 -2.45 2.24
-10.65 -2.67 2.25
-10.63 -2.90 2.26
-10.61 -3.12 2.27
-10.58 -3.34 2.27
-10.55 -3.57 2.28
-10.53 -3.80 2.29
-10.51 -4.03 2.31
-10.49 -4.27 2.32
-10.46 -4.50 2.33
-10.41 -4.73 2.34
-10.35 -4.96 2.35
-10.30 -5.18 2.36
-10.24 -5.41 2.37
-10.17 -5.64 2.38
-10.08 -5.86 2.39
-9.96 -6.06 2.39
-9.83 -6.26 2.39
-9.71 -6.45 2.39
-9.57 -6.64 2.39
-9.43 -6.83 2.39
-9.29 -7.02 2.39
-9.15 -7.20 2.39
-9.00 -7.38 2.39
-8.85 -7.56 2.39
-8.69 -7.73 2.39
-8.53 -7.91 2.39
-8.37 -8.07 2.39
-8.21 -8.24 2.39
-8.04 -8.40 2.39
-7.86 -8.55 2.39
-7.69 -8.71 2.39
-7.51 -8.86 2.39
-7.33 -9.00 2.39
-7.14 -9.14 2.39
-6.96 -9.28 2.39
-6.77 -9.41 2.39
-6.58 -9.56 2.39
-6.38 -9.68 2.39
-6.39 -10.12 2.47
-6.24 -10.34 2.49
-6.03 -10.46 2.49
-5.81 -10.57 2.49
-5.60 -10.68 2.49
-5.38 -10.79 2.49
-5.16 -10.89 2.49
-4.94 -10.98 2.49
-4.71 -11.07 2.49
-4.49 -11.16 2.49
-4.26 -11.24 2.49
-4.03 -11.32 2.49
-3.80 -11.39 2.49
-3.57 -11.46 2.49
-3.34 -11.52 2.49
-3.11 -11.58 2.49
-2.87 -11.64 2.49
-2.64 -11.69 2.49
-2.40 -11.73 2.49
-2.16 -11.77 2.49
-1.93 -11.80 2.49
-1.69 -11.83 2.49
-1.45 -11.86 2.49
-1.21 -11.88 2.49
-0.97 -11.89 2.49
-0.73 -11.90 2.49
-0.49 -11.91 2.49
-0.25 -11.91 2.49
-0.02 -10.70 2.49
0.20 -10.69 2.49
0.41 -10.68 2.49
0.63 -10.66 2.49
0.84 -10.64 2.49
1.05 -10.62 2.49
1.27 -10.59 2.49
1.48 -10.55 2.49
1.66 -10.33 2.45
1.82 -10.04 2.39
2.02 -10.00 2.39
2.22 -9.95 2.39
2.42 -9.90 2.39
2.61 -9.84 2.39
2.81 -9.78 2.39
3.00 -9.72 2.39
3.19 -9.65 2.39
3.39 -9.58 2.39
3.58 -9.50 2.39
3.76 -9.42 2.39
3.95 -9.34 2.39
4.13 -9.25 2.39
4.32 -9.17 2.39
4.50 -9.07 2.39
4.68 -8.97 2.39
4.85 -8.87 2.39
5.03 -8.77 2.39
5.20 -8.66 2.39
5.37 -8.55 2.39
2.16 -3.29 0.93
2.25 -3.28 0.94
5.87 -8.21 2.39
6.03 -8.09 2.39
6.19 -7.96 2.39
6.35 -7.83 2.39
6.50 -7.70 2.39
6.65 -7.56 2.39
6.80 -7.42 2.39
6.94 -7.28 2.39
7.08 -7.14 2.39
7.22 -6.99 2.39
7.36 -6.84 2.39
7.49 -6.69 2.39
7.62 -6.53 2.39
7.74 -6.37 2.39
7.87 -6.22 2.39
7.99 -6.05 2.39
8.10 -5.89 2.39
8.22 -5.72 2.39
8.33 -5.55 2.39
8.43 -5.38 2.39
8.53 -5.21 2.39
8.63 -5.04 2.39
8.73 -4.86 2.39
8.82 -4.68 2.39
8.91 -4.50 2.39
9.00 -4.32 2.39
9.08 -4.14 2.39
9.16 -3.95 2.39
9.23 -3.77 2.39
9.30 -3.58 2.39
9.37 -3.39 2.39
9.43 -3.20 2.39
9.49 -3.01 2.39
9.55 -2.82 2.39
9.60 -2.62 2.39
9.65 -2.43 2.39
9.69 -2.23 2.39
9.73 -2.04 2.39
9.77 -1.84 2.39
9.80 -1.64 2.39
9.83 -1.45 2.39
9.85 -1.25 2.39
9.87 -1.05 2.39
9.89 -0.85 2.39
9.90 -0.65 2.39
9.91 -0.45 2.39
9.92 -0.25 2.39
9.92 -0.05 2.39
9.92 0.15 2.39
9.91 0.34 2.39
9.90 0.54 2.39
9.89 0.74 2.39
9.87 0.94 2.39
9.85 1.14 2.39
9.82 1.34 2.39
9.79 1.53 2.39
9.76 1.73 2.39
9.72 1.93 2.39
9.68 2.12 2.39
9.64 2.31 2.39
9.59 2.51 2.39
9.53 2.70 2.39
9.48 2.89 2.39
9.42 3.08 2.39
9.35 3.27 2.39
9.29 3.46 2.39
9.22 3.64 2.39
9.14 3.83 2.39
9.06 4.01 2.39
8.98 4.19 2.39
8.90 4.37 2.39
8.81 4.55 2.39
8.71 4.73 2.39
8.62 4.90 2.39
8.52 5.08 2.39
8.42 5.25 2.39
8.31 5.42 2.39
8.20 5.58 2.39
8.09 5.75 2.39
7.97 5.91 2.39
7.85 6.07 2.39
7.73 6.23 2.39
7.61 6.38 2.39
7.48 6.54 2.39
7.35 6.69 2.39
7.21 6.84 2.39
7.08 6.98 2.39
6.94 7.12 2.39
6.79 7.26 2.39
6.65 7.40 2.39
6.50 7.54 2.39
6.35 7.67 2.39
6.19 7.78 2.39
6.03 7.91 2.39
5.87 8.03 2.39
5.71 8.15 2.39
5.55 8.27 2.39
5.39 8.38 2.39
5.22 8.49 2.39
5.05 8.60 2.39
4.88 8.70 2.39
4.70 8.80 2.39
4.53 8.90 2.39
4.35 8.99 2.39
4.17 9.08 2.39
3.99 9.16 2.39
3.80 9.25 2.39
3.62 9.32 2.39
3.43 9.40 2.39
3.24 9.47 2.39
3.05 9.54 2.39
2.86 9.60 2.39
2.67 9.66 2.39
2.48 9.72 2.39
2.28 9.77 2.39
2.18 10.24 2.49
1.97 10.29 2.49
1.77 10.33 2.49
1.56 10.37 2.49
1.35 10.41 2.49
1.14 10.44 2.49
0.93 10.46 2.49
0.72 10.48 2.49
0.51 10.50 2.49
0.30 10.52 2.49
0.09 10.53 2.49
-0.12 10.53 2.49
-0.33 10.53 2.49
-0.54 10.53 2.49
-0.76 10.52 2.49
-0.97 10.51 2.49
-1.18 10.49 2.49
-1.39 10.47 2.49
-1.60 10.45 2.49
-1.81 10.42 2.49
-2.02 10.39 2.49
-2.23 10.35 2.49
-2.44 10.31 2.49
-2.65 10.27 2.49
-2.85 10.22 2.49
-3.06 10.16 2.49
-3.27 10.10 2.49
-3.47 10.04 2.49
-3.67 9.98 2.49
-3.87 9.91 2.49
-4.08 9.83 2.49
-4.27 9.75 2.49
-4.47 9.67 2.49
-4.67 9.59 2.49
-4.86 9.50 2.49
-5.05 9.40 2.49
-5.24 9.30 2.49
-5.43 9.20 2.49
-5.62 9.09 2.49
-5.80 8.99 2.49
-5.84 8.66 2.43
-5.91 8.39 2.39
-6.08 8.28 2.39
-6.25 8.16 2.39
-6.42 8.03 2.39
-6.58 7.91 2.39
-6.74 7.78 2.39
-6.90 7.65 2.39
-7.05 7.51 2.39
-7.21 7.37 2.39
-7.36 7.23 2.39
-7.50 7.08 2.39
-7.65 6.93 2.39
-7.79 6.78 2.39
-7.93 6.63 2.39
-8.06 6.47 2.39
-8.19 6.31 2.39
-8.32 6.15 2.39
-8.45 5.98 2.39
-8.57 5.81 2.39
-8.69 5.64 2.39
-8.80 5.47 2.39
-8.92 5.30 2.39
-9.02 5.12 2.39
-9.13 4.94 2.39
-9.23 4.76 2.39
-9.33 4.57 2.39
-9.42 4.39 2.39
-9.47 4.18 2.38
-9.50 3.97 2.37
-9.54 3.76 2.36
-9.57 3.55 2.34
-9.60 3.34 2.33
-9.62 3.14 2.32
-9.65 2.94 2.32
-9.68 2.73 2.31
-9.70 2.53 2.30
-9.72 2.33 2.29
-9.74 2.13 2.28
-9.75 1.93 2.28
-9.76 1.73 2.27
-9.77 1.53 2.26
-9.77 1.33 2.26
-9.78 1.13 2.25
-9.84 0.94 2.26
-9.91 0.74 2.27
-9.99 0.55 2.29
-10.04 0.35 2.30
-10.04 0.15 2.30
-10.03 -0.05 2.29
-10.02 -0.26 2.29
-10.01 -0.46 2.29
-9.99 -0.66 2.29
-9.99 -0.86 2.29
-10.03 -1.06 2.30
-10.06 -1.27 2.32
-10.09 -1.48 2.33
-10.10 -1.69 2.34
-10.08 -1.90 2.34
-10.06 -2.10 2.35
-10.03 -2.31 2.35
-10.00 -2.51 2.36
-9.97 -2.72 2.36
-9.94 -2.92 2.37
-9.91 -3.13 2.37
-9.88 -3.34 2.38
-9.85 -3.55 2.39
-9.77 -3.75 2.39
-9.69 -3.94 2.39
-9.61 -4.14 2.39
-9.53 -4.33 2.39
-9.44 -4.52 2.39
-9.34 -4.70 2.39
-9.25 -4.89 2.39
-9.15 -5.07 2.39
-9.04 -5.26 2.39
-8.93 -5.44 2.39
-8.82 -5.61 2.39
-8.70 -5.79 2.39
-8.59 -5.96 2.39
-8.46 -6.13 2.39
-8.34 -6.30 2.39
-8.21 -6.46 2.39
-8.07 -6.62 2.39
-7.94 -6.78 2.39
-7.80 -6.94 2.39
-7.66 -7.09 2.39
-7.51 -7.24 2.39
-7.36 -7.39 2.39
-7.21 -7.53 2.39
-7.06 -7.67 2.39
-6.90 -7.81 2.39
-6.74 -7.94 2.39
-6.58 -8.08 2.39
-6.41 -8.20 2.39
-6.34 -8.46 2.43
-6.33 -8.81 2.49
-6.15 -8.93 2.49
-5.97 -9.05 2.49
-5.79 -9.17 2.49
-5.60 -9.28 2.49
-5.41 -9.38 2.49
-5.22 -9.49 2.49
-5.03 -9.59 2.49
-4.83 -9.68 2.49
-4.63 -9.77 2.49
-4.43 -9.86 2.49
-4.23 -9.94 2.49
-4.03 -10.02 2.49
-3.83 -10.09 2.49
-3.62 -10.16 2.49
-3.42 -10.23 2.49
-3.21 -10.29 2.49
-3.00 -10.35 2.49
-2.79 -10.40 2.49
-2.58 -10.45 2.49
-2.37 -10.50 2.49
-2.16 -10.54 2.49
-1.95 -10.57 2.49
-1.73 -10.60 2.49
-1.52 -10.63 2.49
-1.30 -10.65 2.49
-1.09 -10.67 2.49
-0.87 -10.69 2.49
-0.66 -10.70 2.49
-0.44 -10.70 2.49
-0.23 -10.70 2.49
-0.02 -9.70 2.49
0.18 -9.70 2.49
0.37 -9.69 2.49
0.57 -9.67 2.49
0.76 -9.65 2.49
0.95 -9.63 2.49
1.15 -9.61 2.49
1.34 -9.58 2.49
1.53 -9.54 2.49
1.69 -9.32 2.45
1.83 -9.07 2.39
2.01 -9.03 2.39
2.19 -8.98 2.39
2.37 -8.93 2.39
2.55 -8.88 2.39
2.72 -8.82 2.39
2.90 -8.76 2.39
3.07 -8.70 2.39
3.24 -8.63 2.39
3.42 -8.56 2.39
3.58 -8.48 2.39
3.75 -8.40 2.39
3.92 -8.32 2.39
4.08 -8.24 2.39
4.25 -8.15 2.39
4.41 -8.06 2.39
4.56 -7.97 2.39
4.72 -7.87 2.39
4.88 -7.77 2.39
2.16 -3.29 1.03
2.25 -3.28 1.04
5.33 -7.45 2.39
5.47 -7.34 2.39
5.62 -7.22 2.39
5.76 -7.10 2.39
5.90 -6.99 2.39
6.04 -6.87 2.39
6.17 -6.74 2.39
6.31 -6.62 2.39
6.43 -6.49 2.39
6.56 -6.35 2.39
6.68 -6.22 2.39
6.80 -6.08 2.39
6.92 -5.94 2.39
7.04 -5.79 2.39
7.15 -5.65 2.39
7.26 -5.50 2.39
7.36 -5.35 2.39
7.47 -5.20 2.39
7.57 -5.05 2.39
7.66 -4.89 2.39
7.76 -4.74 2.39
7.85 -4.58 2.39
7.94 -4.42 2.39
8.02 -4.26 2.39
8.10 -4.09 2.39
8.18 -3.93 2.39
8.25 -3.76 2.39
8.33 -3.59 2.39
8.39 -3.42 2.39
8.46 -3.25 2.39
8.52 -3.08 2.39
8.58 -2.91 2.39
8.63 -2.74 2.39
8.68 -2.56 2.39
8.73 -2.39 2.39
8.77 -2.21 2.39
8.81 -2.03 2.39
8.85 -1.85 2.39
8.88 -1.68 2.39
8.91 -1.50 2.39
8.94 -1.32 2.39
8.96 -1.14 2.39
8.98 -0.96 2.39
9.00 -0.77 2.39
9.01 -0.59 2.39
9.02 -0.41 2.39
9.02 -0.23 2.39
9.02 -0.05 2.39
9.02 0.13 2.39
9.02 0.31 2.39
9.01 0.49 2.39
8.99 0.68 2.39
8.98 0.86 2.39
8.96 1.04 2.39
8.94 1.22 2.39
8.91 1.40 2.39
8.88 1.57 2.39
8.84 1.75 2.39
8.81 1.93 2.39
8.77 2.11 2.39
8.72 2.28 2.39
8.67 2.46 2.39
8.62 2.63 2.39
8.57 2.80 2.39
8.51 2.98 2.39
8.45 3.15 2.39
8.38 3.31 2.39
8.32 3.48 2.39
8.24 3.65 2.39
8.17 3.82 2.39
8.09 3.98 2.39
8.01 4.14 2.39
7.93 4.30 2.39
7.84 4.46 2.39
7.75 4.62 2.39
7.66 4.77 2.39
7.56 4.93 2.39
7.46 5.08 2.39
7.36 5.23 2.39
7.25 5.38 2.39
7.14 5.52 2.39
7.03 5.67 2.39
6.92 5.81 2.39
6.80 5.95 2.39
6.68 6.08 2.39
6.56 6.22 2.39
6.44 6.35 2.39
6.31 6.48 2.39
6.18 6.61 2.39
6.04 6.72 2.39
5.90 6.84 2.39
5.77 6.96 2.39
5.63 7.08 2.39
5.49 7.19 2.39
5.34 7.30 2.39
5.19 7.41 2.39
5.05 7.52 2.39
4.90 7.62 2.39
4.74 7.72 2.39
4.59 7.82 2.39
4.43 7.91 2.39
4.27 8.00 2.39
4.11 8.09 2.39
3.95 8.17 2.39
3.79 8.25 2.39
3.62 8.33 2.39
3.46 8.40 2.39
3.29 8.48 2.39
3.12 8.54 2.39
2.95 8.61 2.39
2.78 8.67 2.39
2.60 8.73 2.39
2.43 8.78 2.39
2.25 8.83 2.39
2.16 9.26 2.49
1.98 9.31 2.49
1.79 9.35 2.49
1.60 9.39 2.49
1.42 9.42 2.49
1.23 9.45 2.49
1.04 9.48 2.49
0.85 9.50 2.49
0.66 9.52 2.49
0.46 9.54 2.49
0.27 9.55 2.49
0.08 9.56 2.49
-0.11 9.56 2.49
-0.30 9.57 2.49
-0.50 9.56 2.49
-0.69 9.56 2.49
-0.88 9.54 2.49
-1.07 9.53 2.49
-1.26 9.51 2.49
-1.45 9.49 2.49
-1.65 9.46 2.49
-1.84 9.43 2.49
-2.03 9.40 2.49
-2.22 9.36 2.49
-2.40 9.32 2.49
-2.59 9.27 2.49
-2.78 9.22 2.49
-2.97 9.17 2.49
-3.15 9.11 2.49
-3.33 9.05 2.49
-3.52 8.99 2.49
-3.70 8.92 2.49
-3.88 8.85 2.49
-4.06 8.78 2.49
-4.24 8.70 2.49
-4.41 8.61 2.49
-4.59 8.53 2.49
-4.76 8.44 2.49
-4.93 8.35 2.49
-5.10 8.25 2.49
-5.27 8.15 2.49
-5.43 8.05 2.49
-5.59 7.94 2.49
-5.76 7.83 2.49
-5.87 7.66 2.48
-5.88 7.37 2.42
-5.97 7.17 2.39
-6.11 7.05 2.39
-6.26 6.93 2.39
-6.40 6.81 2.39
-6.54 6.68 2.39
-6.67 6.55 2.39
-6.80 6.42 2.39
-6.93 6.29 2.39
-7.06 6.15 2.39
-7.19 6.01 2.39
-7.31 5.86 2.39
-7.43 5.72 2.39
-7.55 5.57 2.39
-7.66 5.42 2.39
-7.77 5.27 2.39
-7.88 5.11 2.39
-7.98 4.96 2.39
-8.08 4.80 2.39
-8.18 4.64 2.39
-8.27 4.47 2.39
-8.36 4.31 2.39
-8.45 4.14 2.39
-8.54 3.97 2.39
-8.62 3.80 2.39
-8.69 3.63 2.39
-8.77 3.46 2.39
-8.84 3.28 2.39
-8.91 3.10 2.39
-8.97 2.93 2.39
-9.03 2.75 2.39
-9.08 2.56 2.39
-9.14 2.38 2.39
-9.18 2.20 2.39
-9.23 2.02 2.39
-9.27 1.83 2.39
-9.31 1.65 2.39
-9.34 1.46 2.39
-9.37 1.27 2.39
-9.40 1.08 2.39
-9.42 0.90 2.39
-9.44 0.71 2.39
